# .PCD v0.7 - Point Cloud Data file format
VERSION 0.7
FIELDS x y z rgb
SIZE 4 4 4 4
TYPE F F F F
COUNT 1 1 1 1
WIDTH 997
HEIGHT 1
VIEWPOINT 0 0 0 1 0 0 0
POINTS 997
DATA ascii
0.13702413 -0.16297081 0.85133344 1.8264492e-38
0.14180954 -0.16241634 0.8508572 1.8173731e-38
0.14704096 -0.16247717 0.85300004 1.8908415e-38
0.1523535 -0.16233391 0.85285723 2.0655801e-38
0.15760097 -0.16247717 0.8530001 2.1853971e-38
0.16274124 -0.16251105 0.85257161 2.2495745e-38
0.16796574 -0.16228573 0.85200012 2.212912e-38
0.17297016 -0.16241336 0.8526668 1.9641276e-38
0.17791018 -0.16247652 0.8530001 1.687431e-38
0.18271494 -0.16241334 0.85266674 1.6131046e-38
0.18766001 -0.16247717 0.8530001 1.6776773e-38
0.19245844 -0.162414 0.85266674 2.0285932e-38
0.19636573 -0.16228762 0.852 1.7972013e-38
0.062610798 -0.15693207 0.85377783 1.2371292e-38
0.067567281 -0.15736228 0.85290921 1.1912821e-38
0.072203025 -0.15738335 0.85183346 1.172843e-38
0.077116206 -0.15747683 0.85233343 1.1913234e-38
0.082067147 -0.15763128 0.85316676 1.3014568e-38
0.08714819 -0.15722401 0.85360003 1.4208892e-38
0.092354178 -0.15760218 0.85213351 1.3747582e-38
0.098054826 -0.15802096 0.85088897 1.1621358e-38
0.10285729 -0.15731297 0.8524617 9.6848599e-39
0.10798334 -0.15750811 0.85250014 9.6902311e-39
0.11283672 -0.15770459 0.85236377 1.1168253e-38
0.11776458 -0.15782897 0.85159999 1.3194667e-38
0.12247749 -0.15735398 0.85166681 1.2000387e-38
0.1272866 -0.157502 0.85127276 1.1530834e-38
0.13234049 -0.15750811 0.85250014 9.0320594e-39
0.13721192 -0.15750812 0.85250014 1.0596882e-38
0.14206669 -0.1571642 0.85240012 1.1152899e-38
0.14722405 -0.15771608 0.85261554 1.0679691e-38
0.15265036 -0.15752085 0.85257161 6.6392947e-39
0.15791479 -0.15750811 0.85250014 9.1260529e-39
0.16278622 -0.15750811 0.85250014 9.6777974e-39
0.16774166 -0.15770459 0.85236377 6.558664e-39
0.17259048 -0.15782781 0.85160011 5.0900163e-39
0.17770286 -0.15822859 0.85200012 4.5375446e-39
0.18257183 -0.15790287 0.85200006 5.0885323e-39
0.18737213 -0.15770459 0.85236377 6.6439736e-39
0.19210753 -0.15806225 0.85111123 5.8293442e-39
0.19661082 -0.15752085 0.85111111 9.6809279e-39
0.092953973 -0.15284604 0.85366672 8.9387876e-39
0.096555144 -0.15291619 0.85355562 8.192564e-39
0.10410667 -0.15372001 0.85400003 9.4224878e-39
0.10817334 -0.15372001 0.85400003 8.5027302e-39
0.11301551 -0.15320329 0.85371435 7.829119e-39
0.11766143 -0.15342572 0.85350007 9.7752927e-39
0.12281334 -0.15290669 0.85400003 1.4027638e-38
0.12765063 -0.15320328 0.85371435 1.1537625e-38
0.13094668 -0.15290667 0.85400003 1.0601835e-38
0.15209335 -0.15372001 0.85400003 9.5898407e-39
0.15729868 -0.15306935 0.85400003 1.0966644e-38
0.16185336 -0.15209335 0.85400003 1.1517318e-38
0.16760655 -0.15250611 0.85371435 9.2239617e-39
0.17331378 -0.15261872 0.85363644 1.1982209e-38
0.17783222 -0.15328553 0.85340005 7.2932891e-39
0.18289287 -0.15342572 0.85350007 7.0138085e-39
0.18804899 -0.15320329 0.85371435 9.1100865e-39
0.19269659 -0.15321355 0.8530001 6.1840226e-39
0.19768611 -0.15415315 0.85280007 1.0231896e-38
0.095160007 -0.14884001 0.85400003 1.4504934e-38
0.084165722 -0.17568572 0.85800004 2.1198557e-38
0.087434292 -0.17568573 0.85800004 1.844744e-38
0.092337154 -0.17568573 0.85800004 1.2906814e-38
0.097240008 -0.17568572 0.85800004 9.7761531e-39
0.064554289 -0.17078286 0.85800004 2.2407399e-38
0.068085723 -0.1719303 0.85720009 2.2498966e-38
0.072861776 -0.17265497 0.85685718 2.2958147e-38
0.077507943 -0.17215046 0.85666668 2.0003251e-38
0.082381383 -0.17210539 0.85644448 1.3184443e-38
0.087485731 -0.17232047 0.85650003 1.1788632e-38
0.092121914 -0.17283051 0.85600007 1.0867407e-38
0.097126685 -0.17303336 0.85700005 1.5300271e-38
0.10232687 -0.17217676 0.85680002 2.1850384e-38
0.10683779 -0.171267 0.85633337 2.2131603e-38
0.11222804 -0.17189771 0.8565715 2.010937e-38
0.11820954 -0.17120001 0.85600007 1.7704487e-38
0.12238032 -0.17133397 0.85666668 2.2404268e-38
0.12814191 -0.17140096 0.85700005 2.341769e-38
0.13303907 -0.17140096 0.85700005 2.341769e-38
0.13760906 -0.17109191 0.85750002 2.341769e-38
0.14300001 -0.17078286 0.85800004 2.341769e-38
0.14953715 -0.17078286 0.85800004 2.3325854e-38
0.15280575 -0.17078286 0.85800004 2.341769e-38
0.15770859 -0.17078286 0.85800004 2.341769e-38
0.16097715 -0.17078286 0.85800004 2.286309e-38
0.18783192 -0.17068334 0.85750002 2.2037271e-38
0.19284573 -0.17078286 0.85800004 2.1485508e-38
0.19529715 -0.17078286 0.85800004 1.9816245e-38
0.062365718 -0.16793905 0.85600007 1.3566785e-38
0.066034287 -0.16875429 0.85600007 2.2131962e-38
0.079078101 -0.16875429 0.85600007 2.2040106e-38
0.082339056 -0.16875429 0.85600007 2.2315576e-38
0.12310096 -0.16875431 0.85600013 2.341769e-38
0.12799239 -0.16875431 0.85600013 2.341769e-38
0.13288383 -0.16875431 0.85600013 2.341769e-38
0.13859048 -0.16875429 0.85600007 2.341769e-38
0.1427341 -0.16818097 0.85640001 2.341769e-38
0.14773048 -0.16813621 0.85700005 2.3325854e-38
0.15244953 -0.16793905 0.85600007 2.3325854e-38
0.15734096 -0.16793905 0.85600007 2.341769e-38
0.1622324 -0.16793905 0.85600007 2.2587925e-38
0.16712384 -0.16875431 0.85600013 1.6313977e-38
0.17250288 -0.16825981 0.85680008 1.3549184e-38
0.17680573 -0.16701858 0.85650003 1.3728543e-38
0.1820105 -0.16813621 0.85700005 1.8811522e-38
0.18755881 -0.16798835 0.85625005 2.1756343e-38
0.19287403 -0.16746941 0.8565715 1.8629635e-38
0.19647239 -0.16875429 0.85600007 1.4934916e-38
0.059512384 -0.15652573 0.85600007 1.3099687e-38
0.059512384 -0.15408 0.85600007 1.2913436e-38
0.062846676 -0.15344289 0.85700005 1.1909599e-38
0.068235248 -0.15305178 0.85633337 1.2372001e-38
0.07261271 -0.15256698 0.85666668 1.3476248e-38
0.077528477 -0.15260658 0.85688889 1.2827754e-38
0.082403183 -0.152567 0.85666668 1.1525258e-38
0.087252714 -0.15248869 0.85622227 8.7565488e-39
0.091306679 -0.15204191 0.85600007 1.2993195e-38
0.098643817 -0.15163431 0.85600007 9.4024352e-39
0.10170096 -0.15224573 0.85600001 9.6854541e-39
0.1067962 -0.15163431 0.85600007 9.5944117e-39
0.11201372 -0.15114516 0.85600007 1.1168244e-38
0.11820953 -0.15081906 0.85600013 1.2547596e-38
0.12310096 -0.15081906 0.85600013 1.2738848e-38
0.12799239 -0.15081906 0.85600013 1.1989979e-38
0.13343893 -0.15231732 0.8565715 1.0793078e-38
0.13781145 -0.15248869 0.85622227 1.1438804e-38
0.14266668 -0.15244955 0.85600001 1.1527401e-38
0.14755811 -0.15244952 0.85600001 1.1611984e-38
0.15244955 -0.15163431 0.85600007 1.1525219e-38
0.15693334 -0.15122668 0.85600007 1.1338274e-38
0.17853716 -0.15081906 0.85600007 6.2683107e-39
0.1817981 -0.15081906 0.85600013 8.7510641e-39
0.18750477 -0.15081906 0.85600007 9.3888637e-39
0.19239619 -0.15081906 0.85600007 6.8301417e-39
0.19728763 -0.15163431 0.85600007 1.0232602e-38
0.072725721 -0.14953715 0.85800004 1.3385238e-38
0.08334858 -0.14953715 0.85800004 3.0311389e-39
0.087637335 -0.14867505 0.85680008 1.0517937e-38
0.092152663 -0.14807266 0.85628575 1.558181e-38
0.097050481 -0.14788668 0.85633337 1.4291065e-38
0.10202383 -0.14854571 0.85700005 1.1079305e-38
0.10704572 -0.14953715 0.85800004 1.3740724e-38
0.11186033 -0.14942096 0.85733336 1.5772646e-38
0.11685143 -0.14953715 0.85800004 1.5497872e-38
0.12209797 -0.14868735 0.85714293 1.2547654e-38
0.12796859 -0.14866191 0.85766667 1.2084378e-38
0.13278572 -0.14912857 0.85800004 1.0331031e-38
0.13809717 -0.14953715 0.85800004 1.2081302e-38
0.14300001 -0.14953715 0.85800004 1.2815609e-38
0.14831144 -0.14912857 0.85800004 1.1887504e-38
0.15273526 -0.14881371 0.85760003 1.124827e-38
0.15758541 -0.14860381 0.85733336 1.0419966e-38
0.16262573 -0.14793333 0.85699999 8.4889358e-39
0.16712382 -0.14755808 0.85600001 5.9208195e-39
0.17214923 -0.14767176 0.85666668 9.966144e-39
0.17704445 -0.14767176 0.85666668 7.8258904e-39
0.18193969 -0.14767176 0.85666668 8.6620704e-39
0.18744105 -0.14783064 0.8567273 1.0038927e-38
0.19291705 -0.14774837 0.8571111 6.3731222e-39
0.19682002 -0.14734319 0.85633337 1.1895377e-38
0.16424572 -0.14463429 0.85800004 4.8195671e-39
0.16751429 -0.14463429 0.85800004 4.9106585e-39
0.17241715 -0.14463429 0.85800004 6.8340499e-39
0.17568572 -0.14463429 0.85800004 7.8319622e-39
0.1903943 -0.14463429 0.85800004 6.1924108e-39
0.19670066 -0.14364922 0.85700005 1.2539666e-38
0.068585038 -0.17785363 0.86171436 2.2682269e-38
0.073008262 -0.17801018 0.86133331 2.259045e-38
0.077717379 -0.17778787 0.86125004 2.1668857e-38
0.082511626 -0.17732611 0.86120003 2.2038358e-38
0.087841913 -0.17896764 0.86200011 2.1488427e-38
0.092357151 -0.17855716 0.86200005 1.9464457e-38
0.097558104 -0.17724344 0.86079997 1.3917724e-38
0.10219619 -0.17699772 0.86120003 1.4007756e-38
0.10754477 -0.17650478 0.86200011 1.7791307e-38
0.11329144 -0.17650478 0.86200005 2.1489039e-38
0.1173962 -0.17650478 0.86200011 1.9905625e-38
0.12232192 -0.17650478 0.86200011 1.6059005e-38
0.12724763 -0.17650478 0.86200005 2.341769e-38
0.13217334 -0.17650478 0.86200011 2.341769e-38
0.13709906 -0.17650478 0.86200011 2.3141825e-38
0.14202477 -0.17691524 0.86200005 2.2314229e-38
0.14727888 -0.17716154 0.86200011 2.3140749e-38
0.15146571 -0.17691526 0.86200005 2.2497541e-38
0.15680192 -0.17650478 0.86200011 2.323366e-38
0.063960008 -0.17302096 0.861 1.8085372e-38
0.06699302 -0.17418161 0.86133337 2.2683e-38
0.10238096 -0.17445715 0.86000001 1.7980014e-38
0.10729524 -0.17445716 0.86000001 2.0289178e-38
0.11151905 -0.17466 0.86100006 2.1856412e-38
0.11712383 -0.17445716 0.86000001 1.7710898e-38
0.12213397 -0.17459238 0.86066669 1.8899088e-38
0.12668952 -0.17425048 0.86100006 2.341769e-38
0.13186668 -0.17445716 0.86000001 2.341769e-38
0.13734955 -0.17425048 0.86100006 2.3325496e-38
0.14220981 -0.17357905 0.86028588 2.3141107e-38
0.14755644 -0.17317596 0.86075008 2.3325496e-38
0.15251908 -0.17384097 0.861 2.3141825e-38
0.15743905 -0.17384097 0.86100006 2.3325854e-38
0.16250342 -0.17328437 0.86114293 2.2033665e-38
0.16735716 -0.17310153 0.86140013 1.5302719e-38
0.17315462 -0.17233366 0.86166668 1.3366619e-38
0.17807841 -0.17233369 0.86166668 1.6227904e-38
0.18286 -0.17220096 0.86100006 1.9634812e-38
0.18778002 -0.17384097 0.86100006 2.0740797e-38
0.19270003 -0.17384097 0.86100006 2.2680474e-38
0.17937145 -0.16954286 0.86000001 1.4473331e-38
0.059790481 -0.15316191 0.86000001 1.291201e-38
0.063541725 -0.15121943 0.86200011 1.227876e-38
0.067060582 -0.15133564 0.86080009 1.2003988e-38
0.07142286 -0.1502343 0.86200005 1.2282448e-38
0.068763435 -0.14852269 0.86160004 1.3747886e-38
0.073554292 -0.14820319 0.86133337 1.4679954e-38
0.077869847 -0.14836128 0.86066675 9.500194e-39
0.082831122 -0.14734413 0.86111116 4.4176102e-39
0.087760389 -0.14681335 0.86120003 1.1160451e-38
0.093070485 -0.14595905 0.861 1.4207179e-38
0.098400012 -0.14595905 0.861 1.5295878e-38
0.10257874 -0.14607272 0.86166668 1.2456548e-38
0.10740615 -0.14676023 0.86088896 1.5309166e-38
0.11229651 -0.14672191 0.86066675 1.2915402e-38
0.11730541 -0.14683557 0.86133337 1.4203962e-38
0.12218001 -0.14595906 0.861 1.3742622e-38
0.12707894 -0.146286 0.86085725 1.2270955e-38
0.13232028 -0.1463834 0.86142862 9.593456e-39
0.13699304 -0.14683558 0.86133331 9.9680203e-39
0.14244036 -0.1469124 0.86090922 1.0793798e-38
0.14740846 -0.14670587 0.8605715 1.1064228e-38
0.15316191 -0.14701906 0.86000001 8.5807475e-39
0.15807621 -0.14660953 0.86000001 7.7596636e-39
0.1613524 -0.14660953 0.86000001 5.0028205e-39
0.10097715 -0.14366667 0.86200005 1.3280889e-38
0.10590287 -0.14366667 0.86200005 1.2172442e-38
0.11247049 -0.14366667 0.86200005 1.6065087e-38
0.12150095 -0.14366667 0.86200005 8.4634658e-39
0.12642667 -0.14366667 0.86200005 1.1545224e-38
0.13053143 -0.14366667 0.86200005 1.0141179e-38
0.13709906 -0.14284572 0.86200005 1.1801081e-38
0.14235316 -0.14268152 0.86200011 1.2348161e-38
0.14747955 -0.14337716 0.86150008 1.1888242e-38
0.15235835 -0.14374547 0.86125004 1.1430518e-38
0.15722668 -0.1435543 0.86133343 9.1400939e-39
0.16183858 -0.14337716 0.86150002 4.176692e-39
0.16698173 -0.14333829 0.86200011 5.0946882e-39
0.17363366 -0.14246097 0.86133337 7.2939463e-39
0.1780089 -0.14300743 0.86133337 6.0892668e-39
0.1826558 -0.14399131 0.86114293 5.6207104e-39
0.18804573 -0.14399131 0.86114293 8.6643069e-39
0.19303916 -0.14293377 0.8608889 6.1015436e-39
0.19657144 -0.14169525 0.86000001 1.2810155e-38
0.067864768 -0.18207622 0.86900002 2.2499296e-38
0.072260007 -0.18307145 0.86642867 2.2954914e-38
0.07758636 -0.18296508 0.86666673 1.8696027e-38
0.082188986 -0.1819531 0.86671436 2.018514e-38
0.086900011 -0.18290383 0.86900008 2.2957436e-38
0.092685156 -0.18190803 0.86740011 2.3325494e-38
0.097552575 -0.18141012 0.86660004 2.2865238e-38
0.10242699 -0.1817286 0.86733335 1.9641664e-38
0.10746573 -0.18186764 0.86800003 1.6236934e-38
0.11246922 -0.18193716 0.86833334 2.0935522e-38
0.11738573 -0.18186764 0.86800003 2.0195798e-38
0.1227207 -0.18201567 0.8681429 1.6331265e-38
0.12813336 -0.18186764 0.86800003 2.1935759e-38
0.13318428 -0.18233098 0.86725008 2.3232197e-38
0.13756695 -0.18189295 0.86642867 2.2766146e-38
0.14273874 -0.18234383 0.86633343 2.1574149e-38
0.14788812 -0.18238407 0.86750007 2.1482672e-38
0.15267226 -0.18219253 0.86785722 2.2498255e-38
0.15777144 -0.18172859 0.86733341 2.3141825e-38
0.16304098 -0.18124859 0.86900008 2.341769e-38
0.16800666 -0.18124859 0.86900008 2.341769e-38
0.17297241 -0.18124859 0.86900008 2.3417687e-38
0.17628287 -0.18124859 0.86900002 2.3325842e-38
0.18207622 -0.18124859 0.86900002 1.7793098e-38
0.1862143 -0.18207622 0.86900002 1.9916082e-38
0.062717617 -0.17660239 0.86650002 9.0632229e-39
0.065630168 -0.17821747 0.86500013 2.2406338e-38
0.10462382 -0.17876668 0.86500007 1.3694569e-38
0.10791906 -0.1787667 0.86500013 1.6029197e-38
0.11264572 -0.17866477 0.86650008 2.1764563e-38
0.11780477 -0.1787667 0.86500013 1.9733077e-38
0.12274763 -0.1787667 0.86500013 1.6326978e-38
0.12769048 -0.17835478 0.86500007 2.323366e-38
0.13263336 -0.1787667 0.86500013 2.3325854e-38
0.13757621 -0.1787667 0.86500013 2.3233302e-38
0.14251906 -0.17876668 0.86500007 2.277233e-38
0.1458143 -0.17876668 0.86500007 2.3234019e-38
0.15322858 -0.17876668 0.86500007 2.2958154e-38
0.15734765 -0.1787667 0.86500013 2.3325496e-38
0.1624781 -0.17814955 0.86600012 2.3417689e-38
0.16742669 -0.17814955 0.86600012 2.3417326e-38
0.17239738 -0.17734867 0.86611122 1.9728817e-38
0.1773925 -0.17739418 0.86633343 1.8617436e-38
0.18234171 -0.17739376 0.86633343 1.9448271e-38
0.18707879 -0.17788507 0.86642861 2.0467805e-38
0.19197164 -0.17810878 0.86660004 2.0835139e-38
0.061785717 -0.17300001 0.86500007 5.2835706e-39
0.060733657 -0.15142255 0.86566675 1.3288286e-38
0.061894707 -0.14772625 0.86655563 1.246027e-38
0.066493206 -0.14699118 0.86500013 1.4304263e-38
0.072330475 -0.14614382 0.86500007 1.1170503e-38
0.078261912 -0.1458143 0.86500013 6.7162988e-39
0.081557147 -0.1458143 0.86500007 3.8633434e-39
0.087323815 -0.1458143 0.86500007 1.2268238e-38
0.091442861 -0.1458143 0.86500007 1.5677993e-38
0.096385717 -0.1458143 0.86500007 1.3939258e-38
0.062862389 -0.14392239 0.86849999 1.1446833e-38
0.066916734 -0.14292012 0.86744446 1.4303995e-38
0.072360612 -0.14284721 0.86609107 1.0229831e-38
0.077771753 -0.14262764 0.86566675 8.938726e-39
0.082718417 -0.14262763 0.86566681 1.0337143e-38
0.087423816 -0.1426824 0.86600012 1.4388704e-38
0.092415445 -0.14274858 0.86640006 1.3276252e-38
0.097860202 -0.14258268 0.86640006 1.2915376e-38
0.10327142 -0.14243525 0.86575013 1.3101546e-38
0.10812501 -0.14231309 0.86500013 1.6052513e-38
0.11295976 -0.14243525 0.86575007 1.3007211e-38
0.11789557 -0.14262764 0.86566675 6.2715855e-39
0.12310465 -0.14218791 0.8658573 6.8286255e-39
0.12792586 -0.1420483 0.86500013 1.1538013e-38
0.13283929 -0.14231309 0.86500013 9.4119346e-39
0.13762164 -0.14233023 0.86528587 1.208342e-38
0.14210716 -0.14169525 0.86500007 1.2353546e-38
0.14746192 -0.14087144 0.86500013 1.0787673e-38
0.15240477 -0.14128333 0.86500007 1.2535398e-38
0.15734765 -0.14087144 0.86500013 7.4859802e-39
0.16241685 -0.14098001 0.86566675 4.4525558e-39
0.16771679 -0.14166078 0.86580002 5.4602197e-39
0.17184667 -0.1415305 0.86500007 7.1100062e-39
0.17876668 -0.14087144 0.86500007 7.3832959e-39
0.18247381 -0.14128333 0.86500007 6.6392288e-39
0.18700477 -0.14169525 0.86500013 8.1100429e-39
0.19194764 -0.14087144 0.86500013 6.0068635e-39
0.1977143 -0.14087144 0.86500007 1.3273271e-38
0.068692386 -0.13986763 0.86900002 1.311054e-38
0.072416671 -0.13945383 0.86900002 1.605537e-38
0.077130243 -0.1383393 0.86849999 1.5125536e-38
0.081886671 -0.13833882 0.86849999 9.9684057e-39
0.086866044 -0.13898636 0.86866677 1.6047838e-38
0.09199287 -0.13871239 0.86825001 1.4479075e-38
0.097117148 -0.1388101 0.86860001 1.1442793e-38
0.10216804 -0.13902029 0.8681429 1.098823e-38
0.10746573 -0.13887906 0.86800003 6.3670406e-39
0.111956 -0.13874573 0.8682 3.5846728e-39
0.11705049 -0.13902029 0.8681429 4.6880678e-39
0.12240249 -0.13811581 0.86840004 8.7661224e-39
0.12826437 -0.13841105 0.86728579 1.1256041e-38
0.13304222 -0.13799906 0.86766672 9.7789445e-39
0.13796456 -0.13796328 0.86744452 1.2076257e-38
0.14280739 -0.13805857 0.86675006 1.253396e-38
0.14787821 -0.13796328 0.86744446 1.1981896e-38
0.15275651 -0.13871874 0.86700004 1.2164849e-38
0.15765208 -0.13866572 0.86666679 9.5942464e-39
0.16285336 -0.13887906 0.86800003 6.932117e-39
0.16810572 -0.1390124 0.86780006 5.2754165e-39
0.17279547 -0.13806932 0.86811113 7.5640886e-39
0.17757367 -0.13792709 0.86722219 8.1169303e-39
0.18272044 -0.13836449 0.8670001 7.38081e-39
0.18744692 -0.13825834 0.86800003 8.112959e-39
0.19263799 -0.13806932 0.86811113 7.379717e-39
0.19739504 -0.13792795 0.86722225 1.383146e-38
0.13324668 -0.13490191 0.86900002 9.7821521e-39
0.16966191 -0.13324668 0.86900002 5.7386017e-39
0.17628287 -0.13490191 0.86900002 9.6078053e-39
0.058963813 -0.19100858 0.87200004 1.7239481e-38
0.061248578 -0.19150573 0.87300003 1.1722187e-38
0.068177149 -0.19039716 0.87300003 2.07544e-38
0.071502864 -0.19039716 0.87300003 2.0570336e-38
0.07649143 -0.19039716 0.87300003 2.1672398e-38
0.087300003 -0.19039716 0.87300003 2.1394075e-38
0.092288576 -0.19039716 0.87300003 1.9077363e-38
0.097240016 -0.19115525 0.87266672 1.917808e-38
0.10226572 -0.1912286 0.87300009 2.1206029e-38
0.10725429 -0.1912286 0.87300009 2.194713e-38
0.11182714 -0.19081287 0.87300003 2.0475312e-38
0.1164 -0.19039716 0.87300003 1.9543356e-38
0.13053429 -0.19039716 0.87300003 2.2130917e-38
0.14799429 -0.19039716 0.87300003 2.2957795e-38
0.15215144 -0.19039716 0.87300003 2.2499335e-38
0.15630859 -0.19039716 0.87300003 2.3142183e-38
0.16296001 -0.19039716 0.87300003 2.341769e-38
0.16794857 -0.19039716 0.87300003 2.3417331e-38
0.17210573 -0.19039717 0.87300003 2.341769e-38
0.17543145 -0.19039716 0.87300003 2.341769e-38
0.18291429 -0.19039716 0.87300003 2.341769e-38
0.059031431 -0.18873429 0.87300003 1.658836e-38
0.06235715 -0.18540858 0.87300003 9.3293884e-39
0.067319371 -0.18727717 0.87266678 2.1763868e-38
0.072251439 -0.18768859 0.8720001 2.1579489e-38
0.077234298 -0.18768859 0.8720001 2.1388321e-38
0.081904195 -0.18756516 0.87220001 1.7139482e-38
0.087715715 -0.18748716 0.87300003 2.056216e-38
0.092218742 -0.18776003 0.87233347 1.8165091e-38
0.097277157 -0.18790287 0.87300009 1.7527981e-38
0.10222604 -0.18783145 0.87266678 1.9365083e-38
0.10725429 -0.18790287 0.87300009 2.1669562e-38
0.11224287 -0.18790287 0.87300009 2.2498916e-38
0.11723144 -0.18790287 0.87300009 1.715234e-38
0.12288516 -0.18707144 0.87300009 1.8361713e-38
0.12720859 -0.18790287 0.87300009 2.083947e-38
0.13217643 -0.18820216 0.87150013 2.2313866e-38
0.13697748 -0.1876159 0.87166679 2.1197113e-38
0.14184856 -0.18747239 0.87100017 2.2497537e-38
0.14699429 -0.18768859 0.8720001 2.1669939e-38
0.15180288 -0.18809454 0.87100017 2.1761414e-38
0.15690064 -0.18761653 0.87166679 2.2956716e-38
0.16212858 -0.18790287 0.87300009 2.3325854e-38
0.16711716 -0.18790287 0.87300009 2.3325854e-38
0.17210573 -0.18790287 0.87300009 2.341769e-38
0.17733186 -0.18754655 0.87300014 2.341769e-38
0.1815286 -0.18734859 0.87300009 2.341769e-38
0.18764049 -0.18764096 0.87275004 2.304891e-38
0.1923046 -0.18698497 0.87260008 2.1852179e-38
0.19538572 -0.18540858 0.87300003 2.1017353e-38
0.062510476 -0.18213525 0.87225008 7.5823559e-39
0.066859625 -0.18365657 0.87100011 2.2682228e-38
0.082952388 -0.18498382 0.87100005 1.6879053e-38
0.087100014 -0.18498382 0.87100005 2.331831e-38
0.092077151 -0.18498382 0.87100005 2.3416591e-38
0.097054295 -0.18456905 0.87100005 2.3325127e-38
0.10203143 -0.18498382 0.87100005 2.3325854e-38
0.10700858 -0.18498382 0.87100005 2.3232943e-38
0.11198573 -0.18498382 0.87100005 2.2590382e-38
0.11696287 -0.18498382 0.87100005 2.0562055e-38
0.12111048 -0.18498382 0.87100005 1.1703606e-38
0.12691717 -0.18498382 0.87100005 2.0011156e-38
0.13106477 -0.18498382 0.87100005 2.167281e-38
0.13853048 -0.18498382 0.87100005 2.0742201e-38
0.14018953 -0.18498382 0.87100005 2.1856487e-38
0.14848477 -0.18498382 0.87100005 1.9643452e-38
0.15346192 -0.18498382 0.87100005 2.1672807e-38
0.15678 -0.18498382 0.87100005 2.2589734e-38
0.16208898 -0.18432021 0.87100011 2.3141825e-38
0.16673431 -0.1841543 0.87100017 2.3325854e-38
0.17171144 -0.1841543 0.87100017 2.341769e-38
0.1766886 -0.18360129 0.87100017 2.3324417e-38
0.18277177 -0.18350913 0.87100017 2.1301162e-38
0.18885493 -0.18332478 0.87100017 2.0737211e-38
0.19272605 -0.18249524 0.87100017 2.0097938e-38
0.19629316 -0.18233278 0.87260002 1.9727288e-38
0.19659716 -0.17834763 0.87100005 2.1397208e-38
0.060555242 -0.14516668 0.87100005 1.3286793e-38
0.062308259 -0.14262001 0.87233341 1.2182952e-38
0.066361904 -0.14018953 0.87100005 1.1171479e-38
0.067319363 -0.13796413 0.87266678 1.0062235e-38
0.072043583 -0.13681978 0.8720001 1.4579545e-38
0.07686381 -0.13586001 0.8725 1.5483915e-38
0.082218103 -0.13578239 0.87200004 1.56798e-38
0.087200008 -0.13619715 0.8720001 1.3106256e-38
0.092535816 -0.13606231 0.87220001 1.042936e-38
0.097165726 -0.13619716 0.8720001 1.1166869e-38
0.10214858 -0.13619715 0.8720001 5.4306537e-39
0.10713144 -0.13619716 0.8720001 5.2390416e-39
0.11207207 -0.13614541 0.87166679 4.600156e-39
0.11709715 -0.13619715 0.8720001 6.2675666e-39
0.12212541 -0.13541938 0.87233341 1.383611e-38
0.12691715 -0.13604192 0.87100017 1.4026887e-38
0.13189429 -0.13521239 0.87100005 9.7742502e-39
0.13770096 -0.13521239 0.87100005 1.1801427e-38
0.14226335 -0.13562715 0.87100005 1.1243555e-38
0.14682573 -0.13521239 0.87100005 1.0140491e-38
0.15213469 -0.13587601 0.87100011 1.2078377e-38
0.15696001 -0.13619716 0.8720001 1.1252959e-38
0.16188034 -0.13614541 0.87166679 6.0162662e-39
0.16673429 -0.13639744 0.87100017 4.0852096e-39
0.17129669 -0.13562715 0.87100005 5.2772214e-39
0.17668858 -0.13521239 0.87100005 9.5095225e-39
0.18249524 -0.13576542 0.87100017 8.8612846e-39
0.18871668 -0.13562715 0.87100005 8.7701638e-39
0.19327906 -0.13521239 0.87100005 8.300583e-39
0.19742668 -0.13521239 0.87100005 1.5125072e-38
0.078154296 -0.13386001 0.87300003 7.7477722e-39
0.082311444 -0.13386002 0.87300003 8.4965476e-39
0.10392858 -0.13386001 0.87300003 4.7824131e-39
0.10725429 -0.13386002 0.87300003 7.0786466e-39
0.11224287 -0.13386002 0.87300003 8.3776601e-39
0.11889429 -0.13386001 0.87300003 9.8596005e-39
0.12222001 -0.13386002 0.87300003 1.3475606e-38
0.12715939 -0.13297747 0.87266678 1.2177673e-38
0.13204572 -0.13287525 0.8720001 8.6826653e-39
0.13727573 -0.13229001 0.87225008 8.3963029e-39
0.14206572 -0.13209493 0.87233341 4.6159542e-39
0.1470505 -0.13209493 0.87233341 7.1984828e-39
0.15186465 -0.13262844 0.8727144 1.1901528e-38
0.15714002 -0.13302858 0.87300009 9.6017335e-39
0.16231254 -0.13262844 0.8727144 7.9440647e-39
0.16690405 -0.13202763 0.871889 7.4884717e-39
0.17191882 -0.13168691 0.87100017 7.3037105e-39
0.17677917 -0.13196076 0.87144458 7.2154357e-39
0.18228994 -0.13227144 0.8724001 7.8575499e-39
0.18775874 -0.13292636 0.87233341 7.8554017e-39
0.19266954 -0.13287525 0.8720001 7.9422136e-39
0.19745177 -0.13237208 0.87233341 1.5767567e-38
0.13884859 -0.12887144 0.87300003 6.2660742e-39
0.14051144 -0.12887144 0.87300003 5.6243034e-39
0.16379143 -0.12887144 0.87300003 9.6993339e-39
0.16628572 -0.12887144 0.87300003 9.6996913e-39
0.17210573 -0.12887144 0.87300003 9.4238233e-39
0.17709431 -0.12887144 0.87300003 8.7802545e-39
0.18125144 -0.12887144 0.87300003 1.0064881e-38
0.06361112 -0.19138891 0.87500012 1.2644839e-38
0.067058258 -0.19310969 0.87650001 2.1120972e-38
0.073140323 -0.19216447 0.87600011 2.0570295e-38
0.077984527 -0.19224834 0.87575001 2.0938043e-38
0.082734771 -0.19221477 0.87750006 2.1211434e-38
0.086952195 -0.19309963 0.87620014 2.1854952e-38
0.092500009 -0.19083335 0.87500006 1.8961851e-38
0.10416667 -0.19416668 0.87500006 2.0383624e-38
0.10583334 -0.19416668 0.87500006 2.0386897e-38
0.11937096 -0.19199668 0.87650001 2.0662621e-38
0.12291735 -0.19163202 0.87560004 2.2866676e-38
0.12708335 -0.19125001 0.87500006 2.2498975e-38
0.16583334 -0.19083335 0.87500006 2.341769e-38
0.05916667 -0.18666668 0.87500006 1.6683404e-38
0.062500007 -0.18833336 0.87500012 1.0155209e-38
0.065833338 -0.18916668 0.87500006 2.240383e-38
0.084166676 -0.18916668 0.87500006 1.844098e-38
0.086666673 -0.18916668 0.87500006 2.0194109e-38
0.12166668 -0.18916668 0.87500006 2.0662622e-38
0.18416668 -0.18916668 0.87500006 2.341769e-38
0.063440479 -0.14107478 0.87650001 1.1816299e-38
0.063440479 -0.13773572 0.87650001 1.1909622e-38
0.06750001 -0.13583335 0.87500012 1.0880819e-38
0.064386673 -0.13462667 0.87800002 1.3383545e-38
0.068090245 -0.13409358 0.87725002 1.4483225e-38
0.072624288 -0.13356048 0.87650001 1.5132336e-38
0.077151194 -0.13303025 0.87575006 6.2730107e-39
0.082641438 -0.13189095 0.87650001 7.3842684e-40
0.087733969 -0.13285208 0.87733346 3.3127424e-39
0.092711434 -0.13280095 0.87700009 4.1406646e-39
0.09768635 -0.13275048 0.87666672 4.4193983e-39
0.10246668 -0.13251667 0.87650001 4.6930565e-39
0.1076843 -0.13189095 0.87650007 9.2167702e-39
0.11275715 -0.13196668 0.87700003 1.1615248e-38
0.11744275 -0.13245988 0.87612504 1.0338849e-38
0.12271001 -0.13189095 0.87650007 1.3015295e-38
0.12793715 -0.13128191 0.87800002 1.1070619e-38
0.13250002 -0.13083336 0.87500012 8.7737945e-39
0.13583334 -0.13083334 0.87500006 9.1381588e-39
0.15333334 -0.13083334 0.87500006 1.126336e-38
0.15750001 -0.13083336 0.87500012 8.8734983e-39
0.16166668 -0.13083334 0.87500006 9.3344484e-39
0.18750003 -0.13083336 0.87500012 8.414318e-39
0.19250003 -0.13083336 0.87500012 5.9200502e-39
0.19666669 -0.13083334 0.87500006 1.4939607e-38
0.084455244 -0.12960953 0.87800002 1.1954379e-39
0.086127624 -0.12960953 0.87800002 2.2092227e-39
0.09114477 -0.12960953 0.87800002 4.6941691e-39
0.10954096 -0.12960953 0.87800002 1.3555693e-38
0.11957525 -0.12960953 0.87800002 1.3019255e-38
0.12292001 -0.12960953 0.87800002 1.283375e-38
0.12793714 -0.12960953 0.87800002 1.0790468e-38
0.13328879 -0.12894057 0.87800008 8.7672743e-39
0.13735412 -0.12834154 0.87620014 7.4689292e-39
0.14283335 -0.12816668 0.87500012 3.7847194e-39
0.14775287 -0.12855192 0.87650013 7.2928294e-39
0.15276144 -0.12855192 0.87650001 1.098896e-38
0.15818158 -0.12809083 0.87762511 9.7004298e-39
0.16297756 -0.12787388 0.87757158 1.0159965e-38
0.16797763 -0.12758461 0.87750006 9.9734195e-39
0.17299192 -0.12702811 0.87750006 8.5912418e-39
0.17810857 -0.12793717 0.87800002 7.3040875e-39
0.18291526 -0.12834701 0.87700003 8.6816143e-39
0.18793051 -0.12946191 0.87700003 9.2361866e-39
0.19289601 -0.12876344 0.87680006 6.4685184e-39
0.19700383 -0.12855192 0.87650007 1.5030693e-38
0.19734097 -0.12208381 0.87800002 1.6871023e-38
0.053516194 -0.11623048 0.87800002 1.7057617e-38
0.057500005 -0.11583334 0.87500012 1.6875068e-38
0.084647626 -0.1952762 0.88000005 2.0752865e-38
0.12152382 -0.19360001 0.88000005 2.341769e-38
0.059012391 -0.14207716 0.88100004 1.3098202e-38
0.061180957 -0.1424762 0.88000005 1.2549924e-38
0.059640005 -0.13860001 0.88200003 1.1987525e-38
0.06118096 -0.13828574 0.88000005 1.1722307e-38
0.062550098 -0.1324781 0.88040012 8.8611851e-39
0.067690343 -0.13166532 0.88057148 1.3751557e-38
0.072997153 -0.13089049 0.88100004 1.4208592e-38
0.077942863 -0.13158098 0.88000005 9.8455622e-39
0.059775241 -0.12881143 0.88400006 1.7336352e-38
0.063911438 -0.1281032 0.88300008 7.4589436e-39
0.068039626 -0.12717485 0.88199997 5.5375938e-39
0.073080003 -0.12684 0.88200003 9.8818797e-39
0.078105561 -0.12765349 0.88183343 1.4021632e-38
0.082955852 -0.12736936 0.88145459 1.0698648e-38
0.088206932 -0.1272393 0.88054556 8.940458e-39
0.093113154 -0.12750475 0.88080007 7.8287546e-39
0.09813112 -0.12748539 0.88066673 8.4802197e-39
0.1029756 -0.12767066 0.88036376 1.0048654e-38
0.10734876 -0.127308 0.88060009 1.2823846e-38
0.11257583 -0.12741362 0.88061547 1.3475231e-38
0.11746611 -0.12736551 0.88100004 1.2740847e-38
0.1225382 -0.12696069 0.88072735 1.0333741e-38
0.12776572 -0.12664698 0.88066673 8.5807194e-39
0.13223875 -0.12636763 0.88066673 8.4003022e-39
0.13836429 -0.12620428 0.88050002 6.0852927e-39
0.14310859 -0.12599544 0.88080007 3.3212385e-39
0.14683239 -0.12585619 0.88100004 8.3080926e-39
0.15169525 -0.12655239 0.88000005 1.2920769e-38
0.15588573 -0.12655239 0.88000005 1.1907008e-38
0.16175239 -0.12655239 0.88000005 1.0622749e-38
0.17013334 -0.12655239 0.88000005 9.4220674e-39
0.1776762 -0.12655239 0.88000005 6.2917502e-39
0.18186669 -0.12655239 0.88000005 5.5480573e-39
0.18689525 -0.12739049 0.88000005 7.1957125e-39
0.19227652 -0.12687907 0.88033336 7.8316904e-39
0.19695239 -0.12655239 0.88000005 1.5861171e-38
0.05388191 -0.12039239 0.88400006 1.751644e-38
0.056152385 -0.12152382 0.88000005 1.5856248e-38
0.069316834 -0.12319874 0.88400006 5.4396487e-39
0.073245727 -0.12376001 0.88400006 1.1133148e-39
0.078297153 -0.12376001 0.88400006 7.3900571e-39
0.089140005 -0.12362 0.88300002 1.4028678e-38
0.093238741 -0.12403874 0.88200009 1.3290084e-38
0.09760429 -0.12369001 0.88350004 1.4855241e-38
0.10259525 -0.12362 0.88300002 1.5960937e-38
0.10725868 -0.12308649 0.884 1.1819623e-38
0.11191705 -0.12201396 0.88355553 6.6492243e-39
0.11670065 -0.1225908 0.88366669 7.2784297e-39
0.1221481 -0.12214715 0.88300002 1.0046499e-38
0.1269674 -0.12192149 0.88288891 9.591661e-39
0.13241871 -0.12248381 0.88254541 9.4108528e-39
0.137253 -0.12243361 0.88218188 8.3858493e-39
0.14199537 -0.12183028 0.88222229 9.7806177e-39
0.14720058 -0.1221621 0.88220006 1.0981013e-38
0.15198255 -0.12259114 0.88166666 1.2365819e-38
0.15705004 -0.12261381 0.88183343 1.1719374e-38
0.16202778 -0.1225678 0.88150001 1.1807955e-38
0.16709718 -0.12259178 0.88166678 9.5905848e-39
0.17213526 -0.12259176 0.88166666 8.2962811e-39
0.17705041 -0.12284123 0.88181818 9.1274388e-39
0.18228 -0.12263717 0.88199997 1.0229053e-38
0.18732002 -0.12263718 0.88199997 8.3844325e-39
0.19220729 -0.12240884 0.88199997 1.1795648e-38
0.19633619 -0.1233381 0.88100004 1.6413288e-38
0.053760003 -0.11844001 0.88200003 1.7333122e-38
0.056152385 -0.11900953 0.88000005 1.5307745e-38
0.12881143 -0.11870858 0.88400006 1.3659783e-38
0.14312382 -0.11870858 0.88400006 1.0985363e-38
0.14733335 -0.11870858 0.88400006 1.1804684e-38
0.15070096 -0.11870858 0.88400006 1.2077651e-38
0.16417144 -0.11870858 0.88400006 9.4007032e-39
0.16753905 -0.11870858 0.88400006 8.6455071e-39
0.19448002 -0.11870858 0.88400006 1.7516426e-38
0.19745496 -0.11858445 0.88100004 1.7240182e-38
0.059978098 -0.12755905 0.88700002 1.8806828e-38
0.062088955 -0.12671563 0.88819999 1.5674371e-38
0.061595008 -0.12297834 0.889 1.8076498e-38
0.066599771 -0.12241597 0.88800001 1.6873622e-38
0.072206669 -0.12158572 0.88780004 1.0959463e-38
0.076902866 -0.12169112 0.88733339 2.9439235e-39
0.082047492 -0.12264723 0.88814288 6.0003362e-39
0.086946435 -0.122485 0.88849998 8.1261634e-39
0.092113018 -0.12169112 0.88733339 8.5010178e-39
0.09718477 -0.12169111 0.88733339 9.9753968e-39
0.10221621 -0.12164572 0.88700002 1.0620099e-38
0.10686238 -0.12122335 0.88700002 7.2970754e-39
0.11798509 -0.12136414 0.88700002 9.5883988e-39
0.12080096 -0.12080096 0.88700002 1.7229449e-38
0.17993429 -0.12080096 0.88700002 1.0134333e-38
0.060113337 -0.11938 0.88900006 1.7714171e-38
0.067733333 -0.11938 0.88900006 1.8445648e-38
0.07196667 -0.11853334 0.88900006 1.7247428e-38
0.076623335 -0.11895667 0.88900006 1.1612359e-38
0.080433339 -0.11938 0.88900006 6.7966815e-39
0.086783335 -0.11895667 0.88900006 2.850995e-39
0.092625342 -0.11870267 0.88900006 2.4840496e-39
0.09702801 -0.11870267 0.88900006 2.6752525e-39
0.10244667 -0.11853334 0.88900006 2.6677416e-39
0.10748573 -0.11848858 0.88866663 5.0576127e-39
0.11248001 -0.11839907 0.88800001 1.0682542e-38
0.11706476 -0.11875524 0.88750005 1.4671748e-38
0.12298287 -0.11875524 0.88750005 1.3184412e-38
0.12775144 -0.11787938 0.88833332 1.4117519e-38
0.132827 -0.11759714 0.88833338 1.2729144e-38
0.13790318 -0.11759714 0.88833338 1.1807503e-38
0.14266138 -0.11705103 0.8878572 1.1251484e-38
0.14816669 -0.11768667 0.88900012 1.1064277e-38
0.15409334 -0.11938 0.88900006 1.2347404e-38
0.15823667 -0.11888953 0.88849998 1.3639184e-38
0.16197848 -0.1183103 0.88859999 1.2528125e-38
0.16721669 -0.11726335 0.88900006 8.1935449e-39
0.17224614 -0.11760994 0.88842869 9.3059839e-39
0.17661467 -0.118364 0.88900006 1.0044254e-38
0.18203335 -0.11853334 0.88900006 1.0965842e-38
0.18711336 -0.11817048 0.88900006 8.6537383e-39
0.19200076 -0.11756773 0.88811111 1.3648131e-38
0.19609478 -0.11664239 0.88750005 1.7239827e-38
0.14308667 -0.11430001 0.88900006 1.7430711e-38
0.19558001 -0.11430001 0.88900006 1.7609681e-38
0.058551431 -0.12219429 0.89100003 1.6598125e-38
0.063642859 -0.12134572 0.89100003 1.789284e-38
0.084008574 -0.12134572 0.89100003 2.4000781e-39
0.058551431 -0.11964858 0.89100003 1.6691761e-38
0.06279429 -0.11880001 0.89100003 1.7709167e-38
0.067150004 -0.11786525 0.8925001 1.8168343e-38
0.072292387 -0.11651525 0.89300007 1.8079029e-38
0.077715434 -0.11716801 0.89280003 1.7150919e-38
0.082592152 -0.11783715 0.89174998 1.0132203e-38
0.087742299 -0.11693316 0.89099997 5.9970502e-39
0.092070013 -0.11667858 0.89100003 6.531972e-39
0.098010011 -0.11667858 0.89100003 5.8851817e-39
0.10267715 -0.11625429 0.89100003 8.6438479e-39
0.10776858 -0.11625429 0.89100003 1.1620654e-38
0.11286001 -0.11625429 0.89100003 1.6427034e-38
0.11836915 -0.11701144 0.89160007 1.7432942e-38
0.12270343 -0.11693314 0.89099997 1.2355044e-38
0.12728572 -0.11625429 0.89100003 1.2738221e-38
0.14765143 -0.11625429 0.89100003 1.4114946e-38
0.15233716 -0.11701144 0.89160007 1.4938202e-38
0.15675202 -0.11701144 0.89160007 1.558208e-38
0.16207716 -0.11625429 0.89100003 1.0878244e-38
0.16632001 -0.11625429 0.89100003 7.7357967e-39
0.17056286 -0.11625429 0.89100003 9.2180874e-39
0.17777574 -0.11710286 0.89100003 1.0595998e-38
0.18244289 -0.11727258 0.89099997 1.105766e-38
0.1875343 -0.11625429 0.89100003 9.4045526e-39
0.071520001 -0.11494286 0.89400005 1.7893917e-38
0.077480011 -0.11494287 0.89400005 1.8354874e-38
0.082588583 -0.11494287 0.89400005 1.8996226e-38
0.087697148 -0.11451715 0.89400005 1.844304e-38
0.093231432 -0.11451715 0.89400005 1.6870021e-38
0.098254867 -0.11426172 0.89400005 1.5951315e-38
0.10290669 -0.11396286 0.89300007 1.7059821e-38
0.10801145 -0.11396286 0.89300007 1.844706e-38
0.11324001 -0.11451715 0.89400005 1.863182e-38
0.11821429 -0.1148143 0.89300007 1.4659556e-38
0.12239858 -0.11389858 0.8925001 9.8736583e-39
0.1274986 -0.11389858 0.8925001 1.1526697e-38
0.13286655 -0.11369593 0.89185721 1.1715379e-38
0.13730206 -0.11277798 0.89228582 1.595491e-38
0.14137201 -0.11353886 0.89099997 1.6786084e-38
0.14675887 -0.11410743 0.89280003 1.7893138e-38
0.15227929 -0.11442073 0.89325005 1.604273e-38
0.1575143 -0.11409144 0.89400005 1.4105137e-38
0.16206615 -0.11350777 0.89228582 8.3735753e-39
0.16735621 -0.11298478 0.89200002 9.2083638e-39
0.17245334 -0.11298476 0.89200002 9.9538448e-39
0.17750072 -0.11316573 0.89174998 9.857371e-39
0.18251176 -0.1129016 0.89133328 7.3652233e-39
0.18774414 -0.1129854 0.89200002 1.1889198e-38
0.19249395 -0.11311894 0.89137495 1.3645266e-38
0.17965144 -0.10983429 0.89400005 7.7422469e-39
0.18305717 -0.1098343 0.89400005 8.3779473e-39
0.18901715 -0.10983429 0.89400005 1.2900466e-38
0.19157144 -0.10983429 0.89400005 1.3454769e-38
0.058311116 -0.11633779 0.89600009 1.7150572e-38
0.062634669 -0.11588267 0.89600003 1.7985383e-38
0.066986665 -0.11562667 0.89600003 1.7984314e-38
0.074240007 -0.11520001 0.89600003 1.789428e-38
0.062824287 -0.11325572 0.89750004 1.8168696e-38
0.067563817 -0.11289144 0.89800012 1.8076506e-38
0.072614297 -0.11276478 0.89700007 1.7801359e-38
0.0777689 -0.11195175 0.89733344 1.8169062e-38
0.082855023 -0.11189631 0.89688897 1.8169066e-38
0.087966911 -0.11166548 0.89674997 1.8169062e-38
0.092903815 -0.11169668 0.89700007 1.7894629e-38
0.097636834 -0.11158413 0.89666677 1.8077933e-38
0.10251334 -0.1110562 0.89700001 1.8262684e-38
0.10719924 -0.11096001 0.89760011 1.8261979e-38
0.11192926 -0.11144 0.89714301 1.7802086e-38
0.11705208 -0.11192404 0.89711118 1.3457413e-38
0.12216287 -0.1110562 0.89700001 1.2360733e-38
0.12728858 -0.11105619 0.89700007 1.5954569e-38
0.13241431 -0.11105619 0.89700007 1.7893174e-38
0.1374889 -0.11016192 0.89666671 1.798611e-38
0.14266573 -0.1110562 0.89700001 1.7985024e-38
0.14801171 -0.11140436 0.89685726 1.6597698e-38
0.1528319 -0.11163476 0.89649999 1.5579883e-38
0.15804286 -0.11105619 0.89700007 9.3949187e-39
0.16316763 -0.11105619 0.89700001 8.8478798e-39
0.16677146 -0.11032572 0.89800012 9.9520693e-39
0.17256382 -0.11020286 0.89700007 9.396383e-39
0.1777778 -0.11064889 0.89600009 1.0497669e-38
0.18688001 -0.11008 0.89600003 1.3931468e-38
0.084668577 -0.10861524 0.89800006 1.8169422e-38
0.10177334 -0.10861524 0.89800006 1.8353805e-38
0.10690477 -0.10861524 0.89800012 1.8628956e-38
0.1120362 -0.10861524 0.89800012 1.7617308e-38
0.1188781 -0.10861524 0.89800006 1.4849644e-38
0.12058858 -0.10861524 0.89800006 1.6792208e-38
0.1342724 -0.10861524 0.89800006 1.7525492e-38
0.13769335 -0.10861524 0.89800012 1.7618049e-38
0.14368001 -0.10861524 0.89800006 1.7153758e-38
0.14795619 -0.10861524 0.89800012 1.4471031e-38
0.15274553 -0.10793106 0.89800006 1.253672e-38
0.15779144 -0.10818762 0.89800006 7.2697697e-39
0.16249526 -0.10861524 0.89800006 8.6612969e-39
0.1659162 -0.10861524 0.89800006 9.3981459e-39
0.1727581 -0.10861524 0.89800006 8.3843695e-39
0.17760447 -0.10804509 0.89800012 1.0037785e-38
0.18163763 -0.10812715 0.89750004 9.3002161e-39
0.18829715 -0.10796446 0.89733338 1.3092738e-38
0.19237407 -0.10696834 0.89674997 1.4015852e-38
0.062640958 -0.11155239 0.90100002 1.8260173e-38
0.067789525 -0.1106943 0.90100002 1.8260179e-38
0.072938107 -0.1106943 0.90100002 1.8261245e-38
0.064500004 -0.10922001 0.90300006 1.7893198e-38
0.067940012 -0.10922001 0.90300006 1.8352377e-38
0.073591113 -0.10795303 0.90200007 1.6880847e-38
0.078125194 -0.10731397 0.90144455 1.338177e-38
0.083020717 -0.10704738 0.90100002 1.8353451e-38
0.087558433 -0.10730096 0.90133333 1.8720079e-38
0.091884129 -0.10734 0.90166664 1.7615895e-38
0.097060002 -0.10736647 0.90188885 1.7251425e-38
0.10217755 -0.10683851 0.90157145 1.5125906e-38
0.10738096 -0.10652095 0.90200007 1.0342199e-38
0.11253525 -0.10652097 0.90200007 1.1718272e-38
0.11763416 -0.10732885 0.90157151 1.2069103e-38
0.12299024 -0.10710595 0.90149999 1.7434017e-38
0.12791884 -0.10731397 0.90144455 1.8168343e-38
0.13279025 -0.10704739 0.90100002 1.7708807e-38
0.13815334 -0.10640382 0.90100002 1.7524043e-38
0.1422722 -0.10691867 0.90100002 1.6507681e-38
0.1467343 -0.10640382 0.90100002 1.5484753e-38
0.15145382 -0.10597476 0.90100002 1.0315067e-38
0.15703143 -0.10623219 0.90100002 8.0984359e-39
0.16218001 -0.10640382 0.90100002 8.7484436e-39
0.16768043 -0.10683851 0.90157151 1.1335647e-38
0.17228614 -0.10680504 0.90128577 9.2158776e-39
0.17753685 -0.10680699 0.90200007 7.643992e-39
0.18336248 -0.10637353 0.90220016 1.3554438e-38
0.18759716 -0.10732143 0.90150005 1.3001959e-38
0.19135524 -0.10554572 0.90100002 1.05153e-38
0.07912001 -0.10406001 0.90300006 6.6383166e-39
0.082560003 -0.10406001 0.90300006 1.550871e-38
0.08600001 -0.10406001 0.90300006 1.5600908e-38
0.098900005 -0.10406001 0.90300006 1.6239774e-38
0.10234001 -0.10406002 0.90300006 1.2535758e-38
0.10707001 -0.10363001 0.90300006 1.3924057e-38
0.11180001 -0.10406001 0.90300006 1.0769379e-38
0.12384 -0.10406001 0.90300006 1.8445287e-38
0.12900001 -0.10406001 0.90300006 1.7800287e-38
0.13244 -0.1032 0.90300006 1.752406e-38
0.13674001 -0.10320001 0.90300006 1.6969761e-38
0.14147 -0.10363001 0.90300006 1.4842367e-38
0.14706001 -0.10406002 0.90300006 1.4290918e-38
0.15256587 -0.1024875 0.90214288 8.4711659e-39
0.15703528 -0.1027656 0.90242869 1.059739e-38
0.16254002 -0.10406002 0.90300006 9.673302e-39
0.16598001 -0.10406001 0.90300006 1.0411301e-38
0.17372 -0.10406001 0.90300006 1.0497606e-38
0.19321303 -0.10390636 0.90166676 1.2913482e-38
0.059668574 -0.11328382 0.90800005 1.743078e-38
0.0613981 -0.11155429 0.90800005 1.8443124e-38
0.059668574 -0.10982477 0.90800005 1.6972315e-38
0.06347353 -0.10844115 0.90800011 1.8536397e-38
0.067878865 -0.10726058 0.90680009 1.4208641e-38
0.071595952 -0.1065331 0.90575004 1.2173164e-38
0.11635715 -0.10601429 0.90500003 1.2803765e-38
0.18789524 -0.10601429 0.90500003 1.3459339e-38
0.068316191 -0.1046362 0.90800005 1.0837544e-38
0.072297148 -0.1032142 0.90733337 1.5580727e-38
0.076890349 -0.10231457 0.90714294 9.1213488e-39
0.082016677 -0.10187191 0.9065001 1.1987235e-38
0.08746437 -0.102266 0.90671432 1.2639865e-38
0.092394292 -0.10275367 0.90666676 1.1894371e-38
0.097380839 -0.10256156 0.90687507 1.1067866e-38
0.10256668 -0.10170476 0.90500009 1.1806831e-38
0.10808287 -0.10153239 0.90500003 1.5856632e-38
0.11303335 -0.1023908 0.90600008 1.1985508e-38
0.11767779 -0.10271589 0.90633339 1.2807658e-38
0.12244001 -0.10221742 0.90628588 1.5961405e-38
0.12719731 -0.10215922 0.9065001 1.7799926e-38
0.13144048 -0.10127382 0.90500003 1.7524416e-38
0.13704287 -0.10084286 0.90500009 1.6228173e-38
0.14255907 -0.10153239 0.90500003 1.3735302e-38
0.14738573 -0.10170476 0.90500009 1.2163648e-38
0.15083334 -0.10170477 0.90500003 8.2921514e-39
0.1585905 -0.10084286 0.90500003 1.1334225e-38
0.16266327 -0.10194399 0.90560007 1.0772824e-38
0.16772738 -0.10256083 0.90714294 9.9481079e-39
0.17230466 -0.10234608 0.90687507 1.1793395e-38
0.17743404 -0.10246368 0.90628588 1.0501219e-38
0.18199652 -0.10264096 0.90566677 1.3739256e-38
0.18751684 -0.10283048 0.90733337 1.3273201e-38
0.19250384 -0.10236396 0.90757149 1.032625e-38
0.19716573 -0.10290667 0.90800005 1.6134934e-38
0.073504768 -0.099447623 0.90800005 1.6245138e-38
0.076963812 -0.09944763 0.90800011 1.2155821e-38
0.082152389 -0.09944763 0.90800011 1.5479829e-38
0.086476192 -0.099447623 0.90800005 8.1204559e-39
0.099447623 -0.099447623 0.90800005 1.1333214e-38
0.10290667 -0.09944763 0.90800011 1.235207e-38
0.10809524 -0.09944763 0.90800011 1.4839619e-38
0.11328382 -0.099447623 0.90800005 6.5628482e-39
0.12884954 -0.099447623 0.90800005 1.7524423e-38
0.13230859 -0.09944763 0.90800011 1.7246348e-38
0.1371924 -0.099228583 0.90600008 1.576645e-38
0.14253049 -0.099338099 0.90700006 1.2809352e-38
0.1478743 -0.098582864 0.90800011 9.3931068e-39
0.15340877 -0.098755829 0.90800011 8.3818766e-39
0.15781906 -0.099015251 0.90800005 9.4939667e-39
0.1911124 -0.099447623 0.90800005 9.5560526e-39
0.059898574 -0.10764239 0.91150004 1.7526919e-38
0.062017381 -0.10668644 0.91075003 1.9183557e-38
0.063405722 -0.10335811 0.91200006 1.3181943e-38
0.06654346 -0.10295846 0.910375 1.0137685e-38
0.070200004 -0.10140001 0.91000003 1.734435e-38
0.067276672 -0.099396199 0.91150004 1.1728338e-38
0.071432702 -0.098328888 0.91100001 1.6511688e-38
0.077260479 -0.097225249 0.91149998 1.2531392e-38
0.082149528 -0.097431436 0.91180003 1.4748783e-38
0.087763056 -0.098190479 0.91240007 8.3952127e-39
0.09237501 -0.099314049 0.91075003 1.4025966e-38
0.097780384 -0.098820388 0.91180003 1.2719773e-38
0.10260382 -0.098256201 0.91300005 1.1149842e-38
0.10695145 -0.097821437 0.91300005 1.3547115e-38
0.11180001 -0.098366663 0.91000003 1.2251566e-38
0.11712857 -0.098039053 0.91099995 1.3469938e-38
0.12242382 -0.098110795 0.91166669 1.761911e-38
0.12703033 -0.098382704 0.91149998 1.7524057e-38
0.13281858 -0.097225249 0.91149998 1.6043795e-38
0.13787478 -0.097119525 0.91049999 1.5213249e-38
0.14274763 -0.097303443 0.91060001 1.0407945e-38
0.14757335 -0.096358567 0.91150004 9.1222778e-39
0.15224445 -0.096777782 0.91000003 9.859138e-39
0.15743072 -0.096712619 0.91075003 8.8467952e-39
0.16235085 -0.097756319 0.91037494 1.188957e-38
0.16738859 -0.098003812 0.9106667 1.0226456e-38
0.17272002 -0.09807492 0.91133338 8.1934944e-39
0.17786191 -0.098039046 0.91100007 1.4571132e-38
0.18254288 -0.098271579 0.9108572 1.4286256e-38
0.1877156 -0.097920962 0.91136372 1.0133254e-38
0.19257335 -0.097586669 0.91000003 9.4039767e-39
0.19569334 -0.097586669 0.91000003 1.2728738e-38
0.079126671 -0.094778098 0.91300005 1.4579436e-38
0.12260287 -0.094778098 0.91300005 1.7708803e-38
0.13912383 -0.094778098 0.91300005 1.4015763e-38
0.14260191 -0.094778098 0.91300005 9.8465628e-39
0.14678669 -0.094674289 0.91200006 8.4812707e-39
0.15390572 -0.094778098 0.91300005 9.4867948e-39
0.15738383 -0.094778098 0.91300005 8.4632766e-39
0.16260096 -0.094778106 0.91300005 1.2903743e-38
0.16955715 -0.094778098 0.91300005 6.8116992e-39
0.17216572 -0.094778098 0.91300005 9.5879363e-39
0.19303429 -0.094778098 0.91300005 1.0331308e-38
0.19564287 -0.094778098 0.91300005 1.2819151e-38
0.060260005 -0.10567334 0.91700006 1.7619123e-38
0.061692383 -0.1021435 0.91666669 1.6225408e-38
0.063753337 -0.097813338 0.91700006 8.8324038e-39
0.067183822 -0.096848302 0.91614294 7.3900922e-39
0.072772011 -0.095807433 0.9162001 1.3184047e-38
0.08462096 -0.09596096 0.91600001 1.2876715e-38
0.088982865 -0.09596096 0.91600007 1.060723e-38
0.093300551 -0.096787892 0.91557151 1.1049181e-38
0.097269997 -0.09596096 0.91600001 1.3378136e-38
0.10210636 -0.095996194 0.91633338 1.4291756e-38
0.10732629 -0.095807433 0.9162001 1.3929521e-38
0.11253716 -0.09596096 0.91600007 1.7338539e-38
0.11615334 -0.095193341 0.91700006 1.7252145e-38
0.12897143 -0.096728578 0.91500002 1.7248133e-38
0.17816001 -0.095193341 0.91700006 1.5311604e-38
0.18078001 -0.095193341 0.91700006 1.3365061e-38
0.077670805 -0.09366858 0.91633338 1.4843838e-38
0.08254572 -0.094062291 0.9162001 1.5488871e-38
0.086979374 -0.093959689 0.91633338 1.5215152e-38
0.091700003 -0.093446672 0.91700006 1.6500843e-38
0.097195879 -0.093120962 0.91666669 1.7067372e-38
0.10218 -0.092573345 0.917 1.586418e-38
0.10742001 -0.092573345 0.917 1.6320832e-38
0.11353334 -0.093446672 0.91700006 1.7802785e-38
0.11839589 -0.09366858 0.91633338 1.7618401e-38
0.12297215 -0.093100011 0.91575003 1.6969433e-38
0.12795167 -0.093510725 0.91550004 1.5489545e-38
0.13224858 -0.093108721 0.91614294 1.3179914e-38
0.13670859 -0.093100004 0.91575003 1.2077606e-38
0.14214636 -0.092438102 0.91566676 9.1204898e-39
0.14743239 -0.092471436 0.91600007 8.1949616e-39
0.15244882 -0.093125477 0.91600001 9.6733006e-39
0.15787634 -0.092830621 0.9158572 8.7506171e-39
0.16275029 -0.09262573 0.91580009 1.2912001e-38
0.16745073 -0.093100004 0.91575003 9.7601251e-39
0.17232096 -0.092357911 0.91660005 1.3556617e-38
0.17698248 -0.092917964 0.91671431 1.4382794e-38
0.18264502 -0.093176439 0.91649997 1.2441297e-38
0.18739478 -0.093587145 0.91624999 8.2943795e-39
0.1922562 -0.093729526 0.91550004 7.4675405e-39
0.19650002 -0.093446672 0.91700006 1.2814831e-38
0.11964668 -0.089953341 0.91700006 1.752477e-38
0.12314001 -0.089953348 0.91700006 1.511865e-38
0.12750667 -0.089953341 0.91700006 1.4287041e-38
0.13100001 -0.089953341 0.91700006 1.4280862e-38
0.13711335 -0.089953348 0.91700006 6.4443713e-39
0.14235334 -0.089953348 0.91700006 4.8845691e-39
0.14759335 -0.089953348 0.91700006 8.0137891e-39
0.15894668 -0.089953341 0.91700006 1.0778547e-38
0.16156667 -0.089953341 0.91700006 1.0509908e-38
0.058832385 -0.10098096 0.92200005 1.6970136e-38
0.060457148 -0.10076191 0.92000002 1.7255383e-38
0.058832385 -0.099224769 0.92200005 1.7153814e-38
0.06174694 -0.097066127 0.92057151 1.6876084e-38
0.065714292 -0.095504768 0.92000002 6.8385789e-39
0.062783815 -0.093517147 0.92200005 1.7431449e-38
0.067538738 -0.092976831 0.921 1.3921176e-38
0.072776511 -0.092065401 0.92066669 1.6971221e-38
