# .PCD v0.7 - Point Cloud Data file format
VERSION 0.7
FIELDS x y z
SIZE 4 4 4
TYPE F F F
COUNT 1 1 1
WIDTH 1417
HEIGHT 1
VIEWPOINT 0 0 0 1 0 0 0
POINTS 1417
DATA ascii
-0.14503561 0.027781416 0.99538481
-0.13535514 0.027917508 0.99662513
-0.12384497 0.028614592 0.9970001
-0.11503874 0.027403943 0.99480969
-0.10506351 0.02669348 0.99368429
-0.094661407 0.025575453 0.99552006
-0.084933288 0.025992379 0.99396002
-0.07544703 0.025097083 0.99430454
-0.065386593 0.0239073 0.9951669
-0.054644726 0.024666777 0.99490929
-0.044835217 0.024189845 0.99477285
-0.035152659 0.023908079 0.9947502
-0.026239159 0.023341306 0.99335301
-0.014891588 0.022505371 0.99253851
-0.0049692607 0.022350531 0.99275005
0.004441014 0.02272366 0.99086672
0.012159748 0.021722678 0.99114299
0.037217975 0.020258227 0.99200004
0.057047896 0.020258227 0.99200004
0.21651243 0.020237807 0.99100006
-0.42224038 0.038123466 0.99750006
-0.41431472 0.038049083 0.99557161
-0.40526262 0.03819121 0.9968183
-0.39613393 0.037863545 0.99750012
-0.38551655 0.038167085 0.99860013
-0.37457147 0.037722722 0.99546158
-0.36590317 0.038288657 0.99459994
-0.35442308 0.038646117 0.99600011
-0.34484094 0.037670977 0.99615389
-0.33546636 0.037781809 0.99537498
-0.32509243 0.038622424 0.99687505
-0.31571141 0.038327716 0.99559999
-0.30502945 0.038144156 0.99800009
-0.29531446 0.038271636 0.99533337
-0.2873587 0.038467873 0.99560004
-0.27345684 0.037627388 0.99666673
-0.26508489 0.036600333 0.99546152
-0.25504744 0.035818975 0.99518746
-0.24525045 0.036628295 0.99475002
-0.23477019 0.036421441 0.99509084
-0.22425485 0.035496198 0.99413341
-0.21516584 0.033965264 0.99355
-0.20486572 0.033336628 0.9931668
-0.19536485 0.032966487 0.99271452
-0.18591213 0.032009698 0.99250013
-0.17401822 0.031296808 0.99212509
-0.16486891 0.032462306 0.9926002
-0.15601979 0.032144289 0.99146169
-0.14556393 0.031674318 0.99175018
-0.13456149 0.031259652 0.99271446
-0.12423833 0.031708635 0.99280006
-0.11712845 0.031651147 0.99100006
-0.4933244 0.047547251 0.99800003
-0.48391831 0.047847211 0.9970001
-0.47533676 0.048525043 0.99660009
-0.46412548 0.047842927 0.99627292
-0.45437351 0.047558859 0.99540019
-0.4457404 0.048468858 0.99550009
-0.4346076 0.046882369 0.99664313
-0.42637986 0.044408925 0.99300009
-0.41531754 0.040947974 0.99000007
-0.40396854 0.040813234 0.99180001
-0.39451414 0.041029125 0.99200004
-0.38559517 0.041186851 0.99354553
-0.37515134 0.041307624 0.99120009
-0.36768278 0.041638996 0.99000013
-0.35382426 0.041072056 0.99300003
-0.34602126 0.041861594 0.99200004
-0.33455029 0.04130286 0.99300003
-0.32544374 0.041587234 0.99289989
-0.31305903 0.040918063 0.99350011
-0.30448928 0.041566368 0.99338472
-0.29481962 0.041286796 0.99319994
-0.28467628 0.040113017 0.99500006
-0.27571788 0.040296551 0.99440002
-0.51214087 0.055040784 0.99500012
-0.50489181 0.05398459 0.99366677
-0.49672049 0.05218986 0.9930771
-0.48456845 0.05160151 0.99225008
-0.47478649 0.051078495 0.99216676
-0.46500689 0.051145468 0.99122226
-0.45838666 0.050795004 0.99000007
-0.44217724 0.05141693 0.99200004
-0.43626758 0.05141693 0.99200004
0.38711083 -0.00052305288 1.0090001
0.39390281 -0.00099188276 1.0076667
0.40498054 -0.00052305288 1.0090001
0.41364998 -0.00052305288 1.0090001
0.42496231 -0.00052260858 1.0081429
0.43535522 -0.0011258342 1.0072857
0.44390458 -0.0010512641 1.0090001
0.47805163 -0.0015794754 1.0090001
0.48506528 -0.0017288288 1.0077143
0.49566728 -0.00094370078 1.0059
0.50562948 -0.0017173106 1.006
0.51617479 -0.0014824002 1.007
0.52538902 -0.0022578251 1.0055884
0.53503919 -0.0022521936 1.0048573
0.54519528 -0.0023270166 1.0049288
0.55420649 -0.0036803538 1.0043809
0.56479496 -0.0030227844 1.0050001
0.57513005 -0.0049907416 1.0057998
0.58070719 -0.0050874623 1.006
0.054840833 0.0089847483 1.0090001
0.064394929 0.0088338312 1.0090001
0.074756861 0.0089758439 1.0080001
0.085606553 0.008012793 1.0076364
0.09559989 0.0078228731 1.0069168
0.10511305 0.0081255073 1.0062107
0.11547653 0.0076908781 1.0059502
0.12452553 0.0079774819 1.0059289
0.13539279 0.0072371988 1.0066365
0.14473522 0.0076076081 1.0058334
0.15540011 0.007539941 1.0071177
0.16514893 0.0086615877 1.0065715
0.17484005 0.0073743491 1.0058126
0.18438362 0.0076007494 1.0058573
0.19555469 0.0083094593 1.0061541
0.20489845 0.0085805589 1.0056472
0.21469428 0.0083604902 1.0056876
0.22168638 0.0089470353 1.005
0.34543252 0.0063500707 1.0039231
0.3548018 0.0052957381 1.0033077
0.36528355 0.004013476 1.0048125
0.37541631 0.0044452013 1.0051668
0.3849754 0.003396987 1.0048182
0.39592704 0.0031553262 1.0032856
0.40576997 0.0035543677 1.0049375
0.41448107 0.0033328487 1.0044445
0.42419231 0.0033292533 1.0033333
0.43547326 0.0024875279 1.0028667
0.4451642 0.0034185622 1.0043
0.45466393 0.0034891693 1.0046363
0.46442494 0.0028518229 1.0054584
0.47522095 0.0025793056 1.004095
0.48439488 0.002576876 1.0036
0.49435893 0.001577187 1.001
0.50489038 0.001577187 1.001
0.51550961 0.0015771871 1.001
0.52437365 0.001577187 1.001
0.53516841 0.00079115224 1.001
0.54451305 0.0010531639 1.0009999
0.5558511 0.00052861206 1
0.56540757 0.000528612 1
0.57435042 0.000528612 1
-0.12161225 0.0195296 1.0080001
-0.11436762 0.018456785 1.0071001
-0.10529969 0.01844516 1.0065001
-0.094858564 0.018528579 1.0066155
-0.084677234 0.018345749 1.0068001
-0.075297192 0.017923623 1.0067501
-0.064443171 0.017385736 1.0061539
-0.054170799 0.016683409 1.0061667
-0.044673868 0.015703358 1.0064499
-0.035015676 0.015937647 1.0054799
-0.024448987 0.014518334 1.0051851
-0.014989751 0.014242398 1.0047201
-0.0058467686 0.013793675 1.0046922
0.005189376 0.013742748 1.00475
0.015551597 0.013253819 1.0050479
0.025034025 0.011898671 1.0056667
0.034725178 0.012107027 1.0055
0.044937223 0.012106289 1.0055002
0.055502746 0.013078197 1.0041875
0.06454476 0.01308274 1.0040002
0.074748918 0.012645588 1.0038235
0.085089125 0.012484251 1.0026666
0.09524665 0.012290303 1.0029999
0.10429254 0.012666858 1.0018572
0.11402909 0.011761877 1.0014286
0.12642789 0.011814931 1.0028335
0.13494073 0.012129434 1.0026318
0.14462157 0.011626805 1
0.15516421 0.011537976 1.0015
0.16404863 0.011707604 1.001
0.17579369 0.011297749 1
0.18540333 0.011873811 1.0016365
0.19434541 0.012059355 1.00125
0.20563474 0.012901275 1.0015
0.21483463 0.012755651 1.001
0.33487779 0.01311879 1.0020001
-0.420966 0.027944852 1.0070001
-0.41469693 0.028954413 1.0055001
-0.27325049 0.028562883 1.0075716
-0.26546183 0.028294895 1.0070001
-0.25419152 0.028496163 1.0078751
-0.24457535 0.027865043 1.0076365
-0.23457006 0.027963366 1.0060003
-0.22489068 0.02746986 1.0055913
-0.21558474 0.027436515 1.005143
-0.205244 0.027277933 1.0044402
-0.19488621 0.02646756 1.005077
-0.18532771 0.025779488 1.0050771
-0.1753193 0.025921153 1.0052177
-0.16560932 0.024418602 1.0043335
-0.15503177 0.023530042 1.0041177
-0.14527485 0.023762269 1.003125
-0.13501662 0.024244241 1.0036666
-0.1256475 0.024145661 1.0036521
-0.11523058 0.022113046 1.0033637
-0.10572958 0.022017388 1.0033637
-0.094711162 0.02077969 1.0028572
-0.084913686 0.020822354 1.0025001
-0.074714139 0.020472657 1.0025001
-0.064380616 0.020482866 1.003
-0.055352211 0.020812143 1.0020001
-0.045161605 0.020462446 1.0020001
-0.039363503 0.020462444 1.0020001
-0.48289382 0.039581731 1.008
-0.46133003 0.03887815 1.0080001
-0.45850202 0.039581731 1.008
-0.4415338 0.039581731 1.008
-0.43412334 0.038268156 1.0068001
-0.42472115 0.034366954 1.0055001
-0.41492012 0.032872681 1.0039091
-0.40487757 0.033519063 1.0038888
-0.39431986 0.033596594 1.0033599
-0.38477781 0.033707567 1.0031817
-0.37509477 0.033237878 1.0039999
-0.36477244 0.034754559 1.0032502
-0.35592699 0.03579089 1.0042309
-0.34603804 0.03466722 1.0032501
-0.33452755 0.03394055 1.0039999
-0.32544109 0.034816191 1.0038126
-0.31451499 0.034030002 1.0044287
-0.30513561 0.035209741 1.0038421
-0.29460657 0.033984713 1.0038334
-0.28491896 0.034093417 1.0042222
-0.27549836 0.033776179 1.0028332
-0.26571649 0.032319419 1.0025715
-0.25435266 0.031880915 1.0029287
-0.24540332 0.032407213 1.0030001
-0.23565435 0.033026434 1.0012858
-0.22614643 0.032303568 1.0005001
-0.52107233 0.047671549 1.0080001
-0.51484764 0.047505755 1.0066431
-0.50417697 0.046623852 1.0042632
-0.49508885 0.045333691 1.0045999
-0.48430267 0.044631768 1.0042105
-0.47490132 0.044899795 1.0048234
-0.46506342 0.04393357 1.0050001
-0.45483074 0.043237377 1.0050002
-0.44444689 0.044269498 1.0049999
-0.43658176 0.042962044 1.0031999
-0.51395589 0.051482584 1
-0.50957215 0.050784584 1
0.54746759 -0.010110386 1.0170001
0.55452937 -0.010110386 1.0170001
0.56504577 -0.010110386 1.0170002
0.57558227 -0.011257856 1.0156364
0.58301431 -0.011764354 1.0152858
0.14622414 -0.0015919984 1.0170001
0.17832361 -0.0005272 1.0170001
0.18313852 -0.0005272 1.0170001
0.21887755 -0.00052823673 1.0190001
0.22370192 -0.0010616829 1.0190001
0.35831398 -0.0023036057 1.0176667
0.36518008 -0.0028191679 1.0159231
0.3747997 -0.00331949 1.015375
0.38475749 -0.0038771392 1.0147002
0.39408082 -0.0037166323 1.0150001
0.40582901 -0.0036338596 1.0147693
0.41498351 -0.0036522732 1.0151875
0.42580536 -0.0037166311 1.0152143
0.43478888 -0.0052785617 1.0154002
0.44551033 -0.0037174174 1.0150002
0.45484483 -0.0041554412 1.0155454
0.46495852 -0.003542477 1.0158334
0.47492939 -0.0043013562 1.01485
0.48440871 -0.0048901797 1.0136669
0.49493912 -0.0041768961 1.0158572
0.50449049 -0.005844689 1.0154376
0.51477963 -0.0061355229 1.0144446
0.52485281 -0.0065961839 1.0142144
0.53554899 -0.0067398641 1.0146924
0.5455302 -0.0066871308 1.0142001
0.55396575 -0.0079549802 1.0136667
0.56540322 -0.0074641178 1.0123637
0.57231331 -0.00809546 1.0122858
0.58359343 -0.0089922203 1.011
-0.06248378 0.0090648904 1.018
-0.054719012 0.0085682739 1.0166365
-0.04556144 0.0090648904 1.018
-0.034961276 0.0083454223 1.0170001
-0.025116276 0.0079773068 1.0154999
-0.015523008 0.0079702875 1.0147001
-0.0050327098 0.0070416797 1.0150001
0.0048416792 0.0057605281 1.0160434
0.015713619 0.0060024797 1.0155715
0.024880609 0.0054712826 1.0145501
0.033918515 0.0059637767 1.0146668
0.045074698 0.0071322257 1.0161999
0.055168781 0.005408999 1.0150591
0.064607665 0.0045504845 1.014522
0.075539753 0.0047799782 1.0141821
0.084639736 0.0038491106 1.013875
0.094930395 0.0036442566 1.0144285
0.10465331 0.0028556399 1.0139999
0.11441572 0.0026576389 1.0144618
0.12531856 0.0029579443 1.0135715
0.13480766 0.0032517959 1.013625
0.14545652 0.0026551757 1.0137857
0.15475653 0.0022201436 1.014353
0.1651634 0.0033885208 1.0137694
0.17459251 0.0030378217 1.0148572
0.18538055 0.0031130924 1.014643
0.19467254 0.0034540014 1.0143751
0.20490247 0.0034168726 1.014643
0.21568415 0.0032226823 1.0154119
0.22267023 0.0031878022 1.0143001
0.34640664 0.0026488369 1.01
0.35518333 0.0018060148 1.0124
0.36473089 0.00083671196 1.0112858
0.37573424 0.000837014 1.0118573
0.38043246 0.0010631614 1.011
-0.21150661 0.018994104 1.0170001
-0.2045517 0.019349037 1.0170002
-0.1951002 0.01863917 1.0170001
-0.18429381 0.018012768 1.0151111
-0.1751371 0.017274 1.0173572
-0.16436097 0.017459845 1.0173334
-0.15475571 0.016925862 1.0153686
-0.14510365 0.017068287 1.0160003
-0.1352419 0.016309509 1.0147781
-0.12517117 0.015244407 1.0139314
-0.11478662 0.013241268 1.0152502
-0.10498776 0.013879445 1.0153334
-0.094945319 0.013522681 1.0151669
-0.084827267 0.012702128 1.0146253
-0.075144537 0.012891805 1.0137058
-0.065504089 0.012965839 1.0131669
-0.05471579 0.012180726 1.0113335
-0.04513026 0.011143788 1.0132002
-0.035345361 0.011281956 1.0120001
-0.028576773 0.011130589 1.0120001
-0.0035558096 0.010071026 1.0120001
0.0047845114 0.010071026 1.0120001
0.014544463 0.010071026 1.0120001
0.037968338 0.010071026 1.0120001
-0.43269709 0.025942819 1.017143
-0.42500728 0.025707075 1.0140001
-0.41427362 0.025696544 1.0147893
-0.40560514 0.025858717 1.0153528
-0.39452058 0.026548132 1.0142223
-0.38484412 0.02704774 1.0130527
-0.3755739 0.027416622 1.0149
-0.36551896 0.027256262 1.0163333
-0.35524449 0.028029269 1.0165
-0.34585479 0.028390031 1.0175716
-0.33440134 0.027064336 1.0166155
-0.32562089 0.027209343 1.0159231
-0.31496164 0.02714264 1.0165
-0.304928 0.027150963 1.0168
-0.29458871 0.026424004 1.0154119
-0.28505412 0.026947925 1.0129547
-0.27619112 0.025782419 1.0139287
-0.26529968 0.025159474 1.014375
-0.25546083 0.025183987 1.0142144
-0.24512574 0.023511214 1.0138236
-0.23547606 0.022834092 1.01425
-0.22503778 0.022487141 1.0145
-0.21484406 0.022073591 1.013077
-0.2045697 0.021735387 1.0125
-0.19557902 0.021221444 1.0132501
-0.18419886 0.020646239 1.0110002
-0.17492832 0.021470757 1.0125
-0.16484407 0.020844134 1.0132859
-0.15508807 0.020641133 1.0107501
-0.14275169 0.021683285 1.01
-0.51174939 0.038946781 1.0190001
-0.50462753 0.03790139 1.0172501
-0.49450693 0.037930306 1.0147499
-0.4850018 0.037801128 1.0152942
-0.47482592 0.037753131 1.0157002
-0.46604323 0.036812 1.0148572
-0.4547739 0.037456684 1.0152631
-0.444879 0.036319342 1.0136113
-0.43491068 0.033975873 1.0130588
-0.42758584 0.030694682 1.0107501
-0.40521824 0.030143041 1.0100001
-0.39636311 0.030143043 1.01
-0.37227708 0.03120051 1.01
-0.36481738 0.031604227 1.0116668
-0.35512969 0.03145504 1.0114001
-0.34571427 0.031263389 1.0120835
-0.3345187 0.03071654 1.0115001
-0.32498217 0.031239307 1.0113001
-0.31467685 0.030807367 1.011
-0.30483252 0.030670021 1.0115455
-0.29564941 0.03042233 1.0105
-0.52214646 0.043584842 1.0152501
-0.51432371 0.042854156 1.0139334
-0.50617653 0.041712027 1.012143
-0.49351782 0.041844141 1.0116668
-0.48461661 0.041871712 1.0123334
-0.4755635 0.041871712 1.0123334
-0.46695775 0.04181657 1.011
-0.45419368 0.040758051 1.011
-0.4486981 0.040758051 1.011
0.37925857 -0.011296056 1.028
0.38423371 -0.011296056 1.028
0.3933188 -0.011296056 1.028
0.40516472 -0.010753921 1.0276
0.41500449 -0.010630383 1.026
0.42613289 -0.011068865 1.0268
0.43521494 -0.011914986 1.0254667
0.44338712 -0.011954298 1.0255455
0.45514771 -0.010219742 1.028
0.46513411 -0.011296056 1.028
0.47502598 -0.011277219 1.0262858
0.48521113 -0.011715175 1.0270001
0.4940713 -0.011285068 1.0270001
0.50574529 -0.012061214 1.0242501
0.51512426 -0.011707961 1.0233573
0.52479589 -0.011624006 1.0231179
0.53548056 -0.012077291 1.0241767
0.5455727 -0.012335258 1.0246431
0.55512452 -0.014536421 1.0243336
0.56475013 -0.014416965 1.0252002
0.57402223 -0.0149408 1.0235558
0.58572614 -0.015875859 1.0246
0.59177279 -0.017390467 1.0276668
0.0063824635 -0.00053199503 1.02625
0.015049377 -0.0011461566 1.0257144
0.0258392 -0.0016066572 1.0261818
0.033826727 -0.0021437195 1.0263333
0.056023486 -0.0019116655 1.0251429
0.06537281 -0.0025583415 1.0243334
0.074972644 -0.0019336117 1.0230001
0.084218539 -0.0019195556 1.023
0.094711162 -0.0015061627 1.0227273
0.10445671 -0.0025426096 1.0231875
0.11468501 -0.0025526453 1.0242352
0.12576616 -0.0020645703 1.0240715
0.13486123 -0.0026757319 1.0232308
0.14457747 -0.0026743256 1.0232729
0.15506019 -0.0029196483 1.022077
0.16521108 -0.0034371971 1.0219288
0.17551117 -0.0035583456 1.0241365
0.18506691 -0.0031349326 1.0247368
0.19516723 -0.0030393377 1.024381
0.20509994 -0.0033178886 1.024909
0.21512112 -0.0029709914 1.0258002
0.22368549 -0.005123531 1.0256364
0.3552106 -0.0050705508 1.0258889
0.36533245 -0.0069707478 1.0243334
0.37581468 -0.007681103 1.0239333
0.38554513 -0.0083862953 1.0230001
0.39607006 -0.0076819211 1.0241668
0.40433183 -0.0069551426 1.0226154
0.41551861 -0.0077101169 1.0214286
0.42495868 -0.006950255 1.0219001
0.43396625 -0.0078340145 1.021
0.44567704 -0.0078907181 1.0225
0.45446143 -0.0090900594 1.0220001
0.46533501 -0.0081398478 1.022
0.47384989 -0.0083803656 1.0223334
0.4850212 -0.0081321057 1.0224999
0.49569127 -0.0086092781 1.0234616
0.50407732 -0.0088987276 1.0205001
-0.16458353 0.0091539361 1.028
-0.15481345 0.0091539361 1.028
-0.14511552 0.0091539361 1.028
-0.13453445 0.0079700602 1.0269091
-0.12517568 0.0080548348 1.0253
-0.11527638 0.0081386361 1.0247501
-0.1039571 0.0077633676 1.0271429
-0.094558015 0.0072556511 1.026125
-0.084785558 0.0070664496 1.0256923
-0.07440304 0.0069850655 1.0258001
-0.065040402 0.0067601986 1.0245335
-0.054310355 0.0041624852 1.0255002
-0.044548832 0.004928926 1.0242858
-0.035186123 0.0039800042 1.024158
-0.025004851 0.0035526322 1.0238125
-0.014836171 0.0031924939 1.025412
-0.0055738091 0.0025054249 1.0237502
0.0051959832 0.0016113271 1.0230001
0.01361342 0.0013420472 1.022125
0.024967823 0.00053993938 1.0214286
0.036530435 0.0019025366 1.0231819
0.044750124 0.0026185447 1.0238824
0.053328305 0.001221413 1.0226364
0.064918093 0.00053918432 1.0200001
0.072251208 0.0012511439 1.0200002
0.09228313 0.0016071236 1.0200002
0.12233102 0.00053918426 1.0200002
0.13377783 0.00053918426 1.0200001
0.14128979 0.00053918426 1.0200001
0.19816613 0.0016071236 1.0200001
0.20496267 0.0016071236 1.0200002
0.21372664 0.00053918426 1.0200001
-0.44013184 0.019897716 1.0270001
-0.43528682 0.018690055 1.0263335
-0.42565307 0.019682663 1.0270001
-0.41503769 0.018811453 1.0264001
-0.40569079 0.01855363 1.0270001
-0.39458644 0.018507374 1.0265715
-0.38178468 0.019897716 1.0270001
-0.37421602 0.019203877 1.0258751
-0.36935729 0.019868653 1.0255001
-0.34293544 0.019051326 1.0278001
-0.33467326 0.019907404 1.0275002
-0.32433799 0.01872443 1.0290002
-0.31512809 0.018411662 1.0281001
-0.30506155 0.018021153 1.0290002
-0.29594257 0.018374167 1.0286669
-0.28563476 0.018859101 1.029
-0.2744332 0.018268973 1.02625
-0.26471528 0.017952083 1.0260001
-0.25509572 0.017344022 1.0257
-0.24525635 0.017376527 1.0245
-0.23513103 0.01765006 1.0251667
-0.22528914 0.016610725 1.0263752
-0.21562327 0.016191822 1.0251176
-0.20497812 0.015039017 1.0241581
-0.19497257 0.014115394 1.024037
-0.18517078 0.013848264 1.0244118
-0.175063 0.013085733 1.0253749
-0.165536 0.013468358 1.0241176
-0.15535007 0.01223133 1.0236365
-0.14523405 0.011795363 1.0237501
-0.1344215 0.011247175 1.0226002
-0.12724388 0.010170542 1.0220001
-0.1043572 0.010182484 1.0232
-0.096330635 0.010170542 1.0220001
-0.07428816 0.010170542 1.0220001
-0.49355659 0.029065771 1.028
-0.48447153 0.028527616 1.028
-0.47733328 0.029173404 1.028
-0.44417387 0.025693377 1.0266001
-0.43620682 0.023940045 1.0225
-0.42424569 0.021247629 1.0230001
-0.41497746 0.021603957 1.0230001
-0.4038969 0.021849303 1.0228001
-0.39529422 0.022107532 1.0232
-0.38473484 0.022151327 1.024231
-0.37546536 0.022531232 1.0223637
-0.36512578 0.023430912 1.0237859
-0.35430318 0.023777433 1.0244002
-0.34531221 0.024236124 1.0244288
-0.3350434 0.022533232 1.0228462
-0.32493749 0.022928916 1.0241176
-0.31487712 0.0229214 1.0237647
-0.30511734 0.022907387 1.0231178
-0.29528585 0.02211999 1.0213636
-0.28528443 0.021409951 1.0222501
-0.27592993 0.021520467 1.021125
-0.26523328 0.022059735 1.0204287
-0.25534222 0.021897972 1.0200001
-0.23108929 0.021897972 1.0200001
-0.22626017 0.020830031 1.0200001
-0.53073561 0.037781332 1.026
-0.52452636 0.037380125 1.0267999
-0.5148263 0.035179678 1.0259376
-0.50521594 0.033059679 1.0262001
-0.49468595 0.032756269 1.0256923
-0.48521459 0.033083871 1.0239286
-0.47570771 0.031993967 1.0242002
-0.46513879 0.033474419 1.0265001
-0.45557827 0.032392159 1.0255001
-0.44601586 0.031395592 1.0250001
-0.43906426 0.030501176 1.0220001
-0.5258888 0.041334484 1.0220001
-0.51970744 0.04013148 1.0220001
0.4259488 -0.020119585 1.039
0.43442053 -0.020119585 1.039
0.44592252 -0.020704573 1.0380001
0.46785206 -0.020119585 1.039
0.47431973 -0.020119585 1.039
0.48279148 -0.020119585 1.039
0.49700212 -0.021207418 1.039
0.51704282 -0.021207418 1.039
0.52498686 -0.022190792 1.0387272
0.53491414 -0.020878768 1.0373636
0.54478014 -0.020813886 1.036
0.55484742 -0.021222379 1.0355386
0.56528032 -0.022595949 1.0349287
0.57528901 -0.02220769 1.0347693
0.5849914 -0.022428051 1.0359092
0.59445006 -0.023769544 1.0368001
0.032969125 -0.010329096 1.039
0.065398604 -0.011416929 1.039
0.071775183 -0.011416928 1.039
0.085985854 -0.011199362 1.039
0.093501106 -0.010601055 1.039
0.10544688 -0.010865557 1.03825
0.11410116 -0.01127949 1.0373334
0.12594588 -0.011044375 1.0380001
0.13495801 -0.010329097 1.039
0.14473853 -0.010865862 1.0383334
0.15470392 -0.01140594 1.0380001
0.16463642 -0.011400446 1.0375001
0.17563538 -0.01140594 1.0380001
0.18582809 -0.011224809 1.0380001
0.19466971 -0.010747903 1.0374001
0.20478582 -0.01028933 1.0350001
0.2143313 -0.010319155 1.0380001
0.22474287 -0.011033736 1.0370001
0.35788271 -0.011372975 1.0350001
0.36659899 -0.012334411 1.0346667
0.37480715 -0.013058944 1.0341876
0.38397205 -0.014178623 1.034
0.39596593 -0.013878284 1.0351539
0.40548033 -0.014832267 1.0342001
0.41512075 -0.015451629 1.0336668
0.42479852 -0.0155275 1.0341053
0.43441838 -0.016160721 1.0340716
0.44473159 -0.01603907 1.0329168
0.45486853 -0.015437671 1.0356843
0.46532059 -0.015164947 1.0345001
0.47481593 -0.015859846 1.0339003
0.48501679 -0.015988221 1.0344347
0.49494362 -0.015874105 1.0331304
0.50392634 -0.01605837 1.0326473
0.51573068 -0.016961141 1.0320002
0.52563399 -0.017261712 1.0324707
0.53578877 -0.016731666 1.0312501
0.54534668 -0.016407281 1.0312001
0.5538581 -0.017560355 1.0306668
0.5655731 -0.018866897 1.0300001
0.57520992 -0.018250665 1.0300002
0.58523393 -0.019285824 1.0307502
0.59243327 -0.019537181 1.0312002
-0.062558956 -0.0016233061 1.0370001
-0.055027865 -0.001620958 1.0355
-0.044686969 -0.001212834 1.033625
-0.034513898 -0.001620497 1.0336002
-0.025546778 -0.0021626011 1.0340002
-0.015091086 -0.0018701339 1.0335386
-0.004804174 -0.0018713395 1.034
0.005439485 -0.004516209 1.0353334
0.014667887 -0.0058569578 1.0350478
0.025165929 -0.0062104091 1.0341766
0.035539486 -0.0061750188 1.03435
0.045329966 -0.0045237658 1.03324
0.055682722 -0.0060824002 1.0338824
0.064953864 -0.0070858528 1.0330001
0.075007312 -0.0073389187 1.0341668
0.084874734 -0.0073998589 1.0344
0.094539769 -0.0061512375 1.0331875
0.10441814 -0.0068579228 1.0325384
0.11556309 -0.0069372565 1.0320771
0.12472605 -0.0069356868 1.0318463
0.13498917 -0.0073359436 1.0327858
0.14475292 -0.0073246169 1.0340002
0.15480849 -0.0073706619 1.0336875
0.16438513 -0.0076084589 1.0328461
0.17373811 -0.0082160719 1.033
0.18502231 -0.0083276266 1.0335001
0.19487824 -0.007572962 1.033875
0.20602766 -0.007742255 1.0325001
0.21495971 -0.0072708386 1.0336667
0.22194974 -0.0077618742 1.0350001
0.35614014 -0.0091701094 1.031
-0.26053587 0.009251887 1.039
-0.25470585 0.009251887 1.039
-0.24413894 0.009251887 1.039
-0.23560734 0.0081561971 1.0380001
-0.22570269 0.0081561971 1.0380001
-0.21496394 0.0081561971 1.0380001
-0.20479141 0.0081467675 1.0368
-0.1948574 0.0070552672 1.0361999
-0.185146 0.00779104 1.035
-0.1751097 0.0075561581 1.035
-0.16515999 0.0056009796 1.0350002
-0.15517372 0.0056282706 1.03575
-0.14508583 0.0051503456 1.0351875
-0.13530472 0.0040954463 1.0358183
-0.12489567 0.0034909085 1.0362859
-0.11479858 0.0040940191 1.0358183
-0.10490943 0.0036840781 1.0345
-0.095521785 0.0030315218 1.0353529
-0.085312873 0.0024087909 1.0343335
-0.075131893 0.0022366736 1.0345626
-0.065617666 0.0018431868 1.0336001
-0.055595621 0.00081525947 1.03175
-0.046649467 0.00090481777 1.031
-0.017723819 0.0016244553 1.031
-0.44348773 0.014414341 1.0350001
-0.43493345 0.014929567 1.0347779
-0.42556137 0.016875481 1.0349287
-0.41473943 0.015700774 1.0341538
-0.40484372 0.015608434 1.0334616
-0.39542678 0.015706167 1.0344288
-0.3849858 0.016703287 1.0336668
-0.37515903 0.015356814 1.0336875
-0.36477524 0.017441371 1.03575
-0.35435832 0.016501151 1.0344211
-0.34534246 0.016296918 1.0338333
-0.33493939 0.017381778 1.035077
-0.32533652 0.015014123 1.0365
-0.31497794 0.015139109 1.0355386
-0.3054879 0.014913127 1.0357499
-0.29443929 0.014592124 1.0365002
-0.28464392 0.014135106 1.0365714
-0.275359 0.013097734 1.0369375
-0.26534086 0.012807318 1.0357693
-0.25497031 0.011880317 1.0348463
-0.24450098 0.01203804 1.0356002
-0.23508382 0.012297133 1.0338572
-0.22479509 0.011155202 1.034
-0.2150639 0.011638233 1.0336666
-0.20552631 0.010437211 1.0332859
-0.19399667 0.010270058 1.0320001
-0.18929169 0.010270058 1.0320001
-0.53166604 0.029891904 1.0380001
-0.52465814 0.028019076 1.0371001
-0.51502568 0.028221514 1.0344445
-0.50478077 0.027106026 1.0355
-0.4953835 0.025725493 1.0334547
-0.48528317 0.024655389 1.0342001
-0.47604796 0.027562749 1.0359092
-0.46595129 0.027870521 1.0363636
-0.45541486 0.027037578 1.0347275
-0.4472234 0.023891313 1.0324
-0.36288786 0.020726446 1.0326668
-0.35867083 0.021072999 1.0320001
-0.53369093 0.03351954 1.0360001
-0.52518356 0.03338087 1.0325
-0.51750469 0.032388963 1.031
-0.50600225 0.030978689 1.0380001
-0.47004858 0.030769778 1.031
-0.46516737 0.030769778 1.031
0.55974495 -0.030169165 1.0480001
0.5634203 -0.030169165 1.0480001
0.59487051 -0.030796172 1.0480002
0.60162705 -0.031247228 1.0473335
0.38810027 -0.0213503 1.046
0.39509422 -0.02276173 1.046
0.40406758 -0.023176791 1.0459335
0.41490662 -0.022469014 1.0470001
0.42541921 -0.022359248 1.0457692
0.43504253 -0.022674998 1.0463333
0.44514701 -0.02336143 1.0453846
0.45537266 -0.022742929 1.0450715
0.46440786 -0.022680556 1.0440625
0.47501823 -0.023424542 1.04475
0.48520976 -0.022686878 1.0453078
0.49491102 -0.023309469 1.0446875
0.50501508 -0.023918208 1.0446315
0.5151037 -0.023772603 1.0464666
0.5251199 -0.025497211 1.0438334
0.53488064 -0.025721529 1.0454545
0.54474914 -0.024853891 1.0444616
0.55591369 -0.025695212 1.0444
0.56496811 -0.026428122 1.0445834
0.57446712 -0.026795385 1.0447001
0.58573067 -0.026469817 1.0448002
0.59484231 -0.027419934 1.0429232
-0.030725226 -0.01042851 1.049
-0.024187734 -0.010966203 1.0479001
-0.015813153 -0.010831281 1.0481251
-0.0045085442 -0.01160229 1.0475003
0.0044825124 -0.011854629 1.0455
0.014948888 -0.011747424 1.0459232
0.025158392 -0.01242897 1.0454286
0.034736805 -0.013259695 1.0454618
0.044853356 -0.012041376 1.0459002
0.055316143 -0.012895072 1.0452145
0.065339066 -0.014599051 1.0450001
0.075752676 -0.014430023 1.0454738
0.08505033 -0.015189297 1.0446668
0.095578827 -0.014984812 1.0447
0.10428468 -0.015302056 1.0440556
0.11451959 -0.015213474 1.0447059
0.12481307 -0.014581097 1.0437692
0.13493489 -0.014533531 1.0429375
0.14464821 -0.014451638 1.0432003
0.15447937 -0.014240182 1.0433078
0.16510335 -0.014942122 1.0436471
0.17460127 -0.015097061 1.0444616
0.18514445 -0.015188403 1.0438001
0.19494537 -0.015590642 1.044
0.20488735 -0.013866292 1.044
0.21505725 -0.0140837 1.0438334
0.22330508 -0.015107475 1.0432
0.35918587 -0.01546705 1.0430001
0.36540154 -0.016670395 1.0409001
0.3753227 -0.017896604 1.0419092
0.38588798 -0.017927891 1.0432502
0.39500988 -0.01771187 1.0412501
0.40389815 -0.018227588 1.0413334
0.4138388 -0.019086707 1.0420002
0.42094624 -0.019077547 1.0415001
0.45677835 -0.017995734 1.0420001
0.46280789 -0.018541221 1.0420001
0.50830376 -0.019086707 1.0420001
0.51488143 -0.019086707 1.0420001
-0.18543375 -0.00163896 1.0470001
-0.17221519 -0.00054275157 1.0470001
-0.1645437 -0.0010900781 1.0455
-0.1544558 -0.00097936252 1.0446
-0.14443591 -0.0022975956 1.0463333
-0.13501775 -0.0024627233 1.0463123
-0.12496065 -0.0036920814 1.046739
-0.11476966 -0.0030405216 1.0455
-0.10459013 -0.0036721723 1.0442857
-0.094742887 -0.0039811158 1.0435715
-0.084876724 -0.0043504755 1.0443044
-0.074550249 -0.0046837176 1.0441738
-0.065683343 -0.0049180961 1.0437894
-0.054868497 -0.0057577766 1.0445883
-0.044934601 -0.0064061428 1.0451176
-0.036044486 -0.0069903005 1.0449998
-0.024170164 -0.0066191894 1.0417144
-0.015104478 -0.0063929204 1.0427856
-0.0047627287 -0.0065812171 1.0429412
0.0036458306 -0.0076273023 1.0413334
0.01936076 -0.0092679467 1.0420001
0.02155333 -0.0092679467 1.0420001
0.039093886 -0.0092679467 1.0420001
0.045945663 -0.0092679467 1.0420001
0.051883876 -0.0092679467 1.0420001
-0.45139962 0.0078765303 1.049
-0.4440043 0.0071256123 1.0465456
-0.43556827 0.007133448 1.0476153
-0.42505699 0.0072877593 1.0472858
-0.4149164 0.0077184755 1.0468462
-0.40533668 0.0082231611 1.0466667
-0.39499372 0.008219189 1.0462502
-0.3854005 0.0082267588 1.0471002
-0.37515709 0.0084435372 1.0468001
-0.36517781 0.0093186712 1.0465002
-0.35564712 0.0084488811 1.0474001
-0.32012773 0.0082347728 1.0480001
-0.31443587 0.0084488811 1.0474001
-0.30550417 0.0088209631 1.0453335
-0.29441196 0.0079578692 1.0452309
-0.28526473 0.0076613943 1.0450001
-0.27482331 0.0071918541 1.0463126
-0.26497287 0.006743547 1.0441334
-0.25470108 0.0054278709 1.0443846
-0.24484777 0.0056273234 1.0439411
-0.23484084 0.0049199527 1.044
-0.2248244 0.0048512444 1.0427649
-0.21491787 0.0044074473 1.0441766
-0.20497894 0.0043052649 1.0438124
-0.19458359 0.0024880629 1.0456154
-0.18517786 0.0021194234 1.0436251
-0.17556983 0.0020789185 1.0438001
-0.16510265 0.0014588214 1.0415
-0.15534744 0.0021851747 1.041
-0.14450462 0.0016402114 1.041
-0.13472055 0.0016402116 1.041
-0.12413329 0.0012769027 1.0410001
-0.11576604 0.00055007369 1.0406001
-0.10814843 0.00054975646 1.0400001
-0.5014317 0.01812735 1.049
-0.49362984 0.017702527 1.04825
-0.48464239 0.016637553 1.0474999
-0.47727045 0.017492345 1.0485715
-0.46296161 0.018284254 1.049
-0.45495424 0.016175557 1.0460001
-0.44771606 0.011453478 1.0415001
-0.43439269 0.011274486 1.0417501
-0.42509019 0.011681256 1.0424001
-0.4155094 0.011452407 1.0413637
-0.40651342 0.012079623 1.0417144
-0.39518678 0.012440439 1.041091
-0.38646546 0.01236102 1.0428183
-0.37377518 0.012375718 1.0428333
-0.36570504 0.013348891 1.0417895
-0.35476336 0.011257282 1.0434999
-0.34525761 0.012100904 1.0460911
-0.33524314 0.011932445 1.0454001
-0.32502103 0.01094853 1.0453002
-0.31505954 0.011033116 1.0429
-0.30568767 0.011278719 1.0420001
-0.29593074 0.011460547 1.0420001
-0.27444354 0.011460547 1.0420001
-0.54196721 0.027227862 1.0470002
-0.53534913 0.027312163 1.0433573
-0.52525002 0.023690164 1.04425
-0.5149129 0.023273295 1.0442144
-0.50513923 0.022387562 1.043
-0.49534076 0.021391435 1.0427272
-0.48424801 0.0215718 1.0418183
-0.47539267 0.02244387 1.0436
-0.4657802 0.023325533 1.0442778
-0.45636114 0.023340533 1.0416001
-0.537036 0.032158148 1.041
0.59791386 -0.040388357 1.057
0.38216358 -0.03045704 1.0580001
0.40813631 -0.031564765 1.0580001
0.41704124 -0.031564765 1.0580001
0.43707737 -0.031564765 1.0580001
0.44733271 -0.030435447 1.05725
0.4548583 -0.030627266 1.0575001
0.4634212 -0.03045704 1.0580001
0.48605457 -0.030457038 1.0580001
0.49495953 -0.03045704 1.0580001
0.50664723 -0.031287834 1.0580001
0.51419467 -0.031549849 1.0575001
0.53619421 -0.031534929 1.057
0.54562092 -0.03187434 1.0560001
0.55497825 -0.031835955 1.0546666
0.56450915 -0.033201978 1.054
0.57440114 -0.032870051 1.0535501
0.58491695 -0.032276612 1.0539999
0.59410977 -0.035168495 1.0538752
0.60365283 -0.036084391 1.0535715
0.0079703042 -0.02048751 1.0580001
0.015639672 -0.020475892 1.0574001
0.025184605 -0.02143988 1.0563335
0.032802504 -0.021403793 1.0562859
0.046372887 -0.02048751 1.0580001
0.057504069 -0.021595236 1.0580001
0.065480225 -0.021804536 1.0574001
0.075414672 -0.021571426 1.0568334
0.085201718 -0.021562578 1.0564002
0.096247651 -0.022284696 1.0556667
0.10546371 -0.022093825 1.0529091
0.11409745 -0.021686025 1.054
0.12483021 -0.021545781 1.0555
0.13458748 -0.021419588 1.0553334
0.14563596 -0.020969868 1.0543749
0.15482761 -0.021507783 1.0537
0.1645159 -0.021656968 1.0550001
0.17565489 -0.021708243 1.0545
0.18570337 -0.022553066 1.0556364
0.19465365 -0.022358907 1.0547501
0.2056475 -0.02141889 1.0553334
0.21477063 -0.021903941 1.0550001
0.22375762 -0.021617768 1.0536001
0.36540544 -0.02259711 1.0527501
0.37552878 -0.02432091 1.053682
0.38461071 -0.025217731 1.0541923
0.39417124 -0.02651106 1.0536002
0.40525356 -0.028049385 1.0544547
0.41526112 -0.027422715 1.0548003
0.42567548 -0.027314248 1.0550002
0.43470687 -0.027859207 1.0546002
0.44353664 -0.027725156 1.0536366
0.4555859 -0.027157705 1.0535002
0.4648214 -0.027131077 1.0539093
0.47541413 -0.027484313 1.0544001
0.48492762 -0.027365847 1.0541002
0.49445647 -0.027813386 1.0537145
0.50421172 -0.029266093 1.0550002
0.51528788 -0.028126823 1.0536366
0.52428573 -0.028369345 1.0535556
0.53553027 -0.029254997 1.0546001
0.54465139 -0.028646542 1.0525
0.55139542 -0.028054733 1.051
0.58567381 -0.028054735 1.051
0.59120256 -0.028054733 1.051
-0.14503489 -0.010527924 1.059
-0.13402863 -0.011067398 1.0575
-0.12436969 -0.011161509 1.059
-0.11472648 -0.010836195 1.0581429
-0.10487671 -0.010892544 1.0585001
-0.095268629 -0.010527924 1.059
-0.084635593 -0.01193936 1.0577142
-0.075192124 -0.011771547 1.0568571
-0.064928554 -0.01162351 1.0577999
-0.054268688 -0.012357565 1.0573334
-0.044587273 -0.01366146 1.0561429
-0.034577921 -0.013795983 1.0543334
-0.024428559 -0.014886873 1.0535002
-0.014045348 -0.01444436 1.0534002
-0.004217322 -0.016007941 1.0545386
0.0052499818 -0.016638909 1.0545716
0.015064034 -0.016325941 1.0529376
0.024275646 -0.017167125 1.052
0.035525959 -0.017434282 1.0536156
0.045048252 -0.017116189 1.0548003
0.054526918 -0.017382784 1.0542502
0.064762637 -0.018478144 1.0538751
0.074246123 -0.018732898 1.0527501
0.085290827 -0.019269882 1.052
0.095080614 -0.019288197 1.053
0.10319667 -0.019251563 1.051
0.1168343 -0.018151166 1.051
0.12394272 -0.017836766 1.0510001
0.13452636 -0.018151166 1.051
0.14495203 -0.018151168 1.0510001
0.1558674 -0.018371245 1.051
0.16548745 -0.019251563 1.051
0.1761941 -0.018433135 1.051375
0.1852449 -0.018715102 1.0517501
0.19663653 -0.01908648 1.052
0.20520639 -0.018343724 1.0515001
0.21480405 -0.018151166 1.051
0.22077513 -0.018151166 1.051
0.36086214 -0.019233245 1.0500001
-0.45311618 -0.0019329162 1.0576251
-0.44742727 -0.0020238557 1.057
-0.39256677 -0.00054845389 1.0580001
-0.38588807 -0.00054845389 1.0580001
-0.28339857 -0.00054793549 1.057
-0.27528048 -0.00054793549 1.057
-0.26504946 -0.00054793549 1.057
-0.25422698 -0.00099029578 1.0564002
-0.24578649 -0.0015311311 1.0560001
-0.23552653 -0.0017534718 1.0547273
-0.22502725 -0.0021558006 1.0556364
-0.21451098 -0.0034935065 1.0545555
-0.20495366 -0.0039846655 1.0545555
-0.19535913 -0.004437706 1.0535716
-0.18489765 -0.0041289604 1.0521001
-0.1747039 -0.0051169381 1.0538635
-0.16443065 -0.0054983757 1.0558424
-0.15487897 -0.0061463937 1.0544667
-0.14570008 -0.0066968296 1.0538573
-0.13545544 -0.0070409202 1.0533334
-0.12598419 -0.0082789902 1.0550001
-0.11565091 -0.007908877 1.0546666
-0.10575311 -0.0081163337 1.0542858
-0.094820738 -0.00937468 1.0540001
-0.084673025 -0.0093764588 1.0542001
-0.075710624 -0.0093657849 1.0530001
-0.064632051 -0.0093657849 1.0530001
-0.055136129 -0.0092082871 1.0530001
-0.045059897 -0.0093657849 1.0530002
-0.50532049 0.0089864712 1.059
-0.46143007 0.0067318575 1.0581429
-0.45405808 0.0034533597 1.055125
-0.44522151 0.0025947855 1.0552309
-0.43468511 0.0040673688 1.0545455
-0.42441431 0.0031501439 1.0541177
-0.41492915 0.0029801214 1.0537333
-0.40543839 0.0037150437 1.0534666
-0.3960728 0.0037264249 1.0542501
-0.38545719 0.0036164846 1.0531112
-0.3756924 0.0039269589 1.0552633
-0.36516008 0.0052473918 1.0548751
-0.35437104 0.0044775768 1.0557503
-0.34496981 0.0051993588 1.0547086
-0.33480373 0.0050613931 1.0539131
-0.32545975 0.0050703944 1.0547276
-0.31471893 0.0050679627 1.0537273
-0.30531847 0.0054771579 1.0553638
-0.2948477 0.0036454939 1.0546001
-0.28449351 0.0028520026 1.0534999
-0.27476543 0.0030335635 1.0523334
-0.26536804 0.0024837602 1.05275
-0.25480753 0.002156388 1.0514547
-0.24390066 0.001471872 1.0513334
-0.23438781 0.00055504264 1.0500002
-0.22418776 0.00055504258 1.0500001
-0.21512918 0.00055504258 1.0500001
-0.20511326 0.00055504264 1.0500002
-0.19848502 0.00092149241 1.0500001
-0.54306602 0.019372273 1.057
-0.5353179 0.01935761 1.0562001
-0.52479297 0.017401414 1.0563848
-0.51490122 0.015964668 1.055421
-0.5049755 0.014516143 1.0543044
-0.49581888 0.013482091 1.0548823
-0.48423037 0.013592883 1.0553
-0.47430784 0.014905694 1.0544667
-0.4662149 0.014519108 1.0546
-0.45804006 0.011570533 1.052
-0.34463352 0.010459138 1.051
-0.33652467 0.010459138 1.051
-0.5439117 0.022615099 1.0535456
-0.5350669 0.021900171 1.0509001
-0.52427989 0.020343332 1.0500001
-0.51544231 0.020893006 1.0500001
-0.50807267 0.020907538 1.0507501
0.48345375 -0.04077046 1.067
0.56428003 -0.041887607 1.067
0.57662845 -0.04077046 1.067
0.58450115 -0.041091893 1.0656668
0.59403145 -0.041213881 1.0640001
0.60426664 -0.042428169 1.0644288
0.61220109 -0.043869164 1.0662001
0.13432916 -0.030716123 1.067
0.18716027 -0.031892944 1.069
0.19531427 -0.031892944 1.069
0.22755544 -0.030773703 1.069
0.36854428 -0.032104116 1.0636668
0.37499624 -0.033002883 1.0640626
0.38617647 -0.034221146 1.0655296
0.39494947 -0.03321138 1.0646471
0.40455681 -0.032658268 1.0647001
0.41533411 -0.033618771 1.0644668
0.42507255 -0.034930557 1.0645204
0.43508953 -0.034286439 1.0644001
0.44590622 -0.034591392 1.0642276
0.45516112 -0.034875382 1.0642
0.46449158 -0.034020111 1.0654
0.4749738 -0.033770777 1.0651741
0.48434219 -0.034823433 1.0643336
0.49488571 -0.033981115 1.0641766
0.50446254 -0.034527656 1.0638335
0.51433766 -0.035028085 1.0636667
0.52483046 -0.034446105 1.0628636
0.53472507 -0.035779558 1.0632398
0.54468018 -0.036841638 1.0634091
0.55541861 -0.037630599 1.0638573
0.56526619 -0.03852687 1.0643079
0.57506084 -0.038557582 1.0641112
0.58547747 -0.037382577 1.0606668
0.59180433 -0.038283348 1.0600001
-0.092606701 -0.02070052 1.069
-0.045776676 -0.02179935 1.0680001
-0.034716479 -0.022107173 1.0674286
-0.025167078 -0.022876719 1.066
-0.014706021 -0.021934986 1.0661539
-0.0045158858 -0.021812577 1.0643078
0.0051507275 -0.022575689 1.0641177
0.015610351 -0.023365529 1.0628999
0.025749527 -0.024633175 1.063
0.036088448 -0.024511285 1.0642143
0.044367258 -0.023346042 1.0649999
0.054555781 -0.023136843 1.0642
0.063880555 -0.024996938 1.0639411
0.074760236 -0.0245823 1.0633335
0.085418023 -0.026346587 1.0643809
0.094324954 -0.026726581 1.0636874
0.10523266 -0.027006334 1.0648184
0.11537176 -0.026505714 1.0633847
0.12444757 -0.026157297 1.0631335
0.13488567 -0.026223496 1.0634737
0.14472964 -0.025746204 1.0631052
0.15470667 -0.026757287 1.0636473
0.1654101 -0.02655796 1.0634706
0.17517284 -0.026096439 1.0628095
0.18513434 -0.027211037 1.0633529
0.19547756 -0.027154526 1.0637648
0.20476702 -0.026809229 1.0646501
0.21447267 -0.027880227 1.0652145
0.22494069 -0.026678028 1.0634617
0.23065527 -0.028455134 1.0660001
0.36799145 -0.028321669 1.0610001
0.37189841 -0.028321669 1.0610001
0.39310762 -0.029432535 1.0610001
0.42380518 -0.029432535 1.0610001
-0.44486004 -0.010592543 1.0655
-0.22468795 -0.010597513 1.0660001
-0.20674339 -0.010597513 1.0660001
-0.19467375 -0.012849339 1.0675001
-0.18499374 -0.012840549 1.0667002
-0.17554708 -0.012047526 1.0672858
-0.16375729 -0.013472972 1.0676666
-0.15507796 -0.013325214 1.0651002
-0.14515102 -0.013590971 1.0647695
-0.13505577 -0.013807911 1.0647779
-0.12553728 -0.014412038 1.0648572
-0.11510476 -0.015614945 1.0654004
-0.10464545 -0.015182453 1.0649414
-0.094512142 -0.016023887 1.0651307
-0.085514218 -0.015437487 1.0659168
-0.075434648 -0.014704657 1.0647694
-0.065448031 -0.015290095 1.0650002
-0.055424817 -0.016742138 1.064316
-0.045494217 -0.018146873 1.0623636
-0.035219435 -0.01844392 1.0625001
-0.024972452 -0.018906781 1.0625001
-0.015601289 -0.018615326 1.0617501
-0.0081930766 -0.018323872 1.0610001
-0.519503 -0.00055363774 1.0680001
-0.4607181 -0.00055052742 1.062
-0.44407329 -0.0044766678 1.0634288
-0.43494788 -0.002871183 1.0656157
-0.42439768 -0.0034689859 1.0644617
-0.41486335 -0.0025980941 1.0650001
-0.40398368 -0.002699197 1.0649232
-0.39590853 -0.0025965287 1.064
-0.38601384 -0.0016681839 1.0650001
-0.37566543 -0.0013647428 1.0653638
-0.36511609 -0.0013903974 1.0658751
-0.35504624 -0.0011903791 1.0648572
-0.34455225 -0.0014814691 1.0650001
-0.33389825 -0.0025611687 1.0652001
-0.32482976 -0.0031565602 1.0656002
-0.31568792 -0.0020891982 1.067
-0.30466467 -0.0018542432 1.0652502
-0.29485759 -0.0021259452 1.0635293
-0.2852717 -0.0028830406 1.0641819
-0.27425823 -0.0039753639 1.0640714
-0.26537412 -0.0038018893 1.0635
-0.25515029 -0.0043720673 1.0634286
-0.24464865 -0.0056895996 1.0627695
-0.23386419 -0.006275068 1.0625714
-0.22470479 -0.0069771642 1.0632309
-0.21549988 -0.0087253125 1.0643334
-0.20534936 -0.0084882081 1.0612859
-0.19516419 -0.009454729 1.0630002
-0.18455721 -0.0084563624 1.0616667
-0.17384447 -0.009445834 1.062
-0.16558331 -0.0092623476 1.0621668
-0.1590399 -0.009445834 1.062
-0.54347396 0.0095101204 1.0680001
-0.53518927 0.0087527828 1.0666667
-0.52457809 0.0063827555 1.0668949
-0.51568735 0.0057073259 1.0644288
-0.50537634 0.0059942454 1.0644376
-0.49548936 0.008364425 1.0647001
-0.48381612 0.0075385454 1.066125
-0.47474819 0.0061382456 1.0654001
-0.46598825 0.0051203901 1.0623002
-0.44242388 0.00056085736 1.0610001
-0.43498203 0.00056085736 1.0610001
-0.42902857 0.00056085736 1.0610001
-0.41191238 0.00056085736 1.0610001
-0.40670308 0.00056085736 1.0610001
-0.37544739 0.0016717237 1.0610001
-0.36509988 0.001533262 1.0617499
-0.35814515 0.00056085736 1.0610001
-0.34502891 0.00056085736 1.0610001
-0.33563361 0.00056085736 1.0610001
-0.32454729 0.00071977911 1.0614287
-0.31487828 0.0011689387 1.0634546
-0.30527601 0.0020902695 1.0625
-0.29842445 0.0016717237 1.0610001
-0.55217415 0.015810605 1.0660002
-0.54508799 0.014868232 1.0642633
-0.53537446 0.014276615 1.0623335
-0.52633005 0.012880771 1.0617502
-0.51695687 0.01168052 1.0620002
-0.49274811 0.010568607 1.062
-0.48552275 0.010568606 1.0620002
-0.47636065 0.011124562 1.0620002
0.61885011 -0.051253494 1.0760001
0.23346813 -0.040099271 1.079
0.37519807 -0.042505872 1.0763334
0.38527834 -0.041095249 1.0755
0.3959057 -0.041144919 1.0768001
0.40564415 -0.041190773 1.0780001
0.41443387 -0.042037271 1.0780001
0.42321151 -0.042289991 1.07725
0.43494326 -0.042319439 1.0780001
0.44514379 -0.043106269 1.0764999
0.45533776 -0.042785108 1.0755
0.46562853 -0.042478774 1.0756668
0.47497764 -0.041609544 1.0755455
0.48484546 -0.04239212 1.0736428
0.49540085 -0.042341098 1.0753334
0.50485504 -0.042125572 1.0756365
0.51417816 -0.041940965 1.0755
0.52436584 -0.041262832 1.074
0.53568995 -0.042373981 1.0752858
0.5453952 -0.043128558 1.0721538
0.55448574 -0.044174094 1.0744615
0.56512773 -0.043757927 1.073643
0.57472032 -0.044573687 1.0739286
0.58448535 -0.044982158 1.074111
0.59503531 -0.046245955 1.0735295
0.60632646 -0.047013346 1.0756252
0.61409765 -0.048072398 1.0741251
0.0065817549 -0.031838976 1.0780001
0.014767689 -0.031416059 1.0766251
0.02454678 -0.031196732 1.0771668
0.034137055 -0.031871554 1.0757999
0.044372894 -0.031003999 1.077
0.05712036 -0.031567808 1.077
0.065246396 -0.031987239 1.0755454
0.075089395 -0.03224216 1.0752858
0.084910288 -0.032567851 1.0744545
0.094778977 -0.033282895 1.0746666
0.10521712 -0.033223435 1.0757999
0.11551243 -0.032869466 1.0747142
0.12551306 -0.032406297 1.0735333
0.13531581 -0.03351213 1.0742941
0.14478174 -0.034542311 1.0740714
0.1549532 -0.034263108 1.0745
0.16530079 -0.033440378 1.0745558
0.17498729 -0.033162832 1.0736876
0.18488564 -0.034480922 1.0750668
0.19453937 -0.035271365 1.0763335
0.20490444 -0.033972599 1.0756669
0.21524756 -0.034824617 1.0757371
0.22486287 -0.034628823 1.0756253
0.23199624 -0.035068519 1.076125
0.36928886 -0.037981227 1.0723335
0.37580672 -0.037732039 1.0723333
0.38519013 -0.038403161 1.0736668
0.39614099 -0.038332362 1.0730001
0.40520933 -0.037723981 1.0731539
0.41467062 -0.038184468 1.0727501
0.42826635 -0.039950617 1.075
0.43565449 -0.039120473 1.0727779
0.44378126 -0.038979538 1.0715001
0.4546549 -0.039615072 1.0710001
0.46462533 -0.038581748 1.0721251
0.47369939 -0.038375724 1.0714287
0.48143581 -0.038644511 1.0700001
0.49419424 -0.038457796 1.0700002
0.50427234 -0.038484469 1.0700002
0.51708436 -0.039764799 1.0700001
0.52533984 -0.039764799 1.0700002
0.53209424 -0.039764799 1.0700001
0.55686063 -0.039764799 1.0700001
-0.16423458 -0.022212161 1.079
-0.15477447 -0.022023873 1.079
-0.14143571 -0.02117659 1.079
-0.13378638 -0.02191682 1.0783334
-0.12468475 -0.022318054 1.0763078
-0.11496478 -0.022590926 1.0759445
-0.10496702 -0.022776084 1.0762857
-0.095425576 -0.023063634 1.074625
-0.085332908 -0.02308342 1.0756001
-0.074824929 -0.023495726 1.0754737
-0.064783886 -0.023448441 1.0751334
-0.054723792 -0.02385938 1.0747058
-0.044916231 -0.025532251 1.0743335
-0.035485085 -0.025672346 1.0739335
-0.025702698 -0.027781909 1.0743335
-0.015185166 -0.027450198 1.0743333
-0.0053077643 -0.0278417 1.0751177
0.0046558888 -0.028200472 1.0732
0.015406922 -0.027491286 1.0719
0.024112331 -0.027982155 1.0722858
0.03475247 -0.028572587 1.0704001
0.045157239 -0.028038925 1.0714
0.054439284 -0.028509969 1.0722001
0.066062942 -0.028733838 1.0704287
0.075340413 -0.028704179 1.0706668
0.081234023 -0.029682197 1.0700001
0.098120183 -0.029682197 1.0700001
0.1048364 -0.029537095 1.0715001
0.11240168 -0.029737679 1.072
0.12007217 -0.029682197 1.0700001
0.16059893 -0.028561909 1.0700001
0.17185637 -0.029682197 1.0700001
0.21672758 -0.029737677 1.072
-0.44261551 -0.012366116 1.074
-0.43826085 -0.011246738 1.0747499
-0.41736865 -0.011834486 1.077
-0.39130718 -0.010706868 1.077
-0.28368151 -0.010696927 1.0760001
-0.27514139 -0.011111935 1.0752501
-0.26577079 -0.010857866 1.0760002
-0.25422493 -0.011443004 1.0755001
-0.24467856 -0.012208354 1.0742859
-0.23467597 -0.012920582 1.0732144
-0.22408958 -0.014331344 1.0744287
-0.21499209 -0.013895491 1.0744501
-0.20461868 -0.014709382 1.0747621
-0.19494814 -0.015508047 1.0742859
-0.18533325 -0.017589759 1.0757649
-0.17502184 -0.016580617 1.0753185
-0.16584995 -0.0177579 1.0745715
-0.15492672 -0.018728385 1.0735
-0.14505136 -0.018261548 1.075
-0.13568412 -0.017544953 1.0736667
-0.12579976 -0.018513845 1.072
-0.11485962 -0.018513845 1.072
-0.10715266 -0.018513847 1.072
-0.084971659 -0.019636229 1.072
-0.074575357 -0.018732825 1.0717001
-0.064384714 -0.01961791 1.0710001
-0.058976095 -0.01961791 1.0710001
-0.52370441 -0.0011169029 1.072
-0.50281817 -0.0011231542 1.0780001
-0.49442539 -0.00191322 1.0780001
-0.48920828 -0.0005588216 1.0780001
-0.44240859 -0.0076035932 1.0710001
-0.43547148 -0.0074523939 1.0734001
-0.42400572 -0.0076458217 1.0742999
-0.4152759 -0.0075719813 1.0741763
-0.40538844 -0.0080308644 1.0742145
-0.39431843 -0.0070134802 1.0743158
-0.38530523 -0.0049670981 1.0747499
-0.3751722 -0.0053176545 1.0742309
-0.36489689 -0.0055089486 1.0742
-0.35466012 -0.0061301128 1.0751052
-0.344778 -0.0057728956 1.0747367
-0.3351675 -0.0073088882 1.0744169
-0.32369074 -0.0070888442 1.0720911
-0.31502262 -0.006173627 1.0726668
-0.30505416 -0.0070368364 1.0725385
-0.2952491 -0.008076136 1.0735625
-0.28478152 -0.0071889767 1.0719091
-0.27523214 -0.0077666249 1.0712858
-0.26451617 -0.0073910975 1.0716363
-0.25516969 -0.0079532927 1.0706002
-0.24511898 -0.0083967 1.0700001
-0.23528752 -0.0087701296 1.0700001
-0.22778255 -0.0095169889 1.0700001
-0.5606603 0.0039558397 1.0780001
-0.55447865 0.0074678776 1.0746666
-0.54643708 0.0071554529 1.0745715
-0.53453666 0.0054426487 1.0745001
-0.52539617 0.0016890554 1.072
-0.5015983 0.0028140002 1.073875
-0.49469572 0.0039952123 1.075143
-0.48492703 0.0025338624 1.07375
-0.47896644 0.0035596944 1.072
-0.55521041 0.01203279 1.0736002
0.44677052 -0.050639372 1.087
0.55593801 -0.050937619 1.0864286
0.56482995 -0.051582787 1.0855557
0.57585973 -0.051446524 1.0848001
0.58541965 -0.051498268 1.0832729
0.59531182 -0.052189644 1.0827694
0.6046716 -0.053301807 1.0840002
0.61505336 -0.053125408 1.0835003
0.62172854 -0.053781711 1.0815001
0.024771394 -0.040396579 1.087
0.084926285 -0.040396579 1.087
0.092245512 -0.040396579 1.087
0.10501604 -0.040396579 1.087
0.11615822 -0.041265648 1.0873749
0.12528035 -0.04105873 1.0872858
0.134198 -0.040881753 1.0878001
0.14453095 -0.041850604 1.0863003
0.15543056 -0.04161109 1.0890001
0.16482557 -0.04161109 1.0890001
0.17599194 -0.041312106 1.0886252
0.18582979 -0.041441225 1.0870001
0.19444932 -0.041864738 1.0870717
0.20379952 -0.041106511 1.0885715
0.21567249 -0.041782539 1.0885
0.22539456 -0.042321082 1.0862145
0.23241037 -0.042066544 1.0860001
0.37641335 -0.044742178 1.082
0.38488364 -0.045137078 1.084625
0.3956376 -0.045027427 1.08425
0.40468919 -0.045590796 1.0847858
0.41436312 -0.046492748 1.0841538
0.424941 -0.045618504 1.0848
0.43596128 -0.046082936 1.0851874
0.44483325 -0.046573609 1.0840001
