# .PCD v0.7 - Point Cloud Data file format
VERSION 0.7
FIELDS x y z
SIZE 4 4 4
TYPE F F F
COUNT 1 1 1
WIDTH 317
HEIGHT 1
VIEWPOINT 0 0 0 1 0 0 0
POINTS 317
DATA ascii
0.20840427 -0.041760292 0.67800009
0.21469089 -0.041820124 0.6772415
0.20840277 -0.037506234 0.67756259
0.21533799 -0.034920949 0.6772148
0.22405568 -0.03472995 0.67727607
0.23016056 -0.035134878 0.67800009
0.21827188 -0.028509468 0.67800009
0.22231403 -0.028604118 0.67800003
0.19587845 -0.042391237 0.68725002
0.20485081 -0.042574231 0.68504769
0.21883714 -0.045737796 0.68800008
0.22631377 -0.04319166 0.68464291
0.23495063 -0.043239307 0.68397963
0.24424528 -0.043170936 0.68427283
0.25092748 -0.045737792 0.68800002
0.19702379 -0.036090892 0.6867407
0.2045459 -0.034349792 0.68226373
0.2119628 -0.03118955 0.68042862
0.2288996 -0.034118656 0.68040007
0.23510586 -0.034978189 0.68178427
0.24314737 -0.035652447 0.68658328
0.19917229 -0.028604258 0.68883342
0.20576133 -0.025587421 0.68635279
0.21488209 -0.024796197 0.6830616
0.22509128 -0.024332112 0.68337697
0.2346499 -0.025543895 0.68654072
0.24184549 -0.027864704 0.68861544
0.20928749 -0.019574847 0.68833339
0.21564749 -0.018314954 0.68793535
0.22446401 -0.018018147 0.68800008
0.23203072 -0.018288679 0.68900007
0.19509126 -0.050604716 0.69800001
0.20561713 -0.050056618 0.69800007
0.21594718 -0.050056614 0.69800001
0.22177313 -0.050056618 0.69800007
0.23713356 -0.050787419 0.69800001
0.24623568 -0.050777029 0.69785714
0.2521897 -0.052048139 0.69774997
0.18756421 -0.044916533 0.69631416
0.19350649 -0.045759153 0.69370013
0.20507272 -0.046948425 0.69603848
0.21438898 -0.047449034 0.6942175
0.2242475 -0.047332086 0.69350004
0.23455736 -0.048821863 0.69599998
0.24564277 -0.048088357 0.69342113
0.25093052 -0.048373073 0.69133341
0.1891274 -0.037069708 0.69728577
0.19292763 -0.03372144 0.69408685
0.24765764 -0.032268088 0.69146156
0.25128689 -0.032377519 0.69500005
0.19658078 -0.02540319 0.69530773
0.2012372 -0.023126064 0.69136369
0.23769622 -0.020910908 0.69120002
0.24506919 -0.024223937 0.69292504
0.19894525 -0.015890459 0.69800019
0.20488313 -0.015389109 0.69372499
0.21419218 -0.013419139 0.69077104
0.22535752 -0.013379274 0.69104671
0.23556213 -0.014805943 0.69377083
0.24332361 -0.01642157 0.69731998
0.20700918 -0.0069326106 0.69751441
0.214913 -0.0049160449 0.69531655
0.22506458 -0.005031981 0.69534236
0.23386167 -0.006308991 0.69732499
0.21678974 0.0011928339 0.699
0.22478738 0.0011013524 0.69900006
0.25114548 -0.060410339 0.708
0.18766567 -0.054105405 0.70600015
0.19505233 -0.052619293 0.70288891
0.20494346 -0.052582543 0.70270973
0.21478646 -0.053164158 0.7032668
0.22585174 -0.053203553 0.7043227
0.23507227 -0.053995714 0.70348799
0.2448805 -0.054859959 0.70306677
0.25245905 -0.056087002 0.70371425
0.18684365 -0.04516606 0.7015
0.22865474 -0.049490701 0.70033336
0.18693689 -0.034417868 0.7044999
0.19021395 -0.031372633 0.70100003
0.18775448 -0.026774261 0.7051819
0.19262515 -0.023879157 0.7031666
0.19519052 -0.015082038 0.70358002
0.24514954 -0.012203651 0.70221049
0.19758753 -0.0054983636 0.70542556
0.20372392 -0.0034190223 0.70136726
0.23745254 -0.0030402008 0.70099992
0.24502149 -0.0052620987 0.70521265
0.25041884 -0.0085090138 0.70700002
0.19878939 0.0023936781 0.70736367
0.20573141 0.0047337604 0.70464522
0.21478787 0.0056597008 0.70238334
0.22486652 0.0057684304 0.70187509
0.23499915 0.005167848 0.70459014
0.24234292 0.0024404728 0.7079286
0.2077637 0.012010766 0.70790005
0.21500902 0.013867646 0.70675033
0.22490992 0.014085605 0.70665473
0.23313074 0.012221682 0.70720005
0.19485554 -0.062579803 0.71664506
0.20316181 -0.061242525 0.71775001
0.21264255 -0.061314788 0.71860009
0.22693725 -0.061092943 0.71600002
0.23535246 -0.0607039 0.71583337
0.24521022 -0.063133255 0.71580946
0.25033957 -0.062155146 0.71100003
0.18861412 -0.057163712 0.71025002
0.19523993 -0.05721435 0.71125019
0.20494355 -0.057970628 0.71359098
0.21426739 -0.057914078 0.71200001
0.2247933 -0.058055535 0.71230775
0.23347016 -0.058723506 0.71180004
0.24639021 -0.059276219 0.71040004
0.18451197 -0.031634066 0.71100003
0.18818355 -0.021990415 0.71216667
0.19049525 -0.021212237 0.71100003
0.18810944 -0.015021578 0.71658832
0.19149676 -0.014724503 0.71166664
0.18850337 -0.0080261929 0.71680003
0.19279163 -0.0044245822 0.71302164
0.19549198 0.0051508895 0.71464276
0.20168816 0.0080828806 0.7107144
0.24622719 0.0046972311 0.71134281
0.19808497 0.013257882 0.71733326
0.20447771 0.015522303 0.71317649
0.21425816 0.018565359 0.71023083
0.22648959 0.018739318 0.71010005
0.23547328 0.016641181 0.71167511
0.24350019 0.013936057 0.71417069
0.20602703 0.024326241 0.71550894
0.21503027 0.024532165 0.71275765
0.22473688 0.024550876 0.71283346
0.23438011 0.025335403 0.71639639
0.24164183 0.021255143 0.71850008
0.20816031 0.030814635 0.71775001
0.21520652 0.03197664 0.71623349
0.224741 0.032190692 0.71677411
0.23197551 0.031846803 0.71900004
0.20632599 -0.072239421 0.72844452
0.21380562 -0.071726114 0.72883338
0.22479986 -0.070787989 0.72860008
0.23336445 -0.070894748 0.72568762
0.19784012 -0.067480564 0.72350001
0.20572267 -0.066196188 0.72406965
0.2150925 -0.066129893 0.72459573
0.22469972 -0.065499797 0.72448891
0.23548082 -0.065858945 0.72253853
0.24176568 -0.066404216 0.72075003
0.18574376 -0.014778337 0.72160006
0.18732834 -0.0046980823 0.72403717
0.19039963 -0.0028913519 0.72150004
0.18915386 0.0034164537 0.72399998
0.19133523 0.0059664054 0.72238106
0.18930313 0.012699373 0.72750008
0.19403684 0.01544365 0.72415531
0.19728807 0.024436401 0.72600001
0.20205969 0.026513414 0.72190487
0.23924196 0.028272664 0.72000003
0.24491221 0.025656175 0.72308111
0.25036961 0.027844222 0.72850001
0.19907798 0.031843431 0.72837502
0.20462233 0.03521068 0.7244851
0.21424735 0.03674965 0.72072208
0.22483629 0.037283298 0.72100013
0.23524679 0.03591349 0.72252959
0.24352385 0.034458745 0.72671878
0.20647244 0.04345344 0.72734195
0.21496679 0.044653922 0.72505897
0.22496197 0.04533653 0.72507834
0.23417631 0.044728789 0.72743881
0.24191293 0.041029088 0.72900003
0.21619727 0.051011395 0.72838473
0.22437651 0.051395021 0.72871435
0.21559991 -0.072957747 0.7310909
0.22491355 -0.072269671 0.73046142
0.23112582 -0.073054485 0.73066676
0.18906181 0.0088113602 0.73150003
0.1897887 0.017998518 0.73133337
0.19124034 0.019520329 0.73100001
0.18946476 0.024168272 0.73726678
0.19282015 0.025524618 0.73332363
0.24969062 0.029469965 0.73100001
0.25157249 0.029510278 0.73200005
0.19619702 0.034935776 0.73463833
0.20046934 0.037507776 0.73100007
0.24800198 0.037245322 0.73200005
0.25178891 0.034615278 0.7337501
0.19796985 0.044159088 0.73634619
0.20293184 0.046537202 0.73271799
0.21017951 0.049301695 0.73000002
0.2377784 0.047502212 0.73085725
0.24533512 0.045316543 0.73442233
0.2501893 0.045144621 0.73700005
0.19928323 0.052417606 0.73800009
0.20570688 0.054984387 0.73535925
0.21489432 0.055870749 0.73201829
0.22474758 0.056003783 0.73137206
0.23447487 0.054892186 0.73333329
0.24277925 0.052461028 0.73738897
0.20778401 0.062614635 0.73877776
0.21491978 0.064359188 0.7373637
0.22474076 0.064549722 0.736426
0.23329745 0.063306935 0.73800009
0.21795408 0.070026577 0.73900002
0.22432217 0.070026577 0.73900002
0.18777595 0.024897378 0.74162489
0.19048068 0.029832795 0.74000001
0.18850641 0.033398032 0.7440716
0.19182543 0.036266007 0.74199992
0.19371524 0.04522134 0.74335539
0.25042915 0.049977064 0.74000001
0.19630569 0.05414623 0.74446934
0.20123187 0.057629719 0.74124998
0.24595825 0.056212068 0.74140614
0.25066572 0.05814229 0.74533337
0.19802001 0.064062454 0.74719042
0.20398194 0.065301232 0.74318963
0.21241108 0.068509273 0.74100012
0.22971827 0.069440261 0.74100006
0.23640695 0.066652507 0.74110711
0.24485266 0.064654998 0.74527919
0.25133836 0.061949544 0.74733341
0.19988953 0.071366258 0.74900001
0.20607254 0.074362695 0.74665415
0.21493348 0.07483466 0.74355382
0.225079 0.075055905 0.74249059
0.23435804 0.075169027 0.74425012
0.24195997 0.072206192 0.74772733
0.20844553 0.08143913 0.74860007
0.21529257 0.082628727 0.7469393
0.2250877 0.083217695 0.74683338
0.23316741 0.082252182 0.74794114
0.18896647 0.039711814 0.75100005
0.18867767 0.045813475 0.75404358
0.1909418 0.045084845 0.75100005
0.18852755 0.051891591 0.75788891
0.19193088 0.055858545 0.75430548
0.19469362 0.064981893 0.75429261
0.24907888 0.067927927 0.75000006
0.25247574 0.067267284 0.75333333
0.19701734 0.074555486 0.75440001
0.20209014 0.077324115 0.75099999
0.23882094 0.078921415 0.75000006
0.24611287 0.075515233 0.75235724
0.25122389 0.074550733 0.75433338
0.19874755 0.082347885 0.75741673
0.20483829 0.085523359 0.75505173
0.21480955 0.087334268 0.75169241
0.22471128 0.088004008 0.7506668
0.23611249 0.086235367 0.75212502
0.24476425 0.084179141 0.75539005
0.25093824 0.084524997 0.75800002
0.20686626 0.093667977 0.7578066
0.21474551 0.095101766 0.75522387
0.22490162 0.094684809 0.75413525
0.23406817 0.094656281 0.7561956
0.24139485 0.091728263 0.75850004
0.2162758 0.10293596 0.75891674
0.22518098 0.10385837 0.75832564
0.23265737 0.1023239 0.75890905
0.18824792 0.05706254 0.76087511
0.18915413 0.064112768 0.76291674
0.19163878 0.066654138 0.76173353
0.18948451 0.072527476 0.76749998
0.19348095 0.074820831 0.76426476
0.1965664 0.085482873 0.76430005
0.24834362 0.087864302 0.76080006
0.25116882 0.087797724 0.76160008
0.19797164 0.094066083 0.76529628
0.20339654 0.096908122 0.76253122
0.23880081 0.09872327 0.7610001
0.24534115 0.095176168 0.76350003
0.25116554 0.094026275 0.76600009
0.19930407 0.10225808 0.76800001
0.20509915 0.10473611 0.76526344
0.21418519 0.10710397 0.76194435
0.22572848 0.10847279 0.76100016
0.23588645 0.10606591 0.76190913
0.24379206 0.1034802 0.7662608
0.20808426 0.11271749 0.76840013
0.21519212 0.11442608 0.76596165
0.22475824 0.11274596 0.76206666
0.23455139 0.11403429 0.76564127
0.24051259 0.11137116 0.76800001
0.18855304 0.077167355 0.77171433
0.19131689 0.077700451 0.77000004
0.18905854 0.084868215 0.77413332
0.19220302 0.085670777 0.7713573
0.18925546 0.092144363 0.77650011
0.19417307 0.095619403 0.77376324
0.19605587 0.10510166 0.77434784
0.20127015 0.10876749 0.77120006
0.24709323 0.10700216 0.77058846
0.25059029 0.10171818 0.7700001
0.19747414 0.11380526 0.77629048
0.20432967 0.11537832 0.77263403
0.21204732 0.11947495 0.77100003
0.23897029 0.11834131 0.77149999
0.24540436 0.11527169 0.77394879
0.25051412 0.1186756 0.77900004
0.23913431 0.12156059 0.77400005
0.24625498 0.12209682 0.77817667
0.25051412 0.12030683 0.77900004
0.24696088 0.14719906 0.7773183
0.18814063 0.097244114 0.78570586
0.1910997 0.097958185 0.78144455
0.18856169 0.10481934 0.78664714
0.19142799 0.10471278 0.78166664
0.18991716 0.11151259 0.78600001
0.19266003 0.113765 0.78372741
0.2532115 0.119798 0.78100002
0.24766508 0.12552194 0.78100002
0.25295785 0.12300706 0.78233331
0.24926309 0.13984755 0.78800005
0.24810803 0.14313471 0.78175002
0.25211003 0.12892792 0.79700005
0.24820372 0.13619833 0.79335302
0.24823344 0.14020249 0.79000002
