# .PCD v0.7 - Point Cloud Data file format
VERSION 0.7
FIELDS x y z rgb
SIZE 4 4 4 4
TYPE F F F F
COUNT 1 1 1 1
WIDTH 538
HEIGHT 1
VIEWPOINT 0 0 0 1 0 0 0
POINTS 538
DATA ascii
0.087434292 -0.14626858 0.85800004 1.1331119e-38
0.087230481 -0.14348191 0.85600007 9.7698977e-39
0.088555247 -0.1514543 0.86900002 1.3540241e-38
0.088147625 -0.14910953 0.86500007 1.2445723e-38
0.12222001 -0.16046575 0.87300003 1.2339656e-38
0.12637715 -0.16046573 0.87300003 1.4291172e-38
0.093951434 -0.15547715 0.87300003 8.6734027e-39
0.097692862 -0.15589286 0.87300003 7.1997258e-39
0.10226572 -0.15630859 0.87300009 6.3714197e-39
0.10767001 -0.15589288 0.87300003 4.7162087e-39
0.11200532 -0.15666492 0.87300014 4.9928082e-39
0.11739117 -0.15656261 0.87242866 5.2704685e-39
0.12203334 -0.15690129 0.87166679 6.9256682e-39
0.12714466 -0.15706044 0.87255561 8.7691955e-39
0.13219716 -0.15630859 0.87300009 9.779037e-39
0.1363543 -0.15630859 0.87300003 1.0143746e-38
0.08875905 -0.15346192 0.87100005 1.3920523e-38
0.09241619 -0.15222955 0.87225008 3.8702743e-39
0.09727715 -0.15215145 0.87300009 4.7986625e-39
0.10226572 -0.15215145 0.87300009 4.5217183e-39
0.10725428 -0.15215145 0.87300009 3.9678242e-39
0.11224287 -0.15215145 0.87300009 3.6937569e-39
0.11717091 -0.15207358 0.87255561 3.6941142e-39
0.12203292 -0.15191823 0.87166679 4.1518708e-39
0.12694995 -0.15184118 0.87122238 5.724925e-39
0.13202848 -0.15195738 0.871889 6.4599817e-39
0.13604192 -0.15180287 0.87100017 1.116183e-38
0.093951434 -0.14882572 0.87300003 8.3283932e-40
0.097277157 -0.14882573 0.87300003 7.4422401e-40
0.11307429 -0.14799429 0.87300003 3.7769394e-39
0.11723143 -0.14799429 0.87300009 3.592202e-39
0.12222002 -0.14716287 0.87300009 5.8052264e-39
0.12720858 -0.14716287 0.87300009 5.709798e-39
0.13219714 -0.14716287 0.87300009 5.1562823e-39
0.13685314 -0.14782801 0.87300009 1.3006784e-38
0.10273239 -0.16120097 0.87700003 8.3925082e-39
0.10750001 -0.16083334 0.87500012 8.2055974e-39
0.11263049 -0.16101716 0.87600011 1.3939262e-38
0.11790287 -0.16138479 0.87800002 1.3658015e-38
0.12459239 -0.16305715 0.87800002 1.7618049e-38
0.12916668 -0.16083334 0.87500006 1.678365e-38
0.13265334 -0.16101716 0.87600005 1.0787079e-38
0.13797143 -0.16138479 0.87800002 1.0416677e-38
0.089166671 -0.15583335 0.87500006 1.4287506e-38
0.092897914 -0.15727583 0.87560004 1.0515865e-38
0.097166672 -0.15850002 0.87500012 1.0335065e-38
0.10250001 -0.15916668 0.87500012 1.0791727e-38
0.10716667 -0.15850002 0.87500012 8.9517917e-39
0.11333334 -0.15916668 0.87500006 8.3143354e-39
0.11666667 -0.15916668 0.87500006 7.4831538e-39
0.13250002 -0.15916668 0.87500012 9.8712354e-39
0.13765906 -0.15934859 0.87600005 9.683809e-39
0.098083809 -0.14733477 0.87650001 6.8304598e-39
0.10257748 -0.14761113 0.87566674 6.0875432e-39
0.1075416 -0.14755557 0.87533337 6.7296938e-39
0.11183335 -0.14683335 0.87500012 8.3859628e-39
0.11750001 -0.14583334 0.87500012 1.0873056e-38
0.13750002 -0.14583334 0.87500012 1.4572296e-38
0.10368763 -0.14466096 0.87800002 1.0791645e-38
0.10786858 -0.14424287 0.87800002 1.079704e-38
0.11322019 -0.14399201 0.87800008 1.1065741e-38
0.11796913 -0.14325459 0.87671435 1.1255846e-38
0.12291834 -0.14295121 0.87650001 1.0795596e-38
0.12751089 -0.14325458 0.87671435 1.1349461e-38
0.13280287 -0.14282382 0.87700009 7.4772908e-39
0.13797145 -0.14382477 0.87800014 1.4755971e-38
0.10271239 -0.17090668 0.88400006 8.7648823e-39
0.10692191 -0.17090669 0.88400006 7.201888e-39
0.11197335 -0.17090669 0.88400006 3.7074686e-39
0.11737858 -0.17123096 0.88350004 1.6142583e-38
0.1219835 -0.1716197 0.88333338 1.9550182e-38
0.12621477 -0.17165191 0.88350004 2.0560735e-38
0.1389143 -0.17174858 0.88400006 1.0973083e-38
0.1405981 -0.17174858 0.88400006 1.2170524e-38
0.092158109 -0.16641608 0.88314295 1.1713287e-38
0.097767837 -0.16705884 0.8824445 1.2729611e-38
0.10244929 -0.167115 0.88174999 8.7620026e-39
0.1071854 -0.16707747 0.88155556 6.7344414e-39
0.11219428 -0.16703494 0.88133335 1.1342373e-38
0.11723048 -0.16703492 0.88133341 1.9550189e-38
0.12247201 -0.16693373 0.88080007 1.9185717e-38
0.12727839 -0.16734642 0.88171434 2.1112831e-38
0.13197967 -0.16728763 0.88266671 1.4847206e-38
0.13765144 -0.16669714 0.88400006 1.0696564e-38
0.14112002 -0.16800001 0.88200003 1.22602e-38
0.089880005 -0.16128001 0.88200003 1.2534735e-38
0.092584766 -0.16233081 0.88111115 1.1344884e-38
0.098057151 -0.16259047 0.88000005 9.684305e-39
0.10308572 -0.16342857 0.88000005 6.0012008e-39
0.10811429 -0.16342857 0.88000005 6.4574902e-39
0.11314287 -0.16342857 0.88000005 1.9284371e-38
0.11817144 -0.16342857 0.88000005 1.9642382e-38
0.12236191 -0.16342857 0.88000005 1.6605348e-38
0.12822859 -0.16342857 0.88000005 2.1387619e-38
0.13325715 -0.16342857 0.88000005 1.1805877e-38
0.13776001 -0.16380002 0.88200003 1.0787638e-38
0.089676194 -0.15840001 0.88000005 1.3549952e-38
0.091352388 -0.15840001 0.88000005 1.1802272e-38
0.091911122 -0.1505778 0.88000005 3.9555629e-39
0.093396202 -0.14712526 0.88150001 8.7600968e-39
0.097012699 -0.14621779 0.88066673 1.1159323e-38
0.093451433 -0.14396572 0.88400006 9.2257651e-39
0.097941697 -0.14267899 0.88246161 1.023847e-38
0.10260215 -0.14246739 0.88125002 9.3215593e-39
0.10715644 -0.14175788 0.88075006 8.5818405e-39
0.11229362 -0.14129552 0.88085723 9.7818214e-39
0.11733334 -0.1416381 0.88000005 1.1077901e-38
0.12152382 -0.1416381 0.88000005 1.0057304e-38
0.12906668 -0.1416381 0.88000005 1.1250051e-38
0.13744763 -0.1416381 0.88000005 1.4479384e-38
0.099960007 -0.13860001 0.88200003 5.7905198e-39
0.10271239 -0.1389143 0.88400006 6.2705276e-39
0.10719072 -0.13787501 0.88275003 4.5260217e-39
0.11199191 -0.13783668 0.88250005 3.8842494e-39
0.11726032 -0.13852847 0.88155562 5.1724617e-39
0.12263896 -0.13820642 0.88145459 5.9103658e-39
0.12744989 -0.13768053 0.88200009 6.2758791e-39
0.13222399 -0.13767922 0.88150001 5.6348383e-39
0.136629 -0.13774773 0.88133335 1.4206381e-38
0.13692001 -0.13356 0.88200003 1.3278329e-38
0.13462001 -0.18034001 0.88900006 1.125414e-38
0.13631335 -0.18034001 0.88900006 1.0887167e-38
0.092286676 -0.17526001 0.88900006 1.1429869e-38
0.097366676 -0.17526001 0.88900012 1.2647826e-38
0.10278535 -0.17593734 0.88900006 1.346355e-38
0.10795 -0.17568335 0.88900006 1.4552315e-38
0.11260667 -0.17526001 0.88900012 1.4022832e-38
0.11726334 -0.17653002 0.88900006 1.2070953e-38
0.12276667 -0.17763069 0.88900006 2.0746196e-38
0.12745124 -0.17687373 0.88860005 2.1296493e-38
0.13288881 -0.17669192 0.88875002 1.6133617e-38
0.13767552 -0.17635579 0.88842857 1.1436674e-38
0.092286676 -0.17272002 0.88900006 1.1712194e-38
0.097293019 -0.17259113 0.88833332 1.3104851e-38
0.10179383 -0.17275381 0.88700002 1.2456613e-38
0.10728477 -0.17317621 0.88700002 1.1070462e-38
0.11243652 -0.17330635 0.8876667 8.863898e-39
0.11742191 -0.17402095 0.88700002 1.457813e-38
0.12249049 -0.17486572 0.88700002 2.2496447e-38
0.12840381 -0.17359857 0.88700002 2.2130911e-38
0.13267684 -0.17239653 0.88733339 1.6318367e-38
0.13692811 -0.17242905 0.88750005 9.7804327e-39
0.092923813 -0.16979715 0.88700002 1.1065421e-38
0.095458105 -0.16979715 0.88700002 1.2182191e-38
0.13735829 -0.16878344 0.88700002 1.03307e-38
0.091336191 -0.14630859 0.88800001 8.6585826e-39
0.088900015 -0.14308669 0.88900012 1.0234114e-38
0.091944292 -0.1426743 0.88775003 8.1136835e-39
0.095458105 -0.14107525 0.88700002 1.0711279e-38
0.088900007 -0.13885334 0.88900006 8.2029616e-39
0.09249834 -0.13821834 0.889 3.3177745e-39
0.097293653 -0.13790192 0.88833332 4.6189039e-39
0.10244668 -0.13716002 0.88900006 5.269283e-39
0.10644001 -0.13600667 0.88700002 6.8283326e-39
0.1131981 -0.13600667 0.88700002 4.9808383e-39
0.11742191 -0.13600668 0.88700002 5.0701725e-39
0.12164572 -0.13600667 0.88700002 5.5326304e-39
0.093133345 -0.13462001 0.88900006 5.7097854e-39
0.095673338 -0.13462001 0.88900006 6.928049e-39
0.10202334 -0.13419667 0.88900006 1.0323486e-38
0.10767786 -0.13306263 0.88849998 7.8460775e-39
0.11252286 -0.1336724 0.88833332 8.859149e-39
0.11768667 -0.13377336 0.88900006 8.950637e-39
0.12270488 -0.13285938 0.88855559 8.3063578e-39
0.12775081 -0.13282572 0.88833332 7.2885947e-39
0.13277715 -0.13362192 0.88800013 1.7561829e-39
0.13616002 -0.1336219 0.88800001 8.1269299e-39
0.13716 -0.12954001 0.88900006 1.687782e-38
0.10898286 -0.1813543 0.89400005 1.5113316e-38
0.11289944 -0.18203543 0.89400005 1.0997994e-38
0.11776972 -0.18167031 0.89220011 8.4904548e-39
0.12224817 -0.18222207 0.89228582 2.0198061e-38
0.12664811 -0.18246812 0.8925001 2.0562173e-38
0.13213837 -0.18189023 0.89185721 1.7884592e-38
0.13662001 -0.18244287 0.89100003 1.1255944e-38
0.093638293 -0.17793202 0.89220011 1.0609819e-38
0.097803816 -0.17860097 0.89300001 1.2272233e-38
0.10233787 -0.17877501 0.89175004 1.2164582e-38
0.10750058 -0.17849031 0.89160007 1.5855587e-38
0.11286001 -0.17820004 0.89099997 1.4304437e-38
0.11795144 -0.17904858 0.89100003 6.8334712e-39
0.12304287 -0.17904858 0.89100003 2.0094024e-38
0.12898287 -0.17904858 0.89100003 2.0567917e-38
0.13322572 -0.17904858 0.89100003 1.5580085e-38
0.087402865 -0.14510572 0.89100003 1.3731018e-38
0.087402865 -0.14171144 0.89100003 1.3180015e-38
0.084291436 -0.13537715 0.89400005 1.2354221e-38
0.087031439 -0.13635716 0.89300007 1.2903811e-38
0.090797149 -0.13662001 0.89100003 3.873067e-39
0.083865717 -0.13239715 0.89400005 1.7611117e-38
0.087718584 -0.1320883 0.89249992 1.3552061e-38
0.092185713 -0.13219143 0.89166665 5.0748444e-39
0.097829618 -0.13226496 0.89181817 6.2751869e-39
0.10277512 -0.13165349 0.89185721 5.0763116e-39
0.10607143 -0.13152859 0.89100003 3.8845997e-39
0.11286001 -0.13152859 0.89100003 5.9960959e-39
0.11795144 -0.13152859 0.89100003 7.0131121e-39
0.13322574 -0.13152859 0.89100003 6.0760442e-39
0.13746858 -0.13152859 0.89100003 1.5489889e-38
0.083655007 -0.12654215 0.89175004 1.9453617e-38
0.087665088 -0.12681493 0.89366668 1.4013045e-38
0.097914293 -0.12856573 0.89400005 2.9673013e-39
0.10336072 -0.12888215 0.89325005 6.5496116e-39
0.10797593 -0.12886491 0.89271438 5.8138514e-39
0.11305001 -0.12919858 0.8925001 6.1714936e-39
0.11776972 -0.12932515 0.89220011 5.7137623e-39
0.12282358 -0.12877358 0.89250004 5.5282948e-39
0.12749802 -0.12800772 0.89250004 4.7979184e-39
0.13261481 -0.12767091 0.89209092 5.5325786e-39
0.13677146 -0.12686098 0.89200008 1.6510553e-38
0.084008574 -0.12304287 0.89100003 1.9912792e-38
0.087600969 -0.12331905 0.89300007 1.3736095e-38
0.13746858 -0.12474 0.89100003 1.8169722e-38
0.094931431 -0.18558668 0.89800006 1.1249453e-38
0.09749715 -0.18558668 0.89800006 1.2364427e-38
0.10177334 -0.18558668 0.89800012 1.4108929e-38
0.10733239 -0.18601429 0.89800006 1.7051611e-38
0.11256413 -0.18665811 0.89766669 1.1817703e-38
0.11702224 -0.18706666 0.89688897 1.1346682e-38
0.12216239 -0.18730336 0.89700001 1.6515307e-38
0.12743048 -0.18672699 0.89800012 1.8987329e-38
0.13298953 -0.18601429 0.89800006 1.8433811e-38
0.13754001 -0.18623525 0.89700007 1.0888214e-38
0.14111429 -0.18644191 0.89800006 1.2448925e-38
0.094076194 -0.18216573 0.89800006 1.1803679e-38
0.098561525 -0.18260573 0.89680004 1.2640292e-38
0.10295735 -0.18252459 0.89640009 1.2531217e-38
0.10678478 -0.18324478 0.89700001 1.4579228e-38
0.11008 -0.18346667 0.89600003 1.1020901e-38
0.11520001 -0.18346667 0.89600003 1.7788804e-38
0.13909334 -0.18346667 0.89600003 1.1163312e-38
0.082773335 -0.13141334 0.89600003 1.8993327e-38
0.094720006 -0.13056001 0.89600003 6.5413649e-39
0.082773335 -0.12885334 0.89600003 1.9176306e-38
0.09333048 -0.12750097 0.89700013 3.5104292e-39
0.097636834 -0.12724 0.89666671 5.5401288e-39
0.10251287 -0.12643382 0.89700001 6.178671e-39
0.10723557 -0.1260089 0.89600009 4.3369487e-39
0.11187049 -0.12638669 0.89666671 4.8004296e-39
0.11695018 -0.12634 0.89633334 4.160109e-39
0.12168534 -0.12612267 0.89600003 5.0791716e-39
0.12800001 -0.12544 0.89600003 4.895858e-39
0.13226667 -0.12544 0.89600003 2.9798191e-40
0.088746667 -0.12202667 0.89600003 1.1415054e-38
0.098352388 -0.12400953 0.89800006 6.3645028e-39
0.10220096 -0.12358192 0.89800006 5.3518041e-39
0.10714912 -0.12278778 0.89800012 5.5387008e-39
0.11203619 -0.12229906 0.89800006 5.6305237e-39
0.11716764 -0.1231543 0.89800012 5.9078309e-39
0.12250396 -0.12274832 0.89771438 6.4585019e-39
0.1270645 -0.12266941 0.89714295 6.8251195e-39
0.13243027 -0.12217673 0.89711118 4.5267335e-39
0.1372112 -0.12227358 0.89624995 1.7707671e-38
0.10750001 -0.19006002 0.90300006 1.642743e-38
0.11257556 -0.19163844 0.90233344 1.1617527e-38
0.11764477 -0.19149683 0.90166676 9.7696959e-39
0.12288922 -0.19163844 0.90233344 1.6788664e-38
0.13158001 -0.19178002 0.90300006 2.1029967e-38
0.093532383 -0.18620668 0.90100002 1.3181193e-38
0.10211334 -0.18792288 0.90100002 1.5127016e-38
0.10726191 -0.18849492 0.90100002 1.770917e-38
0.11126636 -0.18906701 0.90100002 1.2434345e-38
0.12819944 -0.18860935 0.90100002 1.9089209e-38
0.13266154 -0.18895259 0.90100002 2.0095105e-38
0.13815334 -0.18963906 0.90100002 1.1437432e-38
0.14158572 -0.18963906 0.90100002 1.2260943e-38
0.093532383 -0.18449049 0.90100002 1.2809189e-38
0.096106678 -0.18449049 0.90100002 1.1634031e-38
0.091816194 -0.12614001 0.90100002 1.0495725e-40
0.088383816 -0.12099144 0.90100002 1.4836665e-38
0.092204772 -0.12284318 0.90200007 2.7688985e-39
0.096857391 -0.12262786 0.90200007 6.7311288e-39
0.1017701 -0.12167791 0.90100002 5.0770136e-39
0.10640381 -0.12099144 0.90100002 6.5506962e-39
0.11755906 -0.12099144 0.90100002 6.3594904e-39
0.12184954 -0.12099144 0.90100002 5.8967368e-39
0.12871429 -0.12099144 0.90100002 6.5467291e-39
0.098900005 -0.11954001 0.90300006 5.7230809e-39
0.10271239 -0.11904382 0.90250003 6.5506878e-39
0.10738096 -0.11854764 0.90200007 7.0077129e-39
0.11230735 -0.11819798 0.902143 5.9957245e-39
0.11764731 -0.1193635 0.90166676 6.1751075e-39
0.12298001 -0.11954001 0.90300006 5.0684181e-39
0.12857001 -0.11911001 0.90300006 5.719488e-39
0.13308859 -0.11812342 0.90157151 3.5122229e-39
0.13608286 -0.11719429 0.90150005 1.6600966e-38
0.10852762 -0.19673336 0.90800005 1.6788308e-38
0.112592 -0.19768459 0.90800011 1.1805867e-38
0.11674286 -0.19803047 0.90800011 1.4944779e-38
0.12193143 -0.19716573 0.90800011 1.716426e-38
0.12625524 -0.19630097 0.90800005 2.1301153e-38
0.13317335 -0.19630097 0.90800005 2.0374201e-38
0.13749716 -0.19630097 0.90800011 1.3276677e-38
0.14268573 -0.19673336 0.90800005 1.2443546e-38
0.14614478 -0.19630097 0.90800005 1.2258012e-38
0.094259053 -0.1911124 0.90800005 1.4194618e-38
0.098150477 -0.19154477 0.90800005 1.2451591e-38
0.10283048 -0.19270159 0.90733337 1.3832709e-38
0.10754205 -0.19278914 0.90542865 1.5038767e-38
0.11290954 -0.19392858 0.90500009 1.2819642e-38
0.11808096 -0.19392858 0.90500009 1.3369578e-38
0.12239049 -0.19392858 0.90500003 1.7426133e-38
0.12729679 -0.19362478 0.90680009 1.8345558e-38
0.13213372 -0.19362478 0.90680009 2.0914448e-38
0.13727002 -0.1933881 0.9065001 1.3369585e-38
0.1426626 -0.19297281 0.90628588 1.2536818e-38
0.14614478 -0.19457144 0.90800005 1.2627901e-38
0.094259053 -0.18938287 0.90800005 1.3548538e-38
0.097395241 -0.18875715 0.90500009 1.1816273e-38
0.093947627 -0.12152858 0.90500003 3.6037221e-39
0.088776194 -0.11980477 0.90500003 1.4460355e-38
0.092732623 -0.11947168 0.90575004 3.3213506e-39
0.097646989 -0.11780761 0.90733349 6.0000195e-39
0.10256298 -0.1163806 0.90687507 6.8236845e-39
0.10791667 -0.11568525 0.9065001 5.7230851e-39
0.11377144 -0.11635715 0.90500003 4.8954894e-39
0.11763492 -0.11648382 0.90600014 5.1724421e-39
0.12285684 -0.11652669 0.90633339 5.2617636e-39
0.12749335 -0.11638395 0.90714294 5.2646195e-39
0.13115558 -0.11616635 0.90800011 4.7082073e-39
0.13663238 -0.11501334 0.90800005 1.4671333e-38
0.11188319 -0.11418351 0.90600008 6.0954353e-39
0.11631048 -0.11285143 0.90800005 6.6435882e-39
0.12020192 -0.11328382 0.90800005 6.3645e-39
0.12724033 -0.20723653 0.91300005 1.7156014e-38
0.14315525 -0.20562574 0.91100001 1.2257736e-38
0.10330192 -0.20096478 0.91150004 1.5119844e-38
0.1073535 -0.20197827 0.9115001 1.3187354e-38
0.11172156 -0.20240179 0.911125 1.1891965e-38
0.11666168 -0.20253453 0.91075003 1.3651541e-38
0.12256917 -0.20196775 0.911125 2.0191598e-38
0.12758732 -0.20223047 0.91133332 1.7610157e-38
0.13260138 -0.20181933 0.91171432 1.6422044e-38
0.13817953 -0.20161954 0.91250008 1.4018175e-38
0.1431035 -0.2020819 0.9106667 1.2168768e-38
0.14646667 -0.20020001 0.91000003 1.2073644e-38
0.094778098 -0.19564287 0.91300005 1.4652341e-38
0.099043578 -0.1980893 0.91225004 1.2274744e-38
0.10313334 -0.19760001 0.91000003 1.4475197e-38
0.10746668 -0.19846667 0.91000003 1.4206154e-38
0.12783334 -0.19803333 0.91000003 1.7991121e-38
0.13216668 -0.19803335 0.91000003 1.8266284e-38
0.13780001 -0.19846669 0.91000003 1.3465733e-38
0.14300001 -0.19846667 0.91000003 1.2444629e-38
0.14646667 -0.19846667 0.91000003 1.2163988e-38
0.093600005 -0.19240001 0.91000003 1.5757952e-38
0.097586669 -0.19430669 0.91000003 1.2181099e-38
0.092733338 -0.18980001 0.91000003 1.5946276e-38
0.089266673 -0.11786667 0.91000003 1.1794249e-38
0.092668101 -0.11697477 0.91149998 3.5039286e-39
0.097066671 -0.11526667 0.91000003 6.4577677e-39
0.13346668 -0.11526667 0.91000003 1.753697e-39
0.094020195 -0.11244154 0.91240007 5.1688225e-39
0.098112069 -0.11200286 0.91166669 5.7198579e-39
0.10324541 -0.11192159 0.91100007 5.7227278e-39
0.10746667 -0.11180001 0.91000003 6.1840534e-39
0.11184679 -0.11162869 0.910375 7.2853647e-39
0.11734667 -0.11076001 0.91000003 7.0999029e-39
0.12241668 -0.11158334 0.90999997 7.0988281e-39
0.12744604 -0.11184033 0.91033334 6.7304141e-39
0.13260335 -0.11220095 0.91149998 4.8829156e-39
0.13708381 -0.11192095 0.91100001 1.5591107e-38
0.10347334 -0.10869049 0.91300005 6.1736502e-39
0.10695144 -0.10869049 0.91300005 6.7264737e-39
0.11129905 -0.10869049 0.91300005 7.1774171e-39
0.11912477 -0.10869049 0.91300005 6.1787033e-39
0.12260287 -0.10869049 0.91300005 5.7223788e-39
0.12782001 -0.10869049 0.91300005 5.8138486e-39
0.13260239 -0.10825573 0.91300005 6.2704785e-39
0.13738477 -0.10782096 0.91300005 1.6602389e-38
0.10267905 -0.21246955 0.917 1.3925936e-38
0.10708359 -0.21177122 0.91600001 1.4573812e-38
0.11231067 -0.21117201 0.917 1.3837709e-38
0.11790001 -0.21047334 0.91700006 1.5302078e-38
0.12139334 -0.21047334 0.91700006 1.4009921e-38
0.13245715 -0.2100143 0.91500002 1.5034112e-38
0.13701493 -0.21032034 0.91633338 1.4566674e-38
0.14148 -0.21047334 0.91700006 1.2544792e-38
0.098686673 -0.20523335 0.91700006 1.3752363e-38
0.10210446 -0.20712 0.91633338 1.3192737e-38
0.10718572 -0.20740001 0.91500008 1.3556135e-38
0.11253716 -0.20762764 0.91600007 1.2450873e-38
0.11785716 -0.2077781 0.91666669 1.706346e-38
0.1229597 -0.20755112 0.9156667 1.7708102e-38
0.12868097 -0.20710956 0.91500008 1.8905552e-38
0.13245715 -0.20740001 0.91500002 1.9369754e-38
0.13691525 -0.20755112 0.91566676 1.7610882e-38
0.14168382 -0.20794953 0.91550004 1.2726677e-38
0.14552858 -0.20827144 0.91500002 1.3091757e-38
0.09775953 -0.20250335 0.91650003 1.3655843e-38
0.10165238 -0.2034802 0.91540003 1.3651558e-38
0.10631429 -0.20478573 0.91500002 1.3277395e-38
0.11851429 -0.20478573 0.91500002 1.7072427e-38
0.12112858 -0.20478573 0.91500002 2.3324057e-38
0.13332859 -0.20478573 0.91500002 2.2223829e-38
0.1368143 -0.20478575 0.91500008 1.8067545e-38
0.14030001 -0.20478573 0.91500002 1.2635987e-38
0.09596096 -0.19890288 0.91600001 1.3553205e-38
0.089953341 -0.11440668 0.91700006 8.6552993e-39
0.092214286 -0.11257937 0.91633338 5.8851677e-39
0.13507144 -0.11067144 0.91500002 8.1158134e-39
0.094216198 -0.10904762 0.91600001 4.8915406e-39
0.097204 -0.10802344 0.9162001 5.5404819e-39
0.10182286 -0.10705428 0.91575003 6.2722974e-39
0.10725212 -0.10675362 0.91557151 6.0854104e-39
0.11276967 -0.10678709 0.9158572 5.9046233e-39
0.11757757 -0.10735199 0.91642863 5.7198747e-39
0.12302437 -0.10682001 0.91614294 4.892265e-39
0.12819271 -0.10639112 0.9156667 5.0805968e-39
0.13284478 -0.10610064 0.91566676 5.8970563e-39
0.13660286 -0.10605144 0.91650003 1.365217e-38
0.10130668 -0.10392667 0.91700006 7.2810627e-39
0.10742001 -0.10392668 0.91700006 5.3535893e-39
0.11353334 -0.10392667 0.91700006 4.5277943e-39
0.11964668 -0.10392667 0.91700006 5.6294573e-39
0.12357667 -0.10349001 0.91700006 5.7220047e-39
0.12750667 -0.10392667 0.91700006 5.5361869e-39
0.13187335 -0.10267905 0.917 4.6185522e-39
0.13661429 -0.10242954 0.917 1.4389005e-38
0.08471334 -0.098686673 0.91700006 1.5861962e-38
0.10339049 -0.21641906 0.92000002 1.7426754e-38
0.10689525 -0.21641906 0.92000002 1.7056539e-38
0.098624289 -0.21259096 0.92050004 1.4292552e-38
0.10076191 -0.2120381 0.92000002 1.1072961e-38
0.093854293 -0.20700669 0.921 1.7701913e-38
0.097286806 -0.20772165 0.92028582 1.5215593e-38
0.10076191 -0.20940953 0.92000002 1.2182188e-38
0.093752384 -0.2032762 0.92000002 1.7977411e-38
0.095504768 -0.2032762 0.92000002 1.6039202e-38
0.090831757 -0.11186032 0.92000002 7.0768725e-39
0.09253715 -0.10832858 0.921 5.0615559e-39
0.097257152 -0.10601906 0.92000002 5.7209131e-39
0.11828572 -0.10601906 0.92000002 5.7367295e-39
0.087619051 -0.10076191 0.92000002 1.3275117e-38
0.093956195 -0.10449334 0.92200005 3.5075467e-39
0.097749054 -0.10388429 0.92050004 5.9946553e-39
0.10320985 -0.1023324 0.92100012 5.626949e-39
0.10788858 -0.10174762 0.921 5.2621112e-39
0.11252572 -0.10229524 0.92066669 5.7237956e-39
0.1171426 -0.10235783 0.92085719 6.1840562e-39
0.1218781 -0.10171112 0.92066669 6.9172983e-39
0.12739812 -0.10146286 0.92000002 6.7314833e-39
0.13230477 -0.10076191 0.92000002 6.555703e-39
0.086742863 -0.099009529 0.92000002 1.6136025e-38
0.12732384 -0.099224769 0.92200011 4.793971e-39
0.13267893 -0.097847901 0.92085719 4.2454565e-39
0.13688383 -0.097396836 0.92133331 1.4848514e-38
0.089168578 -0.10506 0.92700005 1.0237005e-38
0.091751121 -0.10674763 0.92633343 4.3236434e-39
0.089168578 -0.10329429 0.92700005 1.0141573e-38
0.092598736 -0.10230064 0.92600012 4.5173827e-39
0.097433344 -0.1020143 0.92500013 5.9950085e-39
0.10130953 -0.10130953 0.92500007 5.4404026e-39
0.088580012 -0.098585725 0.92700005 1.0870892e-38
0.092258573 -0.09932144 0.92700005 3.0422638e-39
0.098438576 -0.09932144 0.92700005 5.4364327e-39
0.10285125 -0.098970488 0.92620009 4.9808551e-39
0.10733684 -0.098219693 0.92633343 4.1539783e-39
0.11204223 -0.097925402 0.92633343 4.0607065e-39
0.11725114 -0.097854927 0.92566681 3.3220765e-39
0.12251081 -0.09783186 0.92544448 4.3326271e-39
0.12773812 -0.09690477 0.92500013 3.6919086e-39
0.13214287 -0.096023813 0.92500007 2.0263266e-39
0.11742 -0.094465718 0.92700005 6.1818926e-39
0.12315858 -0.094024286 0.92700005 6.8268865e-39
0.12792286 -0.093514934 0.92633343 6.5467067e-39
0.13235763 -0.093531907 0.92650008 3.0415337e-39
0.13684288 -0.094465718 0.92700005 1.2730554e-38
0.089457147 -0.096542865 0.93000007 8.5706581e-39
0.0933543 -0.097251438 0.93000013 3.8791823e-39
0.097428575 -0.097428575 0.93000007 5.6276357e-39
0.10185715 -0.096542865 0.93000007 5.6280126e-39
0.10628572 -0.096542865 0.93000007 5.1645177e-39
0.089649528 -0.094975248 0.93200004 8.9405126e-39
0.09270715 -0.094480485 0.93150002 4.1500239e-39
0.0976381 -0.094975248 0.93200004 7.4718958e-39
0.10196667 -0.093985721 0.93100011 5.261758e-39
0.10727344 -0.093087628 0.93088901 4.7089304e-39
0.11256635 -0.093065411 0.9306668 5.4457737e-39
0.11787185 -0.09254995 0.93057162 4.7989862e-39
0.12276001 -0.091937147 0.93000013 4.7964583e-39
0.12754287 -0.091228575 0.93000007 4.8886497e-39
0.13197145 -0.091228575 0.93000007 3.6894003e-39
0.13728571 -0.092114292 0.93000019 1.2452169e-38
0.11450286 -0.089649528 0.93200004 3.3234666e-39
0.11805335 -0.089649528 0.93200004 3.4139022e-39
0.12249143 -0.089649528 0.93200004 4.0567422e-39
0.12730429 -0.089157626 0.93150008 3.8716349e-39
0.13211334 -0.088665724 0.93100011 3.1319245e-39
0.1375324 -0.088729851 0.93166673 1.2265616e-38
0.09214668 -0.09214668 0.93633336 3.9656214e-39
0.097153768 -0.091804981 0.93588895 5.5293626e-39
0.10213544 -0.091083623 0.93580008 3.046193e-39
0.10619334 -0.090130486 0.93700004 4.3261447e-39
0.09244477 -0.088876516 0.93633336 1.2980872e-39
0.098161906 -0.088345721 0.93700004 7.2824851e-39
0.1030143 -0.088743821 0.93650007 5.2531232e-39
0.10842165 -0.088290758 0.93642867 4.059266e-39
0.11268423 -0.088236883 0.9358573 3.691554e-39
0.11715829 -0.087199442 0.93620008 3.1448641e-39
0.12203811 -0.087297469 0.93533343 4.6106335e-39
0.12719829 -0.087237917 0.93660003 4.5245251e-39
0.13286889 -0.086499378 0.93633336 4.2504423e-39
0.13624287 -0.086376198 0.93500006 9.1378435e-39
0.11244 -0.084776193 0.93700004 5.1709847e-39
0.11690192 -0.084776193 0.93700004 5.6337635e-39
0.12136382 -0.084776193 0.93700004 6.6421435e-39
0.13415462 -0.084181271 0.93700004 5.7212452e-39
0.13653429 -0.083883815 0.93700004 9.1371204e-39
0.093203813 -0.086033344 0.94099998 3.1441438e-39
0.097414158 -0.086404093 0.94085717 6.1790284e-39
0.10298826 -0.085973024 0.94033337 5.1692205e-39
0.10713017 -0.085644454 0.94000006 4.4395405e-39
0.11011429 -0.085047625 0.94000006 4.8057951e-39
0.12443811 -0.085047625 0.94000006 5.8138164e-39
0.12801906 -0.085047625 0.94000006 5.8188414e-39
0.13160001 -0.085047625 0.94000006 5.5347113e-39
0.10406858 -0.083434291 0.94200003 4.0725587e-39
0.1079562 -0.082836196 0.94200009 3.1484514e-39
0.11194383 -0.0823908 0.94033337 4.1539685e-39
0.11727621 -0.082361907 0.94000006 4.5216973e-39
0.1227781 -0.082448572 0.9410001 4.7989736e-39
0.12815396 -0.082449213 0.9410001 4.615297e-39
0.13249525 -0.082361907 0.94000006 4.981539e-39
0.13607621 -0.081466675 0.94000006 7.846006e-39
0.11304 -0.079845719 0.94200003 4.7885185e-39
0.11752572 -0.079845719 0.94200009 4.7889305e-39
0.13277715 -0.079845719 0.94200003 4.0542227e-39
0.13636573 -0.079845719 0.94200003 8.3012122e-39
0.09118858 -0.085771434 0.94800007 6.5258932e-39
0.093370721 -0.083447859 0.94725013 3.5107613e-39
0.098188177 -0.082487762 0.94585729 5.2549281e-39
0.10216145 -0.081427149 0.9465 4.5123282e-39
0.10694402 -0.080972575 0.94680005 3.2284081e-39
0.1107 -0.080100007 0.94500005 4.6030679e-39
0.12240001 -0.080100007 0.94500005 4.6985257e-39
0.1269 -0.080100015 0.94500005 4.4208528e-39
0.1305 -0.080100007 0.94500005 3.778017e-39
