# .PCD v0.7 - Point Cloud Data file format
VERSION 0.7
FIELDS x y z rgb
SIZE 4 4 4 4
TYPE F F F F
COUNT 1 1 1 1
WIDTH 691
HEIGHT 1
VIEWPOINT 0 0 0 1 0 0 0
POINTS 691
DATA ascii
0.038765717 -0.057051435 0.76800001 1.1704599e-38
0.040228575 -0.057051435 0.76800001 6.4603264e-39
0.12361144 -0.056320004 0.76800001 1.4565409e-38
0.1250743 -0.056320004 0.76800001 1.4657631e-38
0.038765721 -0.053394288 0.76800001 9.4004524e-39
0.040228575 -0.054857146 0.76800001 4.5192086e-39
0.1250743 -0.054857146 0.76800001 1.4382133e-38
0.038984448 -0.062522866 0.77233338 1.3177955e-38
0.042818762 -0.062242001 0.77250004 8.5797862e-39
0.047629885 -0.062342264 0.77237511 1.1535752e-38
0.052235715 -0.061800487 0.77250004 1.3099464e-38
0.057626672 -0.062041275 0.77244455 1.3282418e-38
0.062531009 -0.062531859 0.77244455 1.5035181e-38
0.06767112 -0.062522866 0.7723335 1.457637e-38
0.072616547 -0.062322497 0.77212501 1.4757524e-38
0.077250004 -0.06180048 0.77250004 1.1346699e-38
0.082663283 -0.062059052 0.77266675 1.2916155e-38
0.087289907 -0.061676957 0.77280009 1.1719425e-38
0.092760012 -0.061103813 0.77300006 9.8762521e-39
0.098852083 -0.06156826 0.77266669 1.0422603e-38
0.1022643 -0.06180048 0.77250004 1.2178595e-38
0.1069473 -0.06156826 0.77266669 1.1531445e-38
0.11337334 -0.061103813 0.77300006 1.1066884e-38
0.1185045 -0.061933886 0.77285725 9.4080586e-39
0.12278477 -0.062495239 0.77199996 1.2260916e-38
0.038866669 -0.059400003 0.77000004 1.2072319e-38
0.043058611 -0.05739297 0.77030778 4.9831014e-39
0.047676668 -0.057212859 0.77016675 4.6154105e-39
0.052066669 -0.057200007 0.7700001 4.2477042e-39
0.057209648 -0.057208933 0.77012515 4.8015926e-39
0.062481433 -0.057336356 0.77183336 4.154075e-39
0.067520835 -0.057247266 0.77062511 3.6037697e-39
0.072600007 -0.057200007 0.7700001 4.1547855e-39
0.077613339 -0.057073914 0.77026683 3.4186652e-39
0.082790039 -0.057473119 0.77138472 3.9729138e-39
0.087399535 -0.057287779 0.77116674 3.6970401e-39
0.092647448 -0.057353396 0.77206254 3.3304142e-39
0.097797081 -0.057355002 0.77208328 3.424042e-39
0.10215399 -0.057324134 0.77166671 3.5119342e-39
0.10736239 -0.057358216 0.77212501 3.6066438e-39
0.11251557 -0.057361431 0.77216667 4.5271511e-39
0.1175987 -0.057330716 0.77175003 6.1873675e-39
0.12233336 -0.057266675 0.77000004 1.3463074e-38
0.12540001 -0.057933338 0.77000004 1.4839857e-38
0.042542703 -0.052077621 0.77016675 5.2571267e-39
0.047707934 -0.052110482 0.77066666 1.4475866e-38
0.052111756 -0.052110486 0.77066672 1.4107804e-38
0.057300001 -0.052155875 0.77133334 1.4198193e-38
0.062495239 -0.052201904 0.77199996 1.4103478e-38
0.06764929 -0.052207388 0.7720834 1.3829057e-38
0.072736405 -0.052162863 0.7714445 1.3645033e-38
0.07746353 -0.052327719 0.77169997 1.2718787e-38
0.082527973 -0.052055582 0.77181816 1.336773e-38
0.087493338 -0.052201904 0.77199996 1.2812764e-38
0.092640013 -0.052201904 0.77200001 1.2626583e-38
0.097800963 -0.052209206 0.77211112 1.1889384e-38
0.10222773 -0.052216507 0.77222222 1.152095e-38
0.10739113 -0.052223809 0.77233332 1.0784456e-38
0.11249144 -0.052201904 0.77199996 1.0136924e-38
0.11757296 -0.052173577 0.77158332 4.8843183e-39
0.12213798 -0.052313749 0.77057147 1.3648902e-38
0.042643812 -0.049260955 0.77200001 9.863639e-39
0.04781048 -0.049282223 0.77233338 1.8903749e-38
0.052201908 -0.049260955 0.77200001 1.6882651e-38
0.057385713 -0.048556667 0.77249998 1.7982523e-38
0.062729888 -0.048012502 0.77262503 1.8078664e-38
0.067287818 -0.049030289 0.77300006 1.7615538e-38
0.072882861 -0.049324766 0.77300012 1.7064891e-38
0.08245334 -0.049324766 0.77300006 1.71578e-38
0.087530486 -0.04928223 0.77233338 1.789392e-38
0.092640005 -0.049260955 0.77200001 1.7892128e-38
0.097913347 -0.049324766 0.77300012 1.7433306e-38
0.1008581 -0.049324766 0.77300006 1.9920752e-38
0.10748382 -0.049324766 0.77300006 2.1670998e-38
0.11263715 -0.049324766 0.77300012 2.1757795e-38
0.11558191 -0.049324766 0.77300006 1.503076e-38
0.12278477 -0.049260955 0.77200001 1.5857609e-38
0.042125717 -0.066515245 0.77600002 1.0884991e-38
0.04729905 -0.066515245 0.77600002 1.2545579e-38
0.052607622 -0.066686675 0.77800006 1.8078306e-38
0.057756193 -0.066643342 0.77750003 2.1303679e-38
0.062845401 -0.066543497 0.77633333 1.9258525e-38
0.067318335 -0.067135721 0.77675003 1.9824977e-38
0.072231859 -0.066809855 0.7765556 1.8811922e-38
0.077800006 -0.066686675 0.77800006 2.0657599e-38
0.082470626 -0.066421643 0.7761429 1.9270375e-38
0.087605856 -0.066682048 0.77671438 1.8540359e-38
0.092699051 -0.06674318 0.77866668 1.8633632e-38
0.097147308 -0.06674318 0.77866668 1.8812997e-38
0.10228357 -0.066707864 0.77825004 1.3470738e-38
0.10748477 -0.066714928 0.77833337 2.0473928e-38
0.1123694 -0.066617012 0.77842867 1.8718651e-38
0.1180281 -0.066229999 0.77700001 1.2635965e-38
0.12104763 -0.066428572 0.77500004 1.2259883e-38
0.042071432 -0.064214289 0.77500004 1.0330749e-38
0.049452383 -0.064214289 0.77500004 1.9178542e-38
0.052404769 -0.064214289 0.77500004 1.9737446e-38
0.056833338 -0.064214289 0.77500004 1.7347215e-38
0.074547626 -0.064214289 0.77500004 1.9174235e-38
0.077500008 -0.064214289 0.77500004 1.7988988e-38
0.081928574 -0.064214289 0.77500004 2.0378501e-38
0.08826001 -0.063886672 0.77550006 1.9644181e-38
0.092380963 -0.063559055 0.77600002 1.5949945e-38
0.097247146 -0.063414998 0.77649999 1.4855103e-38
0.10277049 -0.064324766 0.77633333 1.6140789e-38
0.10802078 -0.063690104 0.77580005 1.7520842e-38
0.11255573 -0.063394763 0.77625006 1.4383363e-38
0.11718229 -0.063690096 0.77580005 1.0701334e-38
0.042351909 -0.046787623 0.77675009 8.5826084e-39
0.047339048 -0.046598103 0.77666664 1.8908773e-38
0.052494925 -0.046578735 0.77633333 1.8167982e-38
0.057626434 -0.045805477 0.77575004 1.8077587e-38
0.062369049 -0.04539286 0.77500004 1.8539277e-38
0.067417145 -0.046359528 0.77575004 1.8261258e-38
0.072536677 -0.046629053 0.77716672 1.8538199e-38
0.077666685 -0.047337778 0.77666658 1.7892122e-38
0.082329534 -0.046706479 0.77600008 1.7892477e-38
0.087480962 -0.046462256 0.77663642 1.8260899e-38
0.092526026 -0.046631224 0.77722228 1.8444571e-38
0.097478196 -0.046752475 0.77700013 1.8905541e-38
0.10275809 -0.046997782 0.7771666 2.0012231e-38
0.10739207 -0.046658736 0.77766669 1.9551265e-38
0.11235733 -0.046785891 0.77754551 1.9920402e-38
0.11789133 -0.047631219 0.77744454 9.2150116e-39
0.1217226 -0.047903541 0.77728575 1.2545061e-38
0.043772385 -0.043772385 0.77900004 1.5868147e-38
0.04790153 -0.043453146 0.77860004 1.8631472e-38
0.052607622 -0.04297429 0.77800006 1.8631112e-38
0.057364006 -0.042392008 0.77820009 1.8537842e-38
0.062448405 -0.042103298 0.77809101 1.881299e-38
0.067436725 -0.042239055 0.77811116 1.8537842e-38
0.07270667 -0.042288583 0.77900016 1.8354169e-38
0.077900007 -0.042288575 0.7790001 1.8263412e-38
0.082165956 -0.04247405 0.77900004 1.8630754e-38
0.087544769 -0.043030486 0.77900004 1.7526934e-38
0.092738107 -0.043030482 0.77900004 1.7799198e-38
0.096818581 -0.043401431 0.77900004 1.8261978e-38
0.10312478 -0.043772385 0.77900004 1.8076149e-38
0.042525083 -0.070873022 0.78333342 1.1345246e-38
0.047413334 -0.071306668 0.78400004 1.4482378e-38
0.05245503 -0.07184805 0.7831111 2.0648985e-38
0.057395559 -0.072304763 0.78266668 2.0474285e-38
0.062294103 -0.071982101 0.78240007 2.0375629e-38
0.067800961 -0.071528576 0.78233337 1.9182122e-38
0.072108306 -0.071896061 0.78285724 1.7055911e-38
0.077579767 -0.071612149 0.78325003 1.8891544e-38
0.082810163 -0.071619689 0.78333342 1.7317064e-38
0.08736001 -0.071680009 0.78400004 1.5300994e-38
0.092586674 -0.070933335 0.78400004 1.6411991e-38
0.097813338 -0.071680009 0.78400004 2.1118571e-38
0.10229336 -0.071680009 0.78400004 1.8903753e-38
0.10737067 -0.07153067 0.78400004 2.0471417e-38
0.11274668 -0.070933335 0.7840001 2.0838396e-38
0.11806134 -0.071195811 0.78360003 1.5957838e-38
0.12104725 -0.072689153 0.78360003 1.4197103e-38
0.042416513 -0.069203816 0.78133339 1.1250534e-38
0.047635715 -0.069218576 0.78150004 1.3460339e-38
0.052742861 -0.069085717 0.78000009 1.8723302e-38
0.057200007 -0.069085717 0.78000009 2.0466034e-38
0.062400006 -0.069085717 0.78000003 2.0464226e-38
0.067600004 -0.069085717 0.78000003 2.3234006e-38
0.07280001 -0.069085717 0.78000003 2.1116063e-38
0.077357151 -0.06917429 0.78100002 2.1578828e-38
0.082457155 -0.069085717 0.78000009 1.9179261e-38
0.087657146 -0.069085717 0.78000003 1.6876553e-38
0.093095243 -0.069262862 0.78200006 1.7616264e-38
0.097563826 -0.069262862 0.78200006 2.0563244e-38
0.10203239 -0.069262862 0.78200006 1.4481641e-38
0.10724571 -0.069262862 0.78200006 2.0562532e-38
0.1125562 -0.069321916 0.78266668 2.0655083e-38
0.11730994 -0.068600826 0.78171438 1.3745893e-38
0.12214096 -0.069262862 0.78200006 1.290059e-38
0.040857144 -0.04531429 0.78000003 9.2412831e-41
0.11712381 -0.045314293 0.78000009 1.3646495e-38
0.12257144 -0.045314293 0.78000009 1.3831829e-38
0.039174762 -0.042158574 0.78350008 7.7236727e-39
0.042278334 -0.042276908 0.78225005 7.1118195e-39
0.047275923 -0.041538775 0.78085721 1.8816938e-38
0.052742861 -0.040857144 0.78000009 1.8447801e-38
0.08394286 -0.040857144 0.78000003 1.9088853e-38
0.087657146 -0.040857144 0.78000003 1.8354891e-38
0.092857145 -0.040857144 0.78000009 1.8445283e-38
0.097611442 -0.041451432 0.78000003 1.8630754e-38
0.10212024 -0.04203786 0.78125012 1.8352733e-38
0.10766535 -0.042289715 0.78180009 1.7891761e-38
0.11236403 -0.042413551 0.78133339 1.8447444e-38
0.11772192 -0.042468261 0.78233337 9.3122575e-39
0.12281545 -0.042426459 0.78155559 1.5671417e-38
0.037893336 -0.037146669 0.78399998 9.9431319e-39
0.042560004 -0.038976002 0.78400004 8.4954406e-39
0.047496513 -0.038378205 0.78333336 1.8538202e-38
0.052366152 -0.037452165 0.78292316 1.715564e-38
0.057211261 -0.037438441 0.78200006 1.4755705e-38
0.062388133 -0.037751067 0.78200001 1.4943678e-38
0.067869917 -0.037653528 0.78140008 1.5682316e-38
0.072225884 -0.03722683 0.78183335 1.5774881e-38
0.077442974 -0.037229169 0.78187495 1.6511362e-38
0.082704455 -0.037251431 0.78233349 1.6879776e-38
0.087248586 -0.037283812 0.78300011 1.7063452e-38
0.092272669 -0.037610617 0.78314298 1.6327694e-38
0.097730167 -0.038046349 0.78333336 1.5866352e-38
0.10229336 -0.03882667 0.78400004 1.7803159e-38
0.10707201 -0.03927467 0.78400004 1.8355606e-38
0.11237334 -0.0392 0.78400004 1.8632551e-38
0.11722668 -0.039573334 0.7840001 9.1257054e-39
0.12313677 -0.038059812 0.78359997 1.5400605e-38
0.037333339 -0.033600003 0.78400004 1.1610939e-38
0.073173337 -0.033600003 0.78400004 1.5034797e-38
0.077653341 -0.033600003 0.78400004 1.5125178e-38
0.082880005 -0.033600003 0.7840001 1.4480176e-38
0.085866675 -0.033600003 0.78400004 1.5308493e-38
0.042831432 -0.075894289 0.78900003 1.1805153e-38
0.047830638 -0.076880164 0.78883338 1.5944923e-38
0.05251611 -0.077275962 0.78775012 1.5768422e-38
0.057571553 -0.077076554 0.78762507 1.2449431e-38
0.062329054 -0.076597624 0.78850007 1.3001164e-38
0.068100326 -0.076363176 0.78866673 1.5317148e-38
0.07301116 -0.076871023 0.78800005 1.6057935e-38
0.077062145 -0.077064291 0.78750002 1.4486687e-38
0.082535088 -0.077284291 0.78783339 1.5683416e-38
0.087788105 -0.076532863 0.78783339 1.5035547e-38
0.092054866 -0.076437719 0.78840011 1.4486329e-38
0.097561911 -0.075798102 0.78800005 1.586206e-38
0.10256688 -0.076437719 0.78840005 1.0599444e-38
0.10740953 -0.075862229 0.78866673 1.632446e-38
0.11271429 -0.075894289 0.78900003 1.7615181e-38
0.11842477 -0.076863818 0.78866673 1.3378531e-38
0.12133429 -0.076941915 0.78740007 1.3738976e-38
0.042758416 -0.073516518 0.78766674 1.1622912e-38
0.046907812 -0.073585153 0.78680003 1.448776e-38
0.051651433 -0.074108586 0.78600001 2.2405697e-38
0.063628577 -0.074108578 0.78600001 1.7892486e-38
0.067371428 -0.074108578 0.78600001 1.3652984e-38
0.073360011 -0.074108578 0.78600001 1.1446418e-38
0.077102862 -0.074108586 0.78600001 1.1998507e-38
0.082342863 -0.074108578 0.78600001 1.3098019e-38
0.087582871 -0.074108586 0.78600001 1.2545576e-38
0.092074297 -0.073360011 0.78600001 1.3460696e-38
0.096865155 -0.073809147 0.78600001 1.8078311e-38
0.10255429 -0.074108586 0.78600001 2.0464594e-38
0.10759081 -0.073141918 0.78633344 2.2128039e-38
0.11276981 -0.073574699 0.78714293 2.1479809e-38
0.11728533 -0.073547438 0.78640002 1.6784358e-38
0.03787772 -0.037278861 0.78600001 8.2000469e-39
0.042668574 -0.036252249 0.78600001 9.0489759e-39
0.04678572 -0.035557147 0.78600001 1.8448522e-38
0.0524 -0.03518286 0.78600001 1.6689999e-38
0.059137147 -0.03518286 0.78600001 1.5679797e-38
0.062880002 -0.03518286 0.78600001 1.6505582e-38
0.066622861 -0.03518286 0.78600001 1.5954209e-38
0.093571432 -0.03518286 0.78600001 1.4670699e-38
0.097314298 -0.03518286 0.78600001 1.5402138e-38
0.10255429 -0.035931431 0.78600001 1.5868155e-38
0.10733501 -0.03652643 0.78675002 1.8170138e-38
0.11245767 -0.036576454 0.78672731 1.8909852e-38
0.11762541 -0.036709849 0.78666675 8.4821101e-39
0.12167334 -0.036225718 0.78700006 9.238992e-39
0.03792705 -0.031629529 0.78700006 9.7663384e-39
0.042360719 -0.033363573 0.78725004 7.209029e-39
0.04726937 -0.033012863 0.78783339 1.8905904e-38
0.052656572 -0.032552384 0.78760004 1.7433298e-38
0.057770584 -0.032259475 0.78777778 1.5037314e-38
0.062086947 -0.032704353 0.78814292 1.6882288e-38
0.067542382 -0.033020005 0.78799999 1.6877596e-38
0.072608441 -0.031851973 0.78828579 1.6971245e-38
0.077331439 -0.031533018 0.78833342 1.724675e-38
0.082447626 -0.031479046 0.78700006 1.6326589e-38
0.087923937 -0.032056075 0.78737503 1.6415917e-38
0.092269525 -0.032254923 0.78766674 1.6969811e-38
0.097593419 -0.032279447 0.78825009 1.6048208e-38
0.10256686 -0.03318743 0.78840011 9.6925447e-39
0.1073181 -0.033771433 0.78800005 1.2460179e-38
0.11267786 -0.033803575 0.78875005 1.8260184e-38
0.11792445 -0.033800006 0.78866673 8.4773891e-39
0.12237874 -0.033785716 0.78833342 9.7547287e-39
0.078148574 -0.029305717 0.78900003 1.8905538e-38
0.082657151 -0.029305717 0.78900003 1.8353445e-38
0.086414292 -0.029305717 0.78900003 1.7708807e-38
0.047460005 -0.085126683 0.79100007 1.2636308e-38
0.052361716 -0.085860007 0.79220003 1.2089937e-38
0.055887625 -0.085341908 0.79300004 1.1627173e-38
0.04342619 -0.081565715 0.79300004 1.2633815e-38
0.04756625 -0.082298316 0.79277784 1.429619e-38
0.052563723 -0.082034037 0.79154545 1.0331474e-38
0.057568781 -0.082206883 0.79188889 1.0703125e-38
0.062900558 -0.081889391 0.7930001 1.0610926e-38
0.067216195 -0.082320958 0.7930001 1.2178232e-38
0.072657749 -0.082127362 0.79245466 1.1349193e-38
0.077658735 -0.082182549 0.79166663 1.0424031e-38
0.08211334 -0.08211334 0.79099995 1.1442832e-38
0.087405562 -0.082130961 0.79116672 1.1900934e-38
0.09236341 -0.082017288 0.79214293 1.0889671e-38
0.095915243 -0.08081048 0.79300004 1.6046811e-38
0.11353748 -0.081313975 0.7930001 8.7692039e-39
0.11740749 -0.081399597 0.79242861 1.1067577e-38
0.043017551 -0.077734567 0.79242867 1.1991683e-38
0.04649429 -0.078664452 0.79166669 1.6056498e-38
0.059513338 -0.079100005 0.79100001 1.0973613e-38
0.062526673 -0.079100005 0.79100007 1.153001e-38
0.066745333 -0.078497343 0.79100001 1.6498815e-38
0.071566671 -0.079100005 0.79100007 1.7246055e-38
0.079100005 -0.079100005 0.79100001 1.4945507e-38
0.088140011 -0.079100005 0.79100007 1.6042506e-38
0.093096189 -0.078773335 0.79149997 1.4944431e-38
0.097343817 -0.078479379 0.79233336 1.5497234e-38
0.10215564 -0.078617342 0.79220003 8.2102904e-39
0.10786286 -0.078446671 0.792 9.409537e-39
0.11238858 -0.078446679 0.79200006 1.2630954e-38
0.11646535 -0.078497343 0.79100001 1.3376038e-38
0.03992667 -0.030886669 0.79100001 4.4190508e-39
0.043241337 -0.031489335 0.79100001 1.1907382e-38
0.047460001 -0.030886671 0.79100007 1.8720798e-38
0.051980004 -0.030886669 0.79100001 1.8263403e-38
0.063280001 -0.030886669 0.79100001 1.7896434e-38
0.067046672 -0.030886671 0.79100007 1.7895355e-38
0.070060007 -0.030886669 0.79100001 1.7618768e-38
0.10358334 -0.031263333 0.79100001 9.960805e-39
0.10786287 -0.031679049 0.792 9.0478605e-39
0.11243524 -0.031692702 0.79233336 1.7896777e-38
0.11752001 -0.031640001 0.79099995 1.0786223e-38
0.12279335 -0.031640001 0.79100001 1.2820529e-38
0.038517144 -0.029454287 0.79300004 8.378037e-39
0.041840192 -0.02915219 0.79300004 7.7503254e-39
0.047778104 -0.028364765 0.79271436 1.8353812e-38
0.052799046 -0.027907625 0.79200006 1.7986102e-38
0.058055561 -0.027895557 0.79166663 1.5124824e-38
0.062579371 -0.027895557 0.79166663 1.7894995e-38
0.06715969 -0.027919048 0.79233342 1.8721873e-38
0.072441906 -0.027919047 0.79233348 1.7802082e-38
0.077462181 -0.027471432 0.79185712 1.835489e-38
0.082217149 -0.027153336 0.792 1.8353096e-38
0.087776385 -0.02759867 0.79180008 1.7617692e-38
0.092738099 -0.027895557 0.79166669 1.7801726e-38
0.097261913 -0.027895557 0.79166669 1.641555e-38
0.10260588 -0.027913814 0.79216671 1.3655072e-38
0.10762144 -0.029076669 0.79300004 1.5314589e-38
0.11404096 -0.029454287 0.79300004 2.1480141e-38
0.11706191 -0.029454287 0.7930001 1.1057091e-38
0.12234858 -0.028245909 0.79300016 1.6139937e-38
0.052111432 -0.024922859 0.7930001 1.7525847e-38
0.057398099 -0.024922859 0.79300004 1.5772354e-38
0.062684774 -0.024922859 0.7930001 1.7434015e-38
0.071747623 -0.024922859 0.79300004 1.6240157e-38
0.08081048 -0.024922859 0.79300004 1.8448162e-38
0.094404764 -0.024922859 0.79300004 1.7616624e-38
0.097425722 -0.024922859 0.7930001 1.5222766e-38
0.10120191 -0.024922859 0.79300004 1.208379e-38
0.12310382 -0.024922859 0.79300004 1.7887373e-38
0.094880961 -0.085772388 0.79700005 1.3001526e-38
0.098040007 -0.085880004 0.79800004 1.3459263e-38
0.10184 -0.085880004 0.79800004 1.3831261e-38
0.043914288 -0.082528576 0.79500002 1.2641007e-38
0.059814289 -0.084042862 0.79500002 9.5067353e-39
0.062085718 -0.084042862 0.79500002 8.1195157e-39
0.07041429 -0.084042862 0.79500002 4.7104886e-39
0.094642863 -0.083285719 0.79500002 9.4095398e-39
0.098045722 -0.082875483 0.79650003 1.08868e-38
0.10216246 -0.08223021 0.79628575 8.8592457e-39
0.10749092 -0.082534038 0.79636365 9.229096e-39
0.11140357 -0.082607865 0.79575002 8.209933e-39
0.043157145 -0.079500005 0.79500002 1.253983e-38
0.10524286 -0.079500005 0.79500002 7.7539856e-39
0.038695242 -0.026553653 0.79666674 6.1599833e-39
0.042674899 -0.026403379 0.79627275 9.3251803e-39
0.046729207 -0.026016191 0.79566669 1.9000255e-38
0.10857429 -0.027105717 0.79500002 1.4669252e-38
0.11275403 -0.027067792 0.79554552 1.7894992e-38
0.11745556 -0.026520953 0.79566664 7.0992331e-39
0.12038572 -0.026500002 0.79500002 1.5124394e-38
0.037240002 -0.021280002 0.79800004 1.0694386e-38
0.042053338 -0.023053337 0.79800004 6.5582422e-39
0.0481636 -0.02302582 0.79711115 1.8168708e-38
0.052352384 -0.022001272 0.79666674 1.7526933e-38
0.057441302 -0.022133941 0.79645455 1.6140419e-38
0.062696576 -0.02185905 0.79699999 1.6604634e-38
0.067534052 -0.022762146 0.79675001 1.7429694e-38
0.07249891 -0.022803077 0.7961539 1.6418798e-38
0.07770586 -0.022540001 0.79657149 1.7985394e-38
0.082845896 -0.022554634 0.7967273 1.8445279e-38
0.087290488 -0.022769053 0.79700005 1.8354167e-38
0.092261508 -0.022765173 0.79685718 1.807759e-38
0.09757629 -0.021850573 0.7967 1.1904845e-38
0.10255858 -0.022299716 0.79650003 7.5723745e-39
0.10720705 -0.022933191 0.79661542 8.0319205e-39
0.11219578 -0.022540109 0.79777771 1.5312451e-38
0.11780001 -0.023560002 0.79800004 6.632525e-39
0.12137143 -0.024272859 0.79650003 1.7889524e-38
0.057000004 -0.019000001 0.79800004 1.6787931e-38
0.062573344 -0.019000001 0.79800004 1.6422398e-38
0.067640007 -0.019000001 0.79800004 1.7619132e-38
0.072960004 -0.019000001 0.79800004 1.6325898e-38
0.077520005 -0.019000001 0.79800004 1.7615541e-38
0.082840011 -0.019000001 0.79800004 1.844421e-38
0.093480006 -0.019000001 0.79800004 1.844349e-38
0.097280011 -0.019000001 0.79800004 1.3551003e-38
0.10260001 -0.019000001 0.79800004 9.4007551e-39
0.10361905 -0.084571436 0.80000001 9.506036e-39
0.034371432 -0.026733335 0.80200005 1.7796939e-38
0.036646672 -0.026722226 0.80166668 1.4840974e-38
0.03431429 -0.022114921 0.80066669 1.7706917e-38
0.037346125 -0.022321362 0.80028576 1.1153562e-38
0.043192707 -0.021087937 0.80033338 1.1906635e-38
0.047238097 -0.020571429 0.80000001 1.9182844e-38
0.11276191 -0.020571429 0.80000001 1.5602333e-38
0.11778641 -0.021246532 0.80085725 8.0204425e-39
0.12190477 -0.021333333 0.80000001 1.8998016e-38
0.034285717 -0.01904762 0.80000001 1.6873542e-38
0.037365716 -0.018300954 0.80066669 1.0134391e-38
0.042028259 -0.018338097 0.80233335 7.3858617e-39
0.047660578 -0.01787162 0.80200005 1.9366508e-38
0.052629422 -0.017541587 0.80088896 1.8812628e-38
0.057214286 -0.016781904 0.801 1.6416645e-38
0.06217286 -0.017162858 0.80100006 1.6422393e-38
0.067516744 -0.016687348 0.80171436 1.7617696e-38
0.072240822 -0.017105578 0.80085719 1.6141858e-38
0.077048585 -0.016781904 0.801 1.7248195e-38
0.082362145 -0.016776904 0.80075002 1.7799569e-38
0.087667309 -0.017532699 0.80044448 1.8078303e-38
0.092086434 -0.017348334 0.80075002 1.7888888e-38
0.097404629 -0.016905036 0.8017143 1.6689965e-38
0.10267729 -0.016693063 0.80200016 1.697266e-38
0.10740548 -0.017739763 0.80125004 1.5125857e-38
0.11237397 -0.018345399 0.80266678 1.7622721e-38
0.11710635 -0.018369209 0.80366671 7.8403378e-39
0.1217494 -0.018017143 0.80257148 1.6604563e-38
0.049771432 -0.014548573 0.80400002 1.7893196e-38
0.052834295 -0.014548573 0.80400008 1.8166911e-38
0.057064384 -0.013921524 0.80320007 1.5585113e-38
0.062022861 -0.014548573 0.80400008 1.7251422e-38
0.067382865 -0.014548573 0.80400002 1.7985035e-38
0.072742872 -0.014548573 0.80400008 1.669394e-38
0.077305719 -0.013776827 0.80366671 1.6692515e-38
0.082587764 -0.013892246 0.80400002 1.6601755e-38
0.088212803 -0.013444355 0.80342859 1.6235501e-38
0.092612386 -0.013776827 0.80366671 1.7065605e-38
0.096862867 -0.014165715 0.80400002 1.6507761e-38
0.10184 -0.014548573 0.80400008 1.5312826e-38
0.037706673 -0.016160002 0.80800003 9.4922627e-39
0.042287618 -0.016146669 0.80733341 8.5833146e-39
0.046057146 -0.016120002 0.80600005 2.0749766e-38
0.10976953 -0.016120002 0.80600005 1.8451757e-38
0.11284001 -0.016120002 0.80600011 1.8906624e-38
0.11744573 -0.016120002 0.80600011 8.3005634e-39
0.12128381 -0.016120002 0.80600005 1.5872055e-38
0.042323813 -0.013851429 0.80800003 9.5056213e-39
0.047286063 -0.012780435 0.80672735 1.908992e-38
0.052501652 -0.011394113 0.80745459 1.789356e-38
0.057851981 -0.01108626 0.80685729 1.4757147e-38
0.062228579 -0.011522542 0.80666673 1.7707016e-38
0.067386329 -0.011660606 0.80654556 1.7430431e-38
0.072688393 -0.011370666 0.80680007 1.7339664e-38
0.077192858 -0.011136668 0.80650002 1.7432943e-38
0.082519054 -0.011898097 0.80600005 1.6325159e-38
0.086740956 -0.011514287 0.80600011 1.5223855e-38
0.093324296 -0.011136668 0.80650002 1.7893561e-38
0.097831205 -0.01133881 0.80725008 1.7431126e-38
0.10222 -0.012296191 0.8070001 1.5314602e-38
0.10708554 -0.01321162 0.80660009 1.8262337e-38
0.11253525 -0.012938703 0.80781817 1.8445636e-38
0.11773715 -0.013081905 0.80800003 9.3053645e-39
0.12117748 -0.012807938 0.8070001 1.6051755e-38
0.066948578 -0.0084647629 0.80800003 1.7523345e-38
0.072335243 -0.008464762 0.80800003 1.7892837e-38
0.078106128 -0.0084576868 0.80742866 1.8444927e-38
0.082455009 -0.0086478572 0.80725008 1.8077933e-38
0.087177157 -0.0086087612 0.80720007 1.6786484e-38
0.09190096 -0.0084585715 0.80750006 1.7062368e-38
0.096190482 -0.008464762 0.80800003 1.9000965e-38
0.038736604 -0.012688709 0.81114286 4.5137841e-39
0.042479686 -0.010812382 0.81100005 1.0702362e-38
0.046285719 -0.010028572 0.81000006 2.0379561e-38
0.10260001 -0.010028573 0.81000012 1.4945812e-38
0.1073181 -0.010036826 0.81066674 1.761626e-38
0.11262858 -0.010028572 0.81000006 1.7616609e-38
0.11832001 -0.010053335 0.81200004 8.4896112e-39
0.039537147 -0.0085276198 0.81400001 9.2419838e-41
0.043136828 -0.0074904775 0.81366676 1.3656193e-38
0.047172915 -0.0069583077 0.8120001 1.9179613e-38
0.052340958 -0.0070948922 0.81145459 1.7709519e-38
0.057704199 -0.0068043815 0.81220007 1.568015e-38
0.062622435 -0.0069555556 0.81177789 1.8721873e-38
0.067168891 -0.0061758733 0.81066668 1.8720795e-38
0.072514288 -0.0061714286 0.81 1.7892838e-38
0.077528574 -0.0057857144 0.81000006 1.7893557e-38
0.082157142 -0.0057857144 0.81000006 1.7340749e-38
0.087171435 -0.0054000001 0.81000012 1.7614448e-38
0.092771813 -0.0060198097 0.81040001 1.6970176e-38
0.097826667 -0.0067652385 0.81200004 1.7432931e-38
0.10269487 -0.0068140961 0.81320012 1.5034781e-38
0.10766985 -0.0069701588 0.81333339 1.7154924e-38
0.11231746 -0.0069701597 0.81333339 1.881658e-38
0.11725526 -0.0071238102 0.81320012 7.0145736e-39
0.12016191 -0.0062019052 0.81400001 1.5679724e-38
0.047599625 -0.0032560003 0.81400007 1.4005206e-38
0.052134763 -0.0025195237 0.81400007 1.5219564e-38
0.057367619 -0.0031009526 0.81400007 1.3190173e-38
0.062484194 -0.0032560003 0.81400007 1.3660854e-38
0.067417473 -0.0030993652 0.8136667 1.7619848e-38
0.07200858 -0.0030961907 0.81300008 1.8444923e-38
0.077697575 -0.0028383071 0.81311119 1.8446005e-38
0.082882553 -0.0023225397 0.81333339 1.8077227e-38
0.087506682 -0.002321905 0.81311119 1.7985032e-38
0.091967635 -0.0027659866 0.8134287 1.7247839e-38
0.095871113 -0.0033593653 0.81400001 1.743545e-38
0.1077581 -0.0038761906 0.81400001 1.845211e-38
0.11861144 -0.0031009526 0.81400001 8.5872453e-39
0.12093715 -0.0023257146 0.81400007 1.7151612e-38
0.11861144 0.00077523815 0.81400001 8.6977306e-39
0.12210001 0.0011628572 0.81400001 1.7426028e-38
0.038033336 -0.010090477 0.81500006 7.6383112e-39
0.038353659 -0.0067371428 0.81633341 5.8880796e-39
0.04168921 -0.0059552388 0.81566668 9.3937037e-39
0.038975719 -0.0031176193 0.81850004 3.4034919e-39
0.042746987 -0.0023308997 0.81611121 1.3378538e-38
0.046959527 -0.0011642858 0.81500006 1.5026048e-38
0.050452385 -0.00077619054 0.81500006 1.3295296e-38
0.057438098 -0.00077619054 0.81500006 1.1161164e-38
0.063259527 -0.0011642858 0.81500006 9.5816459e-39
0.067528576 -0.00077619054 0.81500006 1.6877268e-38
0.072185725 -0.00077619054 0.81500006 1.8351277e-38
0.076842859 -0.00077619054 0.81500006 1.8260537e-38
0.093142867 -0.00077619054 0.81500006 1.8354893e-38
0.097541273 -0.0018111112 0.81500006 1.7710243e-38
0.10224546 -0.002469697 0.81500006 1.5681235e-38
0.10766234 -0.0019844447 0.81588894 1.8074717e-38
0.1126397 -0.0023292063 0.81566674 1.9089207e-38
0.11684287 -0.0021073471 0.81557149 5.4397271e-39
0.043680005 0.00078000006 0.81900007 1.6703649e-38
0.047940005 0.0011695239 0.81850004 1.4192009e-38
0.052153021 0.0015584127 0.8173334 1.5313177e-38
0.05763467 0.0020260955 0.81780005 9.4007621e-39
0.062574714 0.0023380956 0.81788898 6.274063e-39
0.067786776 0.0023387305 0.81811118 1.5035875e-38
0.072511122 0.0015596827 0.81866682 1.7430789e-38
0.077149287 0.0021442857 0.81825006 1.8075792e-38
0.082425877 0.0023344446 0.81650013 1.8075073e-38
0.087853871 0.0023344976 0.81633341 1.7060934e-38
0.092398815 0.0021416668 0.81700003 1.6972334e-38
0.097460955 0.0015596827 0.81866682 1.6414482e-38
0.10186801 0.0014040001 0.81900007 1.6323719e-38
0.10764001 0.00078000006 0.81900007 1.8257309e-38
0.11795144 0.0019447621 0.8175 7.4794362e-39
0.12092541 0.0028492068 0.81566668 1.7056531e-38
0.036055241 -0.010973334 0.82300001 1.5392344e-38
0.035862669 -0.0070474292 0.8222 1.5116123e-38
0.037687812 -0.0017201906 0.82100004 9.2117269e-39
0.039974287 0.00078380958 0.82300001 1.0033717e-40
0.043057151 0.0026104765 0.82200003 1.430265e-38
0.047453146 0.0032897145 0.8222 1.4741965e-38
0.052387621 0.0039095241 0.82100004 1.2088877e-38
0.055515241 0.0039095241 0.82100004 1.1434828e-38
0.064898096 0.0039095241 0.82100004 8.1226504e-39
0.072717145 0.0039095241 0.82100004 1.586741e-38
0.077408575 0.0039095241 0.82100004 1.8075433e-38
0.094610482 0.0039095241 0.82100004 1.4021018e-38
0.09773811 0.0039095241 0.82100004 1.42054e-38
0.10282049 0.0035185716 0.82100004 1.7061996e-38
0.10712096 0.0031276194 0.82100004 1.7615894e-38
0.11285741 0.0024896108 0.82136375 1.7338578e-38
0.11728572 0.0031276192 0.82100004 6.731786e-39
0.048596196 0.0054866672 0.82300001 8.5886452e-39
0.052478239 0.0066025858 0.82242858 1.3013317e-38
0.057171751 0.0070498413 0.82233334 7.5629648e-39
0.062040716 0.0064597623 0.82200003 5.8119625e-39
0.067912146 0.0066552381 0.82200003 1.3467452e-38
0.072776191 0.0070441277 0.82166666 1.4758188e-38
0.077471428 0.0070441277 0.82166672 1.4944044e-38
0.082029052 0.0068533337 0.82225001 1.5312815e-38
0.087556936 0.0065220115 0.82166672 1.4851467e-38
0.092869528 0.0072053336 0.8222 1.4481959e-38
0.097690962 0.0068533337 0.82225001 1.4392652e-38
0.10267906 0.0062704771 0.82300007 1.7894993e-38
0.10738192 0.0062704771 0.82300007 1.8168705e-38
0.11130096 0.0054866672 0.82300001 1.9553772e-38
0.11600382 0.0054866672 0.82300001 1.1421534e-38
0.074461907 0.010189525 0.82300001 1.5034065e-38
0.033785716 -0.0055000004 0.82500005 1.7609326e-38
0.038268574 0.0023680953 0.82850003 7.7287005e-39
0.040595241 0.0034047621 0.82500005 3.0498687e-39
0.03868667 0.0078952387 0.82900006 5.3323681e-39
0.042538252 0.0070912703 0.82716674 1.116838e-38
0.047752794 0.0075288452 0.82585728 9.0359551e-39
0.05264286 0.0086428579 0.82500005 1.0528372e-38
0.062857144 0.0086428579 0.82500005 4.4308595e-39
0.066785723 0.0086428579 0.82500005 1.1712893e-38
0.084071435 0.0086428579 0.82500005 1.4757129e-38
0.087214291 0.0086428579 0.82500005 1.5129857e-38
0.099785723 0.0086428579 0.82500005 1.5784917e-38
0.10292858 0.0086428579 0.82500005 1.7804238e-38
0.10790382 0.0086638099 0.82700002 1.9732778e-38
0.1128162 0.0075378236 0.8267144 1.8629665e-38
0.11754028 0.0075378236 0.82671434 9.9550121e-39
0.12050572 0.0070911115 0.82700008 1.2367876e-38
0.03868667 0.011842858 0.82900012 4.8714109e-39
0.041844763 0.011645477 0.82900006 8.868874e-39
0.047361434 0.011840796 0.82883346 1.2910978e-38
0.052770484 0.011816827 0.82700002 1.217812e-38
0.057496198 0.011816827 0.82700002 6.4425594e-39
0.062255774 0.01182233 0.82744455 3.6810653e-39
0.067261532 0.011659049 0.82700008 1.1537842e-38
0.072425149 0.012125145 0.82660007 1.5403932e-38
0.077911437 0.011807301 0.82633328 1.549898e-38
0.082700007 0.011816827 0.82700008 1.5126966e-38
0.087449633 0.011819578 0.82722229 1.5036572e-38
0.092151433 0.011816827 0.82700002 1.512913e-38
0.09687715 0.011816827 0.82700008 1.4853251e-38
0.10171165 0.011828256 0.82788891 1.605144e-38
0.10703373 0.011524572 0.82880014 1.9000608e-38
0.11184921 0.01079016 0.82900012 2.0932744e-38
0.11606001 0.01026381 0.82900006 8.763715e-39
0.067109525 0.015000953 0.82900012 1.3196616e-38
0.071846679 0.015000953 0.82900012 1.5957812e-38
0.077373341 0.015000953 0.82900006 1.6141848e-38
0.082900003 0.015000953 0.82900012 1.5863447e-38
0.086847626 0.015000953 0.82900006 1.5310616e-38
0.092374295 0.015000953 0.82900012 1.5215199e-38
0.096321911 0.015000953 0.82900006 1.5676191e-38
0.038780004 0.0055400003 0.83100003 5.7979901e-39
0.041945718 0.013454286 0.83100003 8.1363256e-39
0.10842572 0.013454286 0.83100003 1.7248919e-38
0.11291049 0.012399048 0.83100003 1.826018e-38
0.11766811 0.012085 0.83200002 9.0388431e-39
0.1212343 0.011094287 0.83200002 1.3649254e-38
0.037848193 0.016312191 0.83140004 7.0941197e-39
0.041962545 0.015835239 0.83133334 2.0439423e-39
0.047515243 0.015838571 0.83149993 1.0249288e-38
0.053089529 0.015848573 0.83200002 1.2275747e-38
0.057796832 0.01583524 0.83133334 1.1996218e-38
0.062544361 0.016174015 0.83128572 1.1808964e-38
0.067653529 0.017270667 0.8318001 1.2455849e-38
0.072106674 0.017433334 0.83200002 1.2088524e-38
0.07725668 0.017631667 0.83200008 1.1442821e-38
0.082351863 0.018057035 0.83233339 9.1393891e-39
0.088244289 0.016224287 0.83100003 1.5955629e-38
0.092672706 0.016633336 0.83166671 1.632262e-38
0.097859532 0.016244287 0.83200008 1.6417345e-38
0.10217556 0.015841905 0.83166671 1.641483e-38
0.10688636 0.015835239 0.83133334 1.6233325e-38
0.11186001 0.015708001 0.83300012 1.5679815e-38
0.11582667 0.015073334 0.83300006 5.4358091e-39
0.1208762 0.013519049 0.83500004 1.3737129e-38
0.039013337 0.019109525 0.83600003 4.505864e-39
0.04223175 0.019124763 0.8366667 4.9805216e-39
0.04697524 0.019109525 0.83600008 9.1160182e-39
0.052251026 0.019011294 0.83671433 6.6307341e-39
0.05767633 0.019226532 0.8361429 5.0781431e-39
0.062823825 0.019244764 0.83500004 4.3470633e-39
0.067197621 0.019483335 0.83500004 1.9532223e-39
0.07236667 0.019880954 0.83500004 9.8917659e-41
0.077138096 0.019880954 0.83500004 1.0897057e-40
0.083500005 0.019880954 0.83500004 1.0428743e-40
0.087876871 0.019212928 0.83557147 4.3531421e-39
0.093080007 0.019093653 0.83533335 4.9070249e-39
0.097814292 0.019085716 0.83500004 4.4475055e-39
0.10270859 0.019109525 0.83600008 4.4478643e-39
0.10748573 0.019109525 0.83600008 4.1626594e-39
0.11247389 0.018804491 0.83757144 5.1681989e-39
0.11733945 0.018018097 0.83700001 4.7056822e-39
0.12181689 0.017755587 0.83700001 1.3647812e-38
0.042349525 0.021574287 0.83900005 7.9480023e-39
0.047143813 0.021574287 0.83900011 1.1814091e-38
0.052337624 0.021973811 0.83900005 1.0800626e-38
0.057711434 0.023013076 0.8384546 1.3100466e-38
0.063024446 0.023136828 0.83766669 1.3376357e-38
0.06782911 0.023142967 0.83788896 1.2725602e-38
0.072597779 0.023136828 0.83766675 1.1621045e-38
0.07736434 0.023131112 0.83744448 1.1341231e-38
0.082193345 0.023142966 0.83788902 1.0511462e-38
0.086992383 0.02234762 0.83800006 3.3131012e-39
0.092121728 0.022992006 0.83820003 4.8861442e-39
0.09763784 0.023303643 0.8384546 3.1351769e-39
0.10261714 0.021960955 0.83850002 2.1199446e-39
0.10787144 0.021574287 0.83900011 1.7508005e-39
0.11825906 0.021574287 0.83900005 8.1273013e-39
0.12145525 0.021574287 0.83900005 1.4291043e-38
0.075909525 0.026368573 0.83900005 1.4760741e-38
0.042526193 0.022868574 0.84250009 8.8681594e-39
0.047340479 0.02367048 0.84249997 1.4481629e-38
0.051790293 0.024212381 0.84180003 1.5491085e-38
0.055265717 0.024829526 0.84100002 1.5396757e-38
0.087303817 0.024829527 0.84100002 4.3347977e-39
0.10364325 0.024188763 0.84100002 3.8759467e-39
0.10829937 0.024067305 0.84233332 3.5053663e-39
0.11311334 0.023265716 0.84233332 1.7554809e-39
0.11759008 0.023701632 0.84157151 7.9328697e-39
0.12174477 0.024028573 0.84100002 1.4292821e-38
0.097030483 0.027265716 0.84200013 6.5506822e-39
0.1018835 0.026473334 0.84233344 5.9960622e-39
0.10678001 0.026494287 0.84300005 3.7819574e-39
0.11962572 0.026494287 0.84300005 1.170851e-38
0.1220343 0.026494287 0.84300005 1.3556342e-38
