# .PCD v0.7 - Point Cloud Data file format
VERSION 0.7
FIELDS x y z rgb
SIZE 4 4 4 4
TYPE F F F F
COUNT 1 1 1 1
WIDTH 724
HEIGHT 1
VIEWPOINT 0 0 0 1 0 0 0
POINTS 724
DATA ascii
0.10271239 -0.17090668 0.88400006 1.1346682e-38
0.079980955 -0.16838096 0.88400006 4.1587456e-39
0.082506672 -0.16753906 0.884 4.9884922e-39
0.086475655 -0.16705796 0.884 5.7239091e-39
0.092008166 -0.16705796 0.884 6.4575266e-39
0.096819058 -0.16753908 0.88399994 7.7511255e-39
0.10187048 -0.16753908 0.88399994 7.7561436e-39
0.10668136 -0.16705796 0.884 7.2022621e-39
0.08334858 -0.16417144 0.88400006 2.4977529e-39
0.088400006 -0.16417144 0.88400006 1.7455148e-39
0.092248715 -0.16272818 0.884 1.9413407e-39
0.096819058 -0.16248763 0.88399994 1.7598165e-39
0.10181884 -0.16240592 0.88355553 2.0356747e-39
0.10668137 -0.16296872 0.884 1.8505856e-39
0.11113143 -0.16332954 0.88400006 2.4941599e-39
0.12274972 -0.16248763 0.884 3.6847858e-39
0.12712762 -0.16227716 0.88399994 4.1478883e-39
0.1324196 -0.16200654 0.884 4.6088692e-39
0.13723049 -0.16248763 0.884 3.6022885e-39
0.14186096 -0.16290858 0.88400006 3.5050805e-39
0.12712762 -0.15912001 0.88400006 5.5279179e-39
0.082126677 -0.17526001 0.88900012 8.7641718e-39
0.086868003 -0.17593734 0.88900006 4.4263361e-39
0.092625342 -0.17593734 0.88900006 4.8944931e-39
0.097366676 -0.17526001 0.88900012 4.2574054e-39
0.10287001 -0.17568335 0.88900006 6.9253109e-39
0.10786535 -0.17593734 0.88900006 9.88091e-39
0.11260667 -0.17610668 0.88900006 1.264818e-38
0.11768667 -0.17610666 0.88900006 1.1627225e-38
0.12276667 -0.17526001 0.88900012 1.2186489e-38
0.127 -0.17526001 0.88900006 1.1902013e-38
0.13631335 -0.17526001 0.88900006 8.1019336e-39
0.078058742 -0.17218003 0.8876667 7.5541324e-39
0.082003504 -0.17246161 0.8876667 9.31734e-39
0.087108582 -0.17252669 0.88800001 9.7718273e-39
0.092113018 -0.17239653 0.88733339 1.0885337e-38
0.097147629 -0.17233144 0.88700002 1.0977547e-38
0.10179383 -0.17275381 0.88700002 9.5906745e-39
0.10728477 -0.17233144 0.88700002 1.0685889e-38
0.11235335 -0.17233144 0.88700002 1.0971818e-38
0.11751016 -0.17246161 0.8876667 1.0233544e-38
0.12262858 -0.17252669 0.88800001 9.8561603e-39
0.12808858 -0.17235716 0.88900006 1.0698825e-38
0.13326535 -0.17255069 0.88900006 1.1433868e-38
0.13800669 -0.17272002 0.88900006 1.0692344e-38
0.14342535 -0.17119601 0.88900006 1.0785279e-38
0.14732 -0.17018001 0.88900006 7.5617008e-39
0.15367001 -0.17060335 0.88900006 1.005739e-38
0.15748 -0.17102668 0.88900006 9.4076242e-39
0.16002001 -0.17018001 0.88900006 1.0973449e-38
0.077360243 -0.16740263 0.88775003 6.8186875e-39
0.080252387 -0.16641811 0.88700002 3.6848124e-39
0.087855242 -0.16979715 0.88700002 9.139064e-39
0.091234289 -0.16979715 0.88700002 9.9695295e-39
0.10812953 -0.16979715 0.88700002 9.9763454e-39
0.11235334 -0.16810763 0.88700002 8.1281547e-39
0.1174219 -0.16810763 0.88700002 8.1252862e-39
0.12249049 -0.16810763 0.88700002 8.7695696e-39
0.12734786 -0.16789643 0.88700002 9.1369116e-39
0.13262762 -0.16810763 0.88700002 9.8730305e-39
0.13769621 -0.16810761 0.88700002 1.0058136e-38
0.14252342 -0.16762491 0.88700008 9.5064046e-39
0.14800128 -0.16745177 0.88800001 9.2352001e-39
0.15324669 -0.16764002 0.88900006 8.6734153e-39
0.15764935 -0.16713202 0.88900006 8.8551988e-39
0.16044334 -0.16637 0.88900006 1.1806052e-38
0.077991813 -0.16292022 0.88819999 4.0484872e-39
0.081855156 -0.16209519 0.88772732 4.6095699e-39
0.086656414 -0.16251591 0.88722229 3.3238912e-39
0.090389527 -0.1621943 0.88700002 2.5913428e-39
0.10812953 -0.16134953 0.88700002 3.7894922e-39
0.11302914 -0.16236326 0.88700002 3.8770467e-39
0.1174219 -0.16303904 0.88700002 3.0462435e-39
0.12164572 -0.16303906 0.88700002 3.2306502e-39
0.12755905 -0.16472858 0.88700002 5.6564253e-40
0.13178286 -0.16472858 0.88700002 9.2904687e-40
0.13769621 -0.16303906 0.88700002 3.3293058e-39
0.14309669 -0.16169572 0.88775003 3.6058787e-39
0.14797255 -0.16234493 0.88783336 4.0614744e-39
0.15304556 -0.16234493 0.88783336 2.7739628e-39
0.15730873 -0.16214409 0.88871431 8.1129548e-39
0.16086668 -0.16171335 0.88900006 1.272798e-38
0.083820008 -0.15748 0.88900006 1.0610811e-38
0.087318815 -0.15793644 0.88800007 9.7742614e-39
0.092079058 -0.1579705 0.88700002 7.2875143e-39
0.097147621 -0.15797049 0.88700002 7.5608628e-39
0.10226741 -0.15804879 0.8874445 7.1009665e-39
0.10733894 -0.15804879 0.8874445 8.8530029e-39
0.11243779 -0.15808794 0.88766664 9.0298692e-39
0.11751016 -0.15808794 0.8876667 7.55763e-39
0.12255187 -0.15804881 0.88744444 5.8109157e-39
0.12755905 -0.15748778 0.88700008 5.9034967e-39
0.13272732 -0.15808795 0.88766664 4.6163914e-39
0.1378691 -0.15816708 0.88811111 4.3412282e-39
0.14308667 -0.15748002 0.88900006 3.1458786e-39
0.14816669 -0.15764935 0.88900006 4.0606883e-39
0.15324667 -0.15748 0.88900006 2.9575791e-39
0.15748 -0.15748002 0.88900006 1.0787201e-38
0.16002001 -0.15748 0.88900006 1.3462677e-38
0.088335566 -0.15437557 0.88900012 1.0976752e-38
0.092468716 -0.1536309 0.88842857 6.3677342e-39
0.097330801 -0.15403524 0.88866675 8.4846198e-39
0.10244667 -0.15409335 0.88900006 1.0796317e-38
0.10752667 -0.15494001 0.88900012 1.2180292e-38
0.11176001 -0.15494001 0.88900006 1.1160419e-38
0.11768667 -0.15494001 0.88900006 1.0605443e-38
0.12276667 -0.15494001 0.88900012 1.2822371e-38
0.12784669 -0.15494001 0.88900012 9.9711718e-39
0.13292667 -0.15494001 0.88900012 1.2723028e-38
0.13716 -0.15494001 0.88900006 1.3192955e-38
0.15409334 -0.15494001 0.88900006 2.2257566e-39
0.079182863 -0.1813543 0.89400005 8.7562531e-39
0.082588576 -0.18135431 0.89400005 9.4116894e-39
0.087600008 -0.18200289 0.89300001 1.1168405e-38
0.092465155 -0.18203545 0.89400005 8.1941376e-39
0.097914293 -0.18135431 0.89400005 4.3330769e-39
0.10302287 -0.18135431 0.89400005 1.4483457e-38
0.10813144 -0.18135431 0.89400005 1.4093509e-38
0.11324 -0.18135431 0.89400005 1.4476999e-38
0.11749715 -0.1813543 0.89400005 1.4383728e-38
0.078395434 -0.17737029 0.89280003 7.7413907e-39
0.082356676 -0.1783005 0.8915 9.4098901e-39
0.087827154 -0.1786243 0.89100003 3.6948975e-39
0.092225723 -0.17892572 0.89250004 4.7962032e-39
0.097750008 -0.17850146 0.8925001 5.8117873e-39
0.10247486 -0.17861088 0.89220011 1.310736e-38
0.10743357 -0.17877501 0.89175004 1.2901088e-38
0.11286001 -0.17904858 0.89100003 1.2366937e-38
0.11795144 -0.17904858 0.89100003 1.1068323e-38
0.122868 -0.17827144 0.89220011 1.1353874e-38
0.127964 -0.17759144 0.89220011 1.3009064e-38
0.13335307 -0.177038 0.89185721 1.0797837e-38
0.13741574 -0.17821859 0.8925001 5.8161033e-39
0.14164501 -0.17652357 0.89325005 4.9870741e-39
0.14644572 -0.17624572 0.89400005 5.351549e-39
0.15325716 -0.17624572 0.89400005 1.1345983e-38
0.15759429 -0.17758787 0.89324999 1.125007e-38
0.13152859 -0.17395715 0.89100003 1.345892e-38
0.14256001 -0.17395715 0.89100003 8.6626491e-39
0.14734116 -0.17351261 0.89220011 4.4357024e-39
0.15186939 -0.17299512 0.89228582 9.0454306e-39
0.15698573 -0.17395715 0.89100003 1.0329576e-38
0.073222861 -0.16602859 0.89400005 1.3919737e-38
0.073393151 -0.1622823 0.89400005 1.4104129e-38
0.076541148 -0.16139829 0.89099997 6.1779059e-39
0.077839285 -0.15865786 0.89325005 3.0497916e-39
0.082120016 -0.15716097 0.89200008 6.826532e-39
0.08570572 -0.15528858 0.89100003 1.1597702e-38
0.11455715 -0.15528858 0.89100003 1.1801818e-38
0.11795144 -0.15528858 0.89100003 9.5977636e-39
0.14171144 -0.15528858 0.89100003 1.2357435e-38
0.14722715 -0.15571287 0.89100003 1.1619871e-38
0.15104572 -0.15528858 0.89100003 4.6231569e-39
0.15783429 -0.15528858 0.89100003 1.3277544e-38
0.083723813 -0.15354097 0.89400005 1.0611183e-38
0.087237731 -0.15288116 0.89280003 1.1066417e-38
0.092341721 -0.15117943 0.89280003 9.0381495e-39
0.097750008 -0.15129858 0.8925001 9.6863761e-39
0.10279144 -0.15121429 0.89200008 8.5804238e-39
0.10788953 -0.15206288 0.89200002 9.8650235e-39
0.11311429 -0.15308478 0.89300007 7.4765971e-39
0.11792743 -0.15332402 0.89340001 1.0140889e-38
0.12254981 -0.15267062 0.89271438 1.2272522e-38
0.12728572 -0.15236072 0.89250004 1.0602563e-38
0.13222893 -0.15242465 0.89287508 1.1343011e-38
0.13723545 -0.15288001 0.89280003 1.1348012e-38
0.14211002 -0.15317097 0.89350003 1.1164355e-38
0.14713334 -0.15308478 0.89300001 9.1324218e-39
0.15206477 -0.15206285 0.89200002 2.5787339e-39
0.15690501 -0.15223287 0.89174998 1.0885574e-38
0.10472572 -0.149 0.89400005 6.8287096e-39
0.15666287 -0.14814858 0.89400005 1.2916387e-38
0.10690477 -0.19071811 0.89800006 1.89737e-38
0.11289144 -0.19157335 0.89800006 2.0293488e-38
0.11545715 -0.19242859 0.89800006 2.24075e-38
0.079537146 -0.18558668 0.89800006 8.7548588e-39
0.083225526 -0.18610553 0.89720005 1.0515152e-38
0.087958731 -0.18702035 0.89666677 1.7895356e-38
0.09285143 -0.18677191 0.89650005 1.974032e-38
0.097878866 -0.18602286 0.89680004 1.5311044e-38
0.10251334 -0.18623525 0.89700007 1.8999898e-38
0.10732491 -0.18717907 0.89742863 1.7059143e-38
0.11198117 -0.1872053 0.89755565 1.6137568e-38
0.11659747 -0.18672699 0.89800012 1.7243894e-38
0.12058858 -0.18558668 0.89800006 1.7064176e-38
0.1342724 -0.18558668 0.89800006 1.9826409e-38
0.13726573 -0.18601429 0.89800006 2.1028528e-38
0.14282477 -0.18558668 0.89800012 2.1121442e-38
0.077454299 -0.18196288 0.89700007 9.771086e-39
0.082773343 -0.18346667 0.89600009 9.0447076e-39
0.094720006 -0.18346667 0.89600003 3.99953e-40
0.09813334 -0.18346667 0.89600009 2.3209678e-39
0.10325335 -0.18346667 0.89600009 1.4121494e-38
0.10752001 -0.18346667 0.89600003 1.4577798e-38
0.11178666 -0.18346667 0.89600009 1.5581172e-38
0.11690667 -0.18346667 0.89600009 1.7059151e-38
0.12211811 -0.18274987 0.89666671 1.3552182e-38
0.12753786 -0.18222834 0.89725006 1.4766135e-38
0.1322 -0.18217714 0.89700007 1.2551321e-38
0.13738668 -0.18261334 0.89600003 1.4757518e-38
0.14264846 -0.18194158 0.89688897 1.2643517e-38
0.14784636 -0.18203177 0.89733338 1.7806754e-38
0.15297396 -0.18203177 0.89733338 1.2729254e-38
0.15741462 -0.18218097 0.89666677 1.1247571e-38
0.076116197 -0.17874478 0.89800006 1.1895132e-38
0.14336002 -0.17834668 0.89600003 4.8041206e-39
0.14805335 -0.17792001 0.89600003 6.6358152e-39
0.15232 -0.17792001 0.89600003 9.6857652e-39
0.072533339 -0.16469334 0.89600003 1.4013014e-38
0.074405722 -0.15821907 0.89800012 1.198186e-38
0.077380583 -0.15698211 0.89680004 4.5162827e-39
0.081066675 -0.15616001 0.89600003 4.2472502e-39
0.074405722 -0.15394287 0.89800006 9.7699131e-39
0.078018337 -0.15325834 0.89775014 4.3308096e-39
0.082264766 -0.15229081 0.89666671 7.1070803e-39
0.087893337 -0.15104 0.89600009 1.1066781e-38
0.11264001 -0.15104 0.89600003 5.166715e-39
0.11690667 -0.15104 0.89600009 1.1712449e-38
0.12117334 -0.15104 0.89600003 1.2089208e-38
0.12714668 -0.15104 0.89600003 1.1513692e-38
0.13397335 -0.15104 0.89600003 9.6816944e-39
0.13738668 -0.15104 0.89600009 1.0704449e-38
0.14250669 -0.15104 0.89600009 9.6813805e-39
0.14762668 -0.15104 0.89600009 8.5760531e-39
0.073550478 -0.14966668 0.89800006 9.677335e-39
0.07896699 -0.14909653 0.89800012 4.4294596e-39
0.083148338 -0.14812833 0.89775008 8.6758227e-39
0.088024132 -0.14784509 0.89733344 1.171681e-38
0.093128256 -0.14780848 0.89711118 1.0331385e-38
0.097974293 -0.14792144 0.89650005 9.2275784e-39
0.10276001 -0.14735599 0.89666677 7.4661715e-39
0.1076 -0.14773525 0.89666677 9.7753558e-39
0.11195302 -0.14784509 0.89733344 8.0236556e-39
0.11708065 -0.1478451 0.89733338 1.0419282e-38
0.12211747 -0.14773525 0.89666677 9.3212216e-39
0.12724128 -0.14773524 0.89666677 9.7782257e-39
0.13236509 -0.14773525 0.89666665 9.0460542e-39
0.13755746 -0.14780848 0.89711118 1.1529538e-38
0.14271875 -0.14784509 0.89733338 1.0511452e-38
0.14757064 -0.14830206 0.89714301 8.9509467e-39
0.15318584 -0.14830205 0.89714295 4.2404104e-39
0.15701334 -0.14592001 0.89600003 1.3287324e-38
0.094076194 -0.14453524 0.89800006 4.4187579e-39
0.10348382 -0.14453524 0.89800006 7.4730042e-39
0.10519429 -0.14453524 0.89800006 6.7383455e-39
0.11374667 -0.14453524 0.89800006 6.6568978e-39
0.11802287 -0.14453524 0.89800006 6.1076827e-39
0.12229906 -0.14453524 0.89800012 6.0965606e-39
0.12700287 -0.14410762 0.89800006 7.3746905e-39
0.13256192 -0.14453524 0.89800012 8.2941273e-39
0.13769335 -0.14453524 0.89800012 6.4660437e-39
0.15810223 -0.14300255 0.89733338 1.5766874e-38
0.07912001 -0.19006002 0.90300006 7.7385447e-39
0.083357148 -0.1910651 0.90233344 1.1162659e-38
0.08673048 -0.19207017 0.90166676 1.5225312e-38
0.092297144 -0.19189143 0.90150005 2.1758904e-38
0.097180009 -0.19178002 0.90300006 1.5115165e-38
0.10268401 -0.19246803 0.90300006 2.0843785e-38
0.10730877 -0.19247067 0.90140003 1.9737451e-38
0.1106943 -0.19221334 0.90100002 1.900851e-38
0.11764731 -0.19149683 0.90166676 1.9454049e-38
0.12298001 -0.19092003 0.90300006 2.0846296e-38
0.12986001 -0.19006002 0.90300006 2.1764644e-38
0.13244 -0.19178002 0.90300006 2.2772326e-38
0.14362001 -0.19006002 0.90300006 2.1672816e-38
0.14534001 -0.19006002 0.90300006 2.2407141e-38
0.077845909 -0.18748592 0.90220016 1.0136643e-38
0.083235249 -0.18906701 0.90100002 1.0791373e-38
0.096964769 -0.18963906 0.90100002 1.8444208e-38
0.10211334 -0.18963906 0.90100002 2.0292413e-38
0.10554572 -0.18963906 0.90100002 2.0662612e-38
0.11870319 -0.18906701 0.90100002 1.7341469e-38
0.12274709 -0.18798248 0.90128577 1.9001333e-38
0.12771311 -0.18781264 0.90150005 2.0100477e-38
0.13279025 -0.18813738 0.90100002 2.1664193e-38
0.13849659 -0.18895259 0.90100002 2.3049269e-38
0.14244382 -0.18792287 0.90100002 2.0752308e-38
0.14727297 -0.18748669 0.90220004 2.1577031e-38
0.15201773 -0.18706001 0.9018001 1.6507056e-38
0.15714699 -0.18720382 0.90166664 1.0145219e-38
0.16046382 -0.18706477 0.90100002 1.1981836e-38
0.074820004 -0.18404001 0.90300006 1.6868923e-38
0.076370478 -0.18449049 0.90100002 1.2721633e-38
0.16046382 -0.18449049 0.90100002 1.3181439e-38
0.073877148 -0.15205145 0.90200007 1.0322005e-38
0.076370478 -0.15102477 0.90100002 5.892383e-39
0.07382381 -0.14678796 0.90133333 7.2756033e-39
0.077958815 -0.1466812 0.90199995 4.9751042e-39
0.082851432 -0.14552763 0.90150005 5.5462216e-39
0.087525725 -0.1450181 0.90100002 7.4834018e-39
0.090958104 -0.1450181 0.90100002 5.9993217e-39
0.09782286 -0.1450181 0.90100002 5.5182573e-39
0.10125524 -0.1450181 0.90100002 7.5626901e-39
0.10812001 -0.1450181 0.90100002 7.2115289e-39
0.11155239 -0.1450181 0.90100002 6.3839066e-39
0.11584286 -0.1450181 0.90100002 7.2222601e-39
0.14244382 -0.1450181 0.90100002 1.0432898e-38
0.14724572 -0.14552763 0.90150005 1.0151673e-38
0.15205145 -0.14603716 0.90200013 5.6254805e-39
0.15531525 -0.1450181 0.90100002 8.0304421e-39
0.073100008 -0.14362001 0.90300006 8.1096701e-39
0.083420008 -0.14362001 0.90300006 4.1632942e-39
0.087240964 -0.14311048 0.90250009 3.3263673e-39
0.091918103 -0.14260095 0.90200007 1.7472202e-39
0.097144775 -0.14270699 0.90266669 4.1525574e-39
0.10222667 -0.14260097 0.90200007 7.9310929e-39
0.10738096 -0.14260095 0.90200013 6.7311035e-39
0.11279879 -0.14225511 0.902143 4.2411251e-39
0.11764541 -0.14254859 0.90166664 4.148226e-39
0.12299225 -0.14212042 0.90128577 5.9960706e-39
0.12790287 -0.1419235 0.90133333 7.1034734e-39
0.13281652 -0.14226192 0.90166676 5.8113417e-39
0.13744669 -0.14260097 0.90200007 8.3603989e-40
0.14276001 -0.14362001 0.90300006 7.2046541e-39
0.14706001 -0.14362001 0.90300006 1.180791e-38
0.15222001 -0.14362001 0.90300006 4.2504549e-39
0.15695001 -0.14233001 0.90300006 1.328156e-38
0.078433335 -0.1956524 0.90500003 7.9365425e-39
0.082061909 -0.19608478 0.90700006 1.0978631e-38
0.08757259 -0.19673334 0.90680009 1.6695758e-38
0.092477635 -0.19705763 0.90750003 1.9909636e-38
0.097609535 -0.19694953 0.90700006 1.5471746e-38
0.10101001 -0.19684145 0.90650004 1.596538e-38
0.11980477 -0.1956524 0.90500003 2.2125868e-38
0.12359716 -0.19634192 0.90500003 1.9823501e-38
0.12756193 -0.19651429 0.90500003 2.0282287e-38
0.1317004 -0.19660364 0.90620005 2.0741817e-38
0.15219811 -0.19630097 0.90800005 2.3319668e-38
0.077636436 -0.19236548 0.90575004 9.4930712e-39
0.081589334 -0.19336763 0.90560007 1.0329323e-38
0.087914288 -0.19392858 0.90500003 1.8631479e-38
0.09136191 -0.19392858 0.90500003 2.1944369e-38
0.097395241 -0.19392858 0.90500009 1.5584378e-38
0.10084286 -0.19392858 0.90500003 1.5969688e-38
0.11980477 -0.19392858 0.90500003 1.9465535e-38
0.12359715 -0.19323908 0.90500003 2.2590812e-38
0.12756191 -0.19306669 0.90500003 2.2950257e-38
0.13155119 -0.19365835 0.90575004 2.2313869e-38
0.13711762 -0.19317383 0.90550011 2.2403549e-38
0.14228083 -0.19278915 0.90542871 2.3049989e-38
0.14766298 -0.19250059 0.90537512 2.3049628e-38
0.15272573 -0.19241841 0.90600002 2.1852178e-38
0.15763254 -0.19189431 0.90585726 1.4382573e-38
0.1611762 -0.19048096 0.90500003 1.1149194e-38
0.075234294 -0.18765335 0.90800005 1.7977764e-38
0.15255715 -0.18875715 0.90500003 1.6044294e-38
0.074123815 -0.1422143 0.90500003 5.523585e-39
0.07710401 -0.1426522 0.90560007 5.2559791e-39
0.081350639 -0.14257923 0.90550011 3.223753e-39
0.087150484 -0.14179493 0.90600008 5.710856e-39
0.092425726 -0.14080095 0.90700006 5.6136479e-39
0.097395241 -0.1404905 0.90500009 4.7002928e-39
0.10256668 -0.1404905 0.90500009 3.5099976e-39
0.1077381 -0.1404905 0.90500009 4.9782669e-39
0.11204763 -0.14049049 0.90500003 4.5198265e-39
0.11808096 -0.1404905 0.90500009 2.3039505e-39
0.12239049 -0.14049049 0.90500003 4.7967764e-39
0.12842382 -0.14049049 0.90500003 6.2715421e-39
0.13100952 -0.14049049 0.90500003 5.0766381e-39
0.13704288 -0.1404905 0.90500009 3.7146881e-40
0.1422143 -0.14135239 0.90500009 1.3884962e-39
0.14763002 -0.14158526 0.9065001 3.6000731e-39
0.15277389 -0.14192137 0.90628588 3.3198793e-39
0.15772858 -0.1404905 0.90500009 1.540059e-38
0.097718105 -0.13836192 0.90800011 5.0725757e-39
0.10307965 -0.13765585 0.90762502 3.1400562e-39
0.1079762 -0.13734382 0.90700001 4.7034275e-39
0.11262926 -0.13754709 0.90671432 5.0747561e-39
0.11702846 -0.13754085 0.90687507 5.2606034e-39
0.12259193 -0.13813192 0.9065001 5.809796e-39
0.12726733 -0.13763207 0.90700006 5.6282817e-39
0.13209002 -0.13813192 0.90650004 5.2523469e-39
0.13727002 -0.13813192 0.9065001 8.6596406e-39
0.14268574 -0.13836192 0.90800011 9.4919053e-39
0.14744192 -0.1387943 0.90800005 3.2262571e-39
0.15306287 -0.13922668 0.90800011 4.4208206e-39
0.15772858 -0.13790476 0.90500009 1.6323607e-38
0.10809525 -0.13403812 0.90800011 4.1488132e-39
0.078000009 -0.14126667 0.91000003 4.9847788e-39
0.083200008 -0.14126667 0.91000003 1.6550078e-39
0.086666673 -0.14126667 0.91000003 6.4584795e-39
0.073788099 -0.13889381 0.91150004 6.4465825e-39
0.077303819 -0.13897049 0.91200006 4.1561055e-39
0.0822796 -0.13861974 0.91214293 2.7678069e-39
0.088028297 -0.13868545 0.91257149 1.2732409e-38
0.093179286 -0.13835667 0.91225004 1.5307294e-38
0.097933337 -0.13606668 0.91000003 6.8073076e-39
0.10140001 -0.13606668 0.91000003 2.4017205e-39
0.11873334 -0.13606668 0.91000003 5.8159421e-39
0.12220001 -0.13606668 0.91000003 5.9027063e-39
0.12740001 -0.13606668 0.91000003 5.4424316e-39
0.13260001 -0.13606668 0.91000003 4.3371631e-39
0.13780001 -0.13606668 0.91000003 1.4762057e-38
0.14300001 -0.13606668 0.91000003 1.3841258e-38
0.14844286 -0.13715762 0.91150004 2.6759686e-39
0.15231334 -0.13702916 0.91180003 4.3343857e-39
0.15538906 -0.13715762 0.91150004 7.3814644e-39
0.098538302 -0.13399202 0.91240007 9.6801221e-39
0.10327825 -0.1332818 0.91128576 5.0646164e-39
0.10715754 -0.13181888 0.91180003 2.3985283e-39
0.11224774 -0.13265441 0.91187501 3.5106352e-39
0.1170279 -0.1334075 0.91214293 4.7091812e-39
0.12246763 -0.13375907 0.91200006 5.3502374e-39
0.12771501 -0.13423073 0.91225004 4.8892663e-39
0.13288954 -0.13462859 0.91200006 2.9538979e-39
0.1382543 -0.13434145 0.91300005 1.9001631e-38
0.14248405 -0.13379596 0.91225004 1.7614791e-38
0.14608002 -0.1347762 0.91300005 6.8118071e-39
0.073240481 -0.1368881 0.91550004 8.1146994e-39
0.077584773 -0.13599208 0.91533339 3.7848301e-39
0.083134294 -0.13576858 0.91500008 2.949013e-39
0.087665729 -0.13576858 0.91500008 1.4850033e-38
0.092807151 -0.13550715 0.91500002 2.019656e-38
0.14901429 -0.13507144 0.91500002 9.2965643e-40
0.15250002 -0.13507144 0.91500008 3.4106512e-39
0.15814686 -0.13582765 0.91540003 1.1349775e-38
0.16139048 -0.13609049 0.91600001 1.3829325e-38
0.074233338 -0.13362001 0.91700006 6.359454e-39
0.078163341 -0.13318335 0.91700006 4.5134268e-39
0.082926892 -0.13180859 0.91655552 3.1359112e-39
0.088142544 -0.1317762 0.91633332 1.6697535e-38
0.093100488 -0.13191047 0.91575003 2.0288106e-38
0.09712477 -0.13114667 0.91600007 2.0103671e-38
0.10086827 -0.13109937 0.91566676 1.7146151e-38
0.11889176 -0.13109937 0.9156667 4.4322328e-39
0.12337525 -0.13122095 0.91550004 4.7963265e-39
0.12793049 -0.13166681 0.91557151 3.414848e-39
0.13220695 -0.13145839 0.9158572 3.3155058e-39
0.13640124 -0.13166681 0.91557151 1.4117847e-38
0.1418559 -0.13138984 0.91566676 1.7704481e-38
0.14727145 -0.13245717 0.91500008 3.0375596e-39
0.15229809 -0.13212423 0.91528577 3.1423165e-39
0.1577286 -0.13245714 0.91500008 1.5492424e-38
0.16121429 -0.13245715 0.91500002 1.7515614e-38
0.093446672 -0.12838002 0.91700006 2.0196263e-38
0.096940003 -0.12838003 0.91700006 2.0380293e-38
0.10243944 -0.12896515 0.9162001 1.8259331e-38
0.10755049 -0.12849192 0.91624999 6.6337301e-39
0.1125235 -0.1282232 0.91588891 3.0496444e-39
0.11761787 -0.12809072 0.91649997 3.6002945e-39
0.122855 -0.12809072 0.91649997 4.5219103e-39
0.12750667 -0.12750667 0.91700006 4.8866991e-39
0.13187335 -0.12750667 0.917 6.545943e-39
0.13775145 -0.12832324 0.91660005 2.0012948e-38
0.14201048 -0.1280416 0.91666669 1.6506297e-38
0.14748605 -0.12828542 0.91633332 3.1286707e-39
0.15296787 -0.12809074 0.91649997 4.0685496e-39
0.15788136 -0.1282232 0.91588891 1.8625626e-38
0.16121429 -0.12897143 0.91500002 1.8716039e-38
0.11353334 -0.12488668 0.91700006 2.8595317e-40
0.11615334 -0.12488668 0.91700006 1.8910102e-40
0.12314001 -0.12488668 0.91700006 1.1452386e-38
0.15458001 -0.12488668 0.91700006 1.0358213e-38
0.069369525 -0.13610478 0.92200005 1.8063414e-38
0.071658418 -0.13659176 0.92133331 1.2077986e-38
0.069369525 -0.13259241 0.92200011 1.7696864e-38
0.072563097 -0.13219263 0.92075002 1.0505334e-38
0.077663623 -0.13131011 0.92040008 3.7823147e-39
0.073760003 -0.12908001 0.92200005 8.0960565e-39
0.078589529 -0.12864096 0.92200005 4.336199e-39
0.082959242 -0.12820955 0.92080003 2.4923298e-39
0.08720649 -0.12791429 0.9212001 1.4210073e-38
0.092114292 -0.12720436 0.92114288 2.0563246e-38
0.097362868 -0.12630764 0.921 2.0287377e-38
0.10258794 -0.12626223 0.92066669 1.9826753e-38
0.10733334 -0.12573335 0.92000002 6.5434304e-39
0.11127619 -0.12529525 0.92000002 6.5113435e-40
0.11828572 -0.12529525 0.92000002 1.0305149e-40
0.1209143 -0.12529525 0.92000002 2.9561148e-39
0.12704763 -0.12529525 0.92000002 1.8067404e-38
0.13230477 -0.12529525 0.92000002 1.7424247e-38
0.13721144 -0.12599622 0.92000002 2.0289894e-38
0.14325716 -0.12573335 0.92000002 1.2724135e-38
0.14807621 -0.12529525 0.92000002 2.2113989e-39
0.15245715 -0.12529525 0.92000002 1.3031151e-39
0.15771429 -0.12529525 0.92000002 2.0003861e-38
0.098346673 -0.12381144 0.92200005 2.0380294e-38
0.10273715 -0.12381145 0.92200011 1.9734897e-38
0.10826249 -0.12300153 0.92119998 1.3171354e-38
0.11277562 -0.12294781 0.92080003 1.1419241e-38
0.11708724 -0.12270402 0.92160004 1.4191963e-38
0.1216162 -0.12337239 0.92200005 1.4115323e-38
0.12732384 -0.12381145 0.92200011 1.9372971e-38
0.13212687 -0.12300154 0.9212001 1.9371179e-38
0.13786097 -0.12381145 0.92200011 2.056504e-38
0.14292382 -0.12363239 0.92066669 1.3000006e-38
0.14807621 -0.12354287 0.92000002 1.8444185e-39
0.15245715 -0.12354287 0.92000002 3.8777586e-39
0.1568381 -0.12310477 0.92000002 1.7522539e-38
0.06959524 -0.1295 0.92500007 1.7695789e-38
0.072867349 -0.1272347 0.92500019 9.765614e-39
0.077523813 -0.12685716 0.92500007 3.9699416e-39
0.081928581 -0.1259762 0.92500007 2.3057652e-39
0.087214291 -0.1259762 0.92500007 1.3293875e-38
0.090738103 -0.1259762 0.92500007 2.0932028e-38
0.073223181 -0.12439334 0.92633343 8.1014599e-39
0.077161722 -0.12342343 0.92700005 4.2439978e-39
0.082237385 -0.12280405 0.92600012 2.1242508e-39
0.087277152 -0.12253936 0.92566681 1.5133471e-38
0.092566676 -0.12253936 0.92566681 2.0839828e-38
0.09762463 -0.12206084 0.92585731 2.0288456e-38
0.10280744 -0.121852 0.92580014 1.8814035e-38
0.10665191 -0.1211962 0.92550004 1.6884764e-38
0.11188096 -0.12069049 0.92500007 1.6517432e-38
0.11716668 -0.12069049 0.92500007 1.5968599e-38
0.12280476 -0.12139525 0.92500013 1.771095e-38
0.12782954 -0.12165843 0.92566681 1.9737803e-38
0.13302383 -0.12127779 0.92500007 2.0104069e-38
0.1370181 -0.12149962 0.92580014 2.0105148e-38
0.14193621 -0.12165841 0.92566681 1.6134992e-38
0.14727812 -0.12170191 0.92600006 2.4865341e-39
0.15256953 -0.12170192 0.92600012 5.8070271e-39
0.15609714 -0.12170191 0.92600006 1.3844825e-38
0.093582861 -0.11918572 0.92700005 2.0104068e-38
0.097997151 -0.11918573 0.92700005 1.9459784e-38
0.10241143 -0.11918572 0.92700005 1.4856146e-38
0.10682572 -0.11830287 0.92700005 1.697304e-38
0.11204161 -0.11821716 0.92633343 1.7615862e-38
0.11733621 -0.11821716 0.92633343 1.5865983e-38
0.12271716 -0.11830287 0.92700005 1.5402834e-38
0.12801431 -0.11918573 0.92700005 1.6791887e-38
0.13242859 -0.11918572 0.92700005 2.0014024e-38
0.13684286 -0.11874429 0.92700005 2.0197342e-38
0.14214002 -0.11918573 0.92700005 1.4202119e-38
0.14920287 -0.11918572 0.92700005 7.4884129e-40
0.078998104 -0.12160382 0.93200004 3.5064565e-39
0.080600008 -0.12134287 0.93000007 1.9387791e-39
0.083080642 -0.11855938 0.93133342 3.9721178e-39
0.087769106 -0.11791132 0.93088901 1.6884806e-38
0.092832655 -0.11740083 0.9308573 2.0657237e-38
0.097533338 -0.11703905 0.93100005 2.0564321e-38
0.10196667 -0.11703905 0.93100011 1.9366144e-38
0.10724953 -0.11611176 0.9306668 2.0379204e-38
0.11256509 -0.11611176 0.9306668 2.0102972e-38
0.11788572 -0.11611176 0.9306668 2.0654355e-38
0.1231143 -0.11602858 0.93000007 2.0101174e-38
0.12768 -0.11703905 0.93100011 1.899378e-38
0.13211334 -0.11703905 0.93100011 1.9733494e-38
0.13746285 -0.11688687 0.93120003 1.9921476e-38
0.14275335 -0.11703905 0.93100011 1.2809869e-38
0.14697792 -0.11825486 0.93080008 2.0244629e-39
0.15200686 -0.11866058 0.93120015 3.5053915e-39
0.15622096 -0.11894096 0.93200004 1.503438e-38
0.089649528 -0.11450286 0.93200004 2.0108382e-38
0.093200013 -0.11450287 0.93200004 2.0287739e-38
0.0976381 -0.11450286 0.93200004 1.7984318e-38
0.1020762 -0.11450286 0.93200004 1.7811056e-38
0.10740192 -0.11361524 0.9320001 1.6419507e-38
0.11288857 -0.11288811 0.93150008 1.6785044e-38
0.11764839 -0.11374363 0.93160003 1.752657e-38
0.12249143 -0.11450286 0.93200004 1.8175533e-38
0.12515429 -0.11450286 0.93200004 1.845104e-38
0.13048001 -0.11450286 0.93200004 1.8172298e-38
0.077553339 -0.12078905 0.93599999 4.7006739e-39
0.078040957 -0.11817715 0.93650007 4.3304621e-39
0.081521913 -0.11671382 0.93550003 1.1061892e-39
0.14886859 -0.11588477 0.93600005 1.8705233e-40
0.15227143 -0.11665239 0.93500012 2.9608217e-39
0.15672383 -0.11665239 0.93500006 1.6694591e-38
0.083824128 -0.11325049 0.93633336 7.0127799e-39
0.087728046 -0.11319307 0.9358573 1.7436524e-38
0.092192955 -0.11216477 0.93620008 2.0473928e-38
0.097165719 -0.11231905 0.93600005 1.6877611e-38
0.10243168 -0.11289763 0.93525004 1.6513134e-38
0.10774764 -0.11130953 0.93500012 1.7607251e-38
0.11130953 -0.11130953 0.93500006 1.7609354e-38
0.11754286 -0.11130953 0.93500006 1.7610464e-38
0.12199526 -0.11220001 0.93500006 1.7149531e-38
0.12759478 -0.11289763 0.93524998 1.7801346e-38
0.13301 -0.11295715 0.93575001 1.8627865e-38
0.13787453 -0.11337262 0.93550003 2.0013307e-38
0.14222437 -0.11293811 0.93585712 1.4566975e-38
0.14694168 -0.11304786 0.93650007 1.4724017e-39
0.15245196 -0.1132236 0.93611127 4.9844284e-39
0.15636192 -0.11359525 0.93550003 1.8076055e-38
0.088345721 -0.10976286 0.93700004 2.1023146e-38
0.09191525 -0.10976287 0.93700004 2.0565762e-38
0.097715721 -0.10931668 0.93700004 1.7798486e-38
0.10262381 -0.10887048 0.93700016 1.8448512e-38
0.10787526 -0.1078744 0.93611115 1.7251419e-38
0.11292787 -0.10802691 0.93549997 1.770951e-38
0.11715829 -0.10824134 0.93619996 1.7526568e-38
0.12221207 -0.10883144 0.93666673 1.8632549e-38
0.12756574 -0.10883144 0.93666667 1.7896427e-38
0.13296477 -0.10887048 0.93700016 1.8632903e-38
0.13742667 -0.10976286 0.93700004 2.0472489e-38
0.14188859 -0.10976287 0.93700004 1.3832645e-38
0.074462861 -0.12201144 0.94200003 4.5069682e-39
0.076257147 -0.12290858 0.94200003 4.9736651e-39
0.07438381 -0.1182962 0.94100004 3.0401044e-39
0.07756 -0.11625107 0.94040006 4.5195084e-39
0.079354763 -0.11253096 0.94150007 2.5787367e-39
0.081957623 -0.11151572 0.94050002 1.4771367e-39
0.085942864 -0.11011429 0.94000006 1.3655478e-38
0.1477143 -0.1101143 0.94000006 7.4274844e-40
0.15308572 -0.1101143 0.94000006 6.3687796e-39
0.082537144 -0.1085543 0.94200003 3.0469764e-39
0.087307058 -0.1077444 0.94119996 1.7437967e-38
0.09230762 -0.10754192 0.94099998 1.8810476e-38
0.097305149 -0.10734021 0.94080001 1.4761093e-38
0.10295239 -0.10653334 0.94000006 1.5133086e-38
0.11817144 -0.10653334 0.94000006 1.5408262e-38
0.12273588 -0.1066089 0.94066668 1.696982e-38
0.12819937 -0.10668446 0.94133341 1.5867435e-38
0.13249525 -0.10653334 0.94000006 1.7247113e-38
0.13732953 -0.10724954 0.94000006 1.9923269e-38
0.14244446 -0.10750414 0.94066679 1.2905672e-38
0.14797556 -0.10761874 0.94166672 8.3495668e-40
0.15319365 -0.10750414 0.94066668 9.4097626e-39
0.093302861 -0.10496572 0.94200003 1.8534584e-38
0.097788587 -0.10496573 0.94200009 1.6606026e-38
0.10356429 -0.10446144 0.94150007 1.8168291e-38
0.10754286 -0.10395715 0.94100004 1.8437359e-38
0.11202382 -0.10395716 0.94099998 1.9267118e-38
0.11744382 -0.10489144 0.94133341 1.7513291e-38
0.12201144 -0.10496572 0.94200003 1.7601178e-38
0.12739429 -0.10496572 0.94200003 1.6776809e-38
0.13178605 -0.1039943 0.94133341 1.8164745e-38
0.13711715 -0.10395716 0.9410001 1.9826766e-38
0.14219715 -0.10451715 0.94200003 1.2258151e-38
0.14982286 -0.10496572 0.94200003 1.660407e-39
0.15251429 -0.10496572 0.94200003 8.7633394e-39
0.073800005 -0.1251 0.94500005 8.6625314e-39
0.073131435 -0.12188573 0.94800013 1.022697e-38
0.072630294 -0.11696859 0.94620007 1.032273e-38
0.069520012 -0.11285715 0.94800013 1.7519328e-38
0.073026672 -0.11269779 0.94666672 8.4845777e-39
0.077220008 -0.11214 0.94500011 2.8704156e-39
0.068545721 -0.10732572 0.94700003 1.7058351e-38
0.073131435 -0.10744 0.94800007 8.2026239e-39
0.077522382 -0.10726811 0.94650018 3.0508636e-39
0.081642866 -0.10658573 0.94500017 2.8618354e-39
0.086850002 -0.10575001 0.94500005 1.6424532e-38
0.090900004 -0.10530001 0.94500005 2.0657582e-38
0.1251 -0.10530001 0.94500005 1.7140562e-38
0.14760001 -0.10530001 0.94500005 4.6402177e-40
0.068510003 -0.10366429 0.94650006 1.586665e-38
0.073131442 -0.10382858 0.94800013 7.8270268e-39
0.077645719 -0.10382858 0.94800007 3.6000759e-39
0.082072392 -0.10281619 0.94700003 3.4185881e-39
0.087438576 -0.10276144 0.94650018 1.844851e-38
0.093109645 -0.10212537 0.94687504 1.8812243e-38
0.097762056 -0.10214002 0.9467144 1.8076843e-38
0.10216716 -0.10171501 0.94725007 1.7894982e-38
0.10744002 -0.10112002 0.94800007 1.6606059e-38
0.11249601 -0.10130059 0.94800007 1.7161744e-38
0.11759797 -0.10214002 0.94671446 1.8815504e-38
0.1217747 -0.10192899 0.9471429 1.7525129e-38
0.1273775 -0.10212537 0.94687498 1.7160667e-38
0.13272002 -0.10202287 0.94800013 1.7715275e-38
0.13813716 -0.10202287 0.94800013 1.983143e-38
0.14332572 -0.10276143 0.94650006 8.6521394e-39
0.14693144 -0.10276143 0.94650006 1.2062279e-39
0.15265429 -0.10290915 0.94620007 8.1208665e-39
0.098411433 -0.098411433 0.94800007 1.8440953e-38
0.071476199 -0.12576191 0.95000005 1.7052226e-38
0.071476206 -0.12214287 0.95000005 1.6404707e-38
0.069776669 -0.1178062 0.95150006 1.7425685e-38
0.069666669 -0.1022381 0.95000005 1.4111032e-38
0.072682552 -0.10163493 0.95000005 9.4861572e-39
0.076904766 -0.10133334 0.94999999 3.6015024e-39
0.082333341 -0.10042858 0.95000005 3.8799376e-39
0.087761909 -0.10042858 0.95000005 1.8541431e-38
0.091380961 -0.10042858 0.95000005 1.8805811e-38
0.11490477 -0.10042858 0.95000005 1.6880854e-38
0.12395239 -0.10042858 0.95000005 1.5684807e-38
0.12576191 -0.10042858 0.95000005 1.4861891e-38
0.13300002 -0.10042858 0.95000005 1.6696097e-38
0.13752383 -0.10042858 0.95000005 1.9648484e-38
0.14219525 -0.1005343 0.95100009 1.1709672e-38
0.14804643 -0.10096025 0.95075005 1.2069468e-39
0.15269238 -0.10103953 0.95150006 6.4631501e-39
0.076240003 -0.098930486 0.95300007 3.4153189e-39
0.082528338 -0.09839882 0.95225006 3.7935055e-39
0.088402107 -0.098204397 0.95300007 1.9462302e-38
0.092503577 -0.097945005 0.95225006 1.9827824e-38
0.097027078 -0.097027086 0.95214289 1.9456885e-38
0.10234573 -0.096909523 0.95100003 1.8995929e-38
0.10785493 -0.09697745 0.95166671 1.6877597e-38
0.1124862 -0.097063348 0.95250005 1.7616955e-38
0.11723606 -0.097544901 0.95214295 1.8071127e-38
0.12240002 -0.097011432 0.95200008 1.7706998e-38
0.12754595 -0.097187147 0.95150006 1.7796681e-38
0.13240881 -0.097945005 0.95225006 1.7058034e-38
0.13705048 -0.098476671 0.95300007 1.9461934e-38
0.14340383 -0.098930486 0.95300007 7.1860477e-39
0.14703429 -0.098930486 0.95300007 1.4763646e-39
0.070143342 -0.12206905 0.95650005 1.7889144e-38
0.071852386 -0.10095715 0.95500004 1.188753e-38
0.073446676 -0.098080963 0.95800006 8.7471629e-39
0.077638783 -0.09688504 0.95585728 2.5827052e-39
0.082766674 -0.096227624 0.95500004 6.2784589e-39
0.087011121 -0.09610635 0.9550001 1.9279712e-38
0.091861919 -0.095500015 0.9550001 2.0564325e-38
0.095500007 -0.095500007 0.95500004 2.0196256e-38
0.11641905 -0.095500007 0.95500004 1.8727261e-38
0.13188097 -0.095500015 0.9550001 1.8081875e-38
0.13733812 -0.096227624 0.95500004 1.8728326e-38
0.14253539 -0.096799336 0.95500004 1.0878465e-38
0.1474593 -0.096484527 0.95574999 1.8429863e-39
0.15178168 -0.097621433 0.95575005 3.3313839e-39
0.078464761 -0.093975246 0.95800006 1.9330534e-39
0.083482869 -0.093519054 0.95800006 9.1386478e-39
0.087892711 -0.093366995 0.95800006 1.9188951e-38
0.092085719 -0.092085086 0.95733345 1.8080105e-38
0.097522862 -0.092052378 0.95700008 1.863255e-38
0.10288382 -0.091956191 0.95600003 1.9272515e-38
0.1074362 -0.091956198 0.95600003 1.8350558e-38
0.11210573 -0.092052393 0.95700008 1.8628234e-38
0.11755893 -0.092268214 0.95687503 1.8903022e-38
0.12291429 -0.091956206 0.95600003 1.8811186e-38
0.12746668 -0.091956198 0.95600003 1.9643807e-38
0.13211174 -0.09202031 0.95666665 1.475966e-38
0.13776955 -0.093062863 0.95800012 1.6510649e-38
0.14233144 -0.093062863 0.95800006 1.1524908e-38
0.14652839 -0.093245342 0.95800012 1.6593434e-39
0.15145525 -0.093975246 0.95800006 4.2443551e-39
0.12317143 -0.088500962 0.95800006 1.5142805e-38
0.12864572 -0.088500962 0.95800006 1.3839106e-38
0.11806572 -0.090608574 0.96100003 1.9364354e-38
0.13728572 -0.090608574 0.96100003 1.1721178e-38
0.1419616 -0.090671435 0.9616667 1.253366e-38
0.14796525 -0.091160484 0.96200001 2.679214e-39
0.15208858 -0.092535242 0.96200001 5.7205459e-39
