# .PCD v0.7 - Point Cloud Data file format
VERSION 0.7
FIELDS x y z rgb
SIZE 4 4 4 4
TYPE F F F F
COUNT 1 1 1 1
WIDTH 878
HEIGHT 1
VIEWPOINT 0 0 0 1 0 0 0
POINTS 878
DATA ascii
0.12321772 -0.15680745 0.87300009 8.3089474e-39
0.12596144 -0.15714002 0.87300003 8.5830204e-39
0.12305143 -0.15298288 0.87300003 5.7256929e-39
0.1266543 -0.15270573 0.87300009 7.6570928e-39
0.1237562 -0.16138478 0.87800002 8.3871104e-39
0.12793714 -0.16138479 0.87800002 7.3729893e-39
0.1329543 -0.16138479 0.87800002 7.7615302e-39
0.13629906 -0.16138478 0.87800002 7.1204711e-39
0.11957525 -0.15720382 0.87800002 4.987793e-39
0.12135358 -0.15805312 0.87575001 8.3103809e-39
0.12858857 -0.15760916 0.87560004 9.1351067e-39
0.13290446 -0.15798002 0.87766677 7.4755812e-39
0.13629906 -0.15720382 0.87800002 4.7853992e-39
0.11882458 -0.15325163 0.87740004 3.8774125e-39
0.12183335 -0.15183334 0.87500012 4.3319685e-39
0.12861113 -0.1513889 0.87500012 5.2592595e-39
0.13257632 -0.15303442 0.87687504 4.5152625e-39
0.13685653 -0.15413779 0.87800002 2.3137063e-39
0.1231562 -0.14795403 0.87628573 3.3177437e-39
0.12774478 -0.14778033 0.87666672 4.3333291e-39
0.13128191 -0.14884192 0.87800002 4.3290271e-39
0.1237562 -0.14466096 0.87800002 3.9695577e-39
0.12626477 -0.14466096 0.87800002 6.2744428e-39
0.1220762 -0.17090669 0.88400006 8.1184521e-39
0.12544382 -0.17090668 0.88400006 5.8107153e-39
0.11309588 -0.16641653 0.88400006 8.40438e-39
0.11693653 -0.16741398 0.88333333 1.1071892e-38
0.12213486 -0.16699277 0.88200009 8.3799582e-39
0.12692273 -0.16726886 0.88257152 5.9954401e-39
0.13202953 -0.16650954 0.88300008 7.7507528e-39
0.13738233 -0.16695078 0.88342863 1.5865654e-38
0.14214396 -0.16689716 0.88314295 1.1065805e-38
0.14693068 -0.16645372 0.88360006 8.4864905e-39
0.1126341 -0.16189507 0.88260001 3.5119258e-39
0.11770096 -0.1618762 0.88066673 8.9553874e-39
0.12224877 -0.16316764 0.88040012 9.3130198e-39
0.12739047 -0.16342857 0.88000005 5.259331e-39
0.13188002 -0.16380003 0.88200009 5.4455411e-39
0.13798308 -0.16189168 0.88075 6.0916028e-39
0.14239404 -0.16230749 0.88171434 6.0854609e-39
0.14691594 -0.16246787 0.88275003 4.7057634e-39
0.15204802 -0.16349792 0.884 3.8774391e-39
0.11280935 -0.15726514 0.88218188 4.5206085e-39
0.11716572 -0.15705906 0.88000005 3.5990894e-39
0.13929144 -0.15705907 0.88000005 4.2462062e-39
0.14280002 -0.15708001 0.88200009 3.5075524e-39
0.14564954 -0.15743619 0.88400006 3.7819967e-39
0.11365715 -0.15238479 0.88400006 8.8515764e-39
0.11682689 -0.15151344 0.8811112 6.3529898e-39
0.13437462 -0.1505778 0.88000005 4.5263384e-39
0.13828573 -0.15169525 0.88000011 6.2730191e-39
0.14253309 -0.15189797 0.88257152 1.0978176e-38
0.11820351 -0.1476143 0.8823334 9.3171774e-39
0.12101754 -0.14652993 0.88120002 6.4527216e-39
0.13325715 -0.14750478 0.88000005 8.5818363e-39
0.13709119 -0.14674786 0.88174999 9.2239869e-39
0.14161462 -0.14778288 0.88333338 1.0148785e-38
0.12288722 -0.14229631 0.88177788 3.4149686e-39
0.12781201 -0.14240403 0.88060009 9.6878055e-39
0.13215621 -0.14239736 0.88160002 9.0381397e-39
0.13656637 -0.14273462 0.88333338 6.8283438e-39
0.1405981 -0.14396572 0.88400006 6.5449396e-39
0.12376001 -0.1389143 0.88400006 3.229162e-39
0.12740763 -0.13817792 0.88360006 6.4617151e-39
0.13133715 -0.1389143 0.88400006 8.4834945e-39
0.11260667 -0.17610668 0.88900006 8.0273467e-39
0.11811 -0.17568333 0.88900006 1.2730683e-38
0.12319001 -0.17653 0.88900006 1.1255222e-38
0.12784669 -0.17610668 0.88900006 1.1533953e-38
0.13250333 -0.17568333 0.88900006 1.6612892e-38
0.13800669 -0.17526001 0.88900012 2.0557865e-38
0.10809113 -0.1713089 0.88900006 8.3964851e-39
0.1125216 -0.17259113 0.88833332 1.1342393e-38
0.11755429 -0.17252669 0.88800001 1.0066733e-38
0.12215258 -0.17385201 0.88700002 1.042655e-38
0.12789695 -0.17250037 0.88700002 6.35599e-39
0.13277715 -0.17252669 0.88800001 1.3107353e-38
0.13785145 -0.17252669 0.88800001 2.0567547e-38
0.14292572 -0.17252669 0.88800001 1.6054699e-38
0.1477621 -0.17247336 0.88860005 1.3011929e-38
0.15324669 -0.17187333 0.88900006 1.1072265e-38
0.15764934 -0.17153469 0.88900006 1.2823896e-38
0.16002001 -0.17272002 0.88900006 1.3745652e-38
0.10728429 -0.16695811 0.88875002 3.6894661e-39
0.11179017 -0.16867082 0.88700002 8.6805956e-39
0.12924857 -0.16979715 0.88700002 4.4317199e-39
0.13262764 -0.16979715 0.88700002 1.0244305e-38
0.13685143 -0.16979715 0.88700002 1.908779e-38
0.14276478 -0.16979715 0.88700002 1.3545717e-38
0.14825574 -0.16937476 0.88700002 9.6843176e-39
0.15296002 -0.16732603 0.88733339 6.1880976e-39
0.1583131 -0.16773322 0.88757151 7.2843418e-39
0.16202535 -0.16776972 0.88700002 1.0327016e-38
0.10839524 -0.16284744 0.88780004 2.0385347e-39
0.11066382 -0.16472858 0.88700002 2.9552404e-40
0.14952287 -0.16134953 0.88700002 3.5086356e-39
0.15364745 -0.16142154 0.88740009 3.4167902e-39
0.15760434 -0.16267759 0.88811111 5.3474684e-39
0.16204479 -0.16246718 0.88849998 1.1798862e-38
0.16510001 -0.16256002 0.88900006 1.216908e-38
0.1091381 -0.15820667 0.88833344 7.6551996e-39
0.11066382 -0.15628096 0.88700002 7.3822015e-39
0.14879051 -0.15808859 0.8876667 5.5343862e-39
0.1526649 -0.15822382 0.88842869 1.041496e-38
0.15663335 -0.15832667 0.88900006 1.0971351e-38
0.10922001 -0.15494001 0.88900006 1.207623e-38
0.11159175 -0.15301621 0.8876667 1.0886316e-38
0.14758871 -0.15338954 0.88842869 1.1531357e-38
0.11312826 -0.14867494 0.88866675 1.0792337e-38
0.11622001 -0.14749335 0.88750005 1.0606511e-38
0.1439997 -0.14681685 0.8876667 7.5680557e-39
0.14647335 -0.14901334 0.88900006 8.2973951e-39
0.11809375 -0.14323607 0.88842869 8.4799296e-39
0.12080096 -0.14192002 0.88700002 1.941663e-39
0.13882256 -0.14163843 0.88700002 6.6443267e-39
0.14268439 -0.14336097 0.88860005 5.8999318e-39
0.11938 -0.13970001 0.88900006 7.0980602e-39
0.12295747 -0.13790193 0.88833344 3.5042999e-39
0.12720762 -0.13650572 0.88750005 5.0755633e-39
0.13277715 -0.13756859 0.88800001 7.6584576e-39
0.13758335 -0.13927668 0.88900006 7.8407133e-39
0.12784669 -0.13462001 0.88900012 4.7971883e-39
0.11324 -0.18178001 0.89400005 1.1444993e-38
0.11721334 -0.18192193 0.89400005 1.1244812e-38
0.12239858 -0.18161762 0.8925001 1.3824458e-38
0.12785621 -0.18171906 0.89300007 1.6508493e-38
0.13197143 -0.18178001 0.89400005 1.909352e-38
0.1366543 -0.18178001 0.89400005 2.2123368e-38
0.14644572 -0.1813543 0.89400005 1.9364728e-38
0.10329316 -0.17680858 0.89340001 8.6762922e-39
0.10788953 -0.17755242 0.89200002 9.687919e-39
0.11298477 -0.17924953 0.89200008 1.0342966e-38
0.117612 -0.17836975 0.89099997 1.3284567e-38
0.12304287 -0.17904858 0.89100003 1.5771659e-38
0.12813431 -0.17904858 0.89100003 1.218003e-38
0.13356517 -0.17836975 0.89099997 1.9366521e-38
0.13746858 -0.17820001 0.89100003 2.1392641e-38
0.14216216 -0.1778643 0.89250004 2.0200576e-38
0.14702319 -0.17761874 0.89233333 2.0652206e-38
0.15179634 -0.177038 0.89185721 1.6787176e-38
0.15613715 -0.17650288 0.89100003 1.281482e-38
0.099617146 -0.17198858 0.89400005 3.5078999e-39
0.10275272 -0.17238954 0.89166665 2.6828882e-39
0.10663715 -0.17339145 0.89100003 7.9405376e-39
0.15019715 -0.17395715 0.89100003 1.5589775e-38
0.15698573 -0.17395715 0.89100003 1.3095818e-38
0.099617146 -0.16858286 0.89400005 4.9804684e-39
0.10275272 -0.16729303 0.89166665 3.9692199e-39
0.10404097 -0.16357431 0.89300007 8.4694605e-39
0.10658501 -0.16178787 0.89175004 6.6295444e-39
0.10788953 -0.15716001 0.89200008 1.2539714e-38
0.15274286 -0.15528858 0.89100003 1.17136e-38
0.1573045 -0.15657553 0.89142859 1.0605425e-38
0.16207716 -0.15783432 0.89099997 1.4106559e-38
0.10904144 -0.15231858 0.89100003 1.1158599e-38
0.14850001 -0.15019715 0.89100003 7.4572382e-39
0.15187395 -0.1522968 0.89212501 8.7630087e-39
0.15637907 -0.15354097 0.89400005 8.3023753e-39
0.10983429 -0.14814858 0.89400005 1.1346564e-38
0.11235668 -0.14631858 0.8915 1.1157885e-38
0.14812 -0.14675772 0.89280003 5.6319881e-39
0.15070286 -0.149 0.89400005 5.9049792e-39
0.11418458 -0.14243259 0.89340001 1.1894376e-38
0.11667858 -0.14128715 0.89100003 1.1521993e-38
0.14300382 -0.14073716 0.89200008 8.2148796e-39
0.1458362 -0.14300382 0.89200008 7.5641124e-39
0.11824786 -0.13824072 0.89325005 1.1342935e-38
0.12069858 -0.13684858 0.89250004 5.8977079e-39
0.13429858 -0.13599858 0.89250004 7.5709536e-39
0.13790667 -0.13733906 0.89200008 8.3913648e-39
0.1408962 -0.13806002 0.89300007 5.8152807e-39
0.123166 -0.13301913 0.8919 2.6802804e-39
0.12749931 -0.13174787 0.89250004 5.6247798e-39
0.13125619 -0.13352287 0.89300007 7.2839256e-39
0.12601143 -0.12856573 0.89400005 4.1503798e-39
0.098352388 -0.18558668 0.89800006 1.2079591e-38
0.10220096 -0.18601429 0.89800006 8.8595988e-39
0.10690477 -0.18644193 0.89800012 1.3561507e-38
0.11221834 -0.18703169 0.89775014 1.365012e-38
0.11716763 -0.18729715 0.89800006 1.319128e-38
0.12198263 -0.18692788 0.89725006 1.4300136e-38
0.12728858 -0.18623525 0.89700001 1.992184e-38
0.1324143 -0.18623525 0.89700007 2.2313153e-38
0.1376597 -0.18725121 0.89777786 2.1116056e-38
0.14111429 -0.18729715 0.89800012 1.927035e-38
0.094931439 -0.18216573 0.89800012 6.459658e-39
0.09749715 -0.18216573 0.89800012 7.9401663e-39
0.10206896 -0.1819143 0.89760011 1.0980435e-38
0.10674477 -0.18274924 0.89666671 1.1532522e-38
0.11064889 -0.18289779 0.89600009 1.4116833e-38
0.11690667 -0.18346667 0.89600003 9.5089087e-39
0.12032001 -0.18346667 0.89600003 1.4312687e-38
0.12629333 -0.18346667 0.89600003 9.7144624e-39
0.13226667 -0.18346667 0.89600003 2.075015e-38
0.13839525 -0.18367144 0.89700007 2.3047111e-38
0.14261271 -0.18274987 0.89666671 2.2403549e-38
0.14778954 -0.18281811 0.89700007 1.7337087e-38
0.15104 -0.18176001 0.89600003 1.5027438e-38
0.094076201 -0.1770343 0.89800012 4.1496834e-39
0.098013066 -0.17735349 0.89714301 4.6121399e-39
0.10154667 -0.17834668 0.89600003 7.8576718e-39
0.094503812 -0.17233047 0.89800006 8.2022455e-39
0.097707227 -0.17284845 0.89657146 5.5322282e-39
0.09801361 -0.16734369 0.89714301 9.4094165e-39
0.10006286 -0.16506097 0.89800006 1.0790563e-38
0.10240762 -0.16270587 0.89714295 1.1622068e-38
0.10397588 -0.15924065 0.89733338 1.1898687e-38
0.10607772 -0.15766554 0.89680004 1.1158257e-38
0.16213334 -0.15616001 0.89600003 1.5588162e-38
0.10710984 -0.15297334 0.89733338 1.0696561e-38
0.15445334 -0.15104 0.89600003 6.360533e-39
0.15843555 -0.15217778 0.89600003 9.1216795e-39
0.1618489 -0.15388446 0.89600009 1.5124375e-38
0.10861524 -0.14881144 0.89800006 1.0518642e-38
0.11032572 -0.14624572 0.89800006 9.5192209e-39
0.15268953 -0.14784573 0.8973335 8.0214878e-39
0.15810287 -0.14955556 0.89733338 7.837077e-39
0.16164 -0.14966668 0.89800006 1.5133684e-38
0.11227572 -0.14215858 0.89649999 7.2957764e-39
0.1481006 -0.14229183 0.89680004 6.8308452e-39
0.15137716 -0.14368001 0.89800006 6.1815549e-39
0.11374667 -0.13940382 0.89800006 5.9150392e-39
0.11646699 -0.13696986 0.89700001 9.1364099e-39
0.13738668 -0.13568 0.89600009 6.0915229e-39
0.14310324 -0.13728993 0.89760011 5.3525019e-39
0.14624572 -0.13940382 0.89800006 5.1717078e-39
0.11814096 -0.13284419 0.89760011 2.952222e-39
0.12074667 -0.13184001 0.89600003 3.6940554e-39
0.13293526 -0.13179557 0.89666671 6.2719401e-39
0.1371232 -0.13313209 0.89800012 5.8127682e-39
0.14111429 -0.1342724 0.89800006 5.8141891e-39
0.12274832 -0.12763377 0.89771444 4.3322389e-39
0.12759376 -0.12686014 0.89742869 4.7975373e-39
0.13120618 -0.12778619 0.89750004 5.8145492e-39
0.1270884 -0.12332534 0.89800006 4.6145936e-39
0.092020005 -0.19006002 0.90300006 1.0794255e-38
0.09752401 -0.19074802 0.90300006 8.7548308e-39
0.10234001 -0.19178002 0.90300006 1.2824677e-38
0.10710839 -0.19238305 0.90260011 1.1165894e-38
0.11266001 -0.19178002 0.90300006 1.3831634e-38
0.11782001 -0.19178002 0.90300006 9.2312316e-39
0.12126001 -0.19178002 0.90300006 1.5130601e-38
0.13158001 -0.19178002 0.90300006 2.1948322e-38
0.088580005 -0.18748 0.90300006 2.1286649e-39
0.091951445 -0.18734223 0.90233344 7.6632361e-39
0.096621536 -0.18723641 0.90100002 1.1073341e-38
0.10211334 -0.18878096 0.90100002 8.400071e-39
0.10726191 -0.18963906 0.90100002 1.2450855e-38
0.1106943 -0.18963906 0.90100002 1.2541995e-38
0.12442382 -0.18963906 0.90100002 1.7990069e-38
0.12785619 -0.18963906 0.90100002 2.0836243e-38
0.13300477 -0.18963906 0.90100002 2.2405347e-38
0.14330192 -0.18620668 0.90100002 2.0656873e-38
0.1450181 -0.18620668 0.90100002 1.8808669e-38
0.088580005 -0.18490002 0.90300006 3.2266943e-39
0.091882862 -0.18290955 0.90166664 2.8622418e-39
0.091092072 -0.17788796 0.90233338 5.4407403e-39
0.092828102 -0.17276429 0.90250009 1.1526601e-38
0.095730484 -0.16699144 0.90150005 1.0151292e-38
0.097608857 -0.16268234 0.90242869 8.3066941e-39
0.10096921 -0.1610359 0.90100002 1.1902279e-38
0.098900005 -0.15824002 0.90300006 9.6020922e-39
0.10198287 -0.15694669 0.90175003 1.0883483e-38
0.1032 -0.15394001 0.90300006 8.9459539e-39
0.10603334 -0.15153715 0.90150005 9.5974133e-39
0.10769963 -0.14720857 0.9018001 7.3840554e-39
0.1106943 -0.1450181 0.90100002 8.1230694e-39
0.15359905 -0.1450181 0.90100002 7.6527151e-39
0.15699121 -0.14711072 0.90200007 5.078087e-39
0.16150096 -0.14775525 0.90200007 1.4757389e-38
0.10922001 -0.14276001 0.90300006 5.815596e-39
0.1107762 -0.14168923 0.90166676 4.6094872e-39
0.15205334 -0.14260286 0.90200007 5.2581483e-39
0.15738001 -0.14362001 0.90300006 4.8068741e-39
0.16168001 -0.14362001 0.90300006 1.7976293e-38
0.11325348 -0.1370562 0.90185714 2.862857e-39
0.14720857 -0.137932 0.9018001 5.6272881e-39
0.11438001 -0.13330001 0.90300006 1.0238342e-38
0.11627191 -0.13257572 0.90100002 4.7049437e-39
0.13929747 -0.13186064 0.90100002 5.8138332e-39
0.14252238 -0.13307764 0.90150005 5.630151e-39
0.1187461 -0.12836973 0.90220004 2.483653e-39
0.12099144 -0.1269981 0.90100002 2.6849369e-39
0.13386287 -0.12785619 0.90100002 5.2649712e-39
0.13702345 -0.12842648 0.90260011 5.8145535e-39
0.14018001 -0.12986001 0.90300006 5.721276e-39
0.12341588 -0.12341588 0.90200007 4.0614128e-39
0.12828524 -0.12142049 0.90100002 5.1684596e-39
0.13179049 -0.12320381 0.90150005 5.6315789e-39
0.081154764 -0.20374811 0.90650004 1.632797e-38
0.12227734 -0.20218134 0.90800011 2.0473566e-38
0.12625524 -0.20148954 0.90800005 1.9917158e-38
0.092529535 -0.19630097 0.90800011 8.2149315e-39
0.097965173 -0.19753636 0.90800011 5.53735e-39
0.10279334 -0.1978143 0.90700001 7.4748819e-39
0.1079762 -0.19781429 0.90700001 1.4756083e-38
0.11241906 -0.1980305 0.90800011 1.8170147e-38
0.11695906 -0.19781429 0.90800005 1.8633266e-38
0.12188668 -0.19795842 0.90766674 2.0563605e-38
0.12712 -0.19803049 0.90800011 2.1117488e-38
0.13230859 -0.19716573 0.90800011 2.0188337e-38
0.13576762 -0.19630097 0.90800005 1.816067e-38
0.083881907 -0.1911124 0.90800005 3.4182504e-39
0.0874843 -0.19246714 0.90725005 7.4824139e-39
0.092273824 -0.19317383 0.90550011 1.1163364e-38
0.097043581 -0.19365835 0.90575004 8.1998493e-39
0.10170477 -0.19392858 0.90500003 1.0701332e-38
0.10946191 -0.19392858 0.90500003 1.1749201e-38
0.11290954 -0.19392858 0.90500009 1.438874e-38
0.11808096 -0.19392858 0.90500009 1.4476276e-38
0.12335453 -0.1932274 0.90575004 1.8806167e-38
0.1274659 -0.19387963 0.90800011 1.9181048e-38
0.13213372 -0.19362478 0.90680009 2.1758191e-38
0.13640667 -0.1933881 0.90650004 1.9175965e-38
0.083881907 -0.18938287 0.90800005 4.6117391e-39
0.086428106 -0.18755001 0.90750003 4.1468275e-39
0.087446794 -0.18245491 0.90687501 5.9903071e-39
0.088260964 -0.17738667 0.90680009 9.4983555e-39
0.089070484 -0.17381716 0.90800005 1.0602915e-38
0.091310672 -0.17243487 0.90620005 1.1344044e-38
0.094181195 -0.1676231 0.90725005 9.1382358e-39
0.095671438 -0.16203812 0.90500003 6.9115712e-39
0.097161755 -0.15781477 0.90550011 8.9463098e-39
0.098761603 -0.1540454 0.90700006 7.2079052e-39
0.10246451 -0.15227973 0.90628582 7.9339655e-39
0.10359848 -0.14856611 0.90800011 5.9092742e-39
0.10670604 -0.14639749 0.90600008 6.6464637e-39
0.15945239 -0.14566192 0.90500003 9.1335373e-39
0.16203812 -0.14566192 0.90500003 1.6600541e-38
0.10762747 -0.14245 0.9065001 5.3503355e-39
0.1531065 -0.14136744 0.90620005 5.5343764e-39
0.15825145 -0.14199391 0.90800011 6.8272592e-39
0.16257524 -0.14182095 0.90800005 1.8072084e-38
0.10939239 -0.13792953 0.90800005 6.9090054e-39
0.11143144 -0.13734382 0.90700006 5.262802e-39
0.14794025 -0.13586216 0.90575004 6.0879047e-39
0.15250549 -0.1386793 0.90725005 6.2687101e-39
0.15998097 -0.13922668 0.90800005 1.2276082e-38
0.16171049 -0.13922668 0.90800005 1.8352978e-38
0.1134454 -0.13216382 0.90700006 1.7152308e-38
0.11635715 -0.13014762 0.90500003 1.178777e-38
0.14352256 -0.13086605 0.90600008 5.7212732e-39
0.14656034 -0.13331398 0.90700006 5.9056771e-39
0.11642953 -0.12679811 0.90725005 9.0273553e-39
0.13834541 -0.1262635 0.90600008 6.2737337e-39
0.1420316 -0.12762555 0.90750003 5.9967895e-39
0.11879633 -0.12274465 0.90671432 2.9460871e-39
0.12201732 -0.12115255 0.9065001 3.0519258e-39
0.12539048 -0.12020192 0.90800005 4.1489393e-39
0.13316636 -0.12166097 0.90600008 5.998572e-39
0.13687402 -0.12354259 0.90714294 6.6417988e-39
0.12236381 -0.11804001 0.90800005 3.3260043e-39
0.12712477 -0.11805905 0.90650004 4.7993309e-39
0.13090359 -0.1183731 0.90725005 6.1815269e-39
0.099995248 -0.21216382 0.91300005 1.3929123e-38
0.084066674 -0.20540002 0.91000003 1.4849934e-38
0.088256665 -0.20651191 0.91300005 1.4938598e-38
0.093142502 -0.20734203 0.91187501 1.3280928e-38
0.098256201 -0.2069467 0.91300005 1.3004387e-38
0.10231398 -0.20665684 0.91300005 1.8452112e-38
0.1073862 -0.20651191 0.91300005 2.0009362e-38
0.11251638 -0.20677279 0.91300005 2.0475004e-38
0.11782049 -0.20651191 0.91300005 1.8171575e-38
0.12117683 -0.20620541 0.91100001 1.7790591e-38
0.078866675 -0.20106667 0.91000003 1.1715399e-38
0.082584649 -0.2018006 0.91037494 9.2172004e-39
0.087725721 -0.20237906 0.912 8.6723265e-39
0.092733346 -0.20193334 0.90999997 8.4811305e-39
0.097716667 -0.20215003 0.90999997 1.0702769e-38
0.10285468 -0.20276096 0.91060001 1.6978796e-38
0.10701583 -0.20310764 0.91060001 2.0384603e-38
0.11186048 -0.20291191 0.91049999 1.8167985e-38
0.11686178 -0.20262042 0.9108572 1.6240874e-38
0.12046667 -0.20366669 0.91000003 2.2397808e-38
0.078866675 -0.19760001 0.91000003 2.301906e-39
0.082333349 -0.19760001 0.91000003 5.9090066e-39
0.08753334 -0.19760001 0.91000003 9.8550574e-39
0.092733346 -0.19846669 0.91000003 7.8364646e-39
0.078866675 -0.19326667 0.91000003 1.8817477e-40
0.082007207 -0.19321439 0.91066658 2.3173105e-39
0.085800007 -0.19500001 0.91000003 7.5760459e-39
0.078866675 -0.18980001 0.91000003 6.6061694e-40
0.082259476 -0.1871835 0.91133338 6.3666468e-39
0.083481908 -0.18276002 0.91120005 9.6755903e-39
0.085800007 -0.18113334 0.91000003 9.3232941e-39
0.083671749 -0.17921463 0.91200006 9.5927386e-39
0.086472079 -0.17786193 0.91100001 9.0424262e-39
0.088883184 -0.17284572 0.91200006 1.0420694e-38
0.091000006 -0.17073335 0.91000003 1.0976004e-38
0.092161141 -0.16783278 0.91120005 9.4090774e-39
0.093895629 -0.1626282 0.91120005 8.2080077e-39
0.094778106 -0.15738383 0.91300005 6.736521e-39
0.096200004 -0.156 0.91000003 5.7320772e-39
0.097997919 -0.1521122 0.91060001 3.2302438e-39
0.099360809 -0.14773667 0.91250008 4.5180371e-39
0.10216021 -0.14690879 0.91060001 4.7964232e-39
0.10372491 -0.14313388 0.9108572 4.9800452e-39
0.10660001 -0.14126667 0.91000003 4.7049311e-39
0.15860002 -0.14126667 0.91000003 4.2551535e-39
0.10347334 -0.13999334 0.91300005 4.8899627e-39
0.10651298 -0.1377537 0.911125 4.8881915e-39
0.15282223 -0.13664445 0.91000003 6.2694247e-39
0.15733676 -0.13799307 0.9112857 6.8243838e-39
0.16173144 -0.13738477 0.91300005 1.5301605e-38
0.10792344 -0.1332964 0.91240007 4.1406324e-39
0.11083259 -0.13233963 0.91060001 1.5314571e-38
0.14832215 -0.13227454 0.91075003 6.4566859e-39
0.15171888 -0.1332964 0.91240007 5.7209173e-39
0.15738383 -0.1347762 0.91300005 7.6544766e-39
0.16086191 -0.1347762 0.91300005 1.318759e-38
0.1124524 -0.12782763 0.91128576 1.983106e-38
0.14415556 -0.12624446 0.91000003 5.9971567e-39
0.14735544 -0.12791583 0.91120005 5.8138346e-39
0.15042762 -0.12955905 0.91300005 6.0889711e-39
0.11313715 -0.12286896 0.91240007 1.9918225e-38
0.11596 -0.12185334 0.91000003 8.7536635e-39
0.13433334 -0.12046667 0.91000003 6.1818912e-39
0.13834834 -0.12099929 0.91075003 6.3655734e-39
0.14214744 -0.12270667 0.91120005 6.1815465e-39
0.14579019 -0.12376224 0.91300005 5.5390554e-39
0.11827258 -0.1175781 0.91180003 2.2117534e-39
0.12185334 -0.11596 0.91000003 4.5198798e-39
0.12740001 -0.11526667 0.91000003 4.7971799e-39
0.13312268 -0.11680648 0.91120005 6.0886166e-39
0.13694541 -0.11841461 0.91200006 6.0900627e-39
0.12260287 -0.11303811 0.91300005 4.6106279e-39
0.12775001 -0.11297573 0.91250008 4.7964639e-39
0.13129811 -0.11303811 0.91300005 6.6356905e-39
0.10742001 -0.21571335 0.91700006 1.3188354e-38
0.11091334 -0.21571335 0.91700006 1.190625e-38
0.097890481 -0.21059525 0.91500008 1.4473353e-38
0.10248695 -0.21157485 0.91528577 1.3464963e-38
0.10726382 -0.21191274 0.9156667 1.4204346e-38
0.1124962 -0.21191272 0.9156667 1.9270738e-38
0.11772731 -0.21016732 0.9156667 1.8161533e-38
0.1037 -0.20827144 0.91500002 1.9728479e-38
0.10631429 -0.20827144 0.91500002 1.8905903e-38
0.11067144 -0.20827144 0.91500002 1.9830362e-38
0.11677144 -0.20827144 0.91500002 2.2676899e-38
0.079473339 -0.18776667 0.91700006 3.5114816e-39
0.079386674 -0.18320096 0.91600001 9.6845559e-39
0.081042871 -0.18212859 0.91500008 9.9722901e-39
0.083242863 -0.17748059 0.9162001 9.6856503e-39
0.086271435 -0.17602858 0.91500002 7.9350361e-39
0.087721914 -0.17238858 0.91650003 1.0143764e-38
0.089305721 -0.16755685 0.91633338 9.4980346e-39
0.091500007 -0.16644287 0.91500002 9.5898603e-39
0.089953341 -0.16244 0.91700006 8.6700942e-39
0.091985717 -0.16260953 0.91549999 8.6636174e-39
0.089953341 -0.15982001 0.91700006 6.3637616e-39
0.092625715 -0.15821581 0.91580003 6.5477899e-39
0.094216198 -0.15441144 0.91600001 4.883179e-39
0.09628731 -0.15214002 0.91633338 4.2410887e-39
0.098471433 -0.14552858 0.91500002 5.7276673e-39
0.10099906 -0.14181773 0.91580003 5.0736505e-39
0.10301556 -0.13706286 0.91666669 4.703775e-39
0.10544287 -0.13507144 0.91500002 2.5901068e-39
0.15772858 -0.13594288 0.91500002 7.4625463e-39
0.10392667 -0.13362001 0.91700006 3.41159e-39
0.10643049 -0.13172859 0.91600001 7.3906443e-40
0.15366192 -0.13216668 0.91500008 4.8007687e-39
0.15812024 -0.13194691 0.91600001 1.0699399e-38
0.16156667 -0.13187334 0.91700006 1.7616865e-38
0.10908731 -0.12828541 0.91633338 1.0705969e-38
0.11067144 -0.12722859 0.91500002 1.8726895e-38
0.14901429 -0.12635715 0.91500002 4.9887571e-39
0.15264341 -0.12821947 0.9158572 5.5365302e-39
0.15679526 -0.12886763 0.91633338 5.357164e-39
0.11141366 -0.12305176 0.91633338 2.0200218e-38
0.14378573 -0.12112858 0.91500002 5.9993105e-39
0.14762001 -0.12252287 0.91500008 5.1720679e-39
0.15108667 -0.12488668 0.91700006 5.2642579e-39
0.11440668 -0.11877334 0.91700006 1.8160737e-38
0.11646239 -0.11733477 0.91600001 7.1909859e-39
0.13732572 -0.11639906 0.91550004 5.538691e-39
0.14161715 -0.1183524 0.91600007 5.9985916e-39
0.11884363 -0.11291029 0.9162001 1.9384022e-39
0.12287144 -0.11067145 0.91500008 3.1387474e-39
0.12810001 -0.11067145 0.91500008 4.9822873e-39
0.13296573 -0.11203905 0.91550004 5.7191334e-39
0.13676402 -0.113708 0.917 4.9884039e-39
0.12314 -0.10829335 0.917 4.0556688e-39
0.12750667 -0.10829334 0.91700006 5.9946245e-39
0.13100001 -0.10829334 0.91700006 6.1779494e-39
0.11740953 -0.2129143 0.92000002 1.5767329e-38
0.077980958 -0.19013335 0.92000002 9.0237329e-39
0.077396832 -0.18721271 0.92000002 1.0762872e-38
0.077664383 -0.18355392 0.92040008 1.1142066e-38
0.079733342 -0.17961906 0.92000002 9.8743365e-39
0.082450479 -0.17718381 0.921 1.0421412e-38
0.084466666 -0.17390415 0.92066669 1.1067832e-38
0.086220324 -0.1715651 0.92066669 1.1988717e-38
0.086543821 -0.16753429 0.921 3.8773985e-39
0.087713346 -0.16227144 0.921 5.2617146e-39
0.088687629 -0.15893525 0.92200005 6.168876e-39
0.091123819 -0.1568381 0.92000002 4.5140112e-39
0.0934662 -0.1522662 0.92150009 4.3328485e-39
0.095504768 -0.15158096 0.92000002 4.5197957e-39
0.093956195 -0.1483981 0.92200005 2.4039149e-39
0.096415564 -0.14812921 0.92033339 4.061672e-39
0.097627766 -0.14349715 0.92114294 4.2442416e-39
0.099224769 -0.13961715 0.92200005 4.8881592e-39
0.10076191 -0.13756192 0.92000002 4.5197355e-39
0.10299849 -0.13282782 0.92119998 3.4209493e-39
0.10601906 -0.1305524 0.92000002 4.8787621e-39
0.10755683 -0.12713906 0.92066669 1.2079404e-38
0.15333334 -0.12529525 0.92000002 6.1793745e-39
0.15695241 -0.12626225 0.92066669 5.7262857e-39
0.16133589 -0.12713844 0.92066669 1.9455757e-38
0.10909715 -0.12313652 0.92133331 2.0288104e-38
0.11194097 -0.12070923 0.92066669 2.0195551e-38
0.14818349 -0.12070923 0.92066669 5.8145507e-39
0.15245715 -0.12354287 0.92000002 5.1713364e-39
0.15542287 -0.12381144 0.92200005 5.2549071e-39
0.11310922 -0.11778732 0.92066669 1.890444e-38
0.11503048 -0.11503048 0.92200005 1.6587681e-38
0.14377286 -0.11659572 0.92050004 5.9053394e-39
0.14664191 -0.11766477 0.92200005 6.0879272e-39
0.11728763 -0.11319112 0.92133331 5.3420552e-39
0.13807572 -0.11177477 0.92050004 5.7227292e-39
0.14116889 -0.11310922 0.92066669 6.0897068e-39
0.12114172 -0.10711658 0.92040008 3.6947756e-39
0.12704763 -0.10601906 0.92000002 4.4226605e-39
0.13306402 -0.10711658 0.92040008 5.8113235e-39
0.13690905 -0.10882429 0.92149997 5.5376176e-39
0.12313652 -0.10383239 0.92133331 4.698841e-39
0.12686287 -0.1037002 0.92119998 3.3256638e-39
0.1317143 -0.10449334 0.92200005 5.9027974e-39
0.078574292 -0.18186858 0.92700005 9.0280713e-39
0.081135243 -0.17726192 0.92600012 9.5934546e-39
0.082928255 -0.172034 0.92633343 9.9644008e-39
0.08338476 -0.1672105 0.92650008 3.9652557e-39
0.085452385 -0.16650002 0.92500007 3.1282755e-39
0.083871432 -0.16332859 0.92700005 1.3642026e-38
0.085452393 -0.16297621 0.92500007 9.0286361e-39
0.087633669 -0.15791716 0.92633343 8.4733716e-39
0.090738103 -0.15592858 0.92500007 2.9541698e-39
0.089168578 -0.15273431 0.92700005 9.2068854e-39
0.091521338 -0.15218344 0.92580003 1.9346901e-39
0.092926353 -0.14733176 0.92633343 4.3223878e-39
0.094465718 -0.14390573 0.92700005 2.873923e-40
0.097008578 -0.14110477 0.92600012 3.6899692e-39
0.098513983 -0.13733239 0.92633343 3.2286295e-39
0.1023 -0.13228667 0.92600006 4.712442e-39
0.10390991 -0.1282562 0.92620009 1.8442691e-38
0.10582763 -0.1261124 0.92600006 2.0746079e-38
0.10675932 -0.12264095 0.92642868 1.8449238e-38
0.11011905 -0.12069049 0.92500007 2.05636e-38
0.15262572 -0.1220416 0.92633343 4.8936649e-39
0.15857144 -0.12421429 0.92500007 9.0481604e-39
0.16244572 -0.12448286 0.92700005 2.0011796e-38
0.10859144 -0.11830287 0.92700005 2.038029e-38
0.11196097 -0.11695684 0.92566675 2.0104059e-38
0.14771953 -0.11685191 0.92600006 5.8124137e-39
0.15096858 -0.11918572 0.92700005 5.7227039e-39
0.11300572 -0.11300571 0.92700005 1.97367e-38
0.11662096 -0.11133334 0.92533344 9.3986377e-39
0.14272439 -0.11132134 0.92620009 6.1808192e-39
0.14567144 -0.11388858 0.92700005 6.272303e-39
0.11757644 -0.10698833 0.92650008 5.4278063e-39
0.13782191 -0.1060835 0.92566675 4.3376591e-39
0.14086191 -0.10792477 0.92633343 4.7118114e-39
0.11830287 -0.10329429 0.92700005 2.9410382e-39
0.12195207 -0.10255779 0.92566675 4.0631784e-39
0.12824859 -0.10180477 0.92550004 4.707508e-39
0.13284326 -0.10285125 0.92620009 4.3397919e-39
0.13615589 -0.10380732 0.92633343 4.5213077e-39
0.1238943 -0.099174291 0.92700005 4.4290925e-39
0.12683716 -0.099174291 0.92700005 4.5241902e-39
0.078885086 -0.17815495 0.9306668 8.5710687e-39
0.080600008 -0.17625715 0.93000007 8.487484e-39
0.078220196 -0.17258286 0.93120003 8.1961541e-39
0.080600008 -0.17271429 0.93000007 6.277684e-39
0.078025714 -0.16935334 0.93100005 7.366378e-39
0.081573337 -0.16757905 0.93100011 5.5336408e-39
0.086403333 -0.15641192 0.93050009 1.5579203e-38
0.087219685 -0.15285653 0.93133342 1.8713856e-38
0.089553341 -0.14895906 0.93100005 1.5213984e-38
0.091228575 -0.14702858 0.93000007 1.4181534e-38
0.094036676 -0.14283 0.93150008 4.7005464e-39
0.094975248 -0.1393562 0.93200004 3.6810429e-40
0.097202539 -0.13620192 0.9306668 3.8671438e-39
0.098525725 -0.13225526 0.93200004 1.1340739e-38
0.10083734 -0.13167316 0.93040007 1.1426455e-38
0.10157762 -0.12730429 0.93150008 1.7161004e-38
0.10362858 -0.1231143 0.93000007 1.6686748e-38
0.1054 -0.12134287 0.93000007 1.7158486e-38
0.15322858 -0.12134287 0.93000007 4.7106904e-39
0.15719315 -0.12210363 0.93040007 7.1902866e-39
0.16172905 -0.12273667 0.93050009 1.7342087e-38
0.10673008 -0.1176188 0.93057162 2.0009355e-38
0.11071429 -0.11602858 0.93000007 2.1025299e-38
0.15206286 -0.11792573 0.93100005 5.0784205e-39
0.15622096 -0.11982858 0.93200004 5.5265011e-39
0.16154668 -0.11982858 0.93200004 1.7707998e-38
0.10842019 -0.11303353 0.93160009 1.8626792e-38
0.11177715 -0.11177715 0.93000013 2.0012221e-38
0.14726935 -0.11217906 0.93040007 5.9035163e-39
0.11256508 -0.10724826 0.9306668 1.9459029e-38
0.11602858 -0.1054 0.93000007 9.0230477e-39
0.1430164 -0.10686325 0.93040007 3.9670731e-39
0.14645715 -0.10740191 0.93200004 5.2545343e-39
0.11361524 -0.10385144 0.93200004 1.7702299e-38
0.11788382 -0.10163429 0.9306668 3.8637386e-39
0.12134287 -0.10008572 0.93000007 3.510418e-39
0.13206732 -0.10015746 0.9306668 4.8879294e-39
0.13740383 -0.10194401 0.93080008 4.519884e-39
0.14172319 -0.1032597 0.93200004 4.2447418e-39
0.11982858 -0.098525718 0.93200004 3.5946893e-39
0.1228122 -0.09729296 0.93040007 4.2454411e-39
0.1278381 -0.097133338 0.93000007 4.8904588e-39
0.13122667 -0.097532384 0.93100005 5.5336562e-39
0.12320128 -0.094839379 0.9306668 4.0596177e-39
0.12717485 -0.093828581 0.93120015 4.7089318e-39
0.13048001 -0.094975248 0.93200004 5.4439787e-39
0.078444764 -0.16758859 0.93600005 6.440484e-39
0.081033342 -0.16651906 0.93500006 7.9224413e-39
0.082902864 -0.16342765 0.93600005 1.3194078e-38
0.084776193 -0.15795144 0.93700004 2.1664112e-38
0.087266669 -0.15138096 0.93500006 2.0472063e-38
0.088813663 -0.147627 0.93566674 1.9826357e-38
0.091915242 -0.1454581 0.93700004 1.8519034e-38
0.092707619 -0.14262953 0.93600005 1.353979e-38
0.093566678 -0.13812098 0.93566674 1.0127122e-38
0.09528096 -0.13713335 0.93500006 4.6998303e-39
0.093700014 -0.13296477 0.93700004 1.8075402e-38
0.096205406 -0.13272764 0.93533343 1.6593746e-38
0.097829215 -0.12815937 0.93666667 1.7614808e-38
0.10073143 -0.12658191 0.93600005 1.6965093e-38
0.10249163 -0.12209963 0.93580002 1.8441308e-38
0.1597362 -0.12047143 0.93700004 1.2634445e-38
0.16384763 -0.12199525 0.93500006 1.9636177e-38
0.10440858 -0.11690192 0.93700004 1.8351636e-38
0.1535686 -0.11614065 0.93566674 4.5245293e-39
0.15764454 -0.11706168 0.93650007 7.2939911e-39
0.16211589 -0.11809175 0.93700004 1.7431783e-38
0.10641192 -0.11264525 0.93500006 1.6696068e-38
0.15221265 -0.11298787 0.93599999 4.8868588e-39
0.15795144 -0.11333239 0.93700004 8.9545466e-39
0.10790002 -0.10790128 0.93633336 1.8906609e-38
0.14762828 -0.107527 0.93566668 5.2567007e-39
0.15170477 -0.10976286 0.93700004 5.3471181e-39
0.10976286 -0.10351619 0.93700004 1.8811188e-38
0.1128303 -0.10249163 0.93580002 1.8814042e-38
0.11588477 -0.10073143 0.93600005 8.3802371e-39
0.13891429 -0.10062382 0.93500006 5.716286e-39
0.14262763 -0.10162191 0.93600005 4.892621e-39
0.14676096 -0.10360553 0.93620008 5.3510418e-39
0.11706167 -0.097440243 0.93650007 4.7910717e-39
0.12021429 -0.096171439 0.93500006 4.331876e-39
0.13408858 -0.096667632 0.93550003 5.3496194e-39
0.13707259 -0.097500384 0.93580008 5.8077109e-39
0.14010382 -0.099054292 0.93700004 6.1757928e-39
0.11868668 -0.093700007 0.93700004 2.5819835e-39
0.12238049 -0.092063822 0.93625009 3.5075271e-39
0.12740619 -0.091321915 0.93550003 4.7975401e-39
0.13232319 -0.092476837 0.93666667 5.4429039e-39
0.12702811 -0.089141905 0.93600005 5.1666771e-39
0.079760954 -0.16131334 0.94100004 5.1497929e-39
0.082361907 -0.16114286 0.94000006 1.2280779e-38
0.079845719 -0.1587943 0.94200003 5.0651783e-39
0.082681142 -0.15729144 0.94160002 1.3476454e-38
0.085540481 -0.15271857 0.94050002 2.0749424e-38
0.086079523 -0.14884619 0.94150007 2.0840193e-38
0.090419054 -0.14592382 0.94000006 1.9644505e-38
0.091212198 -0.14210515 0.94080001 1.8440201e-38
0.091810003 -0.13749287 0.94050002 1.7242745e-38
0.091742232 -0.1329816 0.94133341 1.8534242e-38
0.094066672 -0.12810859 0.94066668 1.8170496e-38
0.096387312 -0.12682542 0.94000006 1.8078307e-38
0.098132387 -0.12412191 0.94100004 1.8445279e-38
0.10126953 -0.12188096 0.94100004 1.8818006e-38
0.10255858 -0.11778715 0.94050002 1.7889954e-38
0.16114286 -0.11548572 0.94000006 1.6509483e-38
0.10392064 -0.1119835 0.94066668 1.7614802e-38
0.1548762 -0.11011429 0.94000006 4.5231056e-39
0.15738288 -0.11154667 0.94000006 5.0841631e-39
0.16137144 -0.11206224 0.94133329 1.8259726e-38
0.10496572 -0.10765715 0.94200003 1.668928e-38
0.15279278 -0.10765296 0.94040006 5.7176831e-39
0.15700001 -0.1079562 0.94200009 6.2708401e-39
0.16058858 -0.1085543 0.94200003 1.8536645e-38
0.10496572 -0.10496572 0.94200003 1.7339978e-38
0.10780255 -0.10422033 0.94066668 1.8345888e-38
0.11112668 -0.10126953 0.94100004 1.982964e-38
0.14413334 -0.10116191 0.94000006 4.7060689e-39
0.14781907 -0.10183048 0.94066668 4.8893461e-39
0.15210795 -0.10429334 0.94133341 4.6138354e-39
0.11251784 -0.09792573 0.94085723 1.9917151e-38
0.11548572 -0.095790483 0.94000006 1.0047583e-38
0.13876191 -0.095790483 0.94000006 3.6011451e-39
0.14214477 -0.097648904 0.94066668 5.0712431e-39
0.14623429 -0.099582866 0.94200003 3.7851874e-39
0.11393715 -0.093302861 0.94200003 1.7146235e-38
0.11714499 -0.092058346 0.94075 3.9666934e-39
0.12085715 -0.090419054 0.94000006 5.1659526e-39
0.13339049 -0.090419054 0.94000006 6.0875726e-39
0.13705526 -0.092265047 0.94057155 5.6276314e-39
0.14085144 -0.094200008 0.94200003 5.3518055e-39
0.11863746 -0.088156193 0.94133341 1.943814e-39
0.1229693 -0.087130249 0.94075006 3.7776498e-39
0.12810922 -0.086600006 0.94066668 5.9031618e-39
0.13238478 -0.088156208 0.94133341 5.9960763e-39
0.07493715 -0.16341716 0.94800007 1.8717088e-38
0.077583574 -0.16238645 0.94725013 5.3481817e-39
0.077645719 -0.15800002 0.94800007 4.4165719e-39
0.080784768 -0.15646479 0.9460001 7.0970582e-39
0.082930006 -0.15234146 0.94650006 1.4213304e-38
0.083965719 -0.14897144 0.94800007 1.7069561e-38
0.087104008 -0.14625715 0.94680005 2.0839109e-38
0.088547431 -0.1430103 0.94680005 2.0655794e-38
0.089382865 -0.13994287 0.94800007 2.0194101e-38
0.090900004 -0.13680001 0.94500005 1.8069322e-38
0.091800004 -0.1314 0.94500005 1.8725452e-38
0.093297154 -0.12665001 0.94650006 1.7060558e-38
0.094800003 -0.12369144 0.94800007 1.742894e-38
0.097805724 -0.1217747 0.9471429 1.7704108e-38
0.099403821 -0.11862477 0.9460001 1.8168666e-38
0.10120573 -0.11682287 0.9460001 1.761336e-38
0.10123601 -0.11314572 0.94740003 1.76166e-38
0.10297487 -0.10766401 0.94680005 1.7061645e-38
0.15806116 -0.10615373 0.94620007 7.9378625e-39
0.16110002 -0.10710001 0.94500005 1.8621309e-38
0.10780644 -0.10239215 0.94725013 1.8999508e-38
0.15202859 -0.10153144 0.94680005 4.9815348e-39
0.15709716 -0.10382858 0.94800007 8.6528232e-39
0.1107 -0.097200006 0.94500005 1.9734216e-38
0.14490001 -0.097200006 0.94500005 5.9939141e-39
0.14806174 -0.097924583 0.94680017 5.9935497e-39
0.1124362 -0.092896208 0.94700003 1.8814771e-38
0.13950001 -0.090900004 0.94500005 5.3560836e-39
0.1429206 -0.093176581 0.94620007 5.8138388e-39
0.14626287 -0.093897149 0.94800007 6.2744498e-39
0.11466286 -0.088480011 0.94800007 1.5673645e-38
0.11748525 -0.086836681 0.94650006 4.5116079e-39
0.12150001 -0.085500002 0.94500005 7.0004864e-39
0.13275 -0.085950002 0.94500005 4.9822817e-39
0.13739049 -0.088084772 0.94700003 4.8908105e-39
0.11827429 -0.083965719 0.94800007 5.5263708e-40
0.1217562 -0.082974285 0.94700003 4.4312294e-39
0.12716858 -0.082071431 0.94700009 4.2436712e-39
0.13227601 -0.083190292 0.94740003 5.0726724e-39
0.073285721 -0.16014287 0.95000005 1.7884887e-38
0.075095244 -0.16014287 0.95000005 1.825111e-38
0.073285721 -0.15742859 0.95000005 1.696362e-38
0.07566762 -0.15631573 0.95150006 1.3261837e-38
0.078880005 -0.1532248 0.95200008 3.8443082e-40
0.080523811 -0.15290478 0.95000005 6.1808599e-39
0.08244314 -0.1476758 0.95128584 1.3195934e-38
0.084320009 -0.14234477 0.95200008 1.9281147e-38
0.086404771 -0.14159524 0.95000005 2.0655083e-38
0.087898582 -0.13774049 0.95150012 2.010299e-38
0.089571431 -0.13480954 0.95000005 1.8901945e-38
0.093386672 -0.1223981 0.95200008 1.8262323e-38
0.095000006 -0.1212381 0.95000005 1.8076142e-38
0.093484767 -0.11799048 0.95300007 1.7247442e-38
0.096421912 -0.11687063 0.95128584 1.8073959e-38
0.098619051 -0.11400001 0.95000005 1.7703737e-38
0.10042858 -0.11128572 0.95000005 1.8811179e-38
0.098930486 -0.10982192 0.95300007 1.8448885e-38
0.10113747 -0.10778 0.95100009 1.8906616e-38
0.16285715 -0.10585715 0.95000005 1.8159992e-38
0.10404763 -0.10404763 0.95000005 1.7247446e-38
0.10692905 -0.10149334 0.95150006 1.8166899e-38
0.1547143 -0.10133334 0.95000005 4.2490242e-39
0.15792572 -0.10165334 0.95300007 9.8671591e-39
0.16223691 -0.10278787 0.95300007 1.6598778e-38
0.10910882 -0.097339764 0.95075005 1.8352004e-38
0.14928572 -0.095000006 0.95000005 5.4443388e-39
0.15201107 -0.09729258 0.95120013 5.1698987e-39
0.1561105 -0.098930486 0.95300007 5.9978671e-39
0.10982192 -0.092577145 0.95300007 1.9550898e-38
0.11128572 -0.091380961 0.95000005 1.9278617e-38
0.14385715 -0.091380961 0.95000005 4.8958229e-39
0.14771049 -0.092431433 0.95150006 5.1644967e-39
0.11323696 -0.087872766 0.95120013 1.5774151e-38
0.13842858 -0.085952386 0.95000005 3.6933617e-39
0.14195488 -0.08829011 0.95180005 4.7017613e-39
0.14612667 -0.089854293 0.95300007 4.6088412e-39
0.11490477 -0.084142864 0.95000005 1.3095786e-38
0.11713779 -0.082117461 0.95100009 5.1569619e-39
0.13694263 -0.082980722 0.95225006 4.8911622e-39
0.076858379 -0.15176532 0.95585728 8.4748976e-39
0.078119218 -0.14742398 0.95750016 3.8673371e-39
0.081074767 -0.14575097 0.95650005 8.2095421e-39
0.082140774 -0.14260973 0.95620006 1.4300129e-38
0.084328815 -0.13811643 0.95725012 1.9557368e-38
0.087452866 -0.13573191 0.95650005 1.945799e-38
0.088500962 -0.13320762 0.95800006 1.852737e-38
0.090883628 -0.13168286 0.95620006 1.8352709e-38
0.088500962 -0.12773335 0.95800006 1.6971952e-38
0.091023102 -0.12743263 0.95574999 1.7981774e-38
0.091362856 -0.1234581 0.95740014 1.6788291e-38
0.092660636 -0.1175762 0.95700014 1.8812254e-38
0.097116828 -0.1122908 0.95600003 1.8354513e-38
0.098737471 -0.10785176 0.95700014 1.7250333e-38
0.10095715 -0.1064143 0.95500004 1.8356665e-38
0.09944953 -0.10492381 0.95800006 1.862751e-38
0.10270882 -0.10270882 0.95650005 1.8532056e-38
0.10419392 -0.097989716 0.95800012 1.9365418e-38
0.10714191 -0.096955247 0.95500004 1.816904e-38
0.15370953 -0.095500007 0.95500004 3.3213492e-39
0.15751144 -0.097115889 0.95600003 7.9310733e-39
0.16098572 -0.099138103 0.95500004 1.5127255e-38
0.10492381 -0.093975246 0.95800006 2.0103347e-38
0.10754763 -0.092053339 0.95700014 1.8353815e-38
0.11005239 -0.090042867 0.95500004 1.6689292e-38
0.1482524 -0.090042867 0.95500004 5.6229637e-39
0.15190725 -0.092456572 0.95740014 3.8726929e-39
0.11104834 -0.087382153 0.95575011 1.4112513e-38
0.14370477 -0.087314293 0.95500004 5.9892519e-39
0.14677835 -0.087519288 0.95725012 6.7268002e-39
0.07413429 -0.15192953 0.96100003 1.3186172e-38
0.073676676 -0.14689572 0.96100003 1.198467e-38
0.076574929 -0.14613304 0.96100008 8.7331232e-39
0.074288577 -0.1430743 0.96300006 1.4943202e-38
0.078084767 -0.14220047 0.96175003 5.5307555e-39
0.081456199 -0.14003144 0.96100003 9.6032427e-39
0.077957146 -0.13848858 0.96300006 6.0616318e-39
0.082413815 -0.13735667 0.96150005 1.4673927e-38
0.083460003 -0.13482001 0.96300006 1.9551974e-38
0.086475246 -0.1325264 0.96157146 1.9089917e-38
0.087495722 -0.12689191 0.96200001 1.6140747e-38
0.088411912 -0.12231096 0.96200001 1.7615517e-38
0.090608574 -0.12172668 0.96100003 1.7888176e-38
0.08896286 -0.11831143 0.96300006 1.752618e-38
0.091113336 -0.11766858 0.96150005 1.7896051e-38
0.093615055 -0.11303335 0.96180004 1.7520464e-38
0.09610001 -0.11074381 0.96100003 1.7244606e-38
0.096872203 -0.10676058 0.96140003 1.8534965e-38
0.098947622 -0.10261334 0.96200001 1.9642022e-38
0.099968575 -0.099051431 0.96300006 1.9088136e-38
0.10210191 -0.097522862 0.96149999 1.8998084e-38
0.1605 -0.096300006 0.96300006 1.4112034e-38
0.1540651 -0.091218732 0.96100008 4.4283848e-39
0.15736821 -0.092881337 0.96180004 5.1741909e-39
0.073600009 -0.14076 0.96600002 1.7612197e-38
0.076360002 -0.14076 0.96600002 1.272371e-38
0.07371477 -0.13729095 0.96749997 1.7794077e-38
0.077459291 -0.1373993 0.96825004 8.6567188e-39
0.080562145 -0.13672501 0.96675003 2.607518e-39
0.072905719 -0.13012287 0.96900004 2.0007822e-38
0.078442864 -0.13381429 0.96900004 5.8922877e-39
0.082551032 -0.13205552 0.96771431 1.4582074e-38
0.08336477 -0.12766191 0.96900004 1.8910914e-38
0.085560009 -0.12788001 0.96600002 1.8629659e-38
0.083980009 -0.12458573 0.96900004 2.1575221e-38
0.08640229 -0.12214287 0.96719998 1.7704853e-38
0.088457152 -0.11702001 0.96750003 1.8164727e-38
0.091080002 -0.11500001 0.96600002 1.7519022e-38
0.089517146 -0.11351144 0.96900004 2.0382426e-38
0.091787629 -0.11204858 0.96700001 1.9086316e-38
0.093984291 -0.10965001 0.96750003 1.7980707e-38
0.095054291 -0.10705143 0.96900004 1.798323e-38
0.097413346 -0.10233334 0.96800005 1.9456197e-38
0.076834291 -0.13608001 0.97200006 1.0778998e-38
0.07436572 -0.13237715 0.97200006 1.5856546e-38
0.077456191 -0.13172191 0.97400004 7.9163106e-39
0.080537148 -0.13145143 0.97200006 4.631475e-39
0.081505239 -0.12688714 0.97250009 1.126666e-38
0.083679378 -0.12258732 0.97266674 1.9736009e-38
0.084413342 -0.11966287 0.97400004 2.1484459e-38
0.086598575 -0.11716239 0.97250009 2.0101545e-38
0.089005247 -0.11218429 0.97350001 2.0565041e-38
0.091645718 -0.11016001 0.97200006 1.9457619e-38
0.092942864 -0.10776573 0.97266674 1.8992699e-38
0.07722953 -0.12933621 0.97700012 6.0846439e-39
0.082192071 -0.12127208 0.97700012 1.4861535e-38
0.084673338 -0.11724001 0.97700006 2.1210042e-38
0.087154612 -0.11258763 0.97700012 2.0195911e-38
0.077466674 -0.13533334 0.98000002 9.7648573e-39
0.077466674 -0.13346668 0.98000002 8.7478551e-39
0.078400001 -0.12693334 0.98000002 2.6691821e-39
0.081200004 -0.126 0.98000002 9.2308322e-39
0.078480005 -0.12238954 0.98100007 2.7660483e-39
0.081324294 -0.12245096 0.98150003 1.1078306e-38
0.08247029 -0.11725429 0.98180008 1.4310165e-38
0.084933341 -0.11386667 0.98000002 1.8633623e-38
