# .PCD v0.7 - Point Cloud Data file format
VERSION 0.7
FIELDS x y z rgb
SIZE 4 4 4 4
TYPE F F F F
COUNT 1 1 1 1
WIDTH 561
HEIGHT 1
VIEWPOINT 0 0 0 1 0 0 0
POINTS 561
DATA ascii
-0.0397547 0.13381022 0.51900005 7.9334877e-39
-0.037281912 0.1335524 0.51800007 8.027484e-39
-0.034379829 0.13371196 0.51772738 7.7508915e-39
-0.031623241 0.13368344 0.51719999 7.8430997e-39
-0.028502859 0.13416001 0.51600003 7.8427298e-39
-0.025039209 0.13419318 0.51550007 7.9331248e-39
-0.022337623 0.13427526 0.51550007 7.6576337e-39
-0.018964525 0.13423833 0.51725 7.8420291e-39
-0.016165443 0.13419676 0.51885724 7.8423809e-39
-0.013469287 0.134075 0.51900005 7.4750333e-39
-0.010577715 0.13454458 0.51900005 7.6587197e-39
-0.0084028579 0.13494001 0.51900005 7.5661429e-39
-0.039754696 0.13691716 0.51900005 8.3029765e-39
-0.037333746 0.13698301 0.51871437 8.2104389e-39
-0.034835953 0.13626644 0.51700002 8.3941113e-39
-0.031957041 0.13618414 0.51622224 8.1178747e-39
-0.028502859 0.13612571 0.51599997 7.841634e-39
-0.025182996 0.13629293 0.51557153 7.565766e-39
-0.02199143 0.13624859 0.51600003 7.473611e-39
-0.019173546 0.13618414 0.5162223 7.6576421e-39
-0.016255345 0.1364473 0.51722223 7.5672401e-39
-0.013316932 0.13662319 0.5178889 7.3828376e-39
-0.010370477 0.1367999 0.51855564 6.6449027e-39
-0.0079085715 0.13691716 0.51900005 5.2583935e-39
-0.037071433 0.13988288 0.51900005 8.3955532e-39
-0.034544926 0.13965921 0.51816672 8.303722e-39
-0.03163559 0.1393847 0.51681828 8.1196754e-39
-0.028224668 0.13905726 0.51630002 7.8416508e-39
-0.025062859 0.1390743 0.51600003 7.7494594e-39
-0.022114286 0.13907428 0.51600003 7.8423809e-39
-0.019177673 0.13916455 0.5163334 7.5665114e-39
-0.016248574 0.13934381 0.51700002 7.4732382e-39
-0.013310795 0.13952415 0.5176667 5.3545422e-39
-0.010377567 0.13985313 0.51888895 2.7684165e-39
-0.0079085715 0.13889429 0.51900005 3.2250954e-39
-0.036947861 0.14284858 0.51900005 8.9498046e-39
-0.034213338 0.14277977 0.51875007 9.3171312e-39
-0.031234955 0.14238124 0.51730007 8.21295e-39
-0.028054079 0.14223714 0.51677781 8.67178e-39
-0.025166003 0.14224696 0.51610005 7.5647178e-39
-0.022114288 0.14251429 0.51599997 5.6285927e-39
-0.019189844 0.14220636 0.51666671 5.0739938e-39
-0.01626233 0.14242107 0.51744449 3.0464243e-39
-0.013336721 0.14275725 0.51866674 2.4914526e-39
-0.010709524 0.14251906 0.51900005 1.7542617e-39
-0.036930211 0.14553185 0.51900005 6.2732699e-39
-0.034105718 0.14581431 0.51900005 4.6123319e-39
-0.031127091 0.14575188 0.51877785 4.1534823e-39
-0.028096087 0.14540911 0.51755553 3.5992099e-39
-0.024994407 0.14541084 0.51712501 2.4006667e-39
-0.022171116 0.14583907 0.51733339 1.3897602e-39
-0.019231746 0.14547218 0.51777774 2.6736831e-39
-0.016304234 0.1457523 0.51877785 2.0315521e-39
-0.013628165 0.14567308 0.51900005 1.8478853e-39
-0.033364289 0.14853287 0.51900005 1.850416e-39
-0.031133546 0.14874835 0.51888895 2.9517133e-39
-0.028125819 0.14852585 0.51811117 3.0424726e-39
-0.025165398 0.14852564 0.51811111 2.8584401e-39
-0.022228574 0.14868508 0.51866674 2.0344121e-39
-0.019277142 0.14878002 0.51900005 2.4903764e-39
-0.016311431 0.14878 0.51900005 1.6631521e-39
-0.03114 0.15174572 0.51900005 3.0446208e-39
-0.028168255 0.15171324 0.51888895 2.2173867e-39
-0.025208576 0.15174572 0.51900005 3.2264813e-39
-0.022242859 0.15174574 0.51900005 2.1233665e-39
-0.019277142 0.15174571 0.51900005 1.7510415e-39
-0.016593879 0.1516045 0.51900005 1.1085266e-39
-0.030942289 0.1541183 0.51900005 1.1106874e-39
-0.028174285 0.15471144 0.51900005 3.1310767e-39
-0.025538098 0.15438193 0.51900005 2.486436e-39
-0.022242859 0.15397 0.51900005 4.8762973e-39
-0.019030001 0.15397002 0.51900005 1.0583773e-38
-0.027680002 0.15668859 0.51900005 1.7967306e-38
-0.045240004 0.12876001 0.52200001 8.304466e-39
-0.046166316 0.13102943 0.52262503 7.6594329e-39
-0.043437861 0.13130501 0.52125001 7.290621e-39
-0.011456192 0.13199525 0.523 7.4739683e-39
-0.046245191 0.13376011 0.52211112 8.0267567e-39
-0.043113973 0.13330446 0.52033335 7.8438074e-39
-0.041104764 0.13420953 0.52000004 8.0267707e-39
-0.035229526 0.13248287 0.52100003 7.9348722e-39
-0.012689525 0.13286239 0.52250004 7.0162187e-39
-0.010684525 0.13341691 0.52174997 7.6579994e-39
-0.0074326987 0.13429557 0.52033341 7.106978e-39
-0.004465715 0.13446763 0.52100003 5.5332596e-39
-0.0021600001 0.13473716 0.52333337 5.7162454e-39
-0.046303816 0.13691841 0.5227778 8.3933882e-39
-0.04315101 0.13639441 0.52077776 8.1168252e-39
-0.041104764 0.13569525 0.52000004 8.0256973e-39
-0.00668881 0.13600788 0.52025008 5.4424443e-39
-0.0044643385 0.13642287 0.52088886 4.6999186e-39
-0.0014940742 0.13670149 0.52322227 5.5315066e-39
-0.048407622 0.13923429 0.52400005 8.0260154e-39
-0.046118096 0.13935097 0.52350003 7.7508845e-39
-0.043148808 0.13964024 0.52225 7.6587043e-39
-0.040278368 0.13952166 0.52028579 8.1203915e-39
-0.0070348578 0.139612 0.52020001 2.8534599e-39
-0.0044715349 0.13963896 0.52177781 4.7924702e-39
-0.0014940741 0.13969176 0.52322221 6.2672695e-39
-0.043030165 0.14254573 0.52333337 8.3955462e-39
-0.040201485 0.14243768 0.52111113 8.3044212e-39
-0.038133334 0.14312382 0.52000004 8.9487284e-39
-0.0094095245 0.14312382 0.52000004 1.8457105e-39
-0.0074326992 0.14222445 0.52033335 2.1205597e-39
-0.0046034525 0.14272632 0.52262503 5.9931405e-39
-0.0016948574 0.14231925 0.52360004 6.4520167e-39
-0.043126911 0.14558214 0.52350003 7.5639947e-39
-0.040261697 0.1456323 0.52188897 7.2870449e-39
-0.012380953 0.14609525 0.52000004 2.123033e-39
-0.010280953 0.14529882 0.52025002 1.6638471e-39
-0.0074533341 0.14560148 0.52177781 1.4766e-39
-0.0048174607 0.14553621 0.52333331 9.3164347e-39
-0.0019961908 0.14422478 0.52400005 6.6360409e-39
-0.043030165 0.14885905 0.52333337 1.8507565e-39
-0.040337358 0.14889906 0.52288896 2.3092124e-39
-0.037320949 0.14841454 0.52074999 2.4943421e-39
-0.034831755 0.14873652 0.5200001 2.0348031e-39
-0.013229933 0.14835921 0.52000004 1.3872603e-39
-0.010419366 0.14836159 0.52099997 1.7542561e-39
-0.0075883335 0.14866406 0.52250004 8.9397825e-39
-0.0051533338 0.14812288 0.52366674 1.3737513e-38
-0.043001719 0.15135334 0.52380008 2.7691129e-39
-0.040345717 0.15191907 0.523 3.2275729e-39
-0.03726254 0.15153238 0.52166671 3.0431578e-39
-0.034312148 0.1512443 0.52025002 2.6765543e-39
-0.015352382 0.15203811 0.52000004 3.8664207e-39
-0.013371428 0.15104762 0.52000004 3.7807649e-39
-0.010440952 0.15166107 0.52211112 1.2815187e-38
-0.0078079365 0.15151715 0.52333337 1.5303411e-38
-0.042918097 0.15320763 0.52400005 2.8595023e-39
-0.04022599 0.15470737 0.52328575 2.1244666e-39
-0.037325822 0.15477641 0.52255559 1.6634884e-39
-0.034230478 0.15428276 0.52088892 1.5731075e-39
-0.032190479 0.15500954 0.52000004 6.482743e-40
-0.024266668 0.15500954 0.52000004 5.615017e-40
-0.022285715 0.15500954 0.52000004 7.0861702e-39
-0.019809525 0.15500954 0.52000004 1.4653665e-38
-0.016201362 0.15430206 0.52000004 1.3735711e-38
-0.013390794 0.15425006 0.52077776 1.5762946e-38
-0.010578572 0.15470953 0.52274996 1.520548e-38
-0.0084838104 0.15420572 0.52400005 1.4007308e-38
-0.039732382 0.15710001 0.52366674 5.2468664e-39
-0.037225306 0.15765472 0.52314293 7.5510327e-39
-0.034325611 0.15769537 0.52233338 8.6616991e-39
-0.031213548 0.157058 0.52022225 1.1793827e-38
-0.028228577 0.15814605 0.52000004 1.6871811e-38
-0.025133334 0.1571143 0.52000004 1.6499401e-38
-0.022299791 0.15709156 0.52033335 1.7235912e-38
-0.019318625 0.15702422 0.52011114 1.668598e-38
-0.016370371 0.15725949 0.52088886 1.5665729e-38
-0.013434074 0.15772912 0.52244455 1.4744503e-38
-0.010466033 0.15766414 0.52333337 1.4191684e-38
-0.0084838104 0.15720001 0.52400005 1.4006937e-38
-0.037228953 0.16019429 0.52400011 1.6866418e-38
-0.034235921 0.1606441 0.52314287 1.8244665e-38
-0.031346884 0.16071494 0.52244443 1.759788e-38
-0.028455921 0.16072969 0.52157152 1.6309301e-38
-0.025354289 0.16057843 0.52200001 1.557534e-38
-0.022385294 0.16068074 0.52233332 1.5021805e-38
-0.019400952 0.16068098 0.52233332 1.5112561e-38
-0.016429948 0.16081683 0.5227778 1.5112191e-38
-0.013597961 0.16068803 0.52328581 1.46523e-38
-0.01047562 0.16013315 0.52380008 1.4559394e-38
-0.0084838104 0.15969524 0.52400005 1.4007301e-38
-0.034425177 0.1631441 0.52385724 1.5574267e-38
-0.031263217 0.16378799 0.52312505 1.6032372e-38
-0.028367305 0.16373472 0.52255559 1.5757933e-38
-0.025527382 0.16374883 0.523 1.5390226e-38
-0.022556599 0.16358872 0.523 1.5116164e-38
-0.019425716 0.16387336 0.523 1.5022177e-38
-0.016588164 0.16367824 0.52328575 1.5021089e-38
-0.013673904 0.16298896 0.52400011 1.4561904e-38
-0.033436194 0.16518477 0.52400005 1.5851577e-38
-0.031068256 0.16646954 0.52333337 1.5575707e-38
-0.02839143 0.16686192 0.523 1.5758296e-38
-0.025418414 0.16663557 0.52333337 1.5666098e-38
-0.022332381 0.16630763 0.52400011 1.5300196e-38
-0.019462859 0.16668193 0.52400011 1.502146e-38
-0.016634922 0.16618286 0.52400011 1.4929972e-38
-0.030940954 0.1686781 0.52400005 1.5667184e-38
-0.028234858 0.16951184 0.52380008 1.5759371e-38
-0.025287485 0.16932341 0.52357149 1.5576422e-38
-0.022599733 0.16889198 0.52400011 1.5300191e-38
-0.019462859 0.1686781 0.52400011 1.5116514e-38
-0.016718097 0.16842857 0.52400005 1.4930685e-38
-0.024702858 0.17192191 0.52400005 1.5391682e-38
-0.048869528 0.1264562 0.52900004 8.3040919e-39
-0.046854287 0.1264562 0.52900004 8.0260603e-39
-0.049161334 0.13099334 0.52780002 8.0271154e-39
-0.047346354 0.13032795 0.52700007 8.1204027e-39
-0.037284765 0.13112333 0.52550006 8.579213e-39
-0.00050380954 0.1314943 0.52900004 4.9808537e-39
0.0010076191 0.1314943 0.52900004 5.3481985e-39
-0.049389668 0.13354206 0.52685714 7.8427242e-39
-0.013500001 0.13250001 0.52500004 7.6597791e-39
-0.0014121215 0.13316122 0.52618182 4.980488e-39
0.0014078098 0.13335583 0.52759999 5.6236994e-39
0.0043327622 0.1341141 0.52900004 5.6251203e-39
-0.049851548 0.13623822 0.52737498 8.118595e-39
0.0015075135 0.13637862 0.52711111 5.8062984e-39
0.004534286 0.13653238 0.5290001 5.6229875e-39
0.0072212704 0.13619652 0.52900004 5.5322212e-39
-0.049287051 0.13882688 0.52700001 7.9341869e-39
-0.047045242 0.14063382 0.52550006 8.0271126e-39
0.0015088891 0.1395383 0.52766663 5.6233351e-39
0.00386254 0.1388835 0.52900004 5.8991989e-39
-0.048959289 0.14210644 0.52724999 7.8441605e-39
-0.046464048 0.14264643 0.52600002 8.3029863e-39
-0.044500005 0.14300001 0.52500004 8.1182489e-39
0.0015104763 0.14180477 0.528 5.3481901e-39
-0.049180191 0.14552763 0.52800006 8.2126095e-39
-0.046622742 0.14537965 0.526375 8.4881104e-39
-0.044500005 0.146 0.52500004 8.0256931e-39
-0.0035000003 0.146 0.52500004 9.2182163e-39
-0.0013593199 0.14610274 0.5261429 5.6251259e-39
0.00050190481 0.1460543 0.52700001 5.5336632e-39
-0.049342543 0.14853048 0.52866673 2.8598834e-39
-0.046658307 0.14833367 0.52677774 3.5974302e-39
-0.044500005 0.148 0.52500004 2.9513532e-39
-0.003902667 0.14881353 0.5254001 1.1240373e-38
-0.001646803 0.14865798 0.52657145 4.979402e-39
0.00050333334 0.14898714 0.52850002 5.8088039e-39
-0.048869528 0.15114287 0.52900004 2.8577142e-39
-0.046814881 0.15123442 0.52712494 3.5949009e-39
-0.044500005 0.15150002 0.52500004 2.1251686e-39
-0.0065000006 0.15200001 0.52500004 1.4650517e-38
-0.0046341666 0.15169942 0.52612501 1.1978651e-38
-0.0013802382 0.15119882 0.52700001 5.8974108e-39
0.00050380954 0.15164667 0.52900004 6.1750767e-39
-0.046663098 0.15432477 0.52825004 2.9513448e-39
-0.04355048 0.15467659 0.52560008 2.4928861e-39
-0.0072216336 0.15481129 0.52557153 1.4189904e-38
-0.004370749 0.15428777 0.52671432 1.0871603e-38
-0.0015066668 0.15424742 0.52755553 5.5300646e-39
0.00050380954 0.15466955 0.52900004 6.0839545e-39
-0.046307147 0.15754335 0.52850002 3.314012e-39
-0.043638732 0.15733081 0.52666664 4.3252787e-39
-0.041147433 0.15788001 0.52560008 6.9024305e-39
-0.0072234021 0.15771431 0.52571434 1.4098422e-38
-0.004517884 0.15712954 0.52711111 1.1057786e-38
-0.0016352382 0.1574181 0.52850002 5.5307849e-39
0.0015114287 0.15769239 0.52900004 6.1754172e-39
-0.046307147 0.16056335 0.52850008 1.8158932e-38
-0.043791194 0.16023311 0.52700001 1.7790157e-38
-0.040434562 0.16051975 0.52600002 1.8250776e-38
-0.038166672 0.16083334 0.52500004 1.9439985e-38
-0.010000001 0.16150001 0.52500004 1.4466485e-38
-0.0073419055 0.16070382 0.52566671 1.4190971e-38
-0.0045217993 0.16031058 0.52766669 1.077905e-38
-0.002267143 0.16046335 0.52900004 5.1620066e-39
-0.045846671 0.16273049 0.52900004 1.7413884e-38
-0.043721803 0.16332583 0.52766663 1.6492644e-38
-0.040645927 0.16341884 0.52688891 1.6217485e-38
-0.0375163 0.16356903 0.5252223 1.5666469e-38
-0.035500001 0.16450001 0.52500004 1.6034892e-38
-0.012833335 0.16416667 0.52500004 1.4378236e-38
-0.010508678 0.16363907 0.52544451 1.4375372e-38
-0.0073825857 0.16336194 0.52685714 1.4191681e-38
-0.0046576192 0.163535 0.52875006 1.0874117e-38
-0.0025190478 0.16273049 0.52900004 5.3460321e-39
-0.04319448 0.16643411 0.52860004 1.6402943e-38
-0.040789887 0.16629586 0.52712494 1.6036311e-38
-0.037408441 0.16644056 0.52571434 1.6127086e-38
-0.03464143 0.16670477 0.52525002 1.6035615e-38
-0.032530956 0.16715953 0.52550006 1.5392398e-38
-0.015500001 0.16700001 0.52500004 1.48367e-38
-0.013511007 0.1666414 0.52544451 1.437859e-38
-0.010533016 0.16652732 0.5266667 1.4285676e-38
-0.007535662 0.16630605 0.52755558 1.4007288e-38
-0.0055419053 0.16625716 0.52900004 1.2627242e-38
-0.040791858 0.16971292 0.5287779 1.6035608e-38
-0.037777502 0.16930775 0.527125 1.6035964e-38
-0.034642704 0.16969763 0.52716666 1.6402938e-38
-0.031811431 0.16982239 0.52600002 1.5760809e-38
-0.029500002 0.17050001 0.52500004 1.5665743e-38
-0.022 0.17050001 0.52500004 1.5576758e-38
-0.0195 0.17050001 0.52500004 1.566717e-38
-0.016312191 0.17022991 0.5254001 1.4930332e-38
-0.013519577 0.16975133 0.52577782 1.4836687e-38
-0.010641811 0.16937459 0.52710003 1.4376075e-38
-0.0081523824 0.16939048 0.52840006 1.391582e-38
-0.04053786 0.17196977 0.52875006 1.6220345e-38
-0.037732385 0.17243692 0.52824998 1.6311832e-38
-0.034697782 0.17248064 0.528 1.6678805e-38
-0.03175322 0.17231987 0.527125 1.5668247e-38
-0.028548466 0.1727923 0.52588892 1.5576772e-38
-0.026110098 0.17276573 0.52520007 1.5666825e-38
-0.022504551 0.17253672 0.52511114 1.5390586e-38
-0.019658778 0.17235538 0.52542865 1.5113654e-38
-0.016547143 0.17249191 0.52649999 1.4838509e-38
-0.01354254 0.17254636 0.52666664 1.4836346e-38
-0.010421311 0.17240132 0.52737498 1.4192417e-38
-0.0081617152 0.17260516 0.52900004 1.4192781e-38
-0.040304765 0.17582953 0.52900004 1.6128501e-38
-0.038793337 0.17532572 0.52900004 1.5761536e-38
-0.034129526 0.17516476 0.52700001 1.6494781e-38
-0.031508002 0.1752985 0.52679998 1.6035954e-38
-0.028679527 0.17570905 0.52600002 1.6126719e-38
-0.025516191 0.17561208 0.5253334 1.5850142e-38
-0.022549687 0.17538905 0.52616668 1.5666824e-38
-0.019448332 0.17529048 0.52699995 1.5390235e-38
-0.01658381 0.17538698 0.52766663 1.5112565e-38
-0.01368381 0.17512262 0.52724999 1.4837782e-38
-0.010546032 0.17427111 0.52733338 1.4100947e-38
-0.0082288897 0.17549366 0.52900004 1.3917981e-38
-0.031590641 0.17783955 0.52649999 1.7602555e-38
-0.028433608 0.17826928 0.52642858 1.8616348e-38
-0.025556352 0.17839539 0.52616668 1.8985831e-38
-0.022585714 0.17817621 0.52700001 1.8341188e-38
-0.019834049 0.1775074 0.52725005 1.7325611e-38
-0.016569842 0.17825092 0.52722222 1.9075517e-38
-0.014592065 0.17862764 0.52833337 1.9538282e-38
-0.052088574 0.12592286 0.53100002 8.1178579e-39
-0.051835716 0.12819858 0.53100002 8.5763306e-39
-0.049971435 0.12770477 0.53000003 8.6703493e-39
-0.046957307 0.12825 0.53016669 8.2108103e-39
-0.043106195 0.12830715 0.53250003 8.4866811e-39
-0.055006828 0.13093382 0.53149998 8.1182685e-39
-0.052320953 0.13069403 0.53042865 7.8423893e-39
-0.049787622 0.13037848 0.5302 8.3015598e-39
-0.045852382 0.12995952 0.53200001 8.3959204e-39
-0.042781591 0.12970033 0.53266668 8.7632498e-39
-0.040590718 0.12988929 0.53275001 8.3033618e-39
-0.037857145 0.12972382 0.53000003 7.9352912e-39
-0.00076142862 0.13071048 0.53300005 5.3474712e-39
0.0013498412 0.13088667 0.53200006 5.4385921e-39
0.0045546037 0.13156763 0.53133339 5.5311464e-39
0.0071066674 0.13147335 0.53300005 5.0737556e-39
-0.057253338 0.13224001 0.53200001 7.9356485e-39
-0.05489691 0.13281167 0.53125 8.303366e-39
-0.052495241 0.13376193 0.53000003 8.1186132e-39
-0.050980955 0.13325715 0.53000003 8.1189537e-39
0.0047978573 0.1330674 0.53025001 5.441113e-39
0.007078453 0.13347562 0.53087503 5.4414619e-39
-0.054111432 0.13603716 0.53100002 8.0274391e-39
-0.052495241 0.1367905 0.53000003 7.9356443e-39
-0.051990479 0.13880953 0.53000003 7.8423767e-39
-0.050980955 0.13931429 0.53000003 8.025319e-39
0.0042063496 0.14049208 0.53000009 6.0832314e-39
-0.052042451 0.14266287 0.53200001 8.1185936e-39
-0.050018575 0.14298144 0.53050005 8.1200187e-39
0.0018507938 0.14251113 0.53000009 5.0733983e-39
-0.054366194 0.14633095 0.53350008 7.2917266e-39
-0.052326787 0.14532107 0.532125 8.5795928e-39
-0.05064445 0.1458762 0.53000009 8.6714199e-39
-0.054315243 0.14771715 0.53300005 4.7066617e-39
-0.052607026 0.14871393 0.53112501 2.9528147e-39
-0.050980955 0.14890477 0.53000009 2.5825875e-39
0.0020190477 0.14890477 0.53000003 5.9009996e-39
-0.054315243 0.15228572 0.53300005 2.5829252e-39
-0.052154288 0.1519051 0.5316667 2.3074215e-39
-0.049634926 0.15193334 0.53000009 2.7647997e-39
0.0020206352 0.15152352 0.53033334 5.9928351e-39
0.0042779595 0.15126112 0.53271431 6.1768704e-39
-0.054315243 0.1543162 0.53300005 3.2257638e-39
-0.052197777 0.15456583 0.53211111 2.1244596e-39
-0.049661908 0.15444516 0.53100008 2.7666018e-39
-0.047952384 0.15597144 0.53000003 3.2265093e-39
0.0020931975 0.1547977 0.53042859 5.9006394e-39
0.0043146433 0.15440583 0.532875 5.6251526e-39
-0.054417148 0.15664001 0.53400004 1.3865288e-39
-0.052126538 0.15753743 0.53285718 1.4769335e-39
-0.049653336 0.15757334 0.53200006 1.7531645e-39
-0.047952384 0.15748572 0.53000003 8.3124324e-40
0.0018507938 0.15731747 0.53000009 6.2676171e-39
0.0035466668 0.15656 0.53200001 5.8084508e-39
-0.051874287 0.16020001 0.53400004 9.8598779e-39
-0.049160961 0.1606562 0.53214294 1.566709e-38
-0.047952384 0.15900001 0.53000003 9.0221256e-39
-0.00075738097 0.16033787 0.53025007 5.898487e-39
0.0013891668 0.16024965 0.530375 5.6233295e-39
-0.048963577 0.16337501 0.53275001 1.6683142e-38
-0.04694286 0.16329049 0.53000003 1.6494089e-38
-0.0012273471 0.16349049 0.53100002 5.5311394e-39
0.0013932143 0.16348918 0.53187501 6.0821482e-39
-0.048133336 0.16669336 0.53200001 1.6310761e-38
-0.046540797 0.16643286 0.53116673 1.6402229e-38
-0.044923812 0.16657144 0.53000003 1.6218195e-38
-0.0039411429 0.16645734 0.53060001 9.2106577e-39
-0.0016636736 0.16640408 0.53200006 5.7137342e-39
0.0013220954 0.16644402 0.53380007 6.358012e-39
-0.048648763 0.16991277 0.53320003 1.6127103e-38
-0.046190478 0.16970025 0.53150004 1.6037047e-38
-0.043746036 0.16909525 0.53000003 1.6219996e-38
-0.0065619051 0.16960001 0.53000003 1.4101636e-38
-0.0045532277 0.16952108 0.53133339 1.013332e-38
-0.001521143 0.16948019 0.53280002 5.4393039e-39
0.0010171429 0.16833715 0.53400004 6.2676255e-39
-0.048701592 0.1724816 0.53266674 1.6036688e-38
-0.046049524 0.17255683 0.53133339 1.6312912e-38
-0.043409526 0.17212383 0.53000003 1.6220352e-38
-0.041390479 0.17313334 0.53000003 1.6313231e-38
-0.0068173814 0.17195311 0.53025001 1.4285666e-38
-0.0046840478 0.17256573 0.53175002 1.0132227e-38
-0.0015223812 0.17230557 0.53316677 6.2683261e-39
-0.048133336 0.17480001 0.53200001 1.6403314e-38
-0.045915715 0.17543882 0.53125006 1.6404034e-38
-0.043409526 0.17515241 0.53000003 1.6220711e-38
-0.041029938 0.17486396 0.53000003 1.6312536e-38
-0.0070697623 0.17472976 0.53025001 1.4099853e-38
-0.0042306352 0.17535321 0.53316671 9.1191754e-39
-0.0025380955 0.17411335 0.53300005 6.638189e-39
-0.04069886 0.17764248 0.5302 1.6220337e-38
-0.038361907 0.17717144 0.53000003 1.5943753e-38
-0.043080479 0.12872715 0.53850007 8.7625505e-39
-0.04052826 0.128767 0.53866673 8.1182293e-39
0.0025666668 0.12884668 0.53900003 5.166317e-39
-0.0408381 0.12915048 0.53600001 8.2111564e-39
-0.003566667 0.12992857 0.53500003 6.0854062e-39
-0.001703016 0.12987033 0.53616673 5.2567148e-39
0.001824626 0.13012885 0.53642863 5.3474684e-39
0.0039803814 0.13032667 0.53580004 5.8070117e-39
0.0066361907 0.14599621 0.53600001 5.7148146e-39
0.0056152386 0.14956953 0.53600001 5.9949888e-39
0.0071671433 0.14845189 0.53749996 6.0839545e-39
-0.05610048 0.15249 0.53550005 2.7683912e-39
0.0056100003 0.15095952 0.53550005 5.8109563e-39
0.0074013611 0.15116628 0.53857154 6.1764948e-39
0.0097533343 0.15040667 0.53900003 5.8080851e-39
-0.055538099 0.15336667 0.53500003 2.7673122e-39
0.0056047621 0.15336667 0.53500003 5.717344e-39
0.0066609527 0.1537143 0.53800005 5.7169754e-39
-0.05451905 0.15846191 0.53500003 3.219629e-39
0.0045857145 0.15744287 0.53500003 5.9910498e-39
-0.054876193 0.16054478 0.53600001 1.2345837e-38
-0.05329524 0.16090524 0.53550005 1.2631821e-38
-0.055098414 0.16358796 0.53733337 1.6960067e-38
-0.052439407 0.16369729 0.53587502 1.6776771e-38
-0.05013461 0.16433907 0.5353334 1.6494079e-38
0.0035733336 0.16386287 0.53600001 5.9913973e-39
-0.054824766 0.16703621 0.53800005 1.5852291e-38
-0.052838374 0.16655104 0.53714293 1.5851211e-38
-0.049995881 0.16682193 0.5356667 1.6126731e-38
0.0025500001 0.1672805 0.53550005 6.2665479e-39
0.0039244448 0.16700065 0.53733337 6.1739963e-39
-0.054926671 0.16940001 0.53900003 1.594233e-38
-0.0527981 0.1696686 0.53822225 1.6034876e-38
-0.05013461 0.16909716 0.5353334 1.6217486e-38
0.0015304763 0.16979793 0.53540009 6.1757872e-39
0.0042040003 0.16925125 0.53820002 6.2676311e-39
-0.052483544 0.1726716 0.53800005 1.6310045e-38
-0.050513577 0.17245978 0.53575003 1.6218567e-38
0.0013636509 0.17219065 0.53650004 6.3605302e-39
-0.052552193 0.17486154 0.53780001 1.6494429e-38
-0.05002667 0.17509334 0.53600001 1.6218924e-38
-0.0013842179 0.1755826 0.53571433 6.9119033e-39
0.0015339685 0.17531113 0.53666669 6.6367555e-39
-0.040929526 0.12589715 0.54400003 8.3955518e-39
-0.011398096 0.12589715 0.54400003 7.470402e-39
0.0010361905 0.12589715 0.54400003 5.8059369e-39
-0.043373816 0.12753668 0.54216671 8.5774264e-39
-0.040787414 0.12752329 0.54211122 8.2122312e-39
-0.037889171 0.12789203 0.54312509 7.8445221e-39
-0.025362384 0.12836906 0.54350007 8.0271182e-39
-0.018133335 0.12693334 0.54400003 7.1948675e-39
-0.016203176 0.12738858 0.54300004 7.7494664e-39
-0.013824168 0.12777442 0.54262501 8.0260407e-39
-0.010854921 0.12768097 0.54277784 7.7491048e-39
-0.0077571436 0.12825048 0.5430001 6.9165234e-39
-0.0046559526 0.12831023 0.54325008 5.6226106e-39
-0.0014038098 0.12799567 0.54285717 5.4393039e-39
0.001419524 0.1276862 0.54225004 4.9826362e-39
-0.026325716 0.12956382 0.54200006 8.2111438e-39
-0.013420952 0.12956382 0.54200006 7.8420151e-39
-0.0039542862 0.12940192 0.54133338 5.7158922e-39
-0.0015476191 0.12948415 0.54166675 5.2559959e-39
0.0010295239 0.12932476 0.54100001 4.9833508e-39
0.0087428577 0.15222858 0.54000002 5.8095032e-39
0.010285715 0.1517143 0.54000002 5.6251245e-39
0.0082285721 0.15480003 0.54000002 5.6255029e-39
0.010707144 0.15439929 0.54175001 5.258514e-39
0.012928572 0.15462573 0.54300004 5.1666701e-39
0.0087428577 0.15685715 0.54000002 5.9010066e-39
0.010706191 0.15736526 0.54175001 5.898494e-39
-0.057297148 0.17085905 0.54200006 1.6036681e-38
-0.056264766 0.17085905 0.54200006 1.6311826e-38
0.0051428573 0.17022859 0.54000002 6.3601868e-39
-0.05767715 0.17268604 0.54233336 1.6127454e-38
-0.055381779 0.1724675 0.54057145 1.6310402e-38
0.0025714287 0.1733143 0.54000002 6.3594498e-39
0.0047659525 0.17273477 0.54100001 6.4530901e-39
0.0067042862 0.17328048 0.54150003 6.6371044e-39
-0.054890797 0.17548034 0.54033339 1.6219635e-38
0.0025761907 0.17466572 0.54100001 6.5449102e-39
0.0046474608 0.17555891 0.54216671 6.63748e-39
-0.030848574 0.12287144 0.54900002 7.7502091e-39
-0.029253336 0.12223762 0.54850006 7.8409571e-39
-0.045405716 0.12577906 0.54800004 8.488088e-39
-0.04341941 0.12477893 0.54762506 8.3026205e-39
-0.040337622 0.12517428 0.54650003 8.2104333e-39
-0.037018575 0.12514144 0.54750001 8.2093501e-39
-0.034720577 0.1252238 0.54740006 8.1182209e-39
-0.031823285 0.12468382 0.54777783 7.7505482e-39
-0.028710375 0.12476032 0.54811114 8.0271239e-39
-0.025590833 0.1249506 0.54837507 7.8427424e-39
-0.022963811 0.12577906 0.54800004 7.84235e-39
-0.018625716 0.125507 0.54833341 7.749472e-39
-0.015988002 0.12528935 0.54860008 7.3821692e-39
-0.013557144 0.12514144 0.54750001 7.0101609e-39
-0.010913968 0.1252435 0.54566669 6.6370946e-39
-0.0012184129 0.12543049 0.54800004 5.530066e-39
0.0010404763 0.12543476 0.54650003 6.4498615e-39
-0.043080956 0.12612858 0.54500002 8.3948274e-39
-0.039520003 0.12636001 0.546 8.4874168e-39
-0.03724413 0.12662891 0.54566669 8.3040667e-39
-0.034681775 0.12706926 0.54585719 8.211148e-39
-0.03177746 0.12763271 0.54699999 8.0267721e-39
-0.028529646 0.12753132 0.54712504 8.4859244e-39
-0.025604408 0.1272399 0.54587501 8.1185936e-39
-0.022279622 0.1273303 0.54660004 7.659056e-39
-0.019484129 0.12724501 0.54633337 7.2892071e-39
-0.016410477 0.12633 0.54700005 7.5654493e-39
-0.013508096 0.12624431 0.54550004 7.5661695e-39
-0.0098619051 0.12612858 0.54500002 7.005517e-39
-0.0078234933 0.12726668 0.54766673 6.2679604e-39
-0.0045647621 0.127285 0.54775006 5.0719592e-39
-0.0019114286 0.12676382 0.54700005 5.5300576e-39
-0.031778097 0.12971716 0.54700005 8.2100886e-39
-0.018703334 0.12936144 0.54550004 7.4743102e-39
-0.027761906 0.12204763 0.55000001 8.3912611e-39
-0.00580381 0.12293524 0.55400002 5.6219015e-39
-0.045737147 0.12406667 0.55200005 8.117111e-39
-0.04341143 0.12391715 0.55250001 8.1171545e-39
-0.040459596 0.12452818 0.55171436 8.2104319e-39
-0.038377147 0.12459429 0.55200005 8.2104347e-39
-0.027761906 0.12309524 0.55000001 8.2090096e-39
-0.026046988 0.12359366 0.55066669 7.7505482e-39
-0.022457505 0.12463894 0.55162501 7.7505244e-39
-0.019778732 0.12461715 0.55133337 8.4855979e-39
-0.016238097 0.12414287 0.55000007 7.3789575e-39
-0.012844763 0.12451763 0.55050004 5.9009743e-39
-0.010485715 0.12477954 0.55050004 5.0716158e-39
-0.0077341506 0.12489389 0.55200005 5.6222701e-39
-0.0047280425 0.12449227 0.55155557 5.6211883e-39
-0.002270794 0.12456731 0.55033338 5.4364439e-39
-0.0078612706 0.12631463 0.55033338 5.7151734e-39
-0.0052380953 0.12623811 0.55000001 5.7148146e-39
-0.049452703 0.11911081 0.5583334 5.5282345e-39
-0.047381908 0.11978572 0.55900002 5.8977387e-39
-0.051893335 0.12125968 0.55600005 6.4577368e-39
-0.049314395 0.12143016 0.55677783 7.101995e-39
-0.046160851 0.12150223 0.55711114 7.5618928e-39
-0.043499049 0.12147778 0.55700004 7.6555373e-39
-0.041832384 0.12178953 0.55599999 8.3948596e-39
-0.022219526 0.12221001 0.55550003 6.4516538e-39
-0.051800001 0.12368572 0.55500001 7.1069766e-39
-0.049201429 0.12379667 0.55550003 7.5654423e-39
-0.046718732 0.1235835 0.55533338 8.0245917e-39
-0.043871433 0.12315716 0.55500001 8.3004962e-39
-0.040700004 0.12315716 0.55500001 8.1178972e-39
-0.024842858 0.12368572 0.55500001 7.5679604e-39
-0.022992859 0.12342143 0.55500001 7.2867324e-39
-0.0015857144 0.12421429 0.55500001 5.7130364e-39
-0.050847623 0.11614668 0.56200004 3.5935486e-39
-0.04980604 0.11800097 0.56233335 4.5147917e-39
-0.046730161 0.11924477 0.56400001 5.1605324e-39
-0.044231433 0.1191343 0.565 5.1619744e-39
-0.046110481 0.12064286 0.56300002 5.4385655e-39
-0.044661909 0.12107144 0.565 5.5300464e-39
-0.048599049 0.11771905 0.56700003 4.3296773e-39
-0.046730861 0.11774421 0.56660008 4.5144385e-39
