# .PCD v0.7 - Point Cloud Data file format
VERSION 0.7
FIELDS x y z rgb
SIZE 4 4 4 4
TYPE F F F F
COUNT 1 1 1 1
WIDTH 1006
HEIGHT 1
VIEWPOINT 0 0 0 1 0 0 0
POINTS 1006
DATA ascii
0.076563813 0.068465717 0.77300006 8.8597278e-39
0.079456672 0.068421431 0.77250004 8.6724807e-39
0.082399532 0.068421431 0.77250004 9.1294973e-39
0.08553271 0.067886993 0.77200001 7.5578598e-39
0.087983504 0.067886993 0.77200001 6.1695248e-39
0.091050483 0.06828858 0.77100003 4.050484e-39
0.09791334 0.068465717 0.77300006 2.4839361e-39
0.10012192 0.068465717 0.77300006 3.4951873e-39
0.10306668 0.068465717 0.77300006 3.588092e-39
0.10527524 0.068465717 0.77300006 3.2221821e-39
0.073832385 0.070888892 0.77266669 9.0401884e-39
0.076514289 0.070628099 0.77250004 8.9494347e-39
0.079457149 0.070628099 0.77250004 9.0405569e-39
0.082400009 0.070628099 0.77250004 9.4075486e-39
0.085287623 0.070582859 0.77200001 9.500791e-39
0.088228576 0.070582859 0.77200001 8.485546e-39
0.091198817 0.070605479 0.77225 7.7436636e-39
0.094171435 0.070628099 0.77250004 6.6304805e-39
0.097145483 0.070651196 0.77275008 5.2486657e-39
0.10005715 0.070628099 0.77250004 5.2429274e-39
0.10300001 0.070628099 0.77250004 5.7953571e-39
0.10601144 0.070674285 0.77300006 4.6958534e-39
0.070919685 0.073864453 0.77300012 9.409324e-39
0.073547378 0.073547378 0.77225006 9.3178487e-39
0.076464765 0.073523812 0.77200001 9.5008162e-39
0.079353817 0.073475718 0.77149999 9.867068e-39
0.082186192 0.073380478 0.7705 9.5011833e-39
0.085287623 0.073523812 0.77200001 9.2253013e-39
0.088056669 0.073380478 0.7705 8.7653895e-39
0.090933338 0.073333338 0.77000004 9.1316665e-39
0.093866676 0.073333338 0.77000004 8.6713778e-39
0.096925721 0.073427618 0.77100003 7.1890633e-39
0.099862866 0.073427618 0.77100003 4.6036704e-39
0.10293334 0.073523812 0.77200001 4.8780657e-39
0.10576604 0.07337366 0.77300012 4.9706439e-39
0.070674285 0.076563813 0.77300006 8.8565216e-39
0.073523812 0.076464765 0.77200001 8.7632526e-39
0.076464765 0.076464765 0.77200001 9.0394779e-39
0.079353817 0.076414764 0.77149999 9.3146075e-39
0.08224 0.076365717 0.77100003 9.2238636e-39
0.085121438 0.076315716 0.7705 9.0405597e-39
0.088000007 0.076266676 0.77000004 8.6735681e-39
0.090933338 0.076266676 0.77000004 8.9490872e-39
0.093866676 0.076266676 0.77000004 8.950871e-39
0.096800007 0.076266676 0.77000004 8.0227434e-39
0.099798575 0.07631667 0.7705 4.3306681e-39
0.10293334 0.076464765 0.77200001 4.7869645e-39
0.10527524 0.076563813 0.77300006 5.0617549e-39
0.070888892 0.079229213 0.77266669 8.5802934e-39
0.073547386 0.079431668 0.77225 8.304431e-39
0.076464765 0.079405718 0.77200001 8.6714129e-39
0.079353809 0.079354763 0.77150005 8.4884565e-39
0.082187146 0.079250962 0.7705 8.3973455e-39
0.085066669 0.0792 0.77000004 8.4909845e-39
0.088 0.0792 0.77000004 8.490253e-39
0.090933338 0.0792 0.77000004 9.1330931e-39
0.093866676 0.0792 0.77000004 8.2114969e-39
0.096863344 0.079251915 0.7705 4.6162177e-39
0.099992387 0.079405718 0.77200001 4.5139747e-39
0.10300001 0.079457626 0.77250004 4.7901959e-39
0.071410477 0.081717148 0.77300006 8.5820899e-39
0.073832385 0.082172707 0.77266669 8.580292e-39
0.076464765 0.08234667 0.77200001 8.7635973e-39
0.079405718 0.08234667 0.77200001 8.4888027e-39
0.082239047 0.08224 0.77100003 8.0274784e-39
0.085066676 0.082133338 0.77000004 7.3832104e-39
0.088000007 0.082133338 0.77000004 5.7251282e-39
0.090933338 0.082133338 0.77000004 4.1621171e-39
0.093866676 0.082133338 0.77000004 2.86307e-39
0.097051434 0.08234667 0.77200001 2.0315507e-39
0.099992387 0.08234667 0.77200001 4.696924e-39
0.10306668 0.08245334 0.77300006 5.1564645e-39
0.074355245 0.0853981 0.77300006 4.7120497e-39
0.076489285 0.085315481 0.77225006 4.0702802e-39
0.079405718 0.085287623 0.77200001 3.4259884e-39
0.082239047 0.085177146 0.77100003 2.5033286e-39
0.085066676 0.085066669 0.77000004 2.2242054e-39
0.088114291 0.0851781 0.77100003 2.4964496e-39
0.091110952 0.085232861 0.77150005 1.3886728e-39
0.094110481 0.085287623 0.77200001 1.568748e-39
0.097051434 0.085287623 0.77200001 3.0406621e-39
0.09983366 0.0851162 0.77266669 4.6061816e-39
0.074355245 0.087606676 0.77300006 2.3995709e-39
0.076538816 0.088314526 0.77275002 1.6602444e-39
0.079431191 0.08825738 0.77225006 1.3832918e-39
0.08234667 0.088228576 0.77200001 1.202485e-39
0.085232861 0.088171907 0.77150005 1.2053493e-39
0.088228576 0.088228576 0.77200001 1.8471174e-39
0.091169529 0.088228576 0.77200001 1.5719696e-39
0.094110481 0.088228576 0.77200001 2.3941969e-39
0.097051434 0.088228576 0.77200001 4.6144534e-39
0.099876523 0.08858826 0.77300012 7.9115504e-39
0.10233048 0.089079052 0.77300006 4.2352438e-39
0.076809213 0.091042235 0.77300012 1.2943598e-39
0.079456672 0.091228575 0.77250004 1.110679e-39
0.082373098 0.091199294 0.77225 1.0198944e-39
0.085287623 0.091169529 0.77200001 1.571262e-39
0.088228576 0.091169529 0.77200001 8.3298506e-40
0.091169529 0.091169529 0.77200001 5.5534579e-40
0.0941412 0.091199294 0.77225 3.6971438e-39
0.09714596 0.09125834 0.77275002 1.1705562e-38
0.099385723 0.090551436 0.77300006 9.3787897e-39
0.077300005 0.093496196 0.77300006 6.493533e-40
0.07948263 0.094201677 0.77275002 2.7948197e-40
0.082373098 0.094140716 0.77225006 2.7948758e-40
0.085287623 0.094110481 0.77200001 1.8410483e-39
0.088285245 0.094171435 0.77250004 6.447555e-39
0.091199294 0.0941412 0.77225 1.0408034e-38
0.09394668 0.094437473 0.77266669 1.3825731e-38
0.096440956 0.09496858 0.77300006 1.4650418e-38
0.079753973 0.096931756 0.77300012 1.1601152e-38
0.082426436 0.097145952 0.77275008 1.3173542e-38
0.085342862 0.097114764 0.77250004 1.4104089e-38
0.088342868 0.097177148 0.77300006 1.5488144e-38
0.091287628 0.097177148 0.77300006 1.5028616e-38
0.093496196 0.097177148 0.77300006 1.5671078e-38
0.096440956 0.096440956 0.77300006 1.4088262e-38
0.080244765 0.099385723 0.77300006 1.6686336e-38
0.08245334 0.099385723 0.77300006 1.6689239e-38
0.0853981 0.099385723 0.77300006 1.6959341e-38
0.063803814 0.068997145 0.77900004 8.9476368e-39
0.067396514 0.068879053 0.77766669 8.763254e-39
0.071222857 0.068997145 0.77900004 9.0391192e-39
0.073903814 0.068731435 0.77600002 8.9490647e-39
0.079383813 0.067513339 0.77900004 7.2881085e-39
0.095460005 0.068820007 0.77700001 2.3909739e-39
0.096690483 0.068642862 0.77500004 1.5669908e-39
0.1075762 0.068997145 0.77900004 3.9572234e-39
0.10952 0.068820007 0.77700001 4.6911689e-39
0.11174001 0.068820007 0.77700001 4.7819296e-39
0.061578099 0.071964763 0.77900004 9.0412604e-39
0.064181916 0.07129734 0.77820003 9.4089625e-39
0.067634486 0.070891254 0.77700001 9.2238762e-39
0.070948578 0.070947625 0.77600002 9.5915629e-39
0.073260002 0.070300005 0.77700001 9.0409044e-39
0.10938001 0.070948578 0.77600002 5.7046174e-39
0.11202762 0.071222857 0.77900004 6.8956034e-39
0.061578099 0.074190482 0.77900004 8.5820927e-39
0.064433977 0.074063495 0.77766669 9.1334602e-39
0.06790477 0.073809534 0.77500004 9.223865e-39
0.070119053 0.073071435 0.77500004 9.6837571e-39
0.10702381 0.074547626 0.77500004 4.8773875e-39
0.10945 0.073951915 0.77649999 4.8749114e-39
0.11242636 0.074373662 0.77833337 4.4120989e-39
0.061578099 0.076416194 0.77900004 8.9476452e-39
0.064461596 0.077059373 0.77800006 9.6823194e-39
0.06790477 0.076761916 0.77500004 8.4891726e-39
0.10702381 0.076761916 0.77500004 4.6015082e-39
0.10952 0.076960005 0.77700001 3.7735678e-39
0.11269762 0.077109054 0.77850002 2.8534136e-39
0.064489216 0.080057152 0.77833337 9.1309449e-39
0.067948103 0.079766199 0.77550006 8.5799207e-39
0.070119053 0.080452383 0.77500004 8.8568705e-39
0.10642382 0.079817146 0.77600002 4.5125216e-39
0.10973191 0.080074765 0.77850002 3.0399475e-39
0.11202762 0.080125719 0.77900004 1.0184988e-39
0.064051121 0.082846038 0.77900004 9.4085967e-39
0.067396514 0.082951114 0.77766669 8.9501409e-39
0.070671439 0.082984447 0.77566671 8.675003e-39
0.073071435 0.083404765 0.77500004 8.765405e-39
0.10649192 0.08282619 0.77649999 3.9600653e-39
0.10980191 0.083093345 0.77900004 2.8548345e-39
0.11202762 0.083093338 0.77900004 2.2116413e-39
0.064545721 0.086802863 0.77900004 4.0698962e-39
0.067396514 0.085913658 0.77766675 6.0045765e-39
0.070947625 0.085729524 0.77600002 6.9218623e-39
0.073071435 0.085619047 0.77500004 5.2680961e-39
0.10111906 0.086357147 0.77500004 4.6069018e-39
0.10333334 0.085619055 0.77500004 4.7909287e-39
0.10649192 0.08578524 0.77650005 4.148418e-39
0.1098019 0.086060956 0.77900004 3.2236171e-39
0.11202762 0.086060956 0.77900004 3.4065832e-39
0.067483813 0.088990808 0.77866668 2.3074047e-39
0.071040004 0.088800013 0.77700001 2.3988758e-39
0.073563501 0.08881747 0.77500004 1.9382452e-39
0.10111906 0.087833337 0.77500004 5.7986151e-39
0.10357937 0.088325404 0.77500004 4.6054655e-39
0.10656001 0.088800006 0.77700001 4.6040123e-39
0.10980191 0.089028575 0.77900004 3.4969557e-39
0.11202762 0.089770481 0.77900004 3.8686179e-39
0.067513339 0.091996193 0.77900004 1.8475069e-39
0.071040004 0.09176001 0.77700001 1.2046725e-39
0.073856667 0.091583334 0.77550006 1.111374e-39
0.076023817 0.09226191 0.77500004 1.2947045e-39
0.10062699 0.091769844 0.77500004 7.447701e-39
0.10346667 0.091642864 0.77600002 4.2330914e-39
0.10656001 0.091760002 0.77700001 3.4991348e-39
0.10980191 0.091996193 0.77900004 2.581863e-39
0.11202762 0.091254294 0.77900004 3.9611779e-39
0.067513339 0.094963811 0.77900004 5.5642199e-40
0.071085244 0.094781436 0.77750003 3.7241188e-40
0.073904768 0.094599053 0.77600002 2.8056938e-40
0.076515883 0.094722234 0.77500004 2.7949038e-40
0.095214292 0.093738101 0.77500004 1.1899363e-38
0.097674608 0.094230168 0.77500004 1.2626076e-38
0.10038096 0.094476193 0.77500004 7.6425179e-39
0.10360001 0.094720006 0.77700001 6.0716161e-39
0.10669715 0.094841912 0.778 3.3151134e-39
0.10955461 0.094716519 0.77900004 2.950298e-39
0.068255246 0.097931437 0.77900004 1.2705297e-38
0.071176663 0.097869053 0.77850002 1.2611676e-38
0.074000001 0.09768001 0.77700001 1.2427652e-38
0.076761916 0.097428575 0.77500004 1.2794986e-38
0.078976199 0.098166674 0.77500004 1.7314371e-38
0.095214292 0.097428575 0.77500004 1.4742297e-38
0.097674608 0.097674608 0.77500004 1.1605429e-38
0.10051143 0.097554289 0.77600002 7.5549647e-39
0.10366715 0.09774334 0.77750003 6.9992981e-39
0.10683429 0.09793143 0.77900004 4.5060952e-39
0.068502545 0.10065176 0.77900004 1.696043e-38
0.071222857 0.10089906 0.77900004 1.7145898e-38
0.074047148 0.10070524 0.77749997 1.6776016e-38
0.076860964 0.10051143 0.77600002 1.6685608e-38
0.0795362 0.10071398 0.77566671 1.6409035e-38
0.082666665 0.10111906 0.77500004 1.566971e-38
0.085619047 0.10111906 0.77500004 1.5573915e-38
0.088685721 0.10051144 0.77600002 1.5850128e-38
0.091583334 0.10044619 0.7755 1.5111855e-38
0.094476193 0.10038096 0.77500004 1.4652279e-38
0.097428575 0.10038096 0.77500004 1.2067484e-38
0.10051143 0.10051048 0.77600002 8.3815038e-39
0.10380049 0.10083477 0.77850002 7.4577819e-39
0.10609239 0.10015715 0.77900004 4.1473586e-39
0.071964763 0.10312477 0.77900004 1.6681355e-38
0.074190482 0.10386667 0.77900004 1.6587709e-38
0.076960005 0.1036 0.77700001 1.6402595e-38
0.079970956 0.10366715 0.77749997 1.6311111e-38
0.082880005 0.1036 0.77700001 1.6034886e-38
0.085840002 0.1036 0.77700001 1.6033445e-38
0.088800006 0.10360001 0.77700001 1.5390953e-38
0.091760002 0.1036 0.77700001 1.5020373e-38
0.094658583 0.10353381 0.77650005 1.4374619e-38
0.097554289 0.10346763 0.77600002 1.1789848e-38
0.10070525 0.10366715 0.77749997 8.6609732e-39
0.10312477 0.10386667 0.77900004 9.1201689e-39
0.074932389 0.10683429 0.77900004 1.6497298e-38
0.077058099 0.10669715 0.778 1.6403671e-38
0.079920009 0.10656001 0.77700001 1.6403668e-38
0.082880005 0.10656001 0.77700001 1.6035957e-38
0.085894763 0.1066281 0.77749997 1.5666096e-38
0.088800013 0.10656001 0.77700001 1.5481701e-38
0.091819525 0.10662905 0.77749997 1.5020719e-38
0.094841912 0.1066981 0.778 1.4374996e-38
0.09793143 0.10683429 0.77900004 1.1605482e-38
0.10089906 0.10683429 0.77900004 8.5684342e-39
0.074932389 0.10906 0.77900004 1.6495861e-38
0.077405408 0.10955461 0.77900004 1.6311477e-38
0.080125719 0.10980191 0.77900004 1.6310765e-38
0.083040483 0.10973191 0.77850002 1.5942693e-38
0.085840002 0.10952 0.77700001 1.5666814e-38
0.088800006 0.10952 0.77700001 1.5666074e-38
0.091879055 0.10966095 0.778 1.5020349e-38
0.094963819 0.1098019 0.77900004 1.4098405e-38
0.098178737 0.10955461 0.77900004 1.105232e-38
0.10015715 0.10906 0.77900004 8.7499598e-39
0.080867626 0.11202762 0.77900004 1.6035605e-38
0.083093345 0.11276953 0.77900004 1.5666824e-38
0.086060956 0.11276953 0.77900004 1.5575343e-38
0.089028575 0.11276953 0.77900004 1.5481337e-38
0.091748893 0.11252223 0.77900004 1.4837413e-38
0.083093338 0.11573715 0.77900004 1.5668256e-38
0.086060956 0.11499525 0.77900004 1.5576066e-38
0.089028582 0.11499525 0.77900004 1.5388792e-38
0.091254294 0.11499525 0.77900004 1.4839932e-38
0.061973337 0.064960003 0.78400004 6.5498442e-39
0.063466668 0.064960003 0.78400004 6.3654179e-39
0.056000005 0.067946672 0.78400004 8.6732219e-39
0.058240004 0.067946672 0.78400004 8.7639644e-39
0.06147556 0.067448899 0.7840001 8.8550797e-39
0.064131431 0.06711334 0.78300005 9.1316567e-39
0.067028575 0.067773335 0.78200006 8.9487018e-39
0.07025715 0.067275569 0.78200006 8.8554384e-39
0.073080003 0.06711334 0.78299999 8.6706772e-39
0.075868577 0.066941909 0.78100002 8.2997269e-39
0.078100003 0.066941909 0.78100002 7.4713913e-39
0.11424001 0.066453338 0.78400004 3.1274515e-39
0.055502228 0.069937788 0.7840001 8.6710681e-39
0.058240004 0.070186675 0.78400004 8.8557971e-39
0.060991433 0.069918096 0.78100002 8.8557845e-39
0.11394858 0.070752382 0.78200006 3.4959006e-39
0.11513715 0.069877468 0.78333342 1.6580962e-39
0.11722668 0.070186675 0.78400004 2.9434288e-39
0.058240004 0.073173337 0.78400004 8.766121e-39
0.060325719 0.07298667 0.78200006 8.765398e-39
0.11365715 0.07280001 0.78000003 3.8610509e-39
0.11610906 0.07293953 0.78150004 1.5680516e-39
0.11872001 0.073173337 0.78400004 3.2211255e-39
0.058986671 0.076160006 0.78400004 8.2158325e-39
0.060325719 0.075965717 0.78200006 8.398786e-39
0.11588572 0.075771436 0.78000003 3.7728406e-39
0.11841715 0.075965717 0.78200006 4.4167877e-39
0.12021334 0.076160006 0.78400004 4.510435e-39
0.061124574 0.079269342 0.78080004 9.1313106e-39
0.11365715 0.080228582 0.78000003 2.3070656e-39
0.11596048 0.078793816 0.78050005 3.775007e-39
0.11872001 0.079146668 0.78400004 4.3256696e-39
0.12021334 0.079146668 0.78400004 4.2352747e-39
0.060872383 0.082241274 0.78266668 9.5000511e-39
0.063142858 0.08394286 0.78000003 1.0054314e-38
0.11365715 0.083200008 0.78000003 2.9495581e-39
0.1154381 0.081923813 0.78200006 3.5020186e-39
0.11772446 0.081884451 0.7840001 4.2352789e-39
0.12021334 0.08138667 0.78400004 4.2352677e-39
0.061187144 0.085066199 0.78350008 8.583515e-39
0.063638106 0.085923813 0.78000009 5.8244845e-39
0.11365715 0.086171433 0.78000003 3.6838889e-39
0.11558572 0.085012391 0.78300005 3.7771636e-39
0.11722668 0.08437334 0.78400004 4.0533987e-39
0.06122667 0.088106669 0.78400004 2.7723373e-39
0.064187311 0.088970803 0.78066671 1.572348e-39
0.11316191 0.088895246 0.78000009 3.9622499e-39
0.11573334 0.088106669 0.78400004 4.1470139e-39
0.06122667 0.091093339 0.78400004 1.6641933e-39
0.063801914 0.091761529 0.78080004 1.3876106e-39
0.11316191 0.092361912 0.78000009 4.2395668e-39
0.06122667 0.094080009 0.78400004 1.1113712e-39
0.064133339 0.094838105 0.78000009 6.4933508e-40
0.11245906 0.094584771 0.78200006 3.9623017e-39
0.11424001 0.094826676 0.78400004 4.2396089e-39
0.06122667 0.097066671 0.78400004 4.3292037e-39
0.063966677 0.097438097 0.78100002 8.5597574e-39
0.066114292 0.098057151 0.78000003 1.2803588e-38
0.11047302 0.097067311 0.78200006 3.4073105e-39
0.11260286 0.096943811 0.78300005 3.502383e-39
0.11424001 0.096320003 0.78400004 3.9633695e-39
0.061973337 0.10005334 0.78400004 1.7141177e-38
0.063746043 0.099960648 0.78133339 1.7052234e-38
0.066857144 0.10102858 0.78000003 1.6775319e-38
0.1077143 0.10102858 0.78000003 3.8686123e-39
0.10948001 0.099798098 0.78200006 3.8650082e-39
0.11175112 0.099804454 0.7840001 3.0374139e-39
0.064213336 0.10304001 0.78400004 1.6772811e-38
0.066836834 0.10311367 0.78266668 1.6680966e-38
0.06982857 0.10325715 0.78000003 1.6680265e-38
0.07205715 0.10474286 0.78000003 1.6221444e-38
0.10474286 0.10325715 0.78000003 7.6414921e-39
0.10699748 0.10302541 0.78200006 5.0625298e-39
0.10962 0.10290954 0.78300005 5.0589005e-39
0.11125334 0.10229334 0.78400004 3.5834032e-39
0.064960003 0.10528 0.78400004 1.6312905e-38
0.067200005 0.10602667 0.78400004 1.6496569e-38
0.070156574 0.10620306 0.78200006 1.6404389e-38
0.07280001 0.10697144 0.78000003 1.6682401e-38
0.10325715 0.10697144 0.78000003 9.0286935e-39
0.10566171 0.10625752 0.78240007 9.3960369e-39
0.10876445 0.10577779 0.7840001 8.1953455e-39
0.067946672 0.10901334 0.78400004 1.6588057e-38
0.069894098 0.10983316 0.78240007 1.6679544e-38
0.072893336 0.11008477 0.78100002 1.6495508e-38
0.075771436 0.11068572 0.78000003 1.6310758e-38
0.097314291 0.11068572 0.78000003 1.1975373e-38
0.1012762 0.11019048 0.78000009 9.0269013e-39
0.10338953 0.11008477 0.78100002 9.120536e-39
0.10618605 0.1091689 0.78333342 9.5793576e-39
0.10826667 0.10901334 0.78400004 8.4766058e-39
0.067946672 0.112 0.78400004 1.6681341e-38
0.070007622 0.11320382 0.78200006 1.6403331e-38
0.07298667 0.11320382 0.78200006 1.6311841e-38
0.075867623 0.11305906 0.78100002 1.621928e-38
0.079188578 0.11306286 0.78000003 1.6036319e-38
0.092857152 0.11365715 0.78000003 1.4837419e-38
0.095085725 0.11291429 0.78000003 1.3915087e-38
0.098057151 0.11291429 0.78000003 1.086866e-38
0.10086668 0.11276381 0.78066671 8.8428631e-39
0.10302541 0.11345207 0.78200006 8.7535177e-39
0.10602667 0.11200001 0.78400004 8.7549695e-39
0.10826667 0.11125334 0.78400004 8.204311e-39
0.067448899 0.11523557 0.7840001 1.6772461e-38
0.070007622 0.1154381 0.78200006 1.6496594e-38
0.07298667 0.11618286 0.78200006 1.6312195e-38
0.075867623 0.1160343 0.78100002 1.6219277e-38
0.079485714 0.11588573 0.78000009 1.5943405e-38
0.086171433 0.11662858 0.78000003 1.5573915e-38
0.089142859 0.11662858 0.78000003 1.5481348e-38
0.092361912 0.11613335 0.78000009 1.4745946e-38
0.094918743 0.11573779 0.78066671 1.4099471e-38
0.097067319 0.11643112 0.78200006 1.1426869e-38
0.099798106 0.11618286 0.78200006 9.5771814e-39
0.10261716 0.11603302 0.78266668 8.9360873e-39
0.10602667 0.11498667 0.78400004 8.6634759e-39
0.067448899 0.11822224 0.7840001 1.7046888e-38
0.070186675 0.11797334 0.78400004 1.6496228e-38
0.07298667 0.11841715 0.78200006 1.6404383e-38
0.07591667 0.11908619 0.78150004 1.6310757e-38
0.079519689 0.11890763 0.7803334 1.603561e-38
0.083200008 0.11885715 0.78000003 1.5760814e-38
0.086171433 0.11885715 0.78000003 1.5483514e-38
0.089142859 0.11885715 0.78000003 1.5206201e-38
0.091371432 0.11885715 0.78000003 1.4838858e-38
0.093840003 0.11916191 0.78200006 1.4652661e-38
0.096653983 0.11901461 0.78266668 1.1795291e-38
0.099926673 0.11856858 0.78300005 9.5775653e-39
0.1032889 0.11822224 0.7840001 9.0276257e-39
0.10528 0.11797334 0.78400004 9.0283222e-39
0.067946672 0.12096001 0.78400004 1.6679545e-38
0.070186675 0.12096001 0.78400004 1.6128888e-38
0.073284961 0.12134515 0.78360003 1.6404037e-38
0.075965717 0.12214096 0.78200006 1.6128187e-38
0.079620324 0.12203684 0.78133339 1.5943423e-38
0.082952395 0.12158096 0.78000009 1.57601e-38
0.085768774 0.12204001 0.78039998 1.5482439e-38
0.089142859 0.12182858 0.78000003 1.5297322e-38
0.091605723 0.12214096 0.78200006 1.4929975e-38
0.093840003 0.12214096 0.78200006 1.4285313e-38
0.097233653 0.12110542 0.78333342 1.0872263e-38
0.10005334 0.12096 0.78400004 9.3931642e-39
0.10304001 0.12096001 0.78400004 8.7510416e-39
0.070186675 0.12320001 0.78400004 1.6496586e-38
0.07292445 0.12419557 0.7840001 1.6220705e-38
0.076061912 0.12453429 0.78300005 1.6128892e-38
0.079620332 0.12501335 0.78133339 1.60349e-38
0.083093345 0.12476572 0.78133339 1.5666485e-38
0.085537151 0.12496096 0.78100002 1.5206947e-38
0.088512391 0.12496097 0.78100002 1.5756155e-38
0.090860963 0.12512001 0.78200006 1.5021459e-38
0.093840003 0.12437525 0.78200006 1.4197055e-38
0.097066671 0.12394667 0.78400004 1.1334321e-38
0.099804454 0.12369779 0.7840001 9.1190997e-39
0.073422223 0.12668446 0.7840001 1.6036687e-38
0.076160006 0.12693334 0.78400004 1.6127813e-38
0.078944772 0.12735429 0.78200006 1.6218209e-38
0.081923813 0.12735429 0.78200006 1.5943064e-38
0.084902868 0.12735429 0.78200006 1.5391703e-38
0.087995246 0.12751715 0.78300005 1.5757589e-38
0.091265403 0.12707366 0.78333342 1.465483e-38
0.094080009 0.12693334 0.78400004 1.4283877e-38
0.096817784 0.12668446 0.7840001 1.1334693e-38
0.099306673 0.12618667 0.78400004 9.762674e-39
0.073920004 0.12917334 0.78400004 1.6311481e-38
0.076160006 0.12992001 0.78400004 1.6401523e-38
0.079146668 0.12992001 0.78400004 1.6217488e-38
0.082133338 0.12992001 0.78400004 1.5942339e-38
0.085120007 0.12992001 0.78400004 1.5666476e-38
0.088106669 0.12992001 0.78400004 1.5574631e-38
0.091093339 0.12992001 0.78400004 1.4837426e-38
0.094080009 0.12917334 0.78400004 1.4190616e-38
0.079395562 0.1326578 0.7840001 1.6403311e-38
0.082133338 0.13290668 0.78400004 1.6034883e-38
0.085120007 0.13290668 0.78400004 1.5665389e-38
0.088106669 0.13290668 0.78400004 1.5390594e-38
0.091093339 0.13216001 0.78400004 1.4837415e-38
0.079893336 0.13514668 0.78400004 1.6678463e-38
0.082133338 0.13589334 0.78400004 1.6126361e-38
0.08437334 0.13589334 0.78400004 1.6033088e-38
0.087360002 0.13589334 0.78400004 1.5667184e-38
0.082880005 0.13888001 0.78400004 1.5941614e-38
0.060634289 0.065125719 0.78600001 6.5473709e-39
0.068380006 0.065374292 0.78900003 5.9984402e-39
0.071385719 0.065374292 0.78900003 5.5342237e-39
0.073593341 0.064581439 0.78850007 3.8714948e-39
0.076168895 0.064680636 0.78666675 4.2348879e-39
0.055144768 0.067121908 0.78600001 8.6714171e-39
0.058388576 0.066622861 0.78600001 8.6707024e-39
0.060634289 0.066622861 0.78600001 8.8561629e-39
0.067371428 0.066622861 0.78600001 9.2238285e-39
0.069617145 0.066622861 0.78600001 9.041954e-39
0.12465763 0.068336673 0.78850007 1.3359006e-38
0.11917429 0.070454285 0.78700006 4.8874908e-39
0.12153929 0.070521668 0.78775007 1.2527121e-38
0.12457906 0.070544772 0.78800005 9.206594e-39
0.056142859 0.073360011 0.78600001 8.9501549e-39
0.12126859 0.073360011 0.78600001 1.7492675e-39
0.12457906 0.07354667 0.78800005 3.3136757e-39
0.056285717 0.075798102 0.78800005 9.0427121e-39
0.057713337 0.076452389 0.78700006 8.5831759e-39
0.12201715 0.07560572 0.78600001 4.6937277e-39
0.058461908 0.079449527 0.78700006 8.947655e-39
0.056357145 0.082657151 0.78900003 9.4990113e-39
0.058461908 0.082447626 0.78700006 9.2242069e-39
0.11902287 0.08309143 0.78600001 4.5122203e-39
0.12052001 0.08309143 0.78600001 4.2363453e-39
0.056357145 0.085662864 0.78900003 7.2910204e-39
0.058461908 0.085445717 0.78700006 7.5693869e-39
0.11882668 0.085803822 0.78800005 4.3274577e-39
0.12098001 0.085662864 0.78900003 4.5114846e-39
0.056357145 0.088668577 0.78900003 1.4830698e-39
0.058461908 0.088443816 0.78700006 1.8529159e-39
0.11842572 0.088443816 0.787 4.5132825e-39
0.12082668 0.0885562 0.78800005 5.2490342e-39
0.056357145 0.092425719 0.78900003 2.4010521e-39
0.058461908 0.091441914 0.78700006 1.8503922e-39
0.11602858 0.091325715 0.78600001 4.5164999e-39
0.11865096 0.091616198 0.78850007 4.789868e-39
0.12098001 0.091674291 0.78900003 4.7913211e-39
0.058461908 0.094440006 0.78700006 1.0202616e-39
0.11602858 0.094319999 0.78600001 4.6998387e-39
0.11853834 0.094529286 0.78775007 5.3423131e-39
0.12142985 0.094890162 0.78866673 5.1561099e-39
0.12398572 0.095431432 0.78900003 5.0664296e-39
0.058711436 0.097187631 0.78700006 3.0435362e-39
0.11552953 0.097563826 0.78600001 3.8711641e-39
0.11865096 0.097623818 0.78850007 4.2374313e-39
0.12098001 0.097685724 0.78900003 4.3292528e-39
0.059287623 0.10056382 0.78800005 1.7236242e-38
0.060634289 0.10030858 0.78600001 1.7146198e-38
0.11303429 0.10105715 0.78600001 2.7619018e-39
0.11542763 0.1004362 0.78700006 3.5023675e-39
0.11847525 0.10044096 0.78900003 4.1452511e-39
0.06138286 0.10330287 0.78600001 1.7417452e-38
0.11263113 0.10364065 0.78666675 2.8498151e-39
0.11561025 0.10359882 0.78825003 2.3938788e-39
0.061683815 0.10613715 0.78666675 1.6863572e-38
0.064127624 0.10654669 0.78600001 1.65877e-38
0.11004001 0.10704572 0.78600001 7.3659338e-39
0.11246549 0.10646643 0.78725004 2.3891971e-39
0.11496858 0.10670286 0.78900003 8.276363e-40
0.062368575 0.10970858 0.78900003 1.6863224e-38
0.064498574 0.10950001 0.78750002 1.6955047e-38
0.066622861 0.10929143 0.78600001 1.6863199e-38
0.11004001 0.10929143 0.78600001 7.2751689e-39
0.11264334 0.10963906 0.78850007 2.2058736e-39
0.062368575 0.11271429 0.78900003 1.6681693e-38
0.064458102 0.11242858 0.78700006 1.6956484e-38
0.066622861 0.11228572 0.78600001 1.6956841e-38
0.10954096 0.11253524 0.78600001 7.736496e-39
0.11236921 0.11236858 0.78833342 2.7572523e-39
0.062368575 0.11572 0.78900003 1.6498022e-38
0.064458102 0.11542667 0.787 1.6221802e-38
0.066622861 0.11453144 0.78600001 1.6313998e-38
0.10936144 0.11535286 0.78650004 7.1862032e-39
0.11189191 0.1156462 0.78850007 3.8600013e-39
0.064498574 0.11850001 0.78750002 1.6588794e-38
0.066622861 0.11752572 0.78600001 1.7048326e-38
0.10704572 0.11827429 0.78600001 9.1205192e-39
0.10943144 0.11842477 0.78700006 5.7111096e-39
0.11196286 0.11872572 0.78900003 3.1253132e-39
0.064498574 0.12150002 0.78750002 1.6679908e-38
0.066622861 0.12126859 0.78600001 1.6587711e-38
0.10629715 0.12126859 0.78600001 9.1201577e-39
0.10963953 0.1216543 0.78850007 5.3398103e-39
0.11196286 0.12173144 0.78900003 2.4853556e-39
0.064762861 0.12427652 0.78766674 1.6496227e-38
0.067371428 0.12426287 0.78600001 1.658807e-38
0.070365712 0.12501144 0.78600001 1.6495866e-38
0.10105715 0.12501144 0.78600001 8.9361504e-39
0.10330287 0.12426287 0.78600001 8.2000315e-39
0.10643239 0.12442192 0.78700006 9.121601e-39
0.10967405 0.12469786 0.78875005 5.0628255e-39
0.065374292 0.12774286 0.78900003 1.6588437e-38
0.067499526 0.12750049 0.78750002 1.6680278e-38
0.070365712 0.12725715 0.78600001 1.6404394e-38
0.072611436 0.12800573 0.78600001 1.6312197e-38
0.098062865 0.12800573 0.78600001 9.4007467e-39
0.1005581 0.12750667 0.78600001 9.1201815e-39
0.10343525 0.12741905 0.78700006 8.7524738e-39
0.10663572 0.12766191 0.78850007 9.3034699e-39
0.10895715 0.12774286 0.78900003 6.4464872e-39
0.065374292 0.13074857 0.78900003 1.6772815e-38
0.067564055 0.13062453 0.78825009 1.6589139e-38
0.070409998 0.13033476 0.78650004 1.6588054e-38
0.073110491 0.13050097 0.78600001 1.6495507e-38
0.094319999 0.13100001 0.78600001 1.4377881e-38
0.097314298 0.13025144 0.78600001 9.6780636e-39
0.10037287 0.13033476 0.78650004 8.3837039e-39
0.10359882 0.13062453 0.78825009 8.4762246e-39
0.10670286 0.13074857 0.78900003 8.6606046e-39
0.067628577 0.1337543 0.78900003 1.6589139e-38
0.070544764 0.13358478 0.78800005 1.6587697e-38
0.073360011 0.13324572 0.78600001 1.658806e-38
0.076354295 0.13324572 0.78600001 1.6401163e-38
0.078600004 0.1339943 0.78600001 1.6401883e-38
0.091325715 0.1339943 0.78600001 1.5022509e-38
0.094319999 0.13324572 0.78600001 1.4559029e-38
0.097376674 0.13333097 0.78650004 8.7525396e-39
0.10050048 0.13350049 0.78750002 7.2767005e-39
0.10369715 0.1337543 0.78900003 7.2813304e-39
0.067879051 0.13701048 0.78900003 1.6588067e-38
0.070567384 0.13662976 0.78825009 1.6588421e-38
0.073452383 0.13641334 0.78700006 1.667774e-38
0.076354295 0.13624001 0.78600001 1.6401869e-38
0.079099052 0.13648954 0.78600001 1.6401894e-38
0.086085722 0.13624001 0.78600001 1.6033448e-38
0.089080006 0.13624001 0.78600001 1.5298754e-38
0.091325723 0.13624001 0.78600001 1.5204757e-38
0.094560012 0.13658667 0.78800005 1.4375362e-38
0.097561911 0.13658667 0.78800005 7.7398535e-39
0.10056382 0.13658667 0.78800005 6.1729089e-39
0.10294572 0.13676 0.78900003 5.8988261e-39
0.067628577 0.13976571 0.78900003 1.6496242e-38
0.070544764 0.13958858 0.78800005 1.6588786e-38
0.073452383 0.13941143 0.78700006 1.6403317e-38
0.076354295 0.1392343 0.78600001 1.6311113e-38
0.079348579 0.1392343 0.78600001 1.6310402e-38
0.081594288 0.1392343 0.78600001 1.6217471e-38
0.085337147 0.1392343 0.78600001 1.6308967e-38
0.088331439 0.1392343 0.78600001 1.5573929e-38
0.091325715 0.1392343 0.78600001 1.5022173e-38
0.094560005 0.13958858 0.78800005 1.3915456e-38
0.097561911 0.13958858 0.78800005 7.0944855e-39
0.10059596 0.1396331 0.78825009 5.9892351e-39
0.10294572 0.13976571 0.78900003 5.8991989e-39
0.067628577 0.14202 0.78900003 1.6771034e-38
0.070589535 0.14268145 0.78850007 1.6494087e-38
0.073499531 0.14250049 0.78750008 1.6401883e-38
0.076402389 0.14231953 0.78650004 1.6310404e-38
0.079348579 0.14222859 0.78600001 1.6402234e-38
0.082342863 0.14222859 0.78600001 1.5942334e-38
0.085337147 0.14222857 0.78600001 1.5572841e-38
0.088331431 0.14222857 0.78600001 1.5205847e-38
0.091325715 0.14222857 0.78600001 1.4835987e-38
0.094560012 0.14259049 0.78800005 1.3730714e-38
0.097623818 0.14268145 0.78850007 6.5431137e-39
0.10044096 0.14252096 0.78900003 5.1616423e-39
0.070634291 0.14577717 0.78900003 1.6403698e-38
0.07361643 0.14573121 0.78875005 1.6311473e-38
0.076572627 0.14563882 0.78825009 1.6034893e-38
0.079499528 0.14550048 0.78750008 1.6034894e-38
0.082447626 0.14540859 0.787 1.5666476e-38
0.085337147 0.14522287 0.78600001 1.5298058e-38
0.088331431 0.14522286 0.78600001 1.4931052e-38
0.091500483 0.14550048 0.78750008 1.4379318e-38
0.094620481 0.14568478 0.78850007 1.3543105e-38
0.097685724 0.14577717 0.78900003 6.5416704e-39
0.099940009 0.14502573 0.78900003 4.7971533e-39
0.071385719 0.14803144 0.78900003 1.6679549e-38
0.073640004 0.14803144 0.78900003 1.6311471e-38
0.076863497 0.14846985 0.78866673 1.6034526e-38
0.079575479 0.14864169 0.78825009 1.5850505e-38
0.082552388 0.1485943 0.78800005 1.5666472e-38
0.085390955 0.14831191 0.78650004 1.5574638e-38
0.088331439 0.14821716 0.78600001 1.5114732e-38
0.09158738 0.14864168 0.78825003 1.4839571e-38
0.094680011 0.14878288 0.78900003 1.3086086e-38
0.079867944 0.1514743 0.78866673 1.5667191e-38
0.082552388 0.15159619 0.78800005 1.5667541e-38
0.085581198 0.15164453 0.78825009 1.5482082e-38
0.088584527 0.15164453 0.78825009 1.5112945e-38
0.091674291 0.15103716 0.78900003 1.4837412e-38
0.093928576 0.15103716 0.78900003 1.3270486e-38
0.082657151 0.15404287 0.78900003 1.5851567e-38
0.085913345 0.15454383 0.78900003 1.5389521e-38
0.088418111 0.15454382 0.78900003 1.5296608e-38
0.082657151 0.15704858 0.78900003 1.5484225e-38
0.085662864 0.15704858 0.78900003 1.5299116e-38
0.087917149 0.15780002 0.78900003 1.5114373e-38
0.062684767 0.061174288 0.79300004 3.7706714e-39
0.068726674 0.062684767 0.79300004 3.226145e-39
0.07099238 0.062684767 0.79300004 2.7648067e-39
0.074013337 0.062684767 0.79300004 2.6722538e-39
0.07608667 0.062526673 0.79100001 2.5789861e-39
0.065540001 0.065540001 0.79100001 6.2739509e-39
0.067605406 0.06458953 0.79166669 3.9687351e-39
0.070621274 0.06458953 0.79166669 3.4144739e-39
0.12450826 0.065650478 0.79233336 7.5578192e-39
0.12763524 0.065705717 0.79300004 1.0688998e-38
0.11676668 0.067046672 0.79100001 2.1179828e-39
0.11877557 0.068051115 0.79100007 3.3093401e-39
0.12170992 0.06771715 0.79179996 4.6101318e-39
0.12505335 0.067046672 0.79100001 1.5207854e-38
0.12806667 0.067046672 0.79100001 5.7139711e-39
0.055816196 0.079954289 0.79200006 9.1317044e-39
0.053118419 0.083327942 0.7930001 8.4895369e-39
0.054993335 0.082866669 0.79100001 9.0394835e-39
0.12279334 0.083620004 0.79100001 3.9619066e-39
0.12461429 0.083831437 0.79300004 3.9626156e-39
0.052799053 0.085988574 0.79200006 6.4616338e-39
0.054993335 0.085880011 0.79100001 7.0137286e-39
0.12279334 0.08663334 0.79100001 5.2493874e-39
0.1241108 0.085845403 0.7930001 4.3306723e-39
0.12612477 0.085341908 0.79300004 3.9633191e-39
0.053486671 0.088140003 0.79100001 5.6581629e-40
0.054993335 0.088893339 0.79100001 1.1146573e-39
0.12279334 0.088893339 0.79100001 5.8011192e-39
0.12445715 0.08900477 0.79200006 5.433773e-39
0.05549556 0.091655552 0.79100007 1.7581966e-39
0.12279334 0.091906667 0.79100001 4.7005464e-39
0.12430001 0.091906667 0.79100001 4.9756773e-39
0.056091752 0.094828896 0.79233336 1.9364768e-39
0.12279334 0.094166674 0.79100001 5.1579176e-39
0.12430001 0.094166674 0.79100001 5.3430165e-39
0.056571431 0.098058105 0.79200006 4.5247325e-39
0.05800667 0.098686673 0.79100001 8.8471455e-39
0.12279334 0.097933337 0.79100001 4.4232533e-39
0.05664286 0.10120191 0.79300004 1.7326999e-38
0.05800667 0.10094667 0.79100001 1.7233014e-38
0.11978001 0.10170001 0.79100001 4.7870163e-39
0.1217889 0.10069557 0.79100007 3.8686487e-39
0.12310382 0.10195715 0.79300004 3.8650558e-39
0.058833338 0.10409144 0.79200006 1.6865726e-38
0.11877557 0.10370889 0.79100007 3.9576186e-39
0.12083811 0.10422286 0.79300004 3.7714239e-39
0.058833338 0.10710858 0.792 1.6864285e-38
0.061020005 0.10772667 0.79100001 1.6955056e-38
0.11676668 0.10697334 0.79100001 9.205592e-40
0.11857239 0.10724382 0.79300004 6.4470379e-40
0.12008286 0.10648858 0.79300004 2.7844081e-40
0.059060007 0.10982763 0.79166669 1.6956129e-38
0.061020005 0.10998668 0.79100001 1.686359e-38
0.11526 0.10998668 0.79100001 8.2724814e-40
0.11781715 0.10950953 0.79300004 9.1983053e-40
0.058833338 0.11238763 0.79200006 1.6773889e-38
0.061020005 0.11300001 0.79100001 1.6682408e-38
0.11375334 0.11375334 0.79100001 5.5141515e-40
0.11576223 0.11274891 0.79100007 1.1031358e-39
0.1180689 0.1115235 0.7930001 1.1953286e-39
0.058656834 0.11504795 0.7930001 1.6865366e-38
0.061020005 0.11601334 0.79100001 1.6682049e-38
0.11375334 0.11601334 0.79100001 1.0109472e-39
0.11576223 0.11626446 0.79100007 1.2875242e-39
0.11790838 0.11519029 0.7926001 1.3786423e-39
0.059160322 0.11756541 0.7930001 1.6957205e-38
0.062024452 0.11877557 0.79100007 1.6773182e-38
0.11375334 0.11902668 0.79100001 1.6548662e-39
0.11576223 0.11877557 0.79100007 1.380073e-39
0.11902668 0.11902668 0.79100001 1.0127282e-39
0.12008286 0.11706191 0.79300004 1.0120079e-39
0.059663814 0.12008286 0.79300004 1.7052636e-38
0.061850481 0.12143905 0.79200006 1.6865021e-38
0.11375334 0.12204 0.79100001 9.2198573e-40
0.11555143 0.12159334 0.79300004 1.0141659e-39
0.11756541 0.12108985 0.7930001 1.4718973e-39
0.061850481 0.1244562 0.79200006 1.6955413e-38
0.064033337 0.12580667 0.79100001 1.6771362e-38
0.11300001 0.12505335 0.79100001 2.5735645e-39
0.11555143 0.12385906 0.79300004 1.5651761e-39
0.11706191 0.12310382 0.79300004 1.4736881e-39
0.061677784 0.12713176 0.7930001 1.6771379e-38
0.064033337 0.12806667 0.79100001 1.6679544e-38
0.11074001 0.12806667 0.79100001 3.4108866e-39
0.11274891 0.12781557 0.79100007 2.6657854e-39
0.11555143 0.12688001 0.79300004 1.6562927e-39
0.061929531 0.12990096 0.79300004 1.6772098e-38
0.064033337 0.13108 0.79100001 1.6680981e-38
0.10998668 0.13108 0.79100001 5.7100166e-39
0.11253048 0.1306562 0.79300004 3.3983436e-39
0.11404096 0.12990096 0.79300004 2.480692e-39
0.061929528 0.1329219 0.79300004 1.6498024e-38
0.06503778 0.13384223 0.79100007 1.6682783e-38
0.10697334 0.13409334 0.79100001 7.6500807e-39
0.10950953 0.13367715 0.79300004 7.2719459e-39
0.11177525 0.1329219 0.79300004 5.3358629e-39
0.062684767 0.13594286 0.79300004 1.6589149e-38
0.064867623 0.13652477 0.792 1.6772471e-38
0.067046672 0.13635334 0.79100001 1.6862857e-38
0.10471334 0.13710669 0.79100001 5.2581231e-39
0.10681303 0.13697049 0.79166669 6.4519705e-39
0.10950953 0.13594286 0.79300004 6.9997016e-39
0.11102001 0.13518763 0.79300004 6.6298205e-39
0.062684767 0.13896382 0.79300004 1.6681709e-38
0.064867623 0.13954191 0.792 1.6498038e-38
0.10471334 0.14012 0.79100001 5.3496236e-39
0.10740604 0.13909811 0.79233336 6.2658178e-39
0.10950953 0.13820858 0.79300004 6.5402397e-39
0.064643502 0.14211653 0.79233336 1.7047976e-38
0.0678 0.14388667 0.79100001 1.6495169e-38
0.10170001 0.14388667 0.79100001 5.4378746e-39
0.10396001 0.14313334 0.79100001 4.7957506e-39
0.10724382 0.14198478 0.79300004 5.3492705e-39
0.065202229 0.14475399 0.7930001 1.6221096e-38
0.068051115 0.14589557 0.79100007 1.6311861e-38
0.10119778 0.1463978 0.79100007 5.0719395e-39
0.10379715 0.14601812 0.79166669 5.3463993e-39
0.10724382 0.14500573 0.79300004 5.0726906e-39
0.065705717 0.14727144 0.79300004 1.6404766e-38
0.067661911 0.14815335 0.79233336 1.6587719e-38
0.070562236 0.14941111 0.79100007 1.6587358e-38
0.073826671 0.14991334 0.79100001 1.6035249e-38
0.07608667 0.14991334 0.79100001 1.5943038e-38
0.097933337 0.14916 0.79100001 5.9910358e-39
0.10094666 0.14916001 0.79100001 5.0726864e-39
0.10438763 0.14815335 0.79233336 6.0807231e-39
0.10648858 0.14802667 0.79300004 5.6219029e-39
0.068726674 0.15104763 0.79300004 1.6586639e-38
0.07099238 0.15180287 0.79300004 1.6402968e-38
0.073826671 0.15217334 0.79100001 1.5943067e-38
0.076840006 0.15217334 0.79100001 1.5759398e-38
0.079100005 0.15292668 0.79100001 1.5759033e-38
0.091906667 0.15292668 0.79100001 1.5113269e-38
0.095171116 0.15242445 0.79100007 1.2163062e-38
0.097933337 0.15217334 0.79100001 5.2538477e-39
0.10094667 0.15217334 0.79100001 4.6138733e-39
0.10422286 0.15104763 0.79300004 5.255284e-39
0.068726674 0.15406859 0.79300004 1.6494452e-38
0.07099238 0.15406859 0.79300004 1.6677401e-38
0.073919058 0.15462857 0.79200006 1.6218208e-38
0.07709112 0.15493557 0.79100007 1.5760111e-38
0.079853341 0.15518668 0.79100001 1.5667906e-38
0.082866669 0.15594001 0.79100001 1.5759728e-38
0.085126676 0.15594001 0.79100001 1.5482786e-38
0.089646675 0.15594001 0.79100001 1.5204765e-38
0.091906674 0.15518668 0.79100001 1.5295869e-38
0.094920009 0.15518668 0.79100001 1.2345277e-38
0.097933337 0.15518667 0.79100001 5.6154331e-39
0.10094667 0.15443334 0.79100001 4.8879406e-39
0.10397112 0.15381685 0.7930001 4.7961051e-39
0.071244135 0.15683779 0.7930001 1.6496235e-38
0.074013337 0.15708953 0.79300004 1.6034889e-38
0.076717153 0.15720859 0.79233336 1.5576794e-38
0.079853341 0.15820001 0.79100001 1.5668623e-38
0.082866669 0.15895334 0.79100001 1.5484945e-38
0.085880011 0.15895334 0.79100001 1.5300195e-38
0.089646675 0.15820001 0.79100001 1.5021812e-38
0.091906667 0.15820001 0.79100001 1.502108e-38
0.094749533 0.15808161 0.79166669 1.2346349e-38
0.098180965 0.15784477 0.79300004 5.7998174e-39
0.10120191 0.15708953 0.79300004 5.0708886e-39
0.10346763 0.15708953 0.79300004 5.1648933e-39
0.10120191 0.15935525 0.79300004 4.8861358e-39
0.060761433 0.059242383 0.79750001 3.4987508e-39
0.066796198 0.059964765 0.79700005 3.1299459e-39
0.069073334 0.059964765 0.79700005 3.6827595e-39
0.059205718 0.061482862 0.79700005 3.0399208e-39
0.060761433 0.060761433 0.79750001 3.2239534e-39
0.064600006 0.061560005 0.79800004 3.5866556e-39
0.0669927 0.061936196 0.79633331 3.3136603e-39
0.070531115 0.061431434 0.79633331 3.4072782e-39
0.073442861 0.061328575 0.79500002 3.0406509e-39
0.059458733 0.063506991 0.79700011 4.1459069e-39
0.061482862 0.063760005 0.79700005 4.0519288e-39
0.063800484 0.063800007 0.79750007 3.7750084e-39
0.066037148 0.063760005 0.79700005 3.2243625e-39
0.12144668 0.064517625 0.79700005 2.5775316e-39
0.12417144 0.064357147 0.79500002 2.9402016e-39
0.11932001 0.066120006 0.79800004 2.4863995e-39
0.12084001 0.066120006 0.79800004 3.1310571e-39
0.12644286 0.084042862 0.79500002 4.052991e-39
0.12644286 0.088585719 0.79500002 4.8827614e-39
0.12744144 0.090270005 0.79650003 5.2497447e-39
0.053824767 0.097037151 0.796 4.0476086e-39
0.055271432 0.096914291 0.79500002 2.3895446e-39
0.053892385 0.10019429 0.79700005 1.5484806e-38
0.055271432 0.099942863 0.79500002 1.4285875e-38
0.053960003 0.10336001 0.79800004 1.7418189e-38
0.055892065 0.10344001 0.79666674 1.7051204e-38
0.053960003 0.10564001 0.79800004 1.6956863e-38
0.056151193 0.10623311 0.79675007 1.6773906e-38
0.12205334 0.1061343 0.796 2.0251075e-39
0.053960003 0.10944001 0.79800004 1.6865378e-38
0.056098096 0.10916572 0.796 1.6773537e-38
0.1212962 0.10916571 0.796 6.4433805e-40
0.053960003 0.11248001 0.79800004 1.6865377e-38
0.056098096 0.1121981 0.796 1.686573e-38
0.12114286 0.11205715 0.79500002 1.0113045e-39
0.053960003 0.11552 0.79800004 1.695757e-38
0.056063335 0.11515857 0.79550004 1.7232712e-38
0.12089048 0.11483334 0.79500002 1.0105814e-39
0.053960003 0.11856 0.79800004 1.7144822e-38
0.056186907 0.11844882 0.79725003 1.704832e-38
0.058300003 0.11887144 0.79500002 1.6956849e-38
0.055962861 0.12180223 0.79766673 1.6956851e-38
0.058353577 0.12125644 0.79575002 1.6957927e-38
0.12038572 0.12190001 0.79500002 1.1045609e-39
0.053960003 0.12388001 0.79800004 1.7231308e-38
0.055480003 0.12464 0.79800004 1.7140194e-38
0.058420323 0.12443176 0.79666674 1.6865382e-38
0.11846636 0.12452857 0.79566669 1.1978173e-39
0.12053715 0.12432858 0.796 9.2123883e-40
0.055962861 0.12787971 0.79766673 1.6956855e-38
0.058645722 0.12714401 0.79560006 1.677389e-38
0.11826381 0.12736 0.796 9.2160878e-40
0.12068858 0.12752001 0.79700005 4.6171243e-40
0.058420327 0.1305016 0.79666674 1.7048319e-38
0.11598858 0.13039143 0.796 1.8381911e-39
0.11856 0.13072002 0.79800004 1.1038546e-39
0.12084001 0.13072002 0.79800004 1.0120135e-39
0.058420323 0.13353652 0.79666674 1.7231996e-38
0.11281429 0.13401429 0.79500002 5.3319182e-39
0.11523144 0.13342477 0.796 3.4011966e-39
0.11856 0.13376001 0.79800004 2.2066009e-39
0.12084001 0.13376001 0.79800004 1.7481338e-39
0.059242383 0.13671429 0.79750007 1.7048681e-38
0.061328575 0.13628572 0.79500002 1.6773161e-38
0.11240413 0.13665304 0.79566669 6.2603387e-39
0.11533977 0.13658644 0.79675007 5.4312647e-39
0.11830667 0.13654667 0.79800004 5.3397599e-39
0.12084001 0.13604 0.79800004 3.1328339e-39
0.059242383 0.13975239 0.79750001 1.7048333e-38
0.061328575 0.13931429 0.79500002 1.6865022e-38
0.10978572 0.14007144 0.79500002 6.0825027e-39
0.11219905 0.13948953 0.796 5.8040872e-39
0.11548406 0.13979644 0.79775006 5.0657738e-39
0.1178 0.13908 0.79800004 5.52311e-39
0.061455242 0.14264129 0.79666674 1.6956506e-38
0.10978572 0.14234287 0.79500002 5.6233225e-39
0.11226904 0.14261191 0.79650009 5.8059369e-39
0.11476 0.14288001 0.79800004 6.1718215e-39
0.061455242 0.1456762 0.79666674 1.704869e-38
0.064357147 0.14612858 0.79500002 1.6314367e-38
0.10978572 0.14537144 0.79500002 5.2566811e-39
0.11230452 0.14569215 0.79675007 5.4403745e-39
0.11476 0.14516 0.79800004 6.1743649e-39
0.058520004 0.14896001 0.79800004 1.6864649e-38
0.061177719 0.14862192 0.79700011 1.6866449e-38
0.064396672 0.14887239 0.79550004 1.6955776e-38
0.10916667 0.14858668 0.796 5.1638003e-39
0.11244501 0.14891358 0.79775006 5.2541924e-39
0.061053336 0.15174668 0.79800004 1.6772459e-38
0.064198099 0.15162021 0.79680008 1.677067e-38
0.066936195 0.15180859 0.79566669 1.6678834e-38
0.10675715 0.15142858 0.79500002 5.1637989e-39
0.10937192 0.15190478 0.79750007 4.9812111e-39
0.11172001 0.15200001 0.79800004 4.7049773e-39
0.061560005 0.15428001 0.79800004 1.6772466e-38
0.063840002 0.15504001 0.79800004 1.6680271e-38
0.06675382 0.15474905 0.79650009 1.6680272e-38
0.10634192 0.15483969 0.79566669 4.6124215e-39
0.10918668 0.15478668 0.79800004 4.9804978e-39
0.10633381 0.15798096 0.79750007 4.9808509e-39
0.10868001 0.15808001 0.79800004 5.072685e-39
0.11911112 0.064253971 0.80000007 2.2087449e-39
0.11762477 0.06645143 0.80200005 2.3012964e-39
0.052571431 0.09828572 0.80000001 7.4390998e-39
0.049771432 0.10184 0.80400002 1.8341534e-38
0.052193653 0.10107747 0.80200005 1.695496e-38
0.049647622 0.10311429 0.80200005 1.7694409e-38
0.051873334 0.10374858 0.801 1.7510023e-38
0.049771432 0.10796572 0.80400002 1.7140176e-38
0.051906191 0.10686715 0.80150002 1.6956142e-38
0.054230481 0.10769715 0.80200005 1.6865384e-38
0.052236196 0.10982477 0.80266666 1.6957216e-38
0.049260955 0.11204953 0.80400008 1.695829e-38
0.052002858 0.11241905 0.80300003 1.686538e-38
0.052002858 0.11547811 0.80300003 1.6955417e-38
0.051905241 0.11831477 0.80150002 1.7233789e-38
0.052149843 0.12185271 0.80133337 1.7141243e-38
0.054095242 0.12190477 0.80000001 1.7048327e-38
0.052106034 0.12480192 0.80066669 1.7139457e-38
0.054095242 0.12571429 0.80000001 1.7415328e-38
0.052571431 0.12800002 0.80000001 1.7232e-38
0.054095242 0.12800002 0.80000001 1.7232361e-38
0.052702859 0.13061143 0.80200005 1.7140157e-38
0.055156194 0.13090223 0.80066669 1.704833e-38
0.052323814 0.13348953 0.80400008 1.6956865e-38
0.054924764 0.13349906 0.801 1.7139454e-38
0.052834291 0.13629715 0.80400002 1.686537e-38
0.054783493 0.13632509 0.80266666 1.7048329e-38
0.057142861 0.13714287 0.80000001 1.7415312e-38
0.11961906 0.13790478 0.80000001 5.7078194e-39
0.12114286 0.13790478 0.80000001 4.2359417e-39
0.05506191 0.13918668 0.80300003 1.6956139e-38
0.057142861 0.14019048 0.80000001 1.7141246e-38
0.11885715 0.14019048 0.80000001 4.1434111e-39
0.12114286 0.13942859 0.80000001 3.2239632e-39
0.055061907 0.14224572 0.80299997 1.6956144e-38
0.057904765 0.1424762 0.80000001 1.6957577e-38
0.11657143 0.1424762 0.80000001 5.250542e-39
0.11931049 0.14220446 0.80133337 3.8657298e-39
0.055897146 0.14548573 0.80400002 1.6956146e-38
0.057976194 0.14494285 0.801 1.6957214e-38
0.11671714 0.14494382 0.801 5.8055753e-39
0.1185381 0.14530572 0.80300003 5.2552546e-39
0.0557581 0.14817905 0.80200005 1.6957228e-38
0.057650797 0.14755556 0.80000007 1.6956856e-38
0.11595525 0.14799429 0.801 5.5304318e-39
0.11868572 0.14778286 0.80400002 5.1641702e-39
0.0557581 0.15047048 0.80200005 1.6957222e-38
0.057698421 0.15123747 0.80066669 1.6956123e-38
0.11352382 0.15161906 0.80000001 5.2545343e-39
0.11595525 0.15104572 0.801 5.5297143e-39
0.057976194 0.15409715 0.801 1.7050484e-38
0.06019048 0.15390477 0.80000001 1.6772822e-38
0.11301588 0.15415874 0.80000007 4.9801335e-39
0.11533525 0.15428954 0.80200005 5.530429e-39
0.11715429 0.15467429 0.80400002 5.2567204e-39
0.1104762 0.15695238 0.80000001 5.0726934e-39
0.11283287 0.15705097 0.80050004 4.9797775e-39
0.11533525 0.15734477 0.80200005 4.9801363e-39
0.11715429 0.15773715 0.80400002 4.796824e-39
0.12081525 0.060792387 0.80800003 2.3920641e-39
0.1161981 0.065409526 0.80800003 3.67811e-39
0.11836096 0.064559057 0.80700004 2.482808e-39
0.11591049 0.066782862 0.80600005 3.954341e-39
0.046389207 0.10943811 0.80733341 1.7143407e-38
0.048871752 0.10925779 0.80600011 1.7140536e-38
0.046824764 0.11130477 0.80600005 1.7049416e-38
0.048360005 0.11130477 0.80600005 1.7049772e-38
0.049423497 0.11498159 0.80666673 1.6957918e-38
0.049895242 0.11821334 0.80600005 1.7140876e-38
0.046940956 0.13158858 0.80800003 1.7048333e-38
0.04924953 0.13158858 0.80800003 1.7139448e-38
0.051430479 0.13126287 0.80600005 1.7139803e-38
0.04688286 0.13373049 0.80700004 1.7140883e-38
0.049188577 0.13373049 0.80700004 1.7232717e-38
0.051430479 0.13279811 0.80600005 1.6956856e-38
0.046824764 0.13586858 0.80600005 1.7508225e-38
0.049188577 0.13680668 0.80700004 1.7416387e-38
0.051430479 0.1366362 0.80600005 1.6773536e-38
0.046940956 0.14005335 0.80800003 1.7049416e-38
0.04924953 0.14005335 0.80800003 1.6865382e-38
0.052198097 0.13970667 0.80600005 1.6681707e-38
0.048480004 0.14236191 0.80800003 1.7049062e-38
0.052261911 0.14295429 0.80700004 1.6956144e-38
0.052261911 0.14602858 0.80700004 1.7139817e-38
0.054500956 0.14584763 0.80600005 1.7047624e-38
0.1211289 0.14571176 0.80666673 4.7031206e-39
0.052230004 0.14901002 0.80650002 1.7049769e-38
0.054500956 0.14891811 0.80600005 1.6956865e-38
0.11898096 0.14968573 0.80600005 5.1627297e-39
0.12081525 0.1485181 0.80800003 5.0712515e-39
0.050019052 0.1515962 0.80800003 1.741533e-38
0.052261911 0.15140858 0.80700004 1.7139817e-38
0.055268575 0.15198858 0.80600005 1.6956499e-38
0.11898096 0.15198858 0.80600005 5.0712557e-39
0.12071556 0.15146986 0.80733341 5.07089e-39
0.11898096 0.15505905 0.80600005 4.9801335e-39
0.12122858 0.15505843 0.80733341 5.1623639e-39
0.11677334 0.062640004 0.81200004 4.1369357e-39
0.11856877 0.061681148 0.81160015 3.310789e-39
0.12111429 0.062485717 0.81000006 3.1260306e-39
0.11802858 0.064028576 0.81000006 3.126004e-39
0.12450667 0.14616001 0.81200004 3.7789825e-39
0.12265715 0.14811429 0.81000006 4.7067724e-39
0.12450667 0.14848 0.81200004 4.6116999e-39
0.12265715 0.15120001 0.81000006 5.0708928e-39
0.12450667 0.15157333 0.81200004 4.9801335e-39
0.11875715 0.059766669 0.81500006 3.1278313e-39
