# .PCD v0.7 - Point Cloud Data file format
VERSION 0.7
FIELDS x y z rgb
SIZE 4 4 4 4
TYPE F F F F
COUNT 1 1 1 1
WIDTH 947
HEIGHT 1
VIEWPOINT 0 0 0 1 0 0 0
POINTS 947
DATA ascii
-0.080304764 0.12278858 0.54400003 8.3008423e-39
-0.077054292 0.12256286 0.54300004 7.9349142e-39
-0.084928341 0.12532119 0.54375005 7.9352912e-39
-0.082035244 0.12486082 0.54271436 7.9352842e-39
-0.079566836 0.12451604 0.54250002 7.842734e-39
-0.076638438 0.12447429 0.54272735 7.8423528e-39
-0.073336512 0.12475831 0.54355562 8.0253344e-39
-0.070627086 0.1249098 0.54357147 8.1160867e-39
-0.068000413 0.12512396 0.54385728 7.6576253e-39
-0.087558098 0.12693334 0.54400003 8.3937568e-39
-0.085239053 0.12766358 0.54325002 8.2107991e-39
-0.082142018 0.12760381 0.54244447 7.9352814e-39
-0.079493336 0.12749906 0.54200006 7.6586861e-39
-0.076943494 0.12755154 0.54222226 7.4746563e-39
-0.073951438 0.1277343 0.54300004 7.4746816e-39
-0.070848569 0.1277343 0.54300004 7.8413019e-39
-0.06777323 0.12778614 0.54322225 7.3810468e-39
-0.06573762 0.12836906 0.54350007 7.1973898e-39
-0.085247435 0.13020135 0.54380006 8.1171671e-39
-0.082077965 0.13054165 0.54300004 8.2100578e-39
-0.079233699 0.13093656 0.54287499 7.657586e-39
-0.076697968 0.13058695 0.54257149 7.3813873e-39
-0.07393609 0.13081017 0.54288894 7.2902875e-39
-0.071033336 0.1306105 0.54328579 7.4728683e-39
-0.067828901 0.13048035 0.54366678 6.9214938e-39
-0.065152191 0.13020135 0.54380006 6.0920904e-39
-0.08444953 0.13263239 0.54400003 7.5661653e-39
-0.082310483 0.13338645 0.54355562 8.1168042e-39
-0.079122864 0.13394001 0.54300004 7.7486999e-39
-0.076537147 0.13394001 0.54300004 7.1058598e-39
-0.073713474 0.13345443 0.54342866 6.8314379e-39
-0.07046096 0.13211429 0.54400003 7.3802985e-39
-0.067870483 0.13211429 0.54400003 5.5428655e-39
-0.06545271 0.1324597 0.54400003 3.5988231e-39
-0.08235579 0.13622327 0.54385728 5.0751093e-39
-0.079171754 0.13660985 0.54333341 2.4968378e-39
-0.076367252 0.13646629 0.54400009 2.3099368e-39
-0.074087627 0.13522287 0.54400003 2.6776389e-39
-0.081340961 0.13833144 0.54400003 1.6559578e-39
-0.06315048 0.12264763 0.54800004 7.7512572e-39
-0.062050004 0.12201382 0.54750001 7.6590602e-39
-0.096728578 0.12444001 0.54900002 8.5795704e-39
-0.094446041 0.12470932 0.54788893 8.5777935e-39
-0.091317743 0.12440512 0.54712504 8.5778075e-39
-0.088692673 0.12452505 0.54642862 8.2104697e-39
-0.08621677 0.12427925 0.546 8.1186104e-39
-0.066732705 0.12410604 0.546 7.8434711e-39
-0.064148337 0.1242631 0.54649997 7.7501894e-39
-0.061310273 0.12453249 0.54711115 7.3821286e-39
-0.058691844 0.12491606 0.54814291 6.8303771e-39
-0.056468576 0.12496287 0.54900002 6.0006263e-39
-0.096728586 0.1270543 0.54900002 8.3948358e-39
-0.094227269 0.1275906 0.54737508 8.4866783e-39
-0.091520011 0.12740001 0.546 8.1182573e-39
-0.088969052 0.1272831 0.54550004 8.3019227e-39
-0.086680956 0.12612858 0.54500002 8.2100914e-39
-0.064780481 0.12709501 0.54525 7.4732298e-39
-0.061929736 0.1275035 0.54644442 6.9222154e-39
-0.058938734 0.1277889 0.54766673 4.9821443e-39
-0.056528442 0.12731946 0.54885721 4.0566287e-39
-0.096728586 0.13019145 0.54900002 8.1193139e-39
-0.094664223 0.13032028 0.54828578 8.0264008e-39
-0.091632068 0.1306797 0.54666674 7.7498349e-39
-0.088866144 0.13044076 0.54566669 8.116807e-39
-0.086680956 0.13080001 0.54500002 8.1168042e-39
-0.063842863 0.13028096 0.54500002 5.3505933e-39
-0.061645057 0.1304784 0.54670006 3.9676561e-39
-0.058453336 0.13047621 0.54800004 2.4882436e-39
-0.056343246 0.13035315 0.54880005 3.1303775e-39
-0.096728578 0.13228287 0.54900002 8.1182237e-39
-0.094191447 0.13297103 0.54814291 7.4743144e-39
-0.091190763 0.13391976 0.54714286 8.0253218e-39
-0.088646136 0.13352667 0.54614288 7.1988149e-39
-0.086052522 0.13371865 0.54571432 7.8431067e-39
-0.072147623 0.13443334 0.54500002 4.8906129e-39
-0.07013572 0.13403763 0.54550004 5.3462507e-39
-0.067476198 0.13391429 0.54500002 3.2253953e-39
-0.064534932 0.13374127 0.54500008 1.9368229e-39
-0.061469685 0.13336304 0.54700005 1.3847617e-39
-0.058488578 0.133167 0.54833341 1.4744617e-39
-0.056552388 0.13307126 0.54880005 2.4939946e-39
-0.093971603 0.1362589 0.54816675 8.0296364e-39
-0.091458924 0.13647988 0.54785722 8.2136815e-39
-0.088561907 0.13648954 0.54700005 7.4779087e-39
-0.085674711 0.13649864 0.54614288 7.6576225e-39
-0.083566673 0.13754763 0.54500002 9.3063874e-40
-0.075261913 0.13702857 0.54500002 1.9357691e-39
-0.073262453 0.13665321 0.54557151 1.9361278e-39
-0.070366673 0.13649866 0.54614288 1.3865582e-39
-0.067194641 0.13685894 0.54587501 1.2950604e-39
-0.064618103 0.13643335 0.54528582 1.1121139e-39
-0.061373908 0.13663371 0.54800004 9.2559967e-40
-0.058821436 0.1362043 0.54900002 1.3793695e-39
-0.093975626 0.13934325 0.54880005 2.3084977e-39
-0.091333337 0.13934858 0.54800004 2.309225e-39
-0.088615879 0.13917971 0.54733342 2.1237631e-39
-0.086048581 0.13916072 0.54675001 1.6631381e-39
-0.082741775 0.13973416 0.54542863 2.1201492e-39
-0.079511434 0.13979526 0.54566669 2.2126979e-39
-0.076552503 0.13971822 0.54587501 1.4783895e-39
-0.073285989 0.13935566 0.54685718 2.2116596e-39
-0.070198342 0.13922453 0.54699999 1.0192218e-39
-0.067202859 0.13961525 0.54700005 1.2954402e-39
-0.064115562 0.13970065 0.54733336 1.0188575e-39
-0.06156991 0.13913409 0.54880005 8.3054259e-40
-0.059082862 0.13855715 0.54900002 1.9562127e-40
-0.093591437 0.14169429 0.54900002 1.938646e-39
-0.091307268 0.14251228 0.54862505 1.6624136e-39
-0.088332392 0.14261049 0.54800004 2.2134126e-39
-0.085704096 0.14214599 0.5472858 2.3974647e-39
-0.082788169 0.14244342 0.54671431 1.9389725e-39
-0.079632863 0.14261097 0.54649997 1.6634674e-39
-0.076351158 0.14236885 0.54642862 1.2954248e-39
-0.073439158 0.14219113 0.54688889 1.6609787e-39
-0.070328578 0.14222001 0.54699999 1.5684117e-39
-0.067216299 0.14224912 0.54711115 1.9346663e-39
-0.064245716 0.14259578 0.54844457 5.5292379e-39
-0.062220003 0.14221716 0.54900002 9.134137e-39
-0.090454295 0.1453543 0.54900002 1.2050158e-39
-0.088255987 0.14570041 0.54833341 1.2017914e-39
-0.085368715 0.14576054 0.5480001 1.0184819e-39
-0.082738824 0.14528239 0.54725003 1.2039396e-39
-0.079705723 0.14534572 0.54699999 8.3373195e-40
-0.076580003 0.1453457 0.54699999 7.4116778e-40
-0.073454291 0.14534572 0.54699999 4.2352368e-39
-0.070371434 0.14543493 0.54733336 8.2922383e-39
-0.067311645 0.14558254 0.54788893 1.2906668e-38
-0.06442681 0.14550275 0.54871434 1.6405426e-38
-0.08815372 0.14838688 0.54900002 5.0574501e-39
-0.085096352 0.1482662 0.54816675 6.9978519e-39
-0.082536191 0.14835668 0.54850006 9.484592e-39
-0.079851441 0.14874288 0.54800004 1.3822128e-38
-0.076673336 0.14865305 0.54766667 1.4840587e-38
-0.073685244 0.14854503 0.54775 1.5855832e-38
-0.070521429 0.14835668 0.54850006 1.5673295e-38
-0.067710005 0.14823002 0.54900002 1.5481709e-38
-0.065357149 0.14796858 0.54900002 1.4652313e-38
-0.087840006 0.15006001 0.54900002 1.3098594e-38
-0.085016571 0.15047829 0.54900002 1.577191e-38
-0.082237974 0.15110572 0.54900002 1.6133529e-38
-0.079474285 0.15110572 0.54900002 1.5663957e-38
-0.076650858 0.15152399 0.54900002 1.5206925e-38
-0.073573485 0.1514045 0.54900002 1.492963e-38
-0.071004003 0.15068744 0.54900002 1.4929623e-38
-0.073722862 0.15319715 0.54900002 1.4838146e-38
-0.097081915 0.11976953 0.55400002 7.4728683e-39
-0.09444382 0.11976954 0.55400002 8.2104431e-39
-0.10288572 0.12293524 0.55400002 8.1189622e-39
-0.10049181 0.12242439 0.55360001 8.5777907e-39
-0.097433545 0.12165895 0.55300003 8.2108005e-39
-0.094178833 0.12153693 0.55244446 8.670701e-39
-0.091153756 0.12146395 0.55142862 8.5781256e-39
-0.088640004 0.12240763 0.55400002 8.2100578e-39
-0.055366673 0.12286128 0.55366671 6.0874998e-39
-0.10305667 0.12493238 0.5535 8.3029947e-39
-0.10043228 0.12461831 0.55211115 8.8561544e-39
-0.097535245 0.1239924 0.55120003 8.5795662e-39
-0.09462858 0.12354287 0.55200005 8.3022814e-39
-0.091722868 0.12316985 0.55033338 8.8536559e-39
-0.088950478 0.12369207 0.55266672 8.1171727e-39
-0.057620004 0.12381747 0.55166668 7.4743424e-39
-0.054980837 0.12426441 0.55112505 5.5336155e-39
-0.052453615 0.12485115 0.55314291 4.9794104e-39
-0.10317557 0.1270797 0.55366671 8.5792383e-39
-0.10027079 0.1275688 0.55122226 7.9356555e-39
-0.097952388 0.12728572 0.55000007 8.1193321e-39
-0.055000003 0.12728572 0.55000007 4.0570533e-39
-0.052590225 0.12730208 0.55172729 5.2556315e-39
-0.049860004 0.1271562 0.55400002 5.5314954e-39
-0.10270002 0.13008669 0.55300009 7.9352968e-39
-0.10023079 0.13066573 0.551 7.9345653e-39
-0.097952388 0.13042858 0.55000007 8.0271449e-39
-0.054525241 0.13054715 0.55050004 5.8999023e-39
-0.052019883 0.13024798 0.55312502 5.9896065e-39
-0.050123818 0.13032192 0.55400002 5.5307793e-39
-0.10288572 0.13243239 0.55400002 7.9349254e-39
-0.10023661 0.13372178 0.55185723 8.1175216e-39
-0.097568966 0.13382992 0.55019999 7.9338464e-39
-0.095857151 0.13409525 0.55000001 7.5675918e-39
-0.054742727 0.13382518 0.55042857 1.087981e-38
-0.052318335 0.13323548 0.5535 6.72644e-39
-0.050123814 0.13243239 0.55400002 5.3453217e-39
-0.10062042 0.13644165 0.55314291 8.9469194e-39
-0.097561672 0.13637596 0.55075002 8.7636015e-39
-0.095857151 0.13619047 0.55000001 8.766491e-39
-0.05761905 0.13671429 0.55000001 1.3876386e-39
-0.055132389 0.13652128 0.55133337 1.1248202e-38
-0.052810099 0.13629507 0.55340004 5.4349851e-39
-0.099660009 0.13973556 0.55366671 2.5890531e-39
-0.097258419 0.13931429 0.55199999 3.1411408e-39
-0.094809532 0.14090477 0.55000001 1.9379131e-39
-0.06076191 0.14038096 0.55000001 3.0410755e-39
-0.058127765 0.13973349 0.55128574 1.1058833e-38
-0.055276934 0.13951081 0.55277783 1.2166631e-38
-0.053289529 0.13981906 0.55400002 4.9808411e-39
-0.099720009 0.14245716 0.55400002 1.4790761e-39
-0.097277783 0.14249747 0.55211115 1.9389795e-39
-0.094575249 0.1428235 0.55066669 1.7553197e-39
-0.06076191 0.1424762 0.55000001 1.3458778e-38
-0.058234408 0.14263202 0.55212498 1.5116518e-38
-0.055456191 0.14265929 0.55325001 1.1334714e-38
-0.053289529 0.14192954 0.55400002 5.2549015e-39
-0.099720009 0.14456762 0.55400002 7.4798229e-40
-0.097280122 0.14572251 0.55287504 1.7563833e-39
-0.094486199 0.14540367 0.55116671 1.4808894e-39
-0.092295244 0.14530478 0.55000001 1.6638401e-39
-0.061408468 0.1453888 0.55111116 1.4746301e-38
-0.05842413 0.14579916 0.55266666 1.4097339e-38
-0.055366352 0.14518382 0.55366671 1.0785859e-38
-0.097580485 0.14839223 0.55383337 1.4754902e-39
-0.0943821 0.14867429 0.55240005 2.1194233e-39
-0.091619529 0.14824167 0.55050004 2.6686384e-39
-0.089571431 0.14928572 0.55000001 6.3370892e-39
-0.067047626 0.14928572 0.55000001 1.428677e-38
-0.064129263 0.14838776 0.55000001 1.4377518e-38
-0.061624885 0.14861178 0.55187505 1.4008018e-38
-0.058734097 0.14857563 0.55360001 1.3822893e-38
-0.055927623 0.14720573 0.55400002 1.234994e-38
-0.096906051 0.15072319 0.55400002 8.2011063e-39
-0.094427027 0.15131941 0.55312502 1.2904862e-38
-0.091336682 0.15170272 0.55116671 1.6130628e-38
-0.088720001 0.15175919 0.55028576 1.7324505e-38
-0.085642859 0.15216668 0.55000001 1.7600024e-38
-0.0822381 0.15242858 0.55000001 1.6216049e-38
-0.079095244 0.1524286 0.55000007 1.5389514e-38
-0.070190474 0.15190476 0.55000001 1.456049e-38
-0.067571439 0.15138097 0.55000001 1.4469729e-38
-0.064505823 0.15156488 0.55066669 1.4560105e-38
-0.06154941 0.15150845 0.55237502 1.4007307e-38
-0.059620958 0.15142667 0.55400002 1.3823982e-38
-0.09409415 0.15436219 0.55371428 1.6312196e-38
-0.091557622 0.15470001 0.55250001 1.5297698e-38
-0.088554054 0.15467381 0.55100006 1.5481721e-38
-0.085415676 0.1545867 0.55022222 1.5481355e-38
-0.082238093 0.15452383 0.55000001 1.5481705e-38
-0.079095244 0.15452382 0.55000001 1.5296238e-38
-0.076476201 0.15452382 0.55000001 1.4836696e-38
-0.073857151 0.15504764 0.55000001 1.4837425e-38
-0.070728362 0.15455526 0.55011111 1.4652655e-38
-0.067598306 0.15458648 0.55022222 1.4469358e-38
-0.06473501 0.15481359 0.55150002 1.4283885e-38
-0.061543334 0.15458477 0.5535 1.4373935e-38
-0.059620958 0.15406477 0.55400002 1.3822924e-38
-0.093304291 0.1570881 0.55350006 1.612457e-38
-0.091286428 0.15767667 0.55325001 1.5667189e-38
-0.088667624 0.1574562 0.55220002 1.5482079e-38
-0.085614458 0.1575716 0.55150008 1.5665742e-38
-0.082263343 0.15719065 0.55016667 1.5206574e-38
-0.078964293 0.15753573 0.55000001 1.5114721e-38
-0.076476201 0.15766668 0.55000001 1.4838135e-38
-0.073857144 0.15753573 0.55000001 1.4653035e-38
-0.070777945 0.1572859 0.55050004 1.4836699e-38
-0.067632541 0.15728557 0.55050004 1.4468992e-38
-0.064528853 0.15753022 0.55214292 1.4283891e-38
-0.062045403 0.15731177 0.55366671 1.4099494e-38
-0.090953343 0.16073185 0.55385715 1.5575006e-38
-0.088560164 0.16077922 0.55350006 1.548316e-38
-0.085829638 0.16060127 0.55288893 1.5482082e-38
-0.082438096 0.16014923 0.55133337 1.5206567e-38
-0.079286546 0.16014424 0.5502857 1.5114711e-38
-0.076244771 0.16056593 0.55059999 1.4837775e-38
-0.073540822 0.16035254 0.55100006 1.5113283e-38
-0.070791312 0.16010347 0.55162507 1.4745576e-38
-0.067817152 0.16034414 0.55200005 1.4102721e-38
-0.064818628 0.16073102 0.55333334 1.4192408e-38
-0.062522858 0.16066001 0.55400002 1.4100576e-38
-0.090222865 0.16356191 0.55400002 1.5482081e-38
-0.088323437 0.16366744 0.55400002 1.5390953e-38
-0.085495561 0.16344222 0.55300003 1.5391302e-38
-0.082636833 0.16369459 0.55266666 1.5115086e-38
-0.079351112 0.16343178 0.55177784 1.5114358e-38
-0.076360002 0.16336691 0.55200005 1.474666e-38
-0.073262595 0.1632819 0.55228579 1.474379e-38
-0.070652954 0.16352381 0.5528 1.4745931e-38
-0.068000801 0.16341446 0.55350006 1.4469347e-38
-0.06542477 0.16303429 0.55400002 1.4009814e-38
-0.087980479 0.16606812 0.55399996 1.5390951e-38
-0.085579813 0.16641107 0.55400002 1.5574978e-38
-0.082737148 0.166527 0.5533334 1.520728e-38
-0.079598896 0.16657732 0.55350006 1.5114709e-38
-0.076334022 0.16645867 0.55385715 1.4746675e-38
-0.073207147 0.16633193 0.55399996 1.4837771e-38
-0.070041426 0.16633193 0.55399996 1.4743781e-38
-0.068062864 0.16567239 0.55400002 1.46523e-38
-0.087057151 0.16831049 0.55400002 1.5206918e-38
-0.085368767 0.16915467 0.55400002 1.5298757e-38
-0.082786784 0.16926426 0.55366665 1.5206918e-38
-0.079638317 0.16929759 0.55377775 1.5114707e-38
-0.076504767 0.16936573 0.55399996 1.4930684e-38
-0.073470958 0.16923383 0.55399996 1.4929976e-38
-0.070876837 0.16866224 0.55400002 1.4561205e-38
-0.081780955 0.17253146 0.55400002 1.5022196e-38
-0.079670481 0.17253146 0.55399996 1.511437e-38
-0.076504767 0.17253146 0.55400002 1.5021816e-38
-0.073640555 0.17268221 0.55400002 1.4929623e-38
-0.099900007 0.11998572 0.55500001 7.933136e-39
-0.097312078 0.11956668 0.55633336 7.4739501e-39
-0.094601594 0.1182962 0.55700004 7.9338618e-39
-0.058029529 0.11978572 0.55900002 7.5647486e-39
-0.056282386 0.11840239 0.5575 5.8091444e-39
-0.040352859 0.11946429 0.5575 5.4403984e-39
-0.10565953 0.12211858 0.5575 7.2877736e-39
-0.10315918 0.12162478 0.5562858 8.211155e-39
-0.10078668 0.12090667 0.55599999 8.5777851e-39
-0.091608256 0.12090667 0.55600005 8.4859286e-39
-0.06660001 0.12104286 0.55500001 8.029642e-39
-0.064360484 0.12233762 0.55850005 7.8438144e-39
-0.060814768 0.12216048 0.55850005 7.9345681e-39
-0.058335088 0.12144175 0.55683339 7.7484014e-39
-0.055567306 0.12118741 0.55566674 6.455562e-39
-0.052370265 0.12113896 0.55544448 5.0723193e-39
-0.049543694 0.12180179 0.55787504 5.6244155e-39
-0.047381908 0.12298001 0.55900002 5.4421822e-39
-0.042058099 0.12244762 0.55900002 5.3478342e-39
-0.040352859 0.1215881 0.55750006 5.4396725e-39
-0.10572306 0.12413639 0.55560011 7.7491034e-39
-0.10412858 0.12368572 0.55500001 7.7512572e-39
-0.061248258 0.12373208 0.55600011 7.7505314e-39
-0.058935717 0.12342144 0.55500001 7.9327954e-39
-0.052064292 0.12342144 0.55500001 4.5227454e-39
-0.049263921 0.12448741 0.55622226 5.1659442e-39
-0.047094528 0.12505311 0.55875003 5.0741087e-39
-0.042058099 0.12457715 0.55900002 5.4393081e-39
-0.040993337 0.12404477 0.55900002 5.7155349e-39
-0.10518572 0.12632857 0.55500001 8.3026388e-39
-0.10412858 0.12791429 0.55500001 8.7629064e-39
-0.048609529 0.12761489 0.55600005 5.2570805e-39
-0.046807148 0.12712477 0.55850005 4.8915294e-39
-0.10412858 0.1295 0.55500001 7.8434697e-39
-0.048734289 0.13034573 0.55500001 5.1645177e-39
-0.10354891 0.13424161 0.55566669 8.0260407e-39
-0.051271431 0.13478573 0.55500001 4.3340368e-39
-0.04915715 0.13372858 0.55500007 5.16308e-39
-0.10594381 0.13788667 0.55900002 8.1189986e-39
-0.10361471 0.13691267 0.5562858 8.9461963e-39
-0.051623814 0.13690001 0.55500001 4.6135033e-39
-0.049685717 0.13637143 0.55500001 5.0744717e-39
-0.10594381 0.13948381 0.55900002 6.272558e-39
-0.10343688 0.1396026 0.55614293 3.9727078e-39
-0.10095715 0.13954286 0.55500001 3.2337218e-39
-0.051768195 0.13942648 0.55580008 5.7151734e-39
-0.04974699 0.13932827 0.55766672 5.6251259e-39
-0.10329347 0.14239499 0.55700004 1.8464377e-39
-0.10095715 0.14218572 0.55500001 1.6627387e-39
-0.052066132 0.14244655 0.55542862 5.346388e-39
-0.049998574 0.14201811 0.55850005 5.4407319e-39
-0.10284457 0.14529447 0.55720001 1.7567574e-39
-0.10069287 0.14562143 0.55500001 1.3901161e-39
-0.05444286 0.14641429 0.55500001 8.3884361e-39
-0.052518692 0.14538845 0.55562502 4.8908035e-39
-0.050576195 0.14427525 0.55900002 5.2567077e-39
-0.10229 0.14840049 0.55650008 6.5113575e-40
-0.10048922 0.1486181 0.55533338 1.5676802e-39
-0.098842867 0.14958572 0.55500001 3.3125378e-39
-0.057614289 0.14958572 0.55500001 1.4009432e-38
-0.055377014 0.14890736 0.55528575 1.0691149e-38
-0.052546985 0.14826858 0.55733341 4.8875791e-39
-0.10244318 0.15127683 0.55733341 1.0137875e-38
-0.10061001 0.1514443 0.55600005 9.7734108e-39
-0.098138109 0.1520524 0.55500007 1.4101967e-38
-0.058142867 0.15170002 0.55500007 1.3914017e-38
-0.055648737 0.15158048 0.55650008 1.1150687e-38
-0.053325336 0.15146174 0.55880004 5.0687348e-39
-0.10256572 0.15358287 0.55800003 1.7968413e-38
-0.10037108 0.15446681 0.55687505 1.6404358e-38
-0.097257152 0.15487145 0.55500007 1.6311466e-38
-0.095671438 0.15540001 0.55500001 1.5666834e-38
-0.058529846 0.15496415 0.55533338 1.3362657e-38
-0.055721171 0.15443058 0.55722225 1.1057065e-38
-0.053504288 0.15465668 0.55900002 4.3372766e-39
-0.10021834 0.1575605 0.55750006 1.5667537e-38
-0.09743239 0.15779811 0.55600005 1.5850144e-38
-0.095142864 0.15751429 0.55500001 1.5756512e-38
-0.060785718 0.15804286 0.55500001 1.4008021e-38
-0.058595106 0.15749009 0.55571431 1.3271891e-38
-0.055743601 0.15767714 0.55744451 1.1058491e-38
-0.053770479 0.15758479 0.55900002 4.2472249e-39
-0.10033583 0.16034459 0.55860007 1.5483874e-38
-0.097520165 0.16059065 0.55650008 1.6220002e-38
-0.094652377 0.16022171 0.55522221 1.5759012e-38
-0.092500009 0.16121429 0.55500001 1.5667552e-38
-0.061208576 0.16015714 0.55500001 1.4008393e-38
-0.058775876 0.16044573 0.55600005 1.3455201e-38
-0.055936195 0.16067772 0.55785722 1.1240373e-38
-0.053770479 0.15918191 0.55900002 4.4262282e-39
-0.099555247 0.16290858 0.55900002 1.5760093e-38
-0.097194299 0.16393621 0.55766672 1.5850496e-38
-0.09440995 0.16334601 0.5555715 1.5574278e-38
-0.092077151 0.16354002 0.55500001 1.5574994e-38
-0.066071436 0.16438572 0.55500001 1.4284968e-38
-0.06430953 0.16403335 0.55500001 1.3641751e-38
-0.061765719 0.16360858 0.55550003 1.3915107e-38
-0.059033342 0.16361403 0.55700004 1.3729992e-38
-0.05587453 0.16283548 0.55875003 1.0967021e-38
-0.096850246 0.16656071 0.55875003 1.5576063e-38
-0.094383098 0.16649501 0.55675006 1.5759015e-38
-0.091372989 0.16648038 0.55537504 1.566718e-38
-0.08932858 0.16755715 0.55500001 1.5574267e-38
-0.066843539 0.16669415 0.55514288 1.4377876e-38
-0.064204283 0.16666786 0.55599999 1.4100217e-38
-0.061282672 0.16685563 0.55760002 1.3822911e-38
-0.059030097 0.16624382 0.55840003 1.3454839e-38
-0.096360967 0.16982953 0.55900002 1.5483514e-38
-0.09453842 0.16942477 0.55766672 1.5667187e-38
-0.091783829 0.16926382 0.55614299 1.5757589e-38
-0.088271447 0.16967145 0.55500007 1.5390235e-38
-0.086157151 0.17072858 0.55500001 1.5299122e-38
-0.072414294 0.17072858 0.55500001 1.4745959e-38
-0.06994763 0.17002383 0.55500007 1.4377535e-38
-0.067188419 0.16929542 0.55550003 1.4193853e-38
-0.063986123 0.16939457 0.55657148 1.4283183e-38
-0.061162122 0.16966099 0.5584445 1.4007667e-38
-0.096360959 0.17249143 0.55900002 1.5667547e-38
-0.094086953 0.17245512 0.55814296 1.5574272e-38
-0.091269366 0.17245731 0.55716676 1.584942e-38
-0.088650487 0.17253105 0.55642861 1.5941616e-38
-0.08498726 0.17274965 0.55512506 1.5391316e-38
-0.082985722 0.17284286 0.55500001 1.5115816e-38
-0.076642863 0.17284286 0.55500001 1.492998e-38
-0.072414294 0.1723143 0.55500001 1.4561925e-38
-0.07046885 0.17258531 0.55514288 1.4285693e-38
-0.067342758 0.17233621 0.55677783 1.4376798e-38
-0.064421073 0.17254297 0.55787504 1.4192768e-38
-0.062288575 0.17249143 0.55900002 1.4284943e-38
-0.096360959 0.17408858 0.55900002 1.5759748e-38
-0.094444387 0.17494039 0.55900002 1.594161e-38
-0.0912835 0.17529874 0.5583334 1.5664327e-38
-0.088643394 0.17569314 0.55733341 1.5665763e-38
-0.085361369 0.17548464 0.55571431 1.5208721e-38
-0.082531437 0.17564431 0.55550003 1.5024337e-38
-0.079814285 0.17548573 0.55500007 1.4930331e-38
-0.076642863 0.17548573 0.55500007 1.4838871e-38
-0.073471442 0.17548573 0.55500007 1.4746309e-38
-0.070372269 0.17560203 0.55662507 1.492854e-38
-0.067511275 0.17542398 0.55816674 1.4560113e-38
-0.06460762 0.17530362 0.55880004 1.4376442e-38
-0.091037147 0.17834763 0.55900002 1.5664324e-38
-0.088855237 0.17877334 0.55866671 1.5573919e-38
-0.085235953 0.17855811 0.55675012 1.5022543e-38
-0.082142226 0.17859262 0.55644453 1.4931426e-38
-0.079428896 0.1784502 0.55600011 1.5115085e-38
-0.076750062 0.17837906 0.55577785 1.4929979e-38
-0.073618099 0.17848605 0.55611116 1.456084e-38
-0.070636518 0.17845365 0.55766672 1.4560479e-38
-0.067967311 0.1779927 0.55900002 1.465195e-38
-0.065482862 0.17728287 0.55900002 1.4743777e-38
-0.088602148 0.18066263 0.55875003 1.5389884e-38
-0.085483655 0.18123192 0.55750006 1.520585e-38
-0.082272381 0.18153177 0.55733341 1.5023972e-38
-0.079309903 0.18166001 0.55740011 1.4380395e-38
-0.076706104 0.18131755 0.55700004 1.4929975e-38
-0.073845886 0.18169479 0.55783337 1.5204404e-38
-0.071541429 0.18111432 0.55850005 1.4654104e-38
-0.085180961 0.18367144 0.55900002 1.5207645e-38
-0.082519054 0.18420385 0.55900002 1.5023968e-38
-0.079422146 0.18452096 0.55875003 1.4748445e-38
-0.075978376 0.184432 0.55900002 1.4839936e-38
-0.073468573 0.18420383 0.55900002 1.4839229e-38
-0.071516514 0.18438129 0.55900002 1.4745941e-38
-0.10815715 0.11676668 0.565 6.6481593e-39
-0.10654286 0.11676668 0.565 7.1073326e-39
-0.045657147 0.11656 0.56400001 5.9899806e-39
-0.044661909 0.11676668 0.565 5.9903351e-39
-0.10815715 0.11784287 0.565 7.1998897e-39
-0.1067562 0.11884191 0.56400007 7.4746745e-39
-0.1039758 0.11886097 0.56400007 7.8423711e-39
-0.093586907 0.11940405 0.56475002 8.3022828e-39
-0.091368578 0.1191343 0.565 8.396628e-39
-0.088785723 0.1197262 0.565 8.5806578e-39
-0.08663334 0.11945715 0.565 8.8558153e-39
-0.064761914 0.11935811 0.56200004 7.6579896e-39
-0.061808258 0.11931556 0.56433338 7.659084e-39
-0.058573578 0.11929786 0.56425005 6.8268543e-39
-0.055961907 0.11838096 0.565 4.6135005e-39
-0.046758417 0.1187779 0.56433338 5.8059411e-39
-0.044048578 0.11897572 0.56400001 5.438239e-39
-0.10635414 0.12078334 0.56116664 7.3821118e-39
-0.10343024 0.12053452 0.56125003 7.6579868e-39
-0.094000004 0.12085715 0.56400001 8.3934051e-39
-0.091325156 0.12137125 0.56340003 8.9476494e-39
-0.088755928 0.12153035 0.56285715 8.6735723e-39
-0.086933337 0.12160001 0.56 8.489188e-39
-0.064609848 0.1206762 0.56066668 7.7512446e-39
-0.0618173 0.12096176 0.56116676 7.5668702e-39
-0.05930572 0.12021429 0.56100005 7.6597987e-39
-0.048576668 0.12064049 0.56050003 5.5315052e-39
-0.046473019 0.12125801 0.56088889 5.1641632e-39
-0.043401785 0.12112156 0.56087506 5.0723193e-39
-0.088471435 0.12386001 0.56300002 8.306575e-39
-0.086933337 0.12320001 0.56 8.6721275e-39
-0.045792382 0.12414172 0.56040001 4.8890168e-39
-0.043759685 0.12434033 0.56033337 5.2552798e-39
-0.045414288 0.12662572 0.56100005 3.8791823e-39
-0.043733336 0.12640001 0.56 4.8879392e-39
-0.1090108 0.13720001 0.56200004 8.5777977e-39
-0.10671453 0.13659453 0.56025004 7.9345625e-39
-0.048793338 0.13780096 0.56300002 5.6229749e-39
-0.046896074 0.13652417 0.56437498 5.1630884e-39
-0.044661909 0.13667619 0.565 5.0719858e-39
-0.11118858 0.13804573 0.56400001 8.8543748e-39
-0.1088101 0.13913582 0.56060004 5.6300655e-39
-0.10720001 0.13920002 0.56000006 6.4591031e-39
-0.048663337 0.13957 0.56150001 5.5329331e-39
-0.046693552 0.13936742 0.5635556 5.5314954e-39
-0.044392861 0.13936667 0.565 5.1630856e-39
-0.10852446 0.1427397 0.56133342 1.8478559e-39
-0.10673048 0.14248477 0.56033337 1.5727305e-39
-0.048821669 0.14273071 0.56024998 5.3481887e-39
-0.046554763 0.1423512 0.56349999 5.164166e-39
-0.044661909 0.14259526 0.565 4.9812097e-39
-0.10977144 0.14690001 0.565 1.2986674e-39
-0.10619024 0.14572668 0.56100005 1.8482482e-39
-0.10400001 0.14666668 0.56 1.8496775e-39
-0.049658101 0.14559525 0.56066668 5.2559931e-39
-0.046739366 0.14559461 0.56411111 5.1630828e-39
-0.11128715 0.14891954 0.56449997 1.9361194e-39
-0.10954525 0.14874399 0.56383336 1.5687901e-39
-0.10653076 0.14837785 0.56128579 1.2050522e-39
-0.10400002 0.14880002 0.56000006 1.0188519e-39
-0.049674887 0.14849393 0.56237495 5.440034e-39
-0.047130641 0.14856176 0.56450003 5.3481957e-39
-0.10904001 0.15093715 0.56400001 3.6777639e-40
-0.10626108 0.1511699 0.56137502 6.1717108e-39
-0.10400001 0.15146667 0.56 8.9371691e-39
-0.051764131 0.15102255 0.56033337 5.529343e-39
-0.049942505 0.15143894 0.56237501 5.5307765e-39
-0.04753175 0.15120476 0.565 5.4396683e-39
-0.10582016 0.15445541 0.56116676 1.6036335e-38
-0.10377977 0.1544693 0.56025004 1.6403657e-38
-0.052215435 0.15429848 0.56060004 5.5307807e-39
-0.049804766 0.15441747 0.56233335 5.8981227e-39
-0.046968032 0.15474081 0.56500006 5.6222617e-39
-0.10567303 0.15735176 0.56133342 1.5851578e-38
-0.10350782 0.15734516 0.56080002 1.5851207e-38
-0.052312862 0.15747383 0.56050003 5.6233281e-39
-0.049841672 0.15756929 0.56275004 5.7148174e-39
-0.047352385 0.15766191 0.56500006 5.7130168e-39
-0.10623779 0.15998447 0.56433338 1.5759393e-38
-0.10423964 0.16070706 0.5636 1.5667893e-38
-0.10186667 0.16053334 0.56 1.557535e-38
-0.052447412 0.16079621 0.56133342 5.2559805e-39
-0.049559623 0.16050516 0.56440002 5.5307849e-39
-0.047352385 0.16035239 0.565 5.6219029e-39
-0.10600477 0.16304287 0.565 1.5576429e-38
-0.10341199 0.16335593 0.56342858 1.5483873e-38
-0.10044446 0.16373336 0.56000006 1.5207648e-38
-0.057066672 0.16480002 0.56 1.2990638e-38
-0.055466671 0.16426668 0.56 9.9535883e-39
-0.052508693 0.16342823 0.56262505 5.2570511e-39
-0.10355112 0.16607462 0.56433338 1.5667192e-38
-0.10058858 0.1664362 0.56120008 1.5759386e-38
-0.098666675 0.16640002 0.56 1.6127798e-38
-0.057422232 0.16657779 0.56000006 1.2902743e-38
-0.055128984 0.16645961 0.56200004 8.3862907e-39
-0.052588005 0.16636896 0.56459999 5.3470985e-39
-0.1031703 0.16922514 0.56480002 1.5576077e-38
-0.10066172 0.16969717 0.56280005 1.5484235e-38
-0.098221444 0.16921763 0.56050003 1.5484233e-38
-0.058038216 0.16931322 0.56037498 1.2996397e-38
-0.055250715 0.16951074 0.56325006 8.2958957e-39
-0.052306198 0.16929072 0.56475002 5.1645177e-39
-0.1027762 0.17272858 0.565 1.5483518e-38
-0.10080477 0.17265241 0.56300008 1.5391675e-38
-0.098221444 0.17242049 0.56050003 1.53924e-38
-0.060800001 0.1728 0.56 1.3182177e-38
-0.058236506 0.17257494 0.56100005 1.3087505e-38
-0.055178456 0.17251894 0.56387508 7.4643512e-39
-0.052464288 0.17192145 0.565 5.2574294e-39
-0.1027762 0.17541906 0.565 1.548279e-38
-0.10029921 0.17556399 0.56316674 1.5666831e-38
-0.097110242 0.17554501 0.56024998 1.575867e-38
-0.094044447 0.17617778 0.56000006 1.58487e-38
-0.092266671 0.17653334 0.56 1.5571775e-38
-0.063466668 0.176 0.56 1.4467563e-38
-0.061418097 0.17571039 0.56077784 1.3824346e-38
-0.058271118 0.17534986 0.56133342 1.2810563e-38
-0.055449262 0.17524901 0.56371433 8.7529194e-39
-0.1027762 0.17703335 0.565 1.5391658e-38
-0.1004912 0.17841023 0.56425005 1.5759019e-38
-0.097520776 0.17844878 0.56200004 1.557499e-38
-0.094296329 0.17845282 0.56028575 1.5666465e-38
-0.092266671 0.1786667 0.56000006 1.5389532e-38
-0.067022227 0.17937779 0.56000006 1.4560469e-38
-0.064533338 0.1786667 0.56 1.4283877e-38
-0.061460793 0.17850462 0.56116676 1.3731789e-38
-0.05846699 0.17862256 0.56322229 1.2996023e-38
-0.055895247 0.17843652 0.56433338 9.7638203e-39
-0.1004151 0.18128461 0.5648334 1.5666462e-38
-0.097673818 0.18139383 0.56350005 1.5757933e-38
-0.094787382 0.18141836 0.56150007 1.5758302e-38
-0.091200016 0.18186668 0.56 1.5756868e-38
-0.088711113 0.18257779 0.56000006 1.5481718e-38
-0.086933337 0.18293335 0.56 1.5390586e-38
-0.07029333 0.18208002 0.56 1.4744504e-38
-0.067920007 0.18165474 0.56028575 1.4743428e-38
-0.064495921 0.18142818 0.56100011 1.4191331e-38
-0.06155175 0.18144637 0.5620001 1.3823275e-38
-0.05853064 0.18150112 0.56383336 1.2719808e-38
-0.055854287 0.18155335 0.565 9.5815814e-39
-0.099816673 0.18429764 0.565 1.5574994e-38
-0.097731277 0.18418525 0.56383342 1.5483879e-38
-0.094583459 0.18448204 0.56187505 1.5574997e-38
-0.091492526 0.18458694 0.56085724 1.5482801e-38
-0.088573098 0.18461597 0.56025004 1.5573912e-38
-0.086133339 0.18480001 0.56 1.5390957e-38
-0.070222229 0.18435559 0.56000006 1.4654103e-38
-0.067704886 0.18442108 0.56087506 1.4560479e-38
-0.064686358 0.18443809 0.56133342 1.41924e-38
-0.061829664 0.18472601 0.5631429 1.3825064e-38
-0.05864064 0.1845306 0.56488889 1.2996748e-38
-0.056500003 0.18349048 0.565 1.0782632e-38
-0.099547625 0.18779525 0.565 1.5667187e-38
-0.097847149 0.18762907 0.56450003 1.5759375e-38
-0.09484534 0.18765391 0.56199998 1.5666815e-38
-0.091309004 0.18742268 0.56066668 1.5207292e-38
-0.088250957 0.18758479 0.56075007 1.5483153e-38
-0.085692532 0.18733527 0.56085718 1.5114746e-38
-0.082643822 0.18731812 0.56075001 1.4930329e-38
-0.079395108 0.18769664 0.56057149 1.483957e-38
-0.076434292 0.18741739 0.56024998 1.4655543e-38
-0.073066674 0.18720002 0.56 1.4561911e-38
-0.07050667 0.18698668 0.56 1.4654461e-38
-0.068089768 0.18664929 0.56075001 1.437646e-38
-0.064858578 0.18761128 0.56283337 1.4283882e-38
-0.061677743 0.18772252 0.56437504 1.3732159e-38
-0.05864064 0.18775852 0.56488889 1.2994944e-38
-0.056141272 0.18743652 0.565 1.0041469e-38
-0.099488899 0.1909105 0.56466669 1.5849784e-38
-0.097673818 0.19051668 0.56350005 1.5941621e-38
-0.095005721 0.19027764 0.56200004 1.5849061e-38
-0.091815725 0.18950239 0.56050003 1.5390601e-38
-0.088157147 0.18967144 0.56100005 1.5390591e-38
-0.084642388 0.1896424 0.5625 1.4563363e-38
-0.082426667 0.19000953 0.56200004 1.5022888e-38
-0.080214769 0.1898405 0.56150007 1.5114363e-38
-0.063920006 0.18961143 0.56400001 1.4374644e-38
-0.062122151 0.19013262 0.56475002 1.3822199e-38
-0.059369847 0.19030637 0.565 1.3454835e-38
-0.099997625 0.19246715 0.56449997 1.5848347e-38
-0.097500488 0.19232145 0.5625 1.6217486e-38
-0.091099054 0.11697334 0.56600004 8.3040835e-39
-0.07640858 0.11650953 0.56900001 8.116821e-39
-0.091109157 0.11812592 0.56740004 8.3040793e-39
-0.088452391 0.11804286 0.56700003 8.4877657e-39
-0.086323336 0.11815573 0.56650007 8.7632568e-39
-0.076769851 0.11795461 0.56900001 8.0267833e-39
-0.07207334 0.11759334 0.56900001 7.4739767e-39
-0.069905721 0.11867715 0.56900001 7.1051648e-39
-0.06689842 0.1181054 0.56800002 7.6572651e-39
-0.064463131 0.11834805 0.56742859 7.8420249e-39
-0.061343621 0.11803544 0.56800002 7.3800168e-39
-0.058911432 0.11836382 0.5675 6.2719134e-39
-0.056800004 0.11846858 0.56800002 4.6135047e-39
-0.043604769 0.13351476 0.56699997 5.6222533e-39
-0.040706672 0.13375048 0.56800002 5.2549141e-39
-0.04337633 0.13629389 0.56628579 5.3474811e-39
-0.040829256 0.13653512 0.56728578 5.2549295e-39
-0.043662861 0.13853525 0.56600004 5.1634499e-39
-0.043237623 0.14214429 0.5675 4.890093e-39
-0.044298336 0.14532311 0.56725001 5.1645149e-39
-0.045819052 0.14931621 0.56600004 5.4400228e-39
-0.044872701 0.14867525 0.56766671 5.1637961e-39
-0.046282671 0.15179543 0.56640005 5.8070061e-39
-0.044377383 0.15099216 0.56825 5.4403773e-39
-0.046398573 0.15376431 0.56650007 5.5318597e-39
-0.044938572 0.1537662 0.56850004 5.6244071e-39
-0.10917667 0.16160239 0.5675 1.5667202e-38
-0.10727049 0.16117525 0.56600004 1.5759419e-38
-0.045980956 0.16174477 0.56800002 5.7151902e-39
-0.10908048 0.16307953 0.56700003 1.5575717e-38
-0.10691468 0.16344765 0.56639999 1.5576076e-38
-0.048982386 0.16368312 0.56674999 5.4407277e-39
-0.046813101 0.16371024 0.56825 5.34783e-39
-0.10656763 0.16661334 0.56800002 1.566755e-38
-0.051209532 0.16656573 0.5660001 5.3481621e-39
-0.049285121 0.1667618 0.56712496 5.0733843e-39
-0.10566064 0.16974065 0.56700003 1.5759745e-38
-0.1040362 0.17087811 0.56600004 1.5484239e-38
-0.051209528 0.17087811 0.56600004 5.4421766e-39
-0.049182069 0.16952971 0.56750005 5.3481831e-39
-0.10571025 0.17275882 0.56774998 1.5666831e-38
-0.10412811 0.17264715 0.56650007 1.5575354e-38
-0.051748574 0.1730343 0.56600004 6.0835873e-39
-0.049522318 0.17267554 0.56785715 6.0825097e-39
-0.10530001 0.17550001 0.56700003 1.5574638e-38
-0.1040362 0.17519049 0.5660001 1.5482798e-38
-0.052420218 0.17563801 0.56744444 5.3463951e-39
-0.050308574 0.17472763 0.56800002 6.5402523e-39
-0.10590889 0.17807715 0.56833339 1.5759029e-38
-0.10358906 0.17858192 0.56650007 1.5483136e-38
-0.054475874 0.1785305 0.56633341 4.0606925e-39
-0.053059526 0.17867145 0.56850004 4.9808467e-39
-0.10389829 0.18130745 0.56760001 1.5759374e-38
-0.10188001 0.18165906 0.56600004 1.5483151e-38
-0.054540005 0.18144001 0.56700003 4.6117027e-39
-0.053196192 0.18125717 0.56880003 4.7042612e-39
-0.10332318 0.18446477 0.56800002 1.5941969e-38
-0.10080191 0.18543239 0.56600004 1.5666834e-38
-0.055447504 0.1848273 0.566625 7.4647057e-39
-0.053158481 0.18437792 0.56840008 5.4411088e-39
-0.10274553 0.18762593 0.56840003 1.5760813e-38
-0.10098001 0.18792 0.56700003 1.5665756e-38
-0.054899372 0.18701939 0.56700003 5.7173146e-39
-0.053601433 0.18733382 0.56850004 5.258514e-39
-0.10296191 0.18966669 0.56900001 1.5668249e-38
-0.10092065 0.19050732 0.56666672 1.5667541e-38
-0.090975247 0.11385524 0.57200003 7.8423921e-39
-0.094354682 0.11600268 0.574 8.1175384e-39
-0.091520011 0.11603429 0.57200003 8.1178944e-39
-0.089885719 0.11603429 0.57200003 8.0267749e-39
-0.077628575 0.11617143 0.57000005 8.0267861e-39
-0.063960001 0.11644001 0.574 6.8211342e-39
-0.061067149 0.11613572 0.57249999 5.4407417e-39
-0.10036786 0.11782262 0.57275003 8.4855937e-39
-0.097527228 0.11810709 0.57300007 8.3941211e-39
-0.094508037 0.1179973 0.57171434 8.4866671e-39
-0.091520011 0.11712382 0.57200003 8.2108047e-39
-0.089340955 0.11712382 0.57200003 8.2111662e-39
-0.07558953 0.11746191 0.57100004 8.0271393e-39
-0.074022382 0.11756429 0.57150006 7.8441857e-39
-0.070313975 0.11828224 0.57233334 7.6572693e-39
-0.06663572 0.11743096 0.57350004 7.842748e-39
-0.064463496 0.11748572 0.57200003 7.7473462e-39
-0.061287146 0.11739524 0.57200003 6.4516412e-39
-0.057642862 0.11800668 0.57100004 5.2570707e-39
-0.055181913 0.1185578 0.57366669 5.5311408e-39
-0.042960957 0.14356476 0.57100004 4.9822929e-39
-0.040857147 0.14327239 0.57200003 5.7144601e-39
-0.042885717 0.14548573 0.57000005 5.440013e-39
-0.041001074 0.14534703 0.57212502 5.6222603e-39
-0.043466195 0.14833002 0.57050008 5.3470985e-39
-0.040945005 0.14849836 0.57325 5.713014e-39
-0.043214053 0.15192881 0.57075006 5.2567077e-39
-0.040937688 0.15120028 0.57314289 5.2552798e-39
-0.042921368 0.15463266 0.57257146 5.4393123e-39
-0.041000001 0.15580001 0.574 5.5315164e-39
-0.045215242 0.15634668 0.57200003 5.5314898e-39
-0.043135241 0.15671113 0.57333338 5.4396641e-39
-0.041000001 0.15689334 0.574 5.6215512e-39
-0.045373335 0.16126668 0.574 5.1627311e-39
-0.044280004 0.16126668 0.574 4.5213175e-39
-0.11148096 0.16259906 0.57100004 1.5667548e-38
-0.047394291 0.16724192 0.57200003 5.2563462e-39
-0.048314288 0.16991429 0.57000005 5.2563462e-39
-0.047518574 0.16931954 0.57350004 4.9794076e-39
-0.1082181 0.17347525 0.57100004 1.5575707e-38
-0.10713048 0.17347525 0.57100004 1.5758665e-38
-0.048314288 0.17208573 0.57000005 5.4396585e-39
-0.047560003 0.17110668 0.574 5.2559889e-39
-0.10812334 0.17549764 0.57050002 1.5666829e-38
-0.10713048 0.17673811 0.57100004 1.5666835e-38
-0.049017783 0.17584446 0.574 5.6226134e-39
-0.10858065 0.17855081 0.57100004 1.5850161e-38
-0.10694286 0.17914286 0.57000005 1.6034177e-38
-0.051571433 0.17914286 0.57000005 5.7158852e-39
-0.049688049 0.17855197 0.57333332 5.8066473e-39
-0.11217016 0.18125397 0.57266665 1.5668619e-38
-0.10933822 0.18123014 0.57187504 1.5759019e-38
-0.10629143 0.18164001 0.57000011 1.5849776e-38
-0.051963493 0.18196288 0.57033336 5.071599e-39
-0.050161432 0.18156368 0.57249999 5.8984828e-39
-0.11206667 0.18313335 0.574 1.566754e-38
-0.10946453 0.1839855 0.57325006 1.5667911e-38
-0.10673296 0.18463393 0.57120007 1.6035245e-38
-0.051631749 0.18424319 0.57066673 5.8999093e-39
-0.049883537 0.1843622 0.57200003 6.1747054e-39
-0.10859715 0.18608858 0.57300001 1.5668275e-38
-0.10662802 0.18765886 0.57180005 1.566754e-38
-0.10477144 0.18782857 0.57000005 1.5575706e-38
-0.052251428 0.1872343 0.57150006 5.9924707e-39
-0.05066286 0.18739811 0.57200003 6.4505538e-39
-0.10677461 0.19066541 0.57200003 1.5392045e-38
-0.10413922 0.19107257 0.57050008 1.5667537e-38
-0.10878667 0.19352001 0.574 1.5392766e-38
-0.10701811 0.19313937 0.57233334 1.5299867e-38
-0.1082562 0.11375143 0.57700002 6.640333e-39
-0.10734286 0.11394858 0.57800001 6.9168905e-39
-0.075415246 0.11394858 0.57800001 8.2947957e-39
-0.073254928 0.11364667 0.57833338 6.1754172e-39
-0.10806858 0.11465143 0.57600003 7.6555233e-39
-0.10656934 0.11492858 0.57740003 7.8398866e-39
-0.10336541 0.11529906 0.57833338 7.6576449e-39
-0.10027376 0.11597661 0.57714289 8.1189874e-39
-0.097584873 0.11566995 0.57744449 8.21119e-39
-0.084920004 0.11635143 0.57900006 7.9367345e-39
-0.078581907 0.11594953 0.57700002 7.9346227e-39
-0.076150626 0.11614653 0.57642865 8.3937708e-39
-0.073180243 0.11554834 0.57775003 7.6572988e-39
-0.07052207 0.11514842 0.57850003 7.0094449e-39
-0.06739001 0.11609763 0.57683337 7.2856814e-39
-0.065223336 0.11619572 0.57550001 6.7296574e-39
-0.062976196 0.11664286 0.57500005 6.1721985e-39
-0.054308575 0.11684572 0.57600003 5.8984898e-39
-0.10331048 0.11704858 0.57700002 7.1977415e-39
-0.10166191 0.11704858 0.57700002 7.1069892e-39
-0.072960004 0.11739334 0.57600003 7.7519985e-39
-0.070806995 0.11746159 0.5763334 8.1189748e-39
-0.068571433 0.11739334 0.57600003 8.9454886e-39
-0.06000191 0.11725143 0.57800001 5.5318583e-39
-0.058497336 0.11754344 0.57620007 5.4389466e-39
-0.055606287 0.11746229 0.57580006 5.6226218e-39
-0.053303812 0.11704858 0.57700002 5.9906897e-39
-0.049628574 0.11745429 0.57900006 5.2545666e-39
-0.039976195 0.15278572 0.57500005 5.532587e-39
-0.040558573 0.15456286 0.57550001 5.4382404e-39
-0.045452382 0.15826191 0.57500005 5.4382263e-39
-0.043261908 0.15826192 0.57500005 5.4389508e-39
-0.045452382 0.15990478 0.57500005 5.2534862e-39
-0.043134414 0.16035037 0.57512498 5.1620136e-39
-0.040797621 0.1607262 0.57500005 5.8970577e-39
-0.045531433 0.16347429 0.57600003 5.1645429e-39
-0.043337144 0.16347429 0.57600003 4.9805006e-39
-0.041142859 0.16292572 0.57600003 5.5318639e-39
-0.045937911 0.16632079 0.57560003 5.3485516e-39
-0.044101905 0.16640058 0.57740003 5.3489132e-39
-0.046092547 0.16955796 0.57616675 5.2567162e-39
-0.043957718 0.16933335 0.57840008 5.3481803e-39
-0.046661366 0.17292751 0.57642865 5.2556301e-39
-0.043877967 0.1724396 0.57900012 5.7144391e-39
-0.046627622 0.17554191 0.57600009 5.4389396e-39
-0.044076037 0.17575288 0.57850003 5.9895995e-39
-0.046440594 0.17822872 0.57537508 5.4407375e-39
-0.043752071 0.17794065 0.57666671 5.441092e-39
-0.041357145 0.17700858 0.57900006 5.8055627e-39
-0.0487381 0.18180954 0.57500005 5.8977668e-39
-0.046619367 0.18154235 0.57588893 5.8062984e-39
-0.04443429 0.18102859 0.57600003 5.8988528e-39
-0.1119881 0.18482146 0.57500005 1.5483513e-38
-0.11007144 0.18564287 0.57500005 1.5300217e-38
-0.048780479 0.18525669 0.57550001 5.8070075e-39
-0.046655245 0.18442732 0.5763334 5.5325688e-39
-0.049285717 0.18728572 0.57500005 6.0817727e-39
-0.047891431 0.18716192 0.57800001 5.3467454e-39
-0.052023813 0.19057144 0.57500005 6.1761375e-39
-0.0503061 0.19037507 0.57540005 6.2679674e-39
-0.1089762 0.1922143 0.57500005 1.5392036e-38
-0.052114289 0.19254859 0.57600003 6.0839447e-39
-0.10263096 0.11317097 0.58249998 6.9143906e-39
-0.10056072 0.11330215 0.58175004 7.3807385e-39
-0.098277152 0.11382382 0.583 7.6551744e-39
-0.093996197 0.11290667 0.58400005 6.6388911e-39
-0.081620008 0.11382382 0.583 7.5672766e-39
-0.048305716 0.11382382 0.583 5.0716144e-39
-0.045713972 0.11271207 0.58300006 5.2570679e-39
-0.044477463 0.11312827 0.5813334 5.2563448e-39
-0.10550477 0.11434287 0.58000004 7.2870799e-39
-0.10274287 0.11434287 0.58000004 7.5665423e-39
-0.10053334 0.11434287 0.58000004 8.2133354e-39
-0.097312711 0.11430065 0.58166671 7.8420558e-39
-0.094966352 0.11492001 0.58200008 7.7523516e-39
-0.092327625 0.11457525 0.58400005 7.7509293e-39
-0.088181913 0.11509164 0.58380002 7.9356625e-39
-0.085531279 0.1149662 0.58316672 7.9360184e-39
-0.082838319 0.11565145 0.5828889 7.8434809e-39
-0.079746515 0.11527066 0.58283335 7.658033e-39
-0.07678096 0.11544763 0.58000004 8.7614813e-39
-0.069047622 0.11489525 0.58000004 6.4555858e-39
-0.066628575 0.11604477 0.583 5.6258448e-39
-0.064296573 0.11626573 0.58300006 5.5329373e-39
-0.06200128 0.1162289 0.58300006 5.0744731e-39
-0.059006989 0.11671747 0.58266675 5.0726794e-39
-0.055839527 0.11665286 0.58050001 5.6226232e-39
-0.052829649 0.11605703 0.58237499 5.9906869e-39
-0.049349338 0.1156621 0.58219999 5.0723207e-39
-0.04711429 0.11528811 0.58200002 5.8988458e-39
-0.060520958 0.11715525 0.583 5.5329345e-39
-0.042533334 0.17013335 0.58000004 5.347816e-39
-0.04017124 0.17053697 0.58100003 5.4392941e-39
-0.038180001 0.17042667 0.58100003 5.1630716e-39
-0.042533334 0.17289525 0.58000004 4.8879182e-39
-0.040346351 0.17244193 0.58033335 5.2556203e-39
-0.038180001 0.17208667 0.58100003 5.2570483e-39
-0.042533334 0.17510478 0.58000004 5.5318527e-39
-0.04033884 0.17517166 0.58022219 5.6226064e-39
-0.03977143 0.1773143 0.58000004 5.4382165e-39
-0.097044766 0.11050763 0.58900005 5.4392927e-39
-0.094401434 0.11059572 0.58650005 5.6233169e-39
-0.057680003 0.11032001 0.588 5.5304248e-39
-0.056656193 0.11050763 0.58900005 5.5300716e-39
-0.099638745 0.11230223 0.5866667 6.0828671e-39
-0.09765096 0.11245858 0.58675003 5.6236938e-39
-0.094455108 0.11214899 0.58585715 5.7169474e-39
-0.091443405 0.11236776 0.58700007 6.0857229e-39
-0.088604391 0.11296172 0.58660001 6.0850181e-39
-0.085351676 0.11296548 0.58574998 6.4519971e-39
-0.067799374 0.11318382 0.58833337 5.4392955e-39
-0.064178228 0.1127698 0.58742857 5.5314982e-39
-0.061460324 0.1123035 0.5866667 5.5314982e-39
-0.058546554 0.11248322 0.58687502 5.5304178e-39
-0.055787213 0.11277362 0.58828574 5.6211883e-39
-0.052685238 0.11377667 0.58850002 5.8966906e-39
-0.050960004 0.11368001 0.588 5.5297031e-39
-0.047397621 0.11263858 0.5855 4.7053472e-39
-0.09655048 0.11440953 0.58600003 7.5647626e-39
-0.093600005 0.11421429 0.58500004 7.7516594e-39
-0.090814292 0.11421429 0.58500004 8.4874126e-39
-0.088585719 0.11421429 0.58500004 8.6671389e-39
-0.084128574 0.11421429 0.58500004 7.9364122e-39
-0.070680007 0.11499525 0.58900005 4.7975303e-39
-0.067646354 0.1151635 0.58700001 5.256349e-39
-0.064460002 0.11468811 0.58599997 5.2549099e-39
-0.061285719 0.11477144 0.58500004 5.3485418e-39
-0.058397744 0.11526322 0.58537501 5.4396585e-39
-0.055583812 0.11539416 0.5861429 5.8062886e-39
-0.052334607 0.11491176 0.5866667 5.5297003e-39
-0.05078667 0.11440953 0.58600003 5.1609178e-39
-0.056367625 0.1177581 0.58600003 5.7141e-39
-0.09996286 0.10786953 0.59300005 5.7162482e-39
-0.098268576 0.10786953 0.59300005 5.7162468e-39
-0.1003297 0.10991096 0.59183335 5.715165e-39
-0.098215632 0.10971657 0.59200001 5.5314926e-39
-0.10058096 0.11181906 0.59000003 5.5307765e-39
-0.09092667 0.11238763 0.59300005 5.8070061e-39
-0.08994858 0.11144572 0.59400004 5.5350995e-39
-0.075240009 0.11201143 0.59400004 5.3463993e-39
-0.073380575 0.11272724 0.59360009 5.1623667e-39
-0.070515558 0.11244826 0.59233338 5.7137384e-39
-0.06740915 0.11167087 0.59280008 5.0730241e-39
-0.064891905 0.11172715 0.59250003 5.2559875e-39
-0.06279429 0.11144572 0.59400004 5.2552882e-39
-0.054689527 0.11276096 0.59200001 5.8048621e-39
-0.052553911 0.11264534 0.59080005 5.9892449e-39
-0.072608575 0.11426001 0.59100002 4.1521651e-39
-0.070920005 0.11426001 0.59100002 5.4400172e-39
-0.096657149 0.1097343 0.59700006 5.8984744e-39
-0.094198577 0.10951953 0.59583336 5.8070117e-39
-0.091490246 0.10964596 0.59574997 5.4418151e-39
-0.089116193 0.10955048 0.59600002 4.6152956e-39
-0.072450481 0.11010191 0.59900004 5.8970591e-39
-0.070098296 0.10976267 0.59840006 5.7141042e-39
-0.067568205 0.1099541 0.59820002 5.1638059e-39
-0.064485125 0.11003631 0.59787506 4.8886595e-39
-0.061380241 0.11025643 0.59675002 5.2567063e-39
-0.058711816 0.11004134 0.59620005 5.0716046e-39
-0.094740003 0.11175843 0.59566665 5.7155167e-39
-0.091800004 0.11163334 0.59500003 5.7165971e-39
-0.076443814 0.11124287 0.59900004 5.5300716e-39
-0.073394485 0.11139943 0.59740001 5.2549281e-39
-0.071011916 0.11134525 0.59650004 5.7133825e-39
-0.068342865 0.11105715 0.59800005 5.072678e-39
-0.061011117 0.11201112 0.59500003 5.3463908e-39
-0.059500005 0.11163334 0.59500003 5.5304206e-39
-0.076126672 0.1093235 0.60100001 5.7137426e-39
-0.073749661 0.10919456 0.60028571 5.4382376e-39
-0.070571437 0.10828573 0.60000002 5.5297157e-39
-0.0672381 0.10838097 0.60000002 5.5300716e-39
-0.065714292 0.10800001 0.60000002 5.437869e-39
