# .PCD v0.7 - Point Cloud Data file format
VERSION 0.7
FIELDS x y z rgb
SIZE 4 4 4 4
TYPE F F F F
COUNT 1 1 1 1
WIDTH 889
HEIGHT 1
VIEWPOINT 0 0 0 1 0 0 0
POINTS 889
DATA ascii
-0.17238002 -0.18070003 0.81900012 1.3719298e-38
-0.16333202 -0.18080401 0.81900007 5.8841798e-39
-0.15771602 -0.18111603 0.81900007 5.1505692e-39
-0.15249 -0.18057001 0.81900007 1.0132316e-38
-0.14664 -0.18018001 0.81900007 1.7053005e-38
-0.17271739 -0.17739502 0.81875014 1.2543421e-38
-0.16614 -0.17628001 0.81900007 1.319524e-38
-0.16302001 -0.17706001 0.81900012 1.4116805e-38
-0.15756208 -0.17717496 0.81833357 1.3650816e-38
-0.15256424 -0.17722504 0.81845474 1.4019595e-38
-0.14716001 -0.17706001 0.81900012 1.2542332e-38
-0.15646802 -0.17331602 0.81900007 6.3656183e-39
-0.15210001 -0.17316002 0.81900007 8.2070057e-39
-0.1967362 -0.18654668 0.82300007 1.1165868e-38
-0.19203335 -0.18654668 0.82300007 1.1164065e-38
-0.18695176 -0.18616921 0.82133335 6.5492921e-39
-0.18267487 -0.18611906 0.82180005 7.4694561e-39
-0.17792478 -0.18576287 0.82300007 8.041326e-39
-0.17322193 -0.18576287 0.82300007 1.0073915e-38
-0.19164144 -0.18380335 0.82300001 1.1996345e-38
-0.1870212 -0.18271169 0.82249999 1.2921498e-38
-0.18223357 -0.18223271 0.82122231 1.1437066e-38
-0.17749238 -0.1821838 0.82100004 9.7725182e-39
-0.17280096 -0.1831221 0.82100004 5.4490766e-39
-0.16815503 -0.18223356 0.82122225 7.3625412e-39
-0.16218001 -0.18330097 0.82133341 3.8698791e-39
-0.15911335 -0.18419525 0.82300001 2.8639962e-39
-0.15168953 -0.18218382 0.82100004 6.6271146e-39
-0.14817096 -0.18179287 0.82100004 9.9507843e-39
-0.1424778 -0.18136191 0.82200003 1.6873657e-38
-0.13716668 -0.18184382 0.82300007 1.5595879e-38
-0.13324763 -0.18184383 0.82300001 9.0651301e-39
-0.18576287 -0.1794924 0.82300001 6.7972098e-39
-0.1821169 -0.17808639 0.82271427 4.3377348e-39
-0.17758933 -0.17758805 0.82144451 6.4696871e-39
-0.17123716 -0.17749238 0.82100004 1.1252711e-38
-0.16855635 -0.17771579 0.82100004 1.2738208e-38
-0.14830127 -0.17749238 0.82100004 1.2637394e-38
-0.14314552 -0.17812902 0.82233334 8.2213817e-39
-0.1387343 -0.1794924 0.82300001 1.0422585e-38
-0.17714095 -0.17478953 0.82300001 5.5307148e-40
-0.17238547 -0.17356074 0.82275003 1.2909897e-39
-0.16733748 -0.17308035 0.82233334 1.8437893e-39
-0.16214858 -0.17258321 0.82183337 5.6284148e-39
-0.1575522 -0.17131983 0.82140011 1.2536134e-38
-0.1526943 -0.17242573 0.8222 1.0789506e-38
-0.14771859 -0.17354527 0.82175004 8.3920962e-39
-0.20290765 -0.19501239 0.82900012 1.3097654e-38
-0.19974954 -0.19501239 0.82900006 1.0826012e-40
-0.20606573 -0.19264382 0.82900006 1.4018064e-38
-0.20241748 -0.19217971 0.82700008 1.4019215e-38
-0.19751444 -0.19233268 0.82814294 6.8272957e-39
-0.1918543 -0.1918543 0.82900012 4.6146174e-39
-0.18696795 -0.19170003 0.82833338 3.5965502e-39
-0.18238002 -0.19106477 0.82900006 1.2538005e-38
-0.17685334 -0.19027525 0.82900006 1.290492e-38
-0.17290573 -0.19027525 0.82900012 8.9441532e-39
-0.13737716 -0.19080161 0.82900012 1.9339763e-38
-0.13185048 -0.19027525 0.82900012 1.8327434e-38
-0.20098574 -0.18810003 0.82499999 1.2075572e-38
-0.19721431 -0.18935716 0.82500005 1.1350243e-38
-0.19280986 -0.1896632 0.8263334 7.375436e-39
-0.18778573 -0.18935716 0.82500005 3.4132141e-39
-0.18278858 -0.18907908 0.82550007 1.0063838e-38
-0.17778572 -0.18801335 0.82600009 1.5855566e-38
-0.17188621 -0.18762049 0.82600003 1.6501633e-38
-0.16736861 -0.18763201 0.82728583 6.3641833e-39
-0.16244382 -0.18689144 0.82800007 2.0324601e-39
-0.15672776 -0.18692477 0.82814288 5.2488689e-39
-0.15219431 -0.18610382 0.82800007 3.5911412e-39
-0.14746286 -0.18610382 0.82800001 3.9649404e-39
-0.14280586 -0.18698874 0.82842863 8.8422648e-39
-0.13789019 -0.18752986 0.82733345 1.537335e-38
-0.13251549 -0.18725692 0.82700014 1.833725e-38
-0.12784001 -0.18671143 0.82860005 1.365369e-38
-0.19559082 -0.18298636 0.82700002 3.7910028e-39
-0.1927667 -0.18175037 0.82614291 3.0434045e-39
-0.18935716 -0.18150002 0.82500005 2.9766957e-39
-0.15635715 -0.18464287 0.82500005 1.8477115e-39
-0.1422143 -0.18359524 0.82500005 7.1903791e-39
-0.13718954 -0.18357335 0.82550001 9.1264593e-39
-0.13239573 -0.18196905 0.82625008 7.5587609e-39
-0.12860259 -0.1827049 0.82842863 2.3955211e-39
-0.19106477 -0.17922191 0.82900006 3.2277663e-39
-0.18729544 -0.17768419 0.82700008 2.6767589e-39
-0.18307143 -0.1762619 0.82500005 1.8455815e-39
-0.17992859 -0.17521429 0.82500005 1.56791e-39
-0.1418616 -0.17647493 0.82600009 1.1966164e-39
-0.1378084 -0.17801467 0.8278001 1.8441424e-39
-0.13342953 -0.17922191 0.82900006 5.5698951e-40
-0.18553811 -0.17369525 0.82900006 4.0568053e-39
-0.18230286 -0.17244714 0.82775003 3.4107226e-39
-0.17759524 -0.17234826 0.8263334 2.6745981e-39
-0.17238574 -0.17112859 0.82499999 2.3104889e-39
-0.16735715 -0.17050001 0.82500005 2.4920187e-39
-0.1642143 -0.17050001 0.82500005 1.0201383e-39
-0.15792859 -0.17050001 0.82500005 1.3644276e-38
-0.15251952 -0.17060333 0.82550007 1.2717664e-38
-0.14705974 -0.1720369 0.82700008 1.1613492e-38
-0.14315687 -0.17289132 0.82785726 2.578455e-39
-0.13974573 -0.17448477 0.82900006 2.5824053e-39
-0.18159048 -0.16974764 0.82900006 2.211448e-39
-0.17724811 -0.16935287 0.82900006 3.2245083e-39
-0.17298763 -0.16904573 0.8275001 2.6717157e-39
-0.16697772 -0.16887031 0.82779998 3.4031808e-39
-0.16209029 -0.16729163 0.8278001 9.7580722e-39
-0.15737653 -0.16797811 0.82736385 1.2055781e-38
-0.15255064 -0.16856125 0.82871443 1.1232134e-38
-0.14764097 -0.16974764 0.82900012 6.6392849e-39
-0.20717774 -0.19703448 0.83220005 1.6501591e-38
-0.20247474 -0.19794901 0.83185726 1.1715791e-38
-0.1973813 -0.19658987 0.83233345 2.9594345e-39
-0.19309735 -0.19658802 0.83300012 4.0621793e-39
-0.14042 -0.19595334 0.83300006 1.8959547e-38
-0.13883334 -0.19595334 0.83300006 1.9330426e-38
-0.20814572 -0.19390002 0.83100003 1.3367957e-38
-0.19548286 -0.19390002 0.83100003 4.0661169e-39
-0.19231717 -0.19390003 0.83100003 4.3409088e-39
-0.18756859 -0.19390003 0.83100003 2.6842965e-39
-0.18235667 -0.19306096 0.8325001 1.1700334e-38
-0.17759858 -0.19226858 0.8325001 7.7370383e-39
-0.17201684 -0.19209811 0.83233345 2.8625865e-39
-0.16725811 -0.19104032 0.83233345 8.0017842e-39
-0.16214001 -0.19147524 0.83250004 1.3374962e-38
-0.1577656 -0.19219552 0.83242863 1.8810127e-38
-0.15299144 -0.19183366 0.83233345 2.0469982e-38
-0.14739633 -0.19248778 0.83271438 1.9335153e-38
-0.14252572 -0.19241048 0.83140004 1.9796457e-38
-0.13668524 -0.19373763 0.83200002 1.9976867e-38
-0.13232765 -0.19334194 0.83200014 1.7588845e-38
-0.12747049 -0.19160287 0.83133334 2.1855045e-38
-0.12368525 -0.19187191 0.8325001 1.9278274e-38
-0.16224287 -0.18915145 0.83100003 7.4645488e-40
-0.15907715 -0.18915144 0.83100003 2.7811851e-39
-0.15274572 -0.18915145 0.83100003 1.363786e-38
-0.14799717 -0.18915145 0.83100003 1.5658175e-38
-0.14483143 -0.18915144 0.83100003 1.7047533e-38
-0.12583715 -0.18915144 0.83100003 1.8274898e-38
-0.12373924 -0.18806648 0.8318001 9.0245415e-39
-0.19685304 -0.18152669 0.83233345 4.4277318e-39
-0.13090001 -0.18008667 0.83300006 3.3163494e-39
-0.12630858 -0.18253335 0.83150005 3.590072e-39
-0.12455335 -0.18484668 0.83300006 7.0245326e-39
-0.19257471 -0.17725177 0.83211118 3.7809345e-39
-0.13581145 -0.17659383 0.83150005 2.0313811e-39
-0.13312 -0.17828476 0.83200002 2.1239271e-39
-0.19119334 -0.17374001 0.83300006 3.9660404e-39
-0.18787977 -0.17283264 0.83149999 3.4125205e-39
-0.18440287 -0.17015715 0.83100003 2.4019433e-39
-0.14170785 -0.1713955 0.83124995 1.0161628e-39
-0.13787429 -0.17432287 0.83200002 1.6626112e-39
-0.182394 -0.16785464 0.83266675 1.1510445e-38
-0.17807144 -0.16699146 0.83100003 1.2701425e-38
-0.17231563 -0.16684757 0.83100003 1.24216e-38
-0.16721758 -0.16653922 0.83100003 1.2053529e-38
-0.16382572 -0.16540858 0.83100003 1.3536514e-38
-0.15749431 -0.16540858 0.83100003 1.1509978e-38
-0.15242915 -0.16604173 0.83100003 1.1413538e-38
-0.14758208 -0.16702886 0.83190918 1.085752e-38
-0.14342001 -0.1683805 0.83200008 8.1861068e-39
-0.17612001 -0.16422001 0.83300006 1.3532908e-38
-0.17215335 -0.16422001 0.83300006 1.5760328e-38
-0.1670443 -0.16268381 0.83225006 1.3268968e-38
-0.16212831 -0.16280614 0.83157146 1.5389858e-38
-0.15782873 -0.16280614 0.83157146 1.2629023e-38
-0.15299019 -0.16329525 0.83233345 1.5027137e-38
-0.14875001 -0.16382334 0.83300006 1.2345954e-38
-0.211428 -0.20759259 0.83900005 1.741159e-38
-0.20695333 -0.20759259 0.83900005 1.9698853e-38
-0.20215908 -0.20695333 0.83900005 1.8961313e-38
-0.19736478 -0.20535526 0.83900011 1.9147094e-38
-0.21215393 -0.20281595 0.83700001 1.4468891e-38
-0.20794424 -0.20316434 0.83655548 1.9525612e-38
-0.20255923 -0.20299506 0.83645457 1.7595634e-38
-0.1970505 -0.20263623 0.83766669 1.5476247e-38
-0.19214544 -0.20240968 0.83814299 1.6395303e-38
-0.18800555 -0.2011046 0.8386001 1.6862152e-38
-0.18458001 -0.20056097 0.83900005 1.9077349e-38
-0.17658953 -0.20056097 0.83900005 2.0278728e-38
-0.17499144 -0.20056097 0.83900005 1.969862e-38
-0.14702478 -0.20056097 0.83900005 1.9623663e-38
-0.14302954 -0.20056097 0.83900011 2.0463118e-38
-0.13983335 -0.20056097 0.83900005 1.9890114e-38
-0.12624952 -0.20056097 0.83900005 2.0286243e-38
-0.12181886 -0.20100896 0.83820003 2.0648958e-38
-0.11746001 -0.20136003 0.83900011 2.1208233e-38
-0.11234611 -0.2012002 0.83900005 1.3455159e-38
-0.10946953 -0.20056097 0.83900005 1.4197005e-38
-0.21073811 -0.19880953 0.83500004 1.2814818e-38
-0.20835239 -0.19960478 0.83500004 1.8611626e-38
-0.1980143 -0.19960479 0.83500004 2.324813e-39
-0.19191748 -0.19854447 0.83500004 5.5358394e-39
-0.18717746 -0.19753462 0.83633339 4.7904173e-39
-0.18283716 -0.19800702 0.83833337 6.2813638e-39
-0.17797524 -0.19792859 0.838 1.4294714e-38
-0.17258786 -0.19772929 0.838 1.8713936e-38
-0.16729118 -0.19687872 0.83754551 1.9079131e-38
-0.16226926 -0.1976203 0.83814293 1.9720548e-38
-0.15722477 -0.19792859 0.83800006 2.1206092e-38
-0.15243621 -0.19792859 0.83800006 1.9171974e-38
-0.14741397 -0.19761369 0.8366667 1.9058971e-38
-0.14287031 -0.1976627 0.83620006 1.9239067e-38
-0.13721651 -0.19811589 0.83766675 1.9424434e-38
-0.13248287 -0.19792859 0.838 1.6125266e-38
-0.12754324 -0.19673526 0.83700001 2.1484815e-38
-0.12221874 -0.19691461 0.83633333 2.157739e-38
-0.1172725 -0.19705196 0.83766669 1.4657702e-38
-0.11346477 -0.19736479 0.83900011 1.383109e-38
-0.18210953 -0.19483337 0.83500004 7.7258979e-39
-0.17733811 -0.19483337 0.83500004 8.8279253e-39
-0.1725667 -0.1943032 0.83500004 7.4777364e-39
-0.16779524 -0.19324288 0.83500004 1.161712e-38
-0.16302383 -0.19377303 0.83500004 2.0373434e-38
-0.15719208 -0.19483337 0.83500004 2.1852526e-38
-0.15149286 -0.19443573 0.83500004 2.0645351e-38
-0.14870954 -0.19483335 0.83500004 1.9798936e-38
-0.12119579 -0.19243364 0.83642858 9.3219278e-39
-0.11778858 -0.19365335 0.83850002 4.889014e-39
-0.11346477 -0.19416858 0.83900005 1.4387877e-38
-0.12283286 -0.18743953 0.83750004 1.0219757e-38
-0.19848858 -0.18095145 0.83700001 4.8887001e-39
-0.12761572 -0.18145907 0.83749998 4.7975555e-39
-0.12435239 -0.18334097 0.83700001 9.8613619e-39
-0.19781582 -0.17833659 0.83820003 4.8861918e-39
-0.19483335 -0.17574763 0.83500004 3.8734818e-39
-0.13207498 -0.17689702 0.8361429 2.8578908e-39
-0.12929049 -0.17877334 0.838 3.0408415e-39
-0.19614384 -0.17431968 0.83833337 4.0542886e-39
-0.19250193 -0.17200832 0.83671439 2.8568426e-39
-0.18847144 -0.17097621 0.83500004 1.5754588e-39
-0.13740921 -0.17213853 0.83722228 6.1643105e-39
-0.13363183 -0.1741861 0.83820003 4.7846313e-39
-0.19082066 -0.16846383 0.83833337 8.2980999e-39
-0.1875293 -0.16799691 0.83700001 1.2707183e-38
-0.18278509 -0.16580604 0.83566666 1.4356542e-38
-0.14225812 -0.16668984 0.83655554 1.2074386e-38
-0.13966668 -0.16759907 0.83800006 1.113917e-38
-0.18051906 -0.16461429 0.83500004 1.4172514e-38
-0.17777675 -0.16295144 0.83814299 1.3066566e-38
-0.17302722 -0.16186127 0.83722228 1.4374636e-38
-0.16806194 -0.16062826 0.83633339 1.2447202e-38
-0.16261964 -0.16070877 0.83619994 1.3460981e-38
-0.15716287 -0.16114984 0.83766669 1.0968809e-38
-0.15265286 -0.16142048 0.83700001 1.4656978e-38
-0.14714247 -0.16284615 0.83642858 1.2344208e-38
-0.14328019 -0.16308744 0.8386001 1.2445746e-38
-0.13983335 -0.16380477 0.83900005 1.0776753e-38
-0.17179525 -0.15847778 0.83900011 1.1146367e-38
-0.1674493 -0.15867691 0.83724999 1.1807587e-38
-0.16252629 -0.15837125 0.83900005 1.1883905e-38
-0.21170287 -0.21170382 0.84200007 1.5199702e-38
-0.20769334 -0.21170382 0.84200001 1.9336562e-38
-0.20340288 -0.21142763 0.84250009 2.0178258e-38
-0.20744668 -0.20904858 0.84100002 1.9698502e-38
-0.20184001 -0.20904858 0.84100002 1.9698612e-38
-0.19753526 -0.20822859 0.84200001 1.8966807e-38
-0.19245622 -0.2068924 0.84200001 1.9148941e-38
-0.18779336 -0.20678794 0.84266663 1.9432816e-38
-0.18224859 -0.20633429 0.84300011 1.9266049e-38
-0.17582573 -0.20633429 0.84300005 1.9736726e-38
-0.17341715 -0.20633429 0.84300005 2.0656881e-38
-0.12236382 -0.20661333 0.84250009 2.0097601e-38
-0.11802001 -0.20713715 0.84300005 2.2773758e-38
-0.11302509 -0.20600794 0.8416667 1.4467176e-38
-0.18703622 -0.20387082 0.8416667 1.9994965e-38
-0.18200795 -0.20285642 0.8418889 1.9451885e-38
-0.17741975 -0.20330684 0.84185719 2.0101189e-38
-0.17234129 -0.20280288 0.84166664 1.908309e-38
-0.1675764 -0.20285644 0.8418889 2.0008999e-38
-0.16304369 -0.2024592 0.84214294 1.9818874e-38
-0.15803716 -0.20216064 0.84233332 1.9168828e-38
-0.15267961 -0.20216098 0.84185725 2.0742585e-38
-0.14840984 -0.20242827 0.84233332 2.028523e-38
-0.14273715 -0.20288192 0.84200007 2.0928768e-38
-0.13747868 -0.20196819 0.8422001 1.8594376e-38
-0.13202535 -0.20196819 0.84219998 1.6505193e-38
-0.12750286 -0.20315018 0.84200001 1.9630814e-38
-0.12302001 -0.20396383 0.84150004 1.8715356e-38
-0.11774001 -0.20424287 0.84100002 2.3047824e-38
-0.11333477 -0.2038424 0.84100002 1.4750223e-38
-0.11133239 -0.1986362 0.84100002 1.4104456e-38
-0.10973048 -0.1986362 0.84100002 1.4198437e-38
-0.11788001 -0.19192159 0.84200001 7.3782722e-39
-0.1145362 -0.19302954 0.84100002 1.374291e-38
-0.12264287 -0.18730383 0.8416667 1.031623e-38
-0.12648287 -0.18103525 0.84233332 9.4901019e-39
-0.19943716 -0.17701049 0.84100002 6.3530304e-39
-0.13055524 -0.17540859 0.84100002 1.0039636e-38
-0.12808858 -0.17782509 0.84233332 9.9427983e-39
-0.19738191 -0.17204669 0.84180003 6.1772571e-39
-0.19463144 -0.17060287 0.84100002 4.509122e-39
-0.13616191 -0.17060287 0.84100002 1.2150037e-38
-0.1326661 -0.17277087 0.8422001 1.2608473e-38
-0.19562954 -0.16886763 0.84300011 6.9937111e-39
-0.19325906 -0.16839907 0.84200001 4.8954922e-39
-0.18662193 -0.16579716 0.84100002 1.4173219e-38
-0.13736573 -0.16784859 0.84225005 1.2343436e-38
-0.18706572 -0.16458574 0.84300011 1.4264315e-38
-0.18223359 -0.1625855 0.84200001 1.4445124e-38
-0.1786124 -0.16099145 0.84100002 1.370757e-38
-0.15218097 -0.16099145 0.84100002 1.2906001e-38
-0.14746143 -0.16108716 0.84150004 1.1602317e-38
-0.14165048 -0.16186193 0.8422001 1.0870117e-38
-0.13889429 -0.16298002 0.84300011 1.1613418e-38
-0.18064287 -0.15976858 0.84300005 1.4629867e-38
-0.17685774 -0.15889888 0.84180003 1.3889473e-38
-0.17268972 -0.15697506 0.84180003 1.3528624e-38
-0.16699859 -0.15658621 0.84100002 1.4374291e-38
-0.16219287 -0.15658621 0.84100002 1.3814624e-38
-0.15863493 -0.15863493 0.84266675 1.0133308e-38
-0.15307811 -0.15923335 0.84300005 1.2064413e-38
-0.14692287 -0.15976858 0.84300011 1.0971322e-38
-0.14371143 -0.15976858 0.84300005 1.1417931e-38
-0.17181143 -0.15495144 0.84300005 1.4102163e-38
-0.16779715 -0.15495144 0.84300011 1.438216e-38
-0.16298002 -0.15495144 0.84300011 1.3923408e-38
-0.21240382 -0.22048001 0.84800005 7.3711172e-39
-0.21240383 -0.21751875 0.84800005 6.7282435e-39
-0.20755813 -0.21805716 0.84800005 1.3538778e-38
-0.20317389 -0.21701881 0.84800011 1.9907423e-38
-0.19786668 -0.21563432 0.84800005 1.9177375e-38
-0.19302098 -0.21563432 0.84800005 1.8710298e-38
-0.18979049 -0.2156343 0.84800005 1.8798555e-38
-0.21084763 -0.21487144 0.84500003 1.454789e-38
-0.20682383 -0.21487145 0.84500003 1.9802596e-38
-0.20177072 -0.21304882 0.84575003 2.1112822e-38
-0.1974292 -0.21213751 0.84612513 2.0369176e-38
-0.19264224 -0.21198827 0.84633338 2.0376707e-38
-0.18787874 -0.21207175 0.84666675 1.9165965e-38
-0.18271469 -0.21193162 0.84740013 2.1206053e-38
-0.1768686 -0.21159619 0.84800005 2.0189028e-38
-0.17202286 -0.21159619 0.84800005 1.9066476e-38
-0.16717717 -0.21159619 0.84800005 1.7780334e-38
-0.16265449 -0.21143468 0.84800005 1.8691877e-38
-0.13083428 -0.21078859 0.84800005 2.212694e-38
-0.12598857 -0.21078859 0.84800005 1.788447e-38
-0.12195049 -0.21078859 0.84800005 2.0933792e-38
-0.11710477 -0.21078859 0.84800005 2.1667789e-38
-0.11387429 -0.21078859 0.84800005 1.3820389e-38
-0.18590002 -0.20843334 0.84500003 1.9806667e-38
-0.18203549 -0.20861834 0.84575003 1.9545873e-38
-0.17785239 -0.20762858 0.84500003 1.8441695e-38
-0.17262144 -0.20803095 0.84500003 2.1391149e-38
-0.16781907 -0.20784928 0.84542871 2.1103789e-38
-0.16225134 -0.20704582 0.84590018 2.0559627e-38
-0.15730001 -0.20731527 0.847 1.9908514e-38
-0.15234065 -0.20715208 0.84633338 2.0278381e-38
-0.14744572 -0.20707048 0.84600002 2.0552084e-38
-0.14261144 -0.20707047 0.84600002 2.0737903e-38
-0.13791965 -0.20708297 0.84687513 1.5944142e-38
-0.1327461 -0.20742765 0.84680003 1.8351608e-38
-0.12795715 -0.20709209 0.84500015 1.9354233e-38
-0.12393335 -0.20843334 0.84500003 2.0378075e-38
-0.11508096 -0.20843334 0.84500003 1.826627e-38
-0.11266667 -0.20843334 0.84500003 1.3089591e-38
-0.13600478 -0.20360477 0.84500003 1.7118964e-38
-0.13439524 -0.20360477 0.84500003 1.6309009e-38
-0.1162881 -0.19113097 0.84500003 1.1804663e-38
-0.11347143 -0.19153336 0.84500003 1.512041e-38
-0.12139272 -0.18719399 0.84600008 1.1690834e-38
-0.11811064 -0.18887095 0.84750009 1.0506046e-38
-0.11387429 -0.18979049 0.84800005 1.5488447e-38
-0.20253175 -0.18160796 0.84500003 8.661835e-39
-0.12518096 -0.1817143 0.84800005 1.270498e-38
-0.12268525 -0.18322049 0.84750009 1.3254537e-38
-0.11872001 -0.18494478 0.84800005 1.1608099e-38
-0.20244275 -0.17743798 0.84687507 1.050818e-38
-0.12752451 -0.17682953 0.84671444 1.3713004e-38
-0.20145868 -0.17210135 0.84680003 1.3550957e-38
-0.13098001 -0.17176124 0.84671438 1.3709714e-38
-0.12829643 -0.1734831 0.84725004 1.3620429e-38
-0.20109716 -0.1687924 0.84800005 1.4750569e-38
-0.19783156 -0.16720846 0.84612507 9.76743e-39
-0.19267952 -0.16607383 0.8465001 8.7561157e-39
-0.13600478 -0.16658573 0.84500003 1.3624796e-38
-0.13353176 -0.16774212 0.84633338 1.3345619e-38
-0.19948192 -0.16313905 0.84800005 1.3460926e-38
-0.18756573 -0.16246314 0.8462857 1.4354372e-38
-0.18348572 -0.16014762 0.84500003 1.4994332e-38
-0.1416381 -0.16014762 0.84500003 1.0602188e-38
-0.13733333 -0.16270477 0.84575009 1.3265748e-38
-0.13433398 -0.16340826 0.84800005 1.3630467e-38
-0.18656 -0.15910096 0.84800005 1.472567e-38
-0.18231471 -0.15763608 0.84757155 1.4723132e-38
-0.17785239 -0.15666035 0.84500015 1.4173251e-38
-0.17463334 -0.15531906 0.84500003 1.4933761e-38
-0.16014762 -0.15531906 0.84500003 1.3276972e-38
-0.1569286 -0.15646873 0.84500015 1.5211955e-38
-0.1519656 -0.15679632 0.84537512 1.2707592e-38
-0.14773406 -0.15740691 0.8465001 1.3186535e-38
-0.1430981 -0.15841572 0.84650004 1.2347808e-38
-0.1397181 -0.15910096 0.84800005 1.4202074e-38
-0.17606097 -0.15344763 0.84800005 1.484785e-38
-0.17222111 -0.15286763 0.84671444 1.4110273e-38
-0.16776085 -0.15263727 0.84687501 1.4665246e-38
-0.16264859 -0.15297286 0.84650016 1.3919678e-38
-0.15742318 -0.15257938 0.84766674 1.4566243e-38
-0.15344763 -0.15344763 0.84800005 1.3820041e-38
-0.20658669 -0.23098668 0.85400003 6.2694275e-39
-0.20197779 -0.2312578 0.85400003 4.8901281e-39
-0.21162573 -0.22706096 0.85300004 9.9527714e-39
-0.20668246 -0.22754832 0.85200012 5.261758e-39
-0.20252001 -0.22692001 0.85400003 4.9870124e-39
-0.19926669 -0.22529335 0.85400003 3.606278e-39
-0.2171924 -0.22260194 0.85200012 1.2447434e-38
-0.21271069 -0.22315475 0.85066676 8.8526428e-39
-0.20743163 -0.22282934 0.85080004 5.6255449e-39
-0.20243949 -0.22214234 0.85171437 7.2750049e-39
-0.19754668 -0.22258668 0.85360003 6.6375557e-39
-0.19276002 -0.22285336 0.85400003 7.3808534e-39
-0.18788001 -0.22095558 0.85400003 1.4366745e-38
-0.18462668 -0.22041334 0.85400003 1.54781e-38
-0.11793335 -0.22041336 0.85400003 2.1296762e-38
-0.21665144 -0.21989715 0.85200006 1.2171949e-38
-0.21452382 -0.21938096 0.85000002 1.151443e-38
-0.20157143 -0.21857144 0.85000002 1.9171281e-38
-0.19752383 -0.21857142 0.84999996 1.8879917e-38
-0.19185716 -0.21857145 0.85000002 1.7127885e-38
-0.18723129 -0.21729934 0.85000002 1.7136873e-38
-0.1822851 -0.21712318 0.8506667 1.6938834e-38
-0.17791145 -0.21771906 0.8530001 1.5563465e-38
-0.17283431 -0.21665144 0.85200012 1.8136284e-38
-0.16877715 -0.21665144 0.85200006 1.5377648e-38
-0.16266668 -0.21553335 0.85400003 1.6298872e-38
-0.15750811 -0.21515478 0.85250002 1.8785186e-38
-0.14152001 -0.21553335 0.85400003 2.046818e-38
-0.13704668 -0.21594 0.85400003 2.0271877e-38
-0.13277668 -0.21695668 0.85400003 1.8627811e-38
-0.12715113 -0.21661779 0.85400003 2.0372689e-38
-0.12271748 -0.21699177 0.85333341 1.8901552e-38
-0.11806715 -0.21683049 0.85350007 2.1300797e-38
-0.11468001 -0.21634668 0.85400003 1.1888236e-38
-0.18133335 -0.21452382 0.85000002 1.9801156e-38
-0.17728573 -0.21452384 0.85000008 1.9424096e-38
-0.17242859 -0.21452384 0.85000008 1.8226632e-38
-0.16757143 -0.21452384 0.85000008 1.5841084e-38
-0.1627143 -0.2137143 0.85000002 1.7124645e-38
-0.15791842 -0.21217875 0.85033333 1.850317e-38
-0.15274206 -0.21249717 0.851143 1.8413506e-38
-0.14744827 -0.21226224 0.8506667 2.0161616e-38
-0.14236681 -0.21233743 0.85142863 1.952781e-38
-0.13707843 -0.21251272 0.85166669 2.0566104e-38
-0.13259001 -0.21287572 0.85150003 2.2496053e-38
-0.12765144 -0.21275049 0.85099995 1.8251128e-38
-0.1222381 -0.21290478 0.85000008 2.0286255e-38
-0.11738096 -0.21290478 0.85000008 2.1853971e-38
-0.11414286 -0.21290478 0.85000002 1.447112e-38
-0.13842858 -0.20966668 0.85000002 1.5120519e-38
-0.11657145 -0.18700002 0.85000002 1.2083004e-38
-0.11414286 -0.18700001 0.85000008 1.4844155e-38
-0.12157049 -0.18235716 0.85100007 1.2335445e-38
-0.11768644 -0.18250598 0.85075003 1.2536082e-38
-0.20480953 -0.17647621 0.85000002 1.4748015e-38
-0.12547621 -0.17728573 0.85000008 1.3621109e-38
-0.12236508 -0.17747028 0.85088891 1.1599343e-38
-0.11928001 -0.17932573 0.85200006 1.207187e-38
-0.20480953 -0.17404763 0.85000002 1.4750897e-38
-0.12665397 -0.17202352 0.85066676 1.3261374e-38
-0.12271663 -0.17310436 0.85333341 1.0124621e-38
-0.11956001 -0.17242667 0.85400003 1.0699022e-38
-0.19833335 -0.16595238 0.85000002 1.0316642e-38
-0.13098097 -0.16724762 0.85000002 1.3269289e-38
-0.12763357 -0.16821787 0.85225004 1.2995285e-38
-0.12281334 -0.1699867 0.85400003 9.490057e-39
-0.11956001 -0.16998668 0.85400003 1.0424579e-38
-0.19725494 -0.16397113 0.85233343 8.2012086e-39
-0.19266994 -0.16274071 0.85257155 9.5844345e-39
-0.18861906 -0.16109525 0.85000002 1.5092321e-38
-0.1363181 -0.16147429 0.852 1.4180839e-38
-0.13193677 -0.16374554 0.85200006 1.318145e-38
-0.12901714 -0.16472001 0.85200006 1.2900916e-38
-0.19090953 -0.15922573 0.85300004 9.0402346e-39
-0.18738501 -0.15736881 0.85175008 1.3811671e-38
-0.18376191 -0.15623811 0.85000002 1.4907903e-38
-0.14652382 -0.15623811 0.85000002 1.401595e-38
-0.14253969 -0.15678437 0.85200006 1.3364441e-38
-0.13816954 -0.15862593 0.8524 1.2998855e-38
-0.18252978 -0.15369643 0.85275006 1.4356859e-38
-0.17806433 -0.15191536 0.85200006 1.3903574e-38
-0.1734419 -0.15074763 0.85100001 1.3556793e-38
-0.16614762 -0.15074763 0.85100007 1.2820656e-38
-0.1626202 -0.15062097 0.85120004 1.4651959e-38
-0.15822858 -0.1501143 0.85200006 1.391185e-38
-0.15251875 -0.15161674 0.85133338 1.3255304e-38
-0.14757223 -0.15325254 0.85216677 1.3358297e-38
-0.14314668 -0.15372001 0.85400003 1.2979506e-38
-0.17703557 -0.14829779 0.85400003 1.3715234e-38
-0.17263143 -0.14785144 0.85300004 1.3818229e-38
-0.16784815 -0.14805698 0.85290921 1.30706e-38
-0.16185336 -0.14721334 0.85400003 1.2979803e-38
-0.15787145 -0.14866446 0.85300004 1.4280236e-38
-0.15209335 -0.14884001 0.85400003 1.5181295e-38
-0.2029943 -0.23560382 0.85600007 9.413654e-39
-0.20252858 -0.23216097 0.85633343 5.3485867e-39
-0.21766859 -0.22582097 0.85600007 1.2724006e-38
-0.20299432 -0.22745144 0.85600013 4.9891662e-39
-0.19789988 -0.22752166 0.85714293 9.0400062e-39
-0.19262001 -0.22690193 0.85700005 1.3366678e-38
-0.18746696 -0.22689825 0.85742861 1.5938072e-38
-0.1217543 -0.22634858 0.85800004 2.2591107e-38
-0.11902477 -0.22582097 0.85600007 1.3177849e-38
-0.19810288 -0.22419049 0.85600007 1.3850028e-39
-0.1871554 -0.22349173 0.85600007 1.3172926e-38
-0.18221308 -0.22231758 0.85685718 1.5106851e-38
-0.17737634 -0.22239187 0.85714293 5.9853563e-39
-0.17167144 -0.22227715 0.85700005 4.7993996e-39
-0.16758043 -0.22239184 0.85714293 8.3942262e-39
-0.16242193 -0.22200477 0.85700005 1.7873413e-38
-0.15852574 -0.22144572 0.85800004 2.1825902e-38
-0.15117145 -0.22144572 0.85800004 1.7508971e-38
-0.14790286 -0.22144572 0.85800004 1.7152407e-38
-0.14300001 -0.2218543 0.85800004 2.0655804e-38
-0.13798986 -0.22209083 0.85733336 1.6502362e-38
-0.13301688 -0.22231758 0.85685718 1.9735619e-38
-0.12769634 -0.22239186 0.85714293 2.0466327e-38
-0.12290858 -0.222169 0.85628575 2.2493562e-38
-0.11820953 -0.22337526 0.85600007 1.7509891e-38
-0.11494858 -0.22174478 0.85600007 9.5843056e-39
-0.1752762 -0.21929906 0.85600007 1.0503566e-38
-0.17201525 -0.21929906 0.85600013 9.3936813e-39
-0.16679774 -0.21864688 0.85600007 1.0495325e-38
-0.1622324 -0.21848385 0.85600007 1.5924314e-38
-0.15740161 -0.21856925 0.85633337 2.0718067e-38
-0.15252912 -0.21778245 0.85644448 2.0077764e-38
-0.14755811 -0.21766859 0.85600001 1.9617168e-38
-0.14294776 -0.21820764 0.85628575 1.9819575e-38
-0.13810134 -0.21864688 0.85600007 1.9260313e-38
-0.13125335 -0.21929906 0.85600007 2.2219832e-38
-0.12907937 -0.21875559 0.85600013 2.1755994e-38
-0.11657906 -0.21929906 0.85600007 1.7234163e-38
-0.11494858 -0.21929906 0.85600007 1.1113374e-38
-0.12717715 -0.16630858 0.85600007 1.1878182e-38
-0.12249858 -0.16905001 0.85750002 9.4907955e-39
-0.19810288 -0.1622324 0.85600013 9.86359e-39
-0.19484192 -0.16141716 0.85600007 7.0030563e-39
-0.13614477 -0.16060191 0.85600007 1.2903827e-38
-0.13467143 -0.16160478 0.85700005 1.2444199e-38
-0.12962286 -0.16386287 0.85600007 1.2528549e-38
-0.19529715 -0.15934287 0.85800004 5.3310228e-39
-0.19239619 -0.1581562 0.85600007 4.804363e-39
-0.18913525 -0.15571049 0.85600007 8.3027004e-39
-0.1410362 -0.15571049 0.85600007 1.2803703e-38
-0.13757716 -0.15716116 0.85680008 1.2331226e-38
-0.13482858 -0.15934287 0.85800004 1.234197e-38
-0.18656383 -0.15256828 0.85666668 9.5887589e-39
-0.18261334 -0.15081906 0.85600007 1.1975626e-38
-0.15081906 -0.15081906 0.85600007 1.3132958e-38
-0.14674287 -0.15081906 0.85600007 9.2976756e-39
-0.14277717 -0.15229589 0.85666674 9.9330705e-39
-0.13907811 -0.15377526 0.85733336 7.6404201e-39
-0.18549144 -0.14953715 0.85800004 7.8446748e-39
-0.181467 -0.14827397 0.85700005 9.7738718e-39
-0.17741859 -0.14642048 0.85650003 1.0502448e-38
-0.17364572 -0.14592762 0.85600007 1.1333964e-38
-0.16712382 -0.14592764 0.85600013 1.4061649e-38
-0.16386287 -0.14592762 0.85600007 1.6661063e-38
-0.15701486 -0.14657982 0.85600007 1.7135347e-38
-0.15268637 -0.14697081 0.85733336 1.6015662e-38
-0.14809106 -0.148744 0.85720009 9.0983016e-39
-0.14381716 -0.14953715 0.85800004 1.8955224e-40
-0.17120001 -0.14429715 0.85600007 1.4006768e-38
-0.16712384 -0.14429715 0.85600013 1.5185863e-38
-0.1622324 -0.14429715 0.85600013 1.7599574e-38
-0.15852574 -0.14463429 0.85800004 1.6588294e-38
-0.18964002 -0.24053906 0.86200005 6.5467403e-39
-0.19949144 -0.23643431 0.86200005 5.9096512e-39
-0.19128191 -0.23643431 0.86200005 4.1608783e-39
-0.18964002 -0.23725526 0.86200011 5.1692695e-39
-0.20113334 -0.23397145 0.86200005 4.3441528e-39
-0.19759409 -0.23203135 0.86088896 1.1892991e-38
-0.19277461 -0.23215114 0.86133331 1.4832812e-38
-0.18803976 -0.23192357 0.86125004 1.2069145e-38
-0.18307242 -0.23150858 0.86200011 6.3631324e-39
-0.17978859 -0.23150858 0.86200005 7.0963674e-39
-0.12642667 -0.23068763 0.86200005 2.0930951e-38
-0.12396382 -0.23068763 0.86200005 1.982353e-38
-0.18249598 -0.2271474 0.86025006 1.5297352e-38
-0.17773429 -0.22734573 0.861 9.2189772e-39
-0.17322525 -0.2273462 0.86100006 1.3276259e-38
-0.16731849 -0.22752193 0.86120003 1.4283215e-38
-0.16240644 -0.22700214 0.8612501 1.0777335e-38
-0.15756097 -0.22622192 0.86166668 6.8205232e-39
-0.15187621 -0.22658287 0.86200011 1.1821291e-38
-0.14689367 -0.22649556 0.86166668 2.1116409e-38
-0.14186001 -0.22632097 0.86100006 1.7712015e-38
-0.13694 -0.22632097 0.86100006 2.046131e-38
-0.13189191 -0.22747812 0.86150008 1.9909506e-38
-0.12759811 -0.22677907 0.86066675 2.0281192e-38
-0.12269335 -0.22753143 0.86000007 1.9732003e-38
-0.17445715 -0.22360002 0.86000001 2.8769554e-39
-0.15766668 -0.2231905 0.86000001 1.7234878e-38
-0.15348954 -0.22294478 0.86000007 1.5294843e-38
-0.14824763 -0.22360002 0.86000001 1.8076142e-38
-0.14333335 -0.22360002 0.86000001 1.9733858e-38
-0.12560572 -0.16829525 0.86200005 1.0122188e-38
-0.20183763 -0.16081288 0.86150002 1.493244e-38
-0.19844002 -0.16071907 0.86100006 9.4944739e-39
-0.13276801 -0.1623086 0.86160004 1.2158637e-38
-0.12859048 -0.16462858 0.86000001 1.2338036e-38
-0.19620763 -0.15844382 0.86200005 6.6332284e-39
-0.19317144 -0.15655811 0.86066675 5.627333e-39
-0.13570954 -0.15661906 0.86100006 9.2005586e-39
-0.19113398 -0.1533981 0.86133337 6.1862521e-39
-0.18934667 -0.15164 0.86066669 7.8428741e-39
-0.14104001 -0.15087906 0.86100006 2.7656419e-39
-0.13762783 -0.15304649 0.86120003 3.317008e-39
-0.18695906 -0.14923906 0.86100006 8.3960647e-39
-0.18326955 -0.14677906 0.86100006 6.5607981e-39
-0.17814669 -0.14530858 0.86200011 8.2112853e-39
-0.17486286 -0.14530858 0.86200005 8.4884747e-39
-0.14727478 -0.14645429 0.86150002 1.4827593e-38
-0.1434432 -0.14836256 0.86066669 5.5297087e-39
-0.17308764 -0.14273462 0.86133337 1.1618486e-38
-0.16765879 -0.14258559 0.86114293 1.6951313e-38
-0.16194905 -0.14206381 0.86100006 1.7596304e-38
-0.15707454 -0.14313072 0.86125004 1.6399549e-38
-0.15266179 -0.14399131 0.86114293 1.7415859e-38
-0.14923906 -0.14431906 0.86100006 1.6585767e-38
-0.19652002 -0.24028288 0.86700004 4.0621695e-39
-0.19194764 -0.24137621 0.86500007 6.6281557e-39
-0.18684126 -0.24177434 0.86642867 5.8135123e-39
-0.1831346 -0.24240941 0.86785722 5.6320175e-39
-0.16635144 -0.24166477 0.86900002 6.364231e-39
-0.15652382 -0.24467145 0.86500007 1.7980296e-38
-0.20300733 -0.23826574 0.86766672 6.9165752e-39
-0.1968905 -0.23725717 0.86500013 4.6225417e-39
-0.19318335 -0.23849286 0.86500007 4.5228127e-39
-0.18730138 -0.23768887 0.86528587 5.8157193e-39
-0.18255177 -0.23789811 0.86733341 6.6429633e-39
-0.17773335 -0.23642763 0.86800003 1.0694113e-38
-0.17256533 -0.2368211 0.8681429 6.0872629e-39
-0.16783524 -0.237285 0.86811113 5.8160655e-39
-0.16346699 -0.23679398 0.86833334 1.0329289e-38
-0.15890287 -0.23587145 0.86900002 2.2499335e-38
-0.1514543 -0.23587145 0.86900002 1.852948e-38
-0.14814383 -0.23587145 0.86900002 1.7802753e-38
-0.14268287 -0.23614955 0.86849999 2.0375922e-38
-0.13872001 -0.23532858 0.86700004 1.9822762e-38
-0.18618096 -0.23478574 0.86500007 5.3540097e-39
-0.18206191 -0.23478574 0.86500013 5.9990218e-39
-0.17711906 -0.23231432 0.86500013 1.2904583e-38
-0.17217621 -0.23231432 0.86500013 1.1891898e-38
-0.16729781 -0.23240414 0.8653335 5.5337206e-39
-0.16247812 -0.23258382 0.86600012 1.0804635e-38
-0.15771018 -0.23285209 0.86700004 1.891201e-38
-0.15287399 -0.23303178 0.86766672 2.2223454e-38
-0.14797333 -0.23312098 0.86800003 1.8257617e-38
-0.14279303 -0.23276225 0.86666673 2.1485175e-38
-0.13803372 -0.23236516 0.86580008 2.0277992e-38
-0.13263336 -0.23258892 0.86500013 1.769294e-38
-0.16064286 -0.22984287 0.86500007 1.0212607e-39
-0.15693574 -0.22943096 0.86500007 8.1342335e-39
-0.15240477 -0.22984287 0.86500013 2.139695e-38
-0.14746192 -0.22984287 0.86500013 1.8910893e-38
-0.14251906 -0.22984287 0.86500013 2.0564306e-38
-0.13757621 -0.22984287 0.86500013 1.9259192e-38
-0.12686667 -0.16640954 0.86500007 7.548963e-39
-0.12299948 -0.16757663 0.86677784 8.6668026e-39
-0.13188525 -0.16155952 0.86550003 1.0202505e-38
-0.1288242 -0.16355143 0.8682 6.3522583e-39
-0.12414286 -0.1646962 0.86900002 6.3662643e-39
-0.20215191 -0.15796097 0.86725003 1.4292112e-38
-0.1975822 -0.15723798 0.86700016 8.5732463e-39
-0.13323498 -0.15773892 0.8658573 4.3257817e-39
-0.19614573 -0.15476477 0.86900002 7.3801219e-39
-0.19340715 -0.15216714 0.86600006 8.2145377e-39
-0.13716935 -0.15202534 0.86660004 2.6738302e-39
-0.13424668 -0.15409431 0.86833334 2.8593033e-39
-0.19148858 -0.14819907 0.86740011 1.1076522e-38
-0.18784414 -0.1471381 0.86633343 1.1526729e-38
-0.18370953 -0.1458143 0.86500007 7.5706369e-39
-0.1425169 -0.14723307 0.86642867 8.6542259e-39
-0.13937333 -0.14847144 0.86849999 4.9722189e-39
-0.18662319 -0.14417049 0.86833334 1.3560033e-38
-0.18243477 -0.14317715 0.86775005 8.5808273e-39
-0.17770737 -0.14237675 0.86557162 7.6628171e-39
-0.17217621 -0.14087144 0.86500013 1.7692134e-38
-0.16723335 -0.14087144 0.86500013 1.8058365e-38
-0.16393811 -0.14087144 0.86500007 1.7873643e-38
-0.15734765 -0.14087144 0.86500013 1.704495e-38
-0.15214495 -0.14159563 0.86540002 1.7607105e-38
-0.14770544 -0.14275281 0.86642867 1.6682636e-38
-0.14350858 -0.14433619 0.86849999 1.4188374e-38
-0.17780286 -0.13976035 0.86833334 1.2167716e-38
-0.17248288 -0.13907677 0.8682 1.5665958e-38
-0.16760451 -0.13854736 0.8681429 1.6584656e-38
-0.16250667 -0.13813858 0.86725003 1.7136413e-38
-0.15771145 -0.13789174 0.86700004 1.7326562e-38
-0.15327826 -0.13817511 0.86728585 1.7503063e-38
-0.14979906 -0.13986763 0.86900002 1.8610879e-38
-0.16046573 -0.24527144 0.87300003 1.9452928e-38
-0.15547715 -0.24527144 0.87300003 2.0279094e-38
-0.1538143 -0.24527144 0.87300003 2.0557808e-38
-0.14633143 -0.24527144 0.87300003 2.1939581e-38
-0.18067031 -0.24271868 0.87100011 6.7358567e-39
-0.17699739 -0.24298263 0.87150013 6.9195235e-39
-0.17220174 -0.24227832 0.87180007 6.7362365e-39
-0.16618128 -0.24194448 0.87100005 5.2614862e-39
-0.16187477 -0.24208383 0.87275004 1.1260578e-38
-0.15712436 -0.24255864 0.871889 1.6875791e-38
-0.15203525 -0.2417597 0.87233341 1.7978891e-38
-0.14737073 -0.2421536 0.87300009 2.1205361e-38
-0.14245145 -0.24222289 0.87300009 2.0470304e-38
-0.18000668 -0.2397324 0.87100005 7.1010519e-39
-0.17668858 -0.23973241 0.87100005 8.4800165e-39
-0.17337048 -0.2397324 0.87100005 4.8066023e-39
-0.16175717 -0.23862636 0.87100005 1.4747447e-38
-0.15683937 -0.23788796 0.87133348 2.1944365e-38
-0.15230572 -0.23779526 0.87150002 1.7420676e-38
-0.14682573 -0.23807335 0.87100011 1.9639104e-38
-0.14350763 -0.23890287 0.87100005 2.0091801e-38
-0.13023524 -0.16009811 0.87100005 3.5057447e-39
-0.12732016 -0.16244343 0.87214297 4.7017627e-39
-0.12388287 -0.16212858 0.87300003 8.1186805e-39
-0.20286858 -0.15547715 0.87300003 1.4015883e-38
-0.19908573 -0.15512097 0.87100005 1.1883985e-38
-0.13155429 -0.15728572 0.87150007 3.3213744e-39
-0.20203716 -0.1538143 0.87300003 1.38297e-38
-0.19744211 -0.15227334 0.87180007 9.1307277e-39
-0.19493811 -0.15014382 0.87100005 9.4126899e-39
-0.1357654 -0.15069684 0.87100005 2.6756239e-39
-0.13336763 -0.15247905 0.87250006 2.6785091e-39
-0.19538572 -0.14882572 0.87300003 9.8722304e-39
-0.19206001 -0.1455 0.87300003 1.1077637e-38
-0.18996097 -0.14516668 0.87100005 1.6686044e-38
-0.14018953 -0.14516668 0.87100005 1.2792183e-38
-0.13723502 -0.14720167 0.8720001 6.5366355e-39
-0.13386001 -0.14882572 0.87300003 3.2259278e-39
-0.19039716 -0.14383715 0.87300003 1.1915277e-38
-0.18723182 -0.14171068 0.87220013 1.4211155e-38
-0.18346509 -0.14084986 0.87166679 1.3466373e-38
-0.14656059 -0.14091752 0.87140006 1.5946206e-38
-0.14267367 -0.14267367 0.87266678 1.1143815e-38
-0.13801715 -0.14383715 0.87300003 8.2944033e-39
-0.18091983 -0.13739184 0.87220001 1.446353e-38
-0.17682382 -0.13697493 0.87166679 1.5939707e-38
-0.17177778 -0.13609368 0.87133348 1.6397773e-38
-0.16673429 -0.13587601 0.87100011 1.6578183e-38
-0.16175716 -0.13521239 0.87100005 1.7966137e-38
-0.15678 -0.13521239 0.87100005 1.833889e-38
-0.15158384 -0.13692382 0.87133348 1.7969035e-38
-0.14799429 -0.13884859 0.87300003 1.8154936e-38
-0.1712743 -0.13386001 0.87300003 1.7042397e-38
-0.16711716 -0.13386002 0.87300003 1.7133168e-38
-0.1621286 -0.13386002 0.87300003 1.7227504e-38
-0.15714002 -0.13386002 0.87300003 1.7968299e-38
-0.15583335 -0.24250002 0.87500006 1.3918745e-38
-0.13833335 -0.24250002 0.87500006 2.0469504e-38
-0.12750001 -0.16083334 0.87500006 4.4216039e-39
-0.12305557 -0.16361111 0.87500012 9.9657895e-39
-0.13083334 -0.15666668 0.87500006 4.058208e-39
-0.12938809 -0.15860334 0.87650001 4.2404413e-39
-0.20117763 -0.15192524 0.87650001 1.437893e-38
-0.19916669 -0.15083334 0.87500006 1.1616361e-38
-0.1317703 -0.15247811 0.87680006 3.6894185e-39
-0.12960953 -0.15385905 0.87800002 3.6911981e-39
-0.19757298 -0.14813678 0.87680006 9.4051482e-39
-0.19449954 -0.14691667 0.87650001 6.8406136e-39
-0.13583334 -0.14583334 0.87500006 6.1603337e-39
-0.13376254 -0.14767049 0.87600005 2.1221096e-39
-0.19257692 -0.1432831 0.87725002 7.210136e-39
-0.18916668 -0.14083335 0.87500006 1.0896818e-38
-0.14138891 -0.14138891 0.87500012 7.3760918e-39
-0.13765715 -0.14321843 0.87600005 4.7060143e-39
-0.18681556 -0.13892731 0.87700003 1.3741875e-38
-0.18403018 -0.13781241 0.87700003 1.3916488e-38
-0.15083334 -0.13583334 0.87500006 1.5944348e-38
-0.14762233 -0.13735811 0.87714297 1.6772364e-38
-0.14328311 -0.13910644 0.87725002 1.3550971e-38
-0.18145335 -0.13462667 0.87800002 1.5840618e-38
-0.17760886 -0.13323498 0.87671435 1.5383244e-38
-0.17299321 -0.13221687 0.87628585 1.7045281e-38
-0.16778716 -0.13189095 0.87650001 1.7600646e-38
-0.16259193 -0.13174143 0.87550008 1.6487461e-38
-0.15832168 -0.13242263 0.87725002 1.7412271e-38
-0.15314706 -0.13377373 0.8768 1.7133127e-38
-0.14967811 -0.13462667 0.87800002 1.7230467e-38
-0.16807431 -0.12960953 0.87800002 1.6951702e-38
-0.16389334 -0.12960953 0.87800002 1.68566e-38
-0.12669525 -0.16067715 0.88100004 6.5485186e-39
-0.1248762 -0.16175239 0.88000005 8.4835085e-39
-0.12711734 -0.15700839 0.88160008 6.4555914e-39
-0.20198096 -0.15001906 0.88000005 1.594228e-38
-0.13089049 -0.15018953 0.88100004 3.7798246e-39
-0.12754096 -0.15254572 0.88250005 5.8127514e-39
-0.20086353 -0.14778414 0.88000005 1.3647838e-38
-0.19862859 -0.14666668 0.88000005 1.0602583e-38
-0.13163072 -0.14716692 0.88175011 3.6890555e-39
-0.19739065 -0.14245144 0.88127285 9.9565058e-39
-0.19374669 -0.14174414 0.88066673 6.8316705e-39
-0.13759348 -0.14191349 0.8817144 2.8549761e-39
-0.13409525 -0.14499049 0.88000005 1.9344911e-39
-0.19616382 -0.1380724 0.88400006 9.2193009e-39
-0.19232695 -0.13761318 0.88254547 6.4621523e-39
-0.18766764 -0.13648415 0.88100004 1.005516e-38
-0.1420726 -0.13703641 0.88155556 1.4657624e-38
-0.13943811 -0.13943811 0.88200009 5.7973399e-39
-0.1866924 -0.13314891 0.88300008 1.060579e-38
-0.18270336 -0.1321481 0.88100004 1.4189059e-38
-0.1785143 -0.13158096 0.88000005 1.290228e-38
-0.15672383 -0.13158098 0.88000005 1.7592711e-38
-0.151363 -0.13170806 0.88085723 1.7233317e-38
-0.14730152 -0.13268782 0.88180012 1.6121942e-38
-0.14363849 -0.13389373 0.88200009 1.2354853e-38
-0.18177411 -0.12863505 0.88280004 1.3168119e-38
-0.17715113 -0.12845355 0.88155562 1.3358257e-38
-0.17208211 -0.12759028 0.88140005 1.4834444e-38
-0.16711789 -0.12680593 0.88177776 1.4560329e-38
-0.16179983 -0.1273181 0.881091 1.6582534e-38
-0.15702036 -0.12762985 0.88166678 1.7321572e-38
-0.15256572 -0.12752658 0.88288891 1.6862713e-38
-0.14901716 -0.12881143 0.88400006 1.5486978e-38
-0.16753906 -0.12376001 0.88400006 1.3360012e-38
-0.16236511 -0.12366667 0.88333338 1.2706065e-38
-0.15743621 -0.12376001 0.88400006 1.3530448e-38
-0.12671429 -0.15121239 0.88700002 8.6689872e-39
-0.12840743 -0.14870992 0.88819999 8.6639636e-39
-0.13600667 -0.14192002 0.88700002 6.624546e-39
-0.13334033 -0.14348891 0.88800013 1.0963053e-38
-0.19682954 -0.13600667 0.88700002 1.0606869e-38
-0.1382204 -0.13822038 0.8882001 9.579813e-39
-0.19631669 -0.13369763 0.88849998 1.032528e-38
-0.19200806 -0.13279742 0.88814288 5.722774e-39
-0.18838191 -0.13178286 0.88700002 8.2120252e-39
-0.14614382 -0.1309381 0.88700002 1.1064866e-38
-0.14236128 -0.1322127 0.88800001 1.1048056e-38
-0.13970001 -0.13462001 0.88900006 7.74451e-39
-0.18697302 -0.12887841 0.88833332 1.1614881e-38
-0.18203335 -0.12671779 0.88900012 1.3076299e-38
-0.17740001 -0.12586953 0.88700002 1.3528333e-38
-0.17486572 -0.12586953 0.88700002 1.3817111e-38
-0.15121239 -0.12586953 0.88700002 1.6408182e-38
-0.14828096 -0.12770286 0.88800001 1.4202387e-38
-0.14478001 -0.12954001 0.88900006 1.2633626e-38
-0.18034001 -0.12446001 0.88900006 1.399971e-38
-0.17695336 -0.12446001 0.88900012 1.3630202e-38
-0.1720566 -0.12333202 0.8882001 1.3263211e-38
-0.16712192 -0.12185096 0.88849998 1.2696406e-38
-0.16237621 -0.12206414 0.88800001 1.3623377e-38
-0.15772524 -0.12347335 0.88800007 1.3815295e-38
-0.15351562 -0.12372668 0.88859999 1.6869959e-38
-0.12813431 -0.14680287 0.89099997 1.1243947e-38
-0.13226573 -0.14198409 0.89271438 1.5205079e-38
-0.12856573 -0.14304 0.89400005 1.2338786e-38
-0.13684858 -0.13770001 0.89250004 1.4376081e-38
-0.19602001 -0.13152859 0.89100003 9.5880793e-39
-0.19465001 -0.13089858 0.89250004 7.6552347e-39
-0.14017144 -0.1316743 0.89200008 7.2882206e-39
-0.13782345 -0.13374344 0.89220011 1.2805522e-38
-0.19602001 -0.12983143 0.89100003 1.0234128e-38
-0.19170859 -0.12940954 0.89200008 4.9819664e-39
-0.18785003 -0.12693192 0.8925001 1.00537e-38
-0.18445002 -0.12579858 0.89250004 1.2165885e-38
-0.14622287 -0.12686059 0.89160007 1.2442499e-38
-0.14267929 -0.12909073 0.89175004 1.1335455e-38
-0.18205217 -0.12335215 0.89325005 1.1893992e-38
-0.17743787 -0.12176073 0.89250004 1.382174e-38
-0.17226002 -0.12134572 0.89100003 1.2710747e-38
-0.16716859 -0.12134572 0.89100003 1.1688738e-38
-0.16038001 -0.12134572 0.89100003 1.3714483e-38
-0.15725002 -0.12069857 0.8925001 1.3542317e-38
-0.15215002 -0.12239858 0.8925001 1.6502634e-38
-0.14875001 -0.12409858 0.89250004 1.4287486e-38
-0.17226614 -0.11860572 0.89228582 1.243487e-38
-0.16741873 -0.11812605 0.89233333 1.3078426e-38
-0.162389 -0.11866246 0.89271426 1.4458537e-38
-0.13141334 -0.14080001 0.89600003 1.5212646e-38
-0.12885334 -0.14080001 0.89600003 1.2438882e-38
-0.13568 -0.13653335 0.89600003 1.5486372e-38
-0.13276356 -0.1381377 0.89771444 1.5116527e-38
-0.12914096 -0.13854858 0.89800006 1.1882497e-38
-0.13722782 -0.13210247 0.89720011 1.3272951e-38
-0.1342724 -0.13341716 0.89800006 1.4837045e-38
-0.19612764 -0.12837905 0.89666671 9.9510912e-39
-0.19251202 -0.12691735 0.89680004 5.8963753e-39
-0.18858668 -0.12544 0.89600003 5.8206827e-39
-0.14592001 -0.12544 0.89600003 8.7612193e-39
-0.14235267 -0.12673961 0.89657152 6.0962004e-39
-0.13871963 -0.12777258 0.89800006 7.3840358e-39
-0.1516089 -0.12088889 0.89600009 1.732805e-38
-0.14761882 -0.12198216 0.89725006 1.0143051e-38
-0.14453524 -0.1231543 0.89800006 4.1622964e-39
-0.1319578 -0.13596478 0.90166676 9.3093484e-39
-0.1297162 -0.13572857 0.90200007 8.8465443e-39
-0.13643715 -0.13128857 0.90100002 1.0785552e-38
-0.13386287 -0.13300477 0.90100002 1.0042236e-38
-0.13694191 -0.12749715 0.90150005 6.6461498e-39
-0.13472097 -0.12871429 0.90100002 5.2621336e-39
-0.13295192 -0.13381667 0.90650004 4.6149523e-39
