# .PCD v0.7 - Point Cloud Data file format
VERSION 0.7
FIELDS x y z rgb
SIZE 4 4 4 4
TYPE F F F F
COUNT 1 1 1 1
WIDTH 861
HEIGHT 1
VIEWPOINT 0 0 0 1 0 0 0
POINTS 861
DATA ascii
-0.11661798 -0.17287812 0.81400007 2.212546e-38
-0.11318476 -0.17210287 0.81400001 2.0836574e-38
-0.11551049 -0.16977715 0.81400001 2.130045e-38
-0.11174504 -0.16822669 0.81400007 2.0657587e-38
-0.10752326 -0.16779335 0.81340009 2.1208605e-38
-0.10233144 -0.16667621 0.81400007 1.9461215e-38
-0.098455243 -0.16667621 0.81400001 2.1941816e-38
-0.10796153 -0.16403316 0.8132 1.853282e-38
-0.10217638 -0.16326515 0.81400007 1.0886038e-38
-0.098455243 -0.16357525 0.81400001 6.7552437e-39
-0.092253342 -0.16357526 0.81400001 2.9720237e-39
-0.12630892 -0.17698857 0.81866682 2.0934879e-38
-0.12211175 -0.17733365 0.81666672 2.1299291e-38
-0.11739652 -0.17726223 0.81633347 1.9446783e-38
-0.11328287 -0.17673667 0.8175 1.4753499e-38
-0.10750668 -0.17528571 0.81800008 1.1063977e-38
-0.10218 -0.17550001 0.81900012 2.7711084e-39
-0.12547779 -0.17223844 0.81833339 8.5908985e-39
-0.1220853 -0.1726401 0.81554556 1.826557e-38
-0.11875715 -0.17309049 0.81500006 2.1855726e-38
-0.11215953 -0.17347859 0.81500006 1.7603277e-38
-0.10752097 -0.17254655 0.81557149 9.5974694e-39
-0.10226708 -0.1724456 0.81614286 6.0796959e-39
-0.09734191 -0.17287874 0.81766671 4.7979647e-39
-0.092540011 -0.17241812 0.81825006 4.340578e-39
-0.087918431 -0.17211398 0.81855565 4.6175209e-39
-0.082230352 -0.17214057 0.81785733 3.9732249e-39
-0.077296674 -0.17192334 0.81775004 7.3765276e-39
-0.07230024 -0.17208025 0.8185001 1.3276283e-38
-0.12184715 -0.16816954 0.81750011 4.9845321e-39
-0.11745153 -0.16759335 0.81572741 1.2548806e-38
-0.11347907 -0.16657048 0.81500006 1.7525861e-38
-0.10245714 -0.16998573 0.81500006 1.5389557e-38
-0.096882693 -0.16772772 0.81500006 1.0980028e-38
-0.092521913 -0.16719145 0.81500006 9.6903867e-39
-0.087756932 -0.16697283 0.81544447 1.1440297e-38
-0.082958303 -0.16731547 0.81560004 1.1348822e-38
-0.077942945 -0.16743451 0.81653863 1.208567e-38
-0.073320001 -0.16848001 0.81900007 1.4122196e-38
-0.11739001 -0.16419002 0.81900007 5.8207262e-39
-0.11268096 -0.1631792 0.81757146 1.1811965e-38
-0.10767389 -0.16167524 0.81671435 4.9913663e-39
-0.10223937 -0.16151336 0.81533337 1.1234695e-38
-0.096919052 -0.16217761 0.81575 8.662942e-39
-0.092480004 -0.16164476 0.81599998 9.1178007e-39
-0.08785259 -0.16248754 0.81633335 6.0832987e-39
-0.082688928 -0.16276234 0.81700009 9.2650772e-40
-0.077532008 -0.16395603 0.81900007 5.5737627e-40
-0.10686 -0.15990001 0.81900012 2.400535e-39
-0.10213842 -0.15905492 0.81866682 1.4013751e-38
-0.097500011 -0.15912001 0.81900012 1.4465769e-38
-0.092706673 -0.15892479 0.81800002 1.4922091e-38
-0.087583505 -0.15931493 0.81866682 8.6571785e-39
-0.083460003 -0.15990001 0.81900007 1.7537446e-39
-0.14030191 -0.18106002 0.82300001 1.3097869e-38
-0.13716668 -0.18106002 0.82300007 1.3286287e-38
-0.13208668 -0.18159907 0.82260001 2.1854631e-38
-0.12736015 -0.18192777 0.82185715 1.9916322e-38
-0.12319221 -0.18142305 0.82180005 1.9361037e-38
-0.14030191 -0.17792478 0.82300007 1.3922248e-38
-0.13712965 -0.17787631 0.82277775 9.0377753e-39
-0.13228582 -0.17768371 0.82188892 1.2001719e-38
-0.1290143 -0.17749241 0.82100004 1.9464459e-38
-0.11085938 -0.17815906 0.82166672 2.0015818e-38
-0.10725145 -0.1784924 0.82200003 1.6792249e-38
-0.10255429 -0.17849241 0.82200003 5.2797689e-39
-0.098029539 -0.17716967 0.82157153 4.8044401e-39
-0.093160003 -0.17692667 0.82200003 7.750338e-39
-0.087678105 -0.17614287 0.82200003 6.2648103e-39
-0.082167938 -0.17607145 0.82166672 4.2483698e-39
-0.077533029 -0.17621431 0.82233334 5.7095037e-39
-0.067407623 -0.17635715 0.82300001 1.0121914e-38
-0.063488573 -0.17635715 0.82300001 1.1815559e-38
-0.13131271 -0.1741254 0.82233334 2.7646596e-39
-0.12820096 -0.17328136 0.82180005 3.6102395e-39
-0.086009532 -0.17436478 0.82100004 5.5355157e-39
-0.083663814 -0.17436478 0.82100004 4.7093409e-39
-0.075844765 -0.17436478 0.82100004 1.0251479e-40
-0.074280955 -0.17436478 0.82100004 9.2484297e-41
-0.067486234 -0.17211848 0.8217693 1.4481636e-38
-0.062534921 -0.17298542 0.82249999 1.1987699e-38
-0.12588668 -0.16967334 0.82100004 1.9413701e-39
-0.1240035 -0.16629367 0.82233334 3.229581e-39
-0.072254293 -0.16720161 0.82166672 5.5326556e-39
-0.069282383 -0.16831334 0.82200003 2.9641428e-39
-0.12262572 -0.16428249 0.8222 3.3196256e-39
-0.11782464 -0.16213486 0.82242864 2.2118263e-39
-0.11280592 -0.1609941 0.82140011 1.381379e-39
-0.081057459 -0.16081175 0.82100004 2.3994588e-39
-0.077292398 -0.16163117 0.8221429 2.4898523e-39
-0.074024767 -0.16371572 0.82250005 1.5693212e-39
-0.11522001 -0.15911335 0.82300001 9.656911e-39
-0.1118212 -0.157645 0.82249999 8.9283311e-39
-0.10720794 -0.15728922 0.82166666 7.6372672e-39
-0.10251271 -0.15650731 0.82166672 1.1322162e-38
-0.097857147 -0.15657048 0.82200003 1.0408104e-38
-0.092728309 -0.15648586 0.8221429 5.7223438e-39
-0.087256409 -0.15720053 0.82211113 3.6829753e-39
-0.08244548 -0.15764502 0.82250005 2.4884104e-39
-0.078380957 -0.15911335 0.82300001 2.9475991e-39
-0.10111143 -0.15441048 0.82300001 1.1866966e-38
-0.0979762 -0.15441048 0.82300007 1.1684779e-38
-0.0901381 -0.15441048 0.82300001 7.8173102e-39
-0.13711397 -0.19027525 0.82900012 2.0082099e-38
-0.13185048 -0.19027525 0.82900012 1.712357e-38
-0.1275081 -0.19067001 0.82900006 1.9727338e-38
-0.12316573 -0.19027525 0.82900006 2.0743673e-38
-0.14132479 -0.18711716 0.82900012 1.7066655e-38
-0.13768421 -0.18705049 0.82800007 2.1020591e-38
-0.13247906 -0.18768099 0.82800007 1.7696121e-38
-0.12759493 -0.18745399 0.82700008 1.8997332e-38
-0.12273557 -0.18669093 0.82788891 2.0374525e-38
-0.1192181 -0.18632764 0.82900006 1.5838326e-38
-0.11211239 -0.18553811 0.82900006 2.111497e-38
-0.1089543 -0.18553811 0.82900006 1.3645385e-38
-0.13750002 -0.18307143 0.82500005 1.6974827e-38
-0.13317859 -0.18425 0.82500005 2.0840115e-38
-0.12885715 -0.18464287 0.82500005 1.7236959e-38
-0.12222476 -0.18373525 0.82800007 1.9634422e-38
-0.11763906 -0.18316954 0.82900012 1.5122627e-38
-0.11293402 -0.18251689 0.82757157 1.7899297e-38
-0.10741485 -0.1827784 0.8267144 1.7427175e-38
-0.10242954 -0.18280289 0.82733339 9.0428368e-39
-0.097393073 -0.18274246 0.82757151 5.9168833e-39
-0.092278793 -0.18219253 0.82814294 1.7420647e-38
-0.087637149 -0.18143259 0.82900012 6.6335844e-39
-0.08290001 -0.18080096 0.82900012 7.8386296e-39
-0.077868253 -0.18125461 0.82866669 1.3736864e-38
-0.071790159 -0.18065557 0.82833338 1.4384013e-38
-0.066729717 -0.18125811 0.82820004 5.3514734e-39
-0.06208232 -0.18174192 0.82814288 4.0621919e-39
-0.057951052 -0.18143259 0.82900012 8.4875751e-39
-0.14064287 -0.17521429 0.82500005 1.4933505e-38
-0.13750002 -0.17521429 0.82500005 1.1152856e-38
-0.13435715 -0.17521429 0.82500005 5.1591732e-39
-0.11235715 -0.17992859 0.82500005 1.7345784e-38
-0.096642867 -0.17992859 0.82500005 3.6084192e-39
-0.091928571 -0.17914286 0.82500005 1.1162605e-38
-0.087353975 -0.17864542 0.8263334 6.356287e-39
-0.082700014 -0.17878954 0.82700002 4.4306395e-39
-0.07784985 -0.17850129 0.82566679 9.1321738e-39
-0.073129848 -0.17771557 0.82566679 9.1178091e-39
-0.06761191 -0.17846525 0.82550007 4.239054e-39
-0.06178648 -0.17781506 0.82540005 1.1818047e-38
-0.058400959 -0.17757207 0.82866669 1.116981e-38
-0.13737716 -0.17448477 0.82900006 1.0135484e-38
-0.13192526 -0.17248763 0.82700008 3.7794911e-39
-0.12885715 -0.17128572 0.82500005 1.2963566e-39
-0.061285719 -0.17050001 0.82500005 7.0794061e-39
-0.058928575 -0.17364287 0.82500005 4.2411839e-39
-0.12782572 -0.16727667 0.82850003 3.7830967e-39
-0.071500003 -0.16578573 0.82500005 4.637261e-40
-0.066913716 -0.16705011 0.82660007 2.5870408e-39
-0.063186541 -0.16748506 0.8278572 1.1233501e-38
-0.1255343 -0.16264191 0.82900006 5.8020329e-39
-0.12248941 -0.16140395 0.8267144 8.1036404e-39
-0.11864287 -0.16107143 0.82500005 6.1632736e-39
-0.071846284 -0.16197163 0.82720011 2.8568202e-39
-0.068314299 -0.1636924 0.8276667 3.6840291e-39
-0.12168629 -0.15861697 0.82860005 1.4170039e-38
-0.11732414 -0.1577417 0.82677776 1.3715206e-38
-0.11302334 -0.15555382 0.82700002 1.5393798e-38
-0.081584454 -0.1555597 0.8263334 6.2589921e-39
-0.07760229 -0.15709239 0.82639998 5.983501e-39
-0.073913336 -0.15870154 0.82740003 5.4278329e-39
-0.11290191 -0.15395716 0.82900012 1.4558272e-38
-0.10742487 -0.15328807 0.82772744 1.4556822e-38
-0.10267943 -0.15260038 0.82680005 1.3354348e-38
-0.097211435 -0.15230952 0.82649994 1.4739443e-38
-0.092308581 -0.15279582 0.82700008 1.2615712e-38
-0.087604769 -0.15330477 0.82720011 1.1602294e-38
-0.083982386 -0.15376954 0.82800007 1.224406e-38
-0.14042 -0.19674668 0.83300006 2.2955948e-38
-0.137564 -0.19658802 0.83300012 2.0282991e-38
-0.13248669 -0.19595334 0.83300006 2.2495675e-38
-0.12812334 -0.19635001 0.83300006 2.0559244e-38
-0.14171444 -0.19238383 0.83128572 2.0472825e-38
-0.13719091 -0.19283606 0.83128572 1.9261334e-38
-0.13216859 -0.19310859 0.83100003 1.8897562e-38
-0.12716401 -0.19336021 0.83140004 2.0469952e-38
-0.12234858 -0.19203717 0.83150005 1.7516524e-38
-0.11916858 -0.19156921 0.83233345 1.8729775e-38
-0.14324859 -0.18915144 0.83100003 1.3475693e-38
-0.12108858 -0.18915144 0.83100003 1.3290652e-38
-0.11720096 -0.18807811 0.83150005 1.7623071e-38
-0.11248358 -0.18813501 0.83175009 1.4658835e-38
-0.10668059 -0.1872063 0.83220005 4.0560822e-39
-0.10221715 -0.18700287 0.83200002 6.741263e-39
-0.097462863 -0.18700288 0.83200002 1.7327716e-38
-0.092918783 -0.18731035 0.83185714 1.2056118e-38
-0.087954298 -0.18700287 0.83200014 6.7293841e-39
-0.082590893 -0.1870494 0.83271444 1.5207678e-38
-0.076953337 -0.18643336 0.83300006 1.0134803e-38
-0.070606671 -0.18643335 0.83300006 1.0210281e-40
-0.067433342 -0.18643336 0.83300006 1.2030876e-39
-0.061880004 -0.18643335 0.83300006 1.3853433e-39
-0.058706671 -0.18643335 0.83300006 3.6901892e-39
-0.091014288 -0.18440287 0.83100003 1.3257175e-38
-0.087848574 -0.18400715 0.83100003 7.5605811e-39
-0.083100006 -0.18361144 0.83100003 1.2725968e-38
-0.077032387 -0.18387525 0.83100003 1.5116199e-38
-0.072106674 -0.18383335 0.83200014 1.4557979e-38
-0.067667142 -0.18400715 0.83100003 6.6379088e-39
-0.063314289 -0.18440287 0.83100003 1.490812e-39
-0.057378575 -0.18400715 0.83100003 5.7235069e-39
-0.053860322 -0.18296796 0.83166671 1.1161866e-38
-0.05622524 -0.17738526 0.83150005 5.8059873e-39
-0.053881593 -0.17828509 0.83200002 7.4665176e-39
-0.13702828 -0.17346191 0.83166671 9.3075337e-39
-0.1322481 -0.17105095 0.83150005 4.6096077e-39
-0.060940005 -0.17015715 0.83100003 1.3705517e-38
-0.05817429 -0.17357241 0.83220005 1.2909448e-39
-0.13079526 -0.16725811 0.83233345 4.5163429e-39
-0.061467625 -0.16699144 0.83100003 1.3526476e-38
-0.12783779 -0.16243747 0.83200014 8.8433438e-39
-0.066796519 -0.16184479 0.83166665 1.1507191e-38
-0.064260006 -0.16342667 0.83300006 1.3525407e-38
-0.12614001 -0.15946001 0.83300006 1.499909e-38
-0.12267144 -0.15749429 0.83100003 1.5089103e-38
-0.1188581 -0.15609905 0.83200002 1.3619029e-38
-0.075977147 -0.15591145 0.83100003 1.2331523e-38
-0.071784452 -0.15755749 0.8313334 1.1963492e-38
-0.068226665 -0.15946001 0.83300006 1.2975804e-38
-0.11731938 -0.15351844 0.83233345 1.3075984e-38
-0.11242827 -0.15201494 0.83133334 1.3640981e-38
-0.10763429 -0.15116286 0.83100003 1.4575585e-38
-0.092597149 -0.15116286 0.83100003 9.5873099e-39
-0.087057143 -0.15116286 0.83100003 1.3186851e-38
-0.0822796 -0.15244995 0.83185714 1.2804401e-38
-0.077560008 -0.15432858 0.83100003 1.4357271e-38
-0.072898105 -0.1545143 0.83200002 1.380301e-38
-0.11106667 -0.14994001 0.83300006 1.218035e-38
-0.10710001 -0.14994001 0.83300006 1.3280555e-38
-0.10182144 -0.14936334 0.83200008 1.0966625e-38
-0.097423814 -0.1489073 0.83166671 1.355852e-38
-0.092597149 -0.14878859 0.83100003 1.1513723e-38
-0.088207439 -0.14901809 0.83140004 1.2358221e-38
-0.14291716 -0.2004016 0.83833337 2.2863077e-38
-0.13807049 -0.20112096 0.83800006 2.0650694e-38
-0.13248287 -0.20032191 0.83800006 2.0926586e-38
-0.12784763 -0.20056097 0.83900005 1.5952383e-38
-0.14331526 -0.19745526 0.83600003 2.2498256e-38
-0.13598572 -0.1980143 0.83500004 2.0656786e-38
-0.13280477 -0.1980143 0.83500004 2.203722e-38
-0.12664351 -0.19833049 0.83633339 1.7584967e-38
-0.12249947 -0.19725649 0.83757144 1.9731343e-38
-0.1173654 -0.19561112 0.83833337 1.8536047e-38
-0.10867049 -0.19576667 0.83900005 1.9614555e-38
-0.10307716 -0.19576667 0.83900011 1.9058548e-38
-0.055134289 -0.19576667 0.83900005 1.9795042e-38
-0.051538579 -0.19616619 0.83900005 1.5566317e-38
-0.047942862 -0.19736478 0.83900005 1.3550197e-38
-0.12326191 -0.19483337 0.83500004 1.8999881e-38
-0.11669315 -0.19279182 0.83579999 1.7434377e-38
-0.11248668 -0.1930635 0.83766675 1.0608732e-38
-0.10761429 -0.19211398 0.83700013 1.1711785e-38
-0.10283145 -0.19211398 0.83700007 1.7226162e-38
-0.097752385 -0.19231944 0.83720011 1.0126136e-38
-0.092226774 -0.1923417 0.83722228 5.9892744e-39
-0.087185912 -0.19190878 0.83680004 7.2810669e-39
-0.082105726 -0.192114 0.83700001 1.5657825e-38
-0.077363923 -0.19221516 0.83744448 1.6123479e-38
-0.072616622 -0.19231674 0.83788896 1.9265313e-38
-0.068077967 -0.19191881 0.83814293 1.9636608e-38
-0.062831983 -0.19191881 0.83814293 1.7983937e-38
-0.05747477 -0.19238049 0.83816671 1.455974e-38
-0.051842224 -0.19221431 0.83744442 7.5551637e-39
-0.048625719 -0.19211143 0.83700007 1.0977783e-38
-0.08190953 -0.18847144 0.83500004 1.4657723e-38
-0.077138111 -0.18847144 0.83500004 1.1689504e-38
-0.07271944 -0.18792553 0.83540004 1.0297969e-38
-0.067595243 -0.18847144 0.83500004 9.9407062e-39
-0.063260004 -0.18818668 0.8355 6.9941203e-39
-0.057151433 -0.18833391 0.83579999 6.2633571e-39
-0.052149527 -0.18750381 0.83600003 9.8707982e-39
-0.048625719 -0.18812573 0.83700001 1.5398091e-38
-0.053364765 -0.17602825 0.83633339 7.4711797e-39
-0.14075716 -0.17336193 0.83500004 1.4937079e-38
-0.13758762 -0.17234153 0.83700001 9.489411e-39
-0.13439524 -0.17097621 0.83500004 4.7950682e-39
-0.056757569 -0.17151566 0.83677787 4.6974369e-39
-0.053356767 -0.17345087 0.83619994 7.8435411e-39
-0.13593279 -0.16755907 0.8386001 6.8215321e-39
-0.13354826 -0.16779684 0.83633339 4.6067379e-39
-0.062974289 -0.16500859 0.83700001 1.3152317e-38
-0.057947628 -0.16879559 0.83733338 8.9279023e-39
-0.053408574 -0.16979145 0.83700001 8.5835935e-39
-0.13663715 -0.16060857 0.83900005 1.2906675e-38
-0.13234818 -0.16244014 0.83785719 9.1192146e-39
-0.1299343 -0.16102287 0.83700001 1.3268618e-38
-0.064087316 -0.16195017 0.83766669 1.2971489e-38
-0.13663715 -0.15901048 0.83900005 1.3002451e-38
-0.13024478 -0.15901048 0.83900005 1.2523498e-38
-0.12660396 -0.15805429 0.83757144 1.4722857e-38
-0.12261429 -0.15605333 0.83599997 1.4813939e-38
-0.070776194 -0.15586668 0.83500004 1.3157994e-38
-0.067720324 -0.15748309 0.8365556 1.3250191e-38
-0.064722858 -0.15901048 0.83900005 1.2697045e-38
-0.12545048 -0.1542162 0.83900005 1.4723194e-38
-0.12191024 -0.15263453 0.83800006 1.4720656e-38
-0.11733086 -0.15108021 0.83579999 1.371737e-38
-0.11371905 -0.15030001 0.83500004 1.2807015e-38
-0.085090481 -0.15030001 0.83500004 1.2169897e-38
-0.081609055 -0.15087762 0.83600003 1.1610178e-38
-0.077260002 -0.15213177 0.83633333 1.3627604e-38
-0.073187627 -0.15302828 0.83833337 1.3159096e-38
-0.11707225 -0.14807743 0.83785719 1.4540614e-38
-0.11242742 -0.14750846 0.83722234 1.3446211e-38
-0.10758572 -0.14743017 0.83677781 1.3086773e-38
-0.10303073 -0.14727025 0.83700001 1.2617507e-38
-0.097931437 -0.14649811 0.83599997 1.3547061e-38
-0.092714705 -0.14640939 0.83614284 1.2707204e-38
-0.087065294 -0.14729218 0.83700001 1.2346726e-38
-0.082403101 -0.14784597 0.838 1.1611235e-38
-0.078573026 -0.14888923 0.83900011 1.2523067e-38
-0.10787144 -0.14462763 0.83900005 1.4756399e-38
-0.10147905 -0.14462763 0.83900005 1.4662303e-38
-0.097597972 -0.14394274 0.83900011 1.4837427e-38
-0.092290007 -0.1442281 0.83900005 1.2176667e-38
-0.14210573 -0.20633429 0.84300011 2.203402e-38
-0.13889429 -0.20633429 0.84300005 1.8596247e-38
-0.14305729 -0.20376453 0.84185725 2.2771239e-38
-0.13672429 -0.20408526 0.84200001 1.9349931e-38
-0.132604 -0.20347603 0.84180003 2.111457e-38
-0.12702572 -0.20236096 0.84150004 1.713659e-38
-0.12304097 -0.20196819 0.84219998 1.9270361e-38
-0.048171431 -0.20151715 0.84300005 1.8140882e-38
-0.12094381 -0.19943716 0.84100002 1.9366525e-38
-0.11788001 -0.19887337 0.84200001 1.9075083e-38
-0.11310215 -0.19793001 0.84224999 1.8610875e-38
-0.10785348 -0.19840126 0.84242862 2.0160541e-38
-0.10150191 -0.19778763 0.84249997 1.7488418e-38
-0.097030483 -0.19726954 0.84200001 1.3903274e-38
-0.093711436 -0.19623335 0.84100002 1.2801573e-38
-0.082255438 -0.1970623 0.84180003 1.9262479e-38
-0.077784769 -0.19726954 0.84200001 1.9729185e-38
-0.073345721 -0.19724897 0.84260005 1.9718022e-38
-0.067440003 -0.19670001 0.84300005 2.0364824e-38
-0.0617235 -0.1963889 0.8416667 1.9995943e-38
-0.056890797 -0.19764668 0.84133339 2.0261744e-38
-0.052432574 -0.19898613 0.84180003 2.0257431e-38
-0.048057146 -0.19783525 0.84100002 1.3729564e-38
-0.067280002 -0.19463144 0.84100002 2.0724285e-38
-0.064076193 -0.19463144 0.84100002 1.8533115e-38
-0.047256194 -0.19463144 0.84100002 1.1539152e-38
-0.14016667 -0.17140383 0.84100002 1.2817334e-38
-0.13856477 -0.17060287 0.84100002 1.1239297e-38
-0.14016667 -0.16900097 0.84100002 1.3278648e-38
-0.13832906 -0.16719669 0.84200007 1.2537895e-38
-0.061673336 -0.16739906 0.84100002 1.3248823e-38
-0.13682817 -0.16270328 0.84157151 1.1890034e-38
-0.062547624 -0.16278763 0.84200001 1.2879288e-38
-0.13536096 -0.15938954 0.84100002 1.1614536e-38
-0.13086572 -0.15816286 0.84300005 1.2065746e-38
-0.12852159 -0.15684351 0.8416667 1.490797e-38
-0.065755241 -0.15717429 0.84200001 1.2608814e-38
-0.064151436 -0.15797716 0.84200001 1.279537e-38
-0.12670097 -0.15316287 0.84200001 1.4816101e-38
-0.12429525 -0.15075715 0.84200001 1.5091201e-38
-0.073016673 -0.15124857 0.84249997 1.3361503e-38
-0.068187624 -0.15482891 0.84233332 1.2891493e-38
-0.12157366 -0.1493616 0.8416667 1.4723542e-38
-0.11836731 -0.14615524 0.8416667 1.5113591e-38
-0.11320286 -0.14531715 0.84300005 1.4843492e-38
-0.081559688 -0.1457362 0.84233332 1.4473989e-38
-0.077445149 -0.14799601 0.84180003 1.3258895e-38
-0.1161381 -0.14497238 0.84100002 1.6325803e-38
-0.11309544 -0.14421581 0.8422001 1.520978e-38
-0.10797176 -0.14327799 0.84255558 1.5023607e-38
-0.10269197 -0.14294891 0.8416667 1.3737202e-38
-0.097030483 -0.1416689 0.84200013 1.4005804e-38
-0.091919057 -0.14261238 0.8422001 1.3652883e-38
-0.087651841 -0.14402246 0.84214288 1.3913313e-38
-0.08420001 -0.14434192 0.84200001 1.2259527e-38
-0.14232211 -0.21098724 0.84619999 2.2037637e-38
-0.13793811 -0.21054003 0.84700006 1.8812589e-38
-0.13487239 -0.21078859 0.84800005 1.9178476e-38
-0.14566192 -0.20682383 0.84500003 2.158098e-38
-0.14244288 -0.20843336 0.84500003 2.1575578e-38
-0.1372924 -0.20778954 0.84500009 1.7050117e-38
-0.13247465 -0.20788917 0.84687501 2.018975e-38
-0.12737611 -0.20719266 0.8465001 1.9275387e-38
-0.12239113 -0.20739619 0.84733343 1.6960823e-38
-0.11754921 -0.20703726 0.84733337 1.9262801e-38
-0.1125821 -0.20658897 0.84800005 1.8985873e-38
-0.10741334 -0.20594287 0.84800005 1.880832e-38
-0.12151906 -0.20360477 0.84500003 1.6869317e-38
-0.11754632 -0.20289037 0.84537506 1.7586681e-38
-0.11226205 -0.20276491 0.84628576 1.933696e-38
-0.10697465 -0.2024675 0.84612513 1.7861528e-38
-0.1023654 -0.20231588 0.84633332 1.8706746e-38
-0.098201752 -0.20205539 0.84750009 1.8795742e-38
-0.092876196 -0.20109718 0.84800005 1.9455486e-38
-0.088030487 -0.20190476 0.84800005 2.093131e-38
-0.083037622 -0.20154905 0.8465001 2.0740429e-38
-0.077427499 -0.2020418 0.84687501 2.0465303e-38
-0.072098292 -0.20226629 0.84680015 2.1286381e-38
-0.067116439 -0.20215404 0.84650004 2.0530429e-38
-0.062088259 -0.20239557 0.84666675 2.0806286e-38
-0.057441432 -0.20255715 0.84650004 2.0438934e-38
-0.052373342 -0.20223431 0.84600008 1.9981192e-38
-0.092356004 -0.19841467 0.84619999 1.6765248e-38
-0.087771915 -0.19808906 0.84549999 1.7233438e-38
-0.084500007 -0.1987762 0.84500003 1.8717201e-38
-0.07081905 -0.1987762 0.84500003 1.9731978e-38
-0.066795245 -0.19877622 0.84500003 2.0362236e-38
-0.061966669 -0.19877622 0.84500003 2.0249909e-38
-0.060920242 -0.16702931 0.84725004 1.2053489e-38
-0.05794286 -0.16819525 0.84500003 9.8476992e-39
-0.13922381 -0.16497619 0.84500003 1.4932426e-38
-0.13359049 -0.16014762 0.84500003 1.0594301e-38
-0.061129529 -0.16177982 0.84680003 1.168652e-38
-0.13202509 -0.15730003 0.84700006 1.0598564e-38
-0.12956667 -0.15531906 0.84500003 1.4911216e-38
-0.062464576 -0.15801924 0.84740013 1.1781983e-38
-0.13002667 -0.15344763 0.84800005 1.3540505e-38
-0.12757209 -0.15120511 0.84600008 1.3718045e-38
-0.070944771 -0.15236858 0.84650004 1.2441709e-38
-0.068647623 -0.15425524 0.84800005 1.3084186e-38
-0.12518096 -0.14940953 0.84800005 1.5277095e-38
-0.12264881 -0.14766216 0.84725004 1.5000466e-38
-0.11990953 -0.14566192 0.84500003 1.4000408e-38
-0.077203631 -0.14651373 0.84619999 1.2990599e-38
-0.073298335 -0.1486093 0.84575003 1.281344e-38
-0.11653316 -0.14296591 0.84619999 1.5213396e-38
-0.11226439 -0.14157715 0.84560007 1.4663495e-38
-0.10703334 -0.14083335 0.84500003 1.5477752e-38
-0.10300953 -0.14083335 0.84500003 1.6693548e-38
-0.097376198 -0.14083335 0.84500003 1.1892516e-38
-0.092547625 -0.14083335 0.84500003 1.4567292e-38
-0.08745829 -0.14157717 0.84560007 1.317961e-38
-0.082872503 -0.14255559 0.84687507 1.372962e-38
-0.07941588 -0.14402542 0.84800005 1.3541969e-38
-0.11225905 -0.1397181 0.84800005 1.3547138e-38
-0.10741334 -0.13891049 0.84800005 1.2063296e-38
-0.10226619 -0.13850048 0.84549999 1.3358365e-38
-0.097656339 -0.13814315 0.84542865 1.5473733e-38
-0.092820488 -0.1388281 0.84750009 1.4269855e-38
-0.089645721 -0.13891047 0.84800005 1.4173948e-38
-0.13582668 -0.22692001 0.85400003 6.7045433e-39
-0.13192269 -0.22692001 0.85400003 1.5945911e-38
-0.12932001 -0.22692001 0.85400003 2.0284846e-38
-0.13745335 -0.22041334 0.85400003 2.3417673e-38
-0.13094668 -0.22204003 0.85400003 2.1573789e-38
-0.12932001 -0.22204003 0.85400003 2.222275e-38
-0.14054191 -0.2160943 0.85300004 2.3050335e-38
-0.13708906 -0.21711002 0.8530001 2.1111011e-38
-0.13246985 -0.21699177 0.85333335 1.8430173e-38
-0.12785882 -0.21689358 0.85375005 2.0100106e-38
-0.12281334 -0.21553335 0.85400003 1.8425468e-38
-0.11874668 -0.21553335 0.85400003 1.9510955e-38
-0.14004762 -0.21290478 0.85000002 2.2216631e-38
-0.13721429 -0.21330956 0.85000002 2.0745086e-38
-0.13210765 -0.21234575 0.85100007 2.0186156e-38
-0.12734382 -0.21251146 0.85166681 1.945473e-38
-0.12252574 -0.21259432 0.85200012 1.7136566e-38
-0.11774858 -0.2122197 0.8526668 1.9715518e-38
-0.11296509 -0.21130225 0.85333341 2.0472134e-38
-0.10817334 -0.21106002 0.85400003 2.2681865e-38
-0.10248001 -0.21146667 0.85400003 2.0652187e-38
-0.077266678 -0.21065335 0.85400003 2.2856934e-38
-0.073200002 -0.21065335 0.85400003 2.1642958e-38
-0.063440003 -0.21065335 0.85400003 1.2796974e-38
-0.056933336 -0.21065335 0.85400003 1.8899423e-38
-0.11090477 -0.20804763 0.85000002 2.2315664e-38
-0.10766667 -0.20804763 0.85000008 2.0745492e-38
-0.10280954 -0.20723812 0.85000002 2.1009486e-38
-0.098182231 -0.20718542 0.85200012 2.176318e-38
-0.092557147 -0.20622428 0.85250008 2.0186549e-38
-0.086899295 -0.20730072 0.85275012 2.0923394e-38
-0.082050487 -0.2079705 0.8530001 2.1206786e-38
-0.077176206 -0.2079705 0.8530001 2.0655442e-38
-0.072217152 -0.20772764 0.852 2.1564384e-38
-0.06742762 -0.2079705 0.8530001 1.9797196e-38
-0.062553339 -0.20797049 0.8530001 1.9707936e-38
-0.057590164 -0.20764542 0.85166669 2.0085723e-38
-0.052830752 -0.20772654 0.85342866 2.0074878e-38
-0.048800007 -0.20577335 0.85400003 1.7316169e-38
-0.09714286 -0.20400001 0.85000002 2.0478954e-38
-0.093095243 -0.20319049 0.85000008 2.1011288e-38
-0.086619057 -0.20480953 0.85000002 2.1663802e-38
-0.081761919 -0.20480953 0.85000008 2.0746916e-38
-0.077714294 -0.20480953 0.85000002 2.019445e-38
-0.065571435 -0.20480953 0.85000002 2.1175432e-38
-0.052619051 -0.20480953 0.85000002 1.9794997e-38
-0.058285717 -0.16676192 0.85000002 1.0673845e-38
-0.058285721 -0.1627143 0.85000002 8.8411171e-39
-0.13566762 -0.15922573 0.85300004 1.0777997e-38
-0.13388573 -0.15660319 0.85200012 6.7379139e-39
-0.065725721 -0.15660572 0.85200006 1.3089247e-38
-0.062529534 -0.15672573 0.85266674 1.0222255e-38
-0.058285713 -0.15866667 0.85000002 6.7328874e-39
-0.13210572 -0.1531781 0.85099995 8.9455461e-39
-0.12932001 -0.15046668 0.85400003 1.1333608e-38
-0.070511431 -0.15074763 0.85100007 1.1880298e-38
-0.06744305 -0.15276229 0.85320008 1.2345585e-38
-0.064253338 -0.15372001 0.85400003 9.7576602e-39
-0.12647963 -0.14790897 0.8524 1.4178334e-38
-0.12360763 -0.14578542 0.85200012 1.4907913e-38
-0.07537429 -0.14588478 0.85100007 1.3085646e-38
-0.072543502 -0.14698288 0.85266674 1.2804761e-38
-0.069133341 -0.14884001 0.85400003 1.3071992e-38
-0.12199457 -0.14311729 0.85314292 1.3258852e-38
-0.11815335 -0.14140351 0.85166669 1.4744455e-38
-0.086619064 -0.14004764 0.85000008 1.2878987e-38
-0.081404291 -0.14053476 0.85049999 1.1406383e-38
-0.077513583 -0.14264834 0.85225004 1.1321733e-38
-0.074013337 -0.14396001 0.85400003 9.4799495e-39
-0.11251893 -0.13754696 0.85171431 1.3072353e-38
-0.10804667 -0.13647906 0.85300004 1.4442972e-38
-0.10289018 -0.13610604 0.8506667 1.6856991e-38
-0.097766861 -0.13602898 0.85120004 1.6025416e-38
-0.092942864 -0.13634042 0.85285729 1.1135848e-38
-0.087126292 -0.13709697 0.85180008 8.7356372e-39
-0.082081914 -0.13815811 0.85333341 5.9752291e-39
-0.078893341 -0.13908 0.85400003 1.0200262e-39
-0.10736001 -0.13420001 0.85400003 1.6953496e-38
-0.10276001 -0.13341308 0.85342866 1.7689622e-38
-0.096786678 -0.13420001 0.85400003 1.6672234e-38
-0.13696 -0.22582097 0.85600007 1.2162965e-38
-0.13342731 -0.22690795 0.85600013 1.5953075e-38
-0.12645905 -0.2276286 0.85666668 2.139227e-38
-0.12257144 -0.22961716 0.85800004 1.8250105e-38
-0.13754232 -0.22256 0.85600007 1.9457597e-38
-0.13369906 -0.22256002 0.85600007 2.1481938e-38
-0.12663858 -0.22289428 0.85650003 2.0284472e-38
-0.12252286 -0.22190446 0.85766667 1.9157256e-38
-0.12636191 -0.21929906 0.85600007 1.9734219e-38
-0.12267511 -0.21867351 0.85628575 1.9438165e-38
-0.11753049 -0.21792352 0.85700005 2.0903539e-38
-0.11240508 -0.21764572 0.8573333 2.072094e-38
-0.10737258 -0.21719658 0.85799998 2.0266142e-38
-0.10214286 -0.21654288 0.85800004 2.1300087e-38
-0.088251434 -0.21654287 0.85800004 2.2673875e-38
-0.081714287 -0.21654287 0.85800004 1.4370323e-38
-0.078445718 -0.21654287 0.85800004 9.0242052e-39
-0.062102862 -0.21654287 0.85800004 4.8080456e-39
-0.11657906 -0.21440764 0.85600007 2.1029922e-38
-0.11201372 -0.21408156 0.85600007 2.1295014e-38
-0.1067962 -0.21400002 0.85600007 2.1000417e-38
-0.10190477 -0.21440765 0.85600013 2.1485549e-38
-0.097274303 -0.21269859 0.85650003 2.073433e-38
-0.092170157 -0.21288848 0.85644448 2.0738655e-38
-0.087252714 -0.21283284 0.85622221 2.2036174e-38
-0.082403176 -0.21294415 0.85666668 2.0831535e-38
-0.077525176 -0.21345772 0.85685718 1.7685403e-38
-0.072419606 -0.21352874 0.85714293 9.1163714e-39
-0.067735456 -0.21299937 0.85688889 9.3944016e-39
-0.06262368 -0.21352871 0.85714293 6.7283164e-39
-0.058516197 -0.21338162 0.85733336 7.8310556e-39
-0.053052388 -0.21221051 0.85700005 1.843662e-38
-0.049729526 -0.21114668 0.85600007 1.5388714e-38
-0.096198097 -0.2095162 0.85600007 2.129207e-38
-0.092121921 -0.20951621 0.85600013 2.0193728e-38
-0.048914291 -0.20870095 0.85600007 1.612444e-38
-0.061142862 -0.15571049 0.85600007 8.0092475e-39
-0.058208007 -0.15636268 0.85600007 8.2054629e-39
-0.13156001 -0.15117145 0.85800004 7.3872279e-39
-0.066034287 -0.15081906 0.85600007 8.1979099e-39
-0.062605247 -0.15233429 0.85650003 5.523948e-39
-0.058390956 -0.15394144 0.85750002 9.0362633e-39
-0.13156001 -0.14872 0.85800004 5.4508198e-39
-0.12909183 -0.14736915 0.85680008 9.130673e-39
-0.07092572 -0.14674287 0.85600007 9.305293e-39
-0.067520238 -0.14748216 0.85675001 5.1601877e-39
-0.064145714 -0.14831144 0.85800004 4.330825e-39
-0.12764826 -0.14343303 0.85733336 8.7648066e-39
-0.12418795 -0.14157969 0.85600013 1.0326653e-38
-0.075817145 -0.14185144 0.85600007 8.0985046e-39
-0.072940961 -0.14288826 0.85733336 3.7772687e-39
-0.067822859 -0.14463429 0.85800004 3.8651917e-39
-0.12168334 -0.13883287 0.85750002 8.4903385e-39
-0.11782206 -0.13809906 0.8565715 1.1151401e-38
-0.11413334 -0.13614477 0.85600007 1.4652211e-38
-0.082401916 -0.13625081 0.85666674 5.5732443e-40
-0.077524096 -0.13791321 0.85685718 1.7551165e-39
-0.11521715 -0.13401145 0.85800004 1.5936171e-38
-0.11158168 -0.1332031 0.85675001 1.6027547e-38
-0.10722287 -0.13202821 0.85680008 1.7783585e-38
-0.10155572 -0.13173762 0.85650003 1.7409392e-38
-0.097430862 -0.1323543 0.85680008 1.7969076e-38
-0.092534862 -0.13398629 0.85680002 1.465117e-38
-0.087638862 -0.13398629 0.85680002 1.0047194e-38
-0.08334858 -0.13482858 0.85800004 4.5973786e-39
-0.078445718 -0.13482858 0.85800004 1.7562193e-39
-0.10541143 -0.12992573 0.85800004 1.7414082e-38
-0.10296001 -0.12992573 0.85800004 1.6676884e-38
-0.12627906 -0.23206002 0.86100006 1.7242343e-38
-0.12232192 -0.23178224 0.86200011 1.7693614e-38
-0.11706781 -0.23134439 0.86200011 1.7962637e-38
-0.11411239 -0.23232953 0.86200005 1.3723877e-38
-0.12213144 -0.22705208 0.86066675 1.9431322e-38
-0.1173962 -0.22740383 0.86200005 2.0805922e-38
-0.11329144 -0.22576192 0.86200005 2.0343876e-38
-0.12040001 -0.22360002 0.86000001 2.0254916e-38
-0.11691906 -0.22216667 0.86000007 2.0621526e-38
-0.1121241 -0.22272655 0.86114293 2.0529342e-38
-0.10746159 -0.22230731 0.86133337 2.0077757e-38
-0.10261905 -0.22165716 0.86200011 2.1941471e-38
-0.098103821 -0.22124669 0.86200005 2.1013771e-38
-0.094409533 -0.22083621 0.86200005 2.1377897e-38
-0.087020963 -0.22083621 0.86200005 1.168919e-38
-0.0829162 -0.22083621 0.86200011 9.4801611e-39
-0.077990487 -0.22083621 0.86200011 9.5928493e-39
-0.07224381 -0.22083621 0.86200005 1.1540007e-38
-0.068373613 -0.222009 0.86200011 7.0992625e-39
-0.063541725 -0.22149296 0.86200011 7.1046196e-39
-0.059929527 -0.22083621 0.86200005 6.2766162e-39
-0.10565715 -0.21868573 0.86000001 2.0284137e-38
-0.10245906 -0.21885526 0.86066675 2.1206452e-38
-0.097329266 -0.21773309 0.86085725 2.1666702e-38
-0.092695884 -0.21820509 0.86133337 2.1931045e-38
-0.087280482 -0.21840335 0.86049998 2.0993567e-38
-0.08313334 -0.21827622 0.86000001 1.2054716e-38
-0.077400006 -0.2182762 0.86000001 3.1435314e-39
-0.072980002 -0.21812096 0.861 5.0799578e-39
-0.068007305 -0.21795146 0.86033344 5.5409387e-39
-0.063476197 -0.2182762 0.86000001 6.5536389e-39
-0.057314925 -0.21751049 0.86111116 4.7168435e-39
-0.053361908 -0.21591049 0.86200005 1.4753094e-38
-0.13578907 -0.15219763 0.86150002 1.0324526e-38
-0.13350476 -0.15234286 0.86000001 8.851596e-39
-0.057824768 -0.15217906 0.86000007 1.1343276e-38
-0.13545716 -0.14695048 0.86200005 1.2349945e-38
-0.13336343 -0.14746936 0.86120003 9.2182472e-39
-0.062469341 -0.14772877 0.86080009 4.9736735e-39
-0.058971435 -0.14988573 0.86000001 9.9625356e-39
-0.13179812 -0.14328128 0.86133337 1.1531001e-38
-0.1270508 -0.14071177 0.86066669 9.3151357e-39
-0.07230629 -0.14117105 0.86080009 1.6640223e-39
-0.068469524 -0.14349906 0.861 3.7773149e-39
-0.064704768 -0.14497145 0.86000001 4.0542451e-39
-0.12560572 -0.13874096 0.86200005 8.2127679e-39
-0.12213334 -0.13661335 0.86066675 7.1125398e-39
-0.11794287 -0.13514286 0.86000001 9.0389216e-39
-0.081085719 -0.13514286 0.86000001 2.8539419e-39
-0.07626 -0.13611907 0.86100006 2.1260725e-39
-0.073799051 -0.13858001 0.86100006 1.6658034e-39
-0.12068 -0.13381524 0.86200005 6.8298755e-39
-0.11695962 -0.1323783 0.86120003 1.3186504e-38
-0.11281477 -0.13086525 0.86150002 1.6955625e-38
-0.10811429 -0.13022858 0.86000001 1.750627e-38
-0.10074286 -0.13022858 0.86000001 1.6860184e-38
-0.097057149 -0.13063811 0.86000001 1.7788294e-38
-0.09250287 -0.13165987 0.86171436 1.7875406e-38
-0.087490894 -0.131529 0.86085725 1.5287136e-38
-0.08304929 -0.13226216 0.86125004 9.6604213e-39
-0.079023503 -0.13316445 0.86133337 2.9496912e-39
-0.11164953 -0.12888953 0.86200005 1.7228244e-38
-0.10727511 -0.12767403 0.86171442 1.7505183e-38
-0.10250001 -0.12791905 0.86100006 1.7415162e-38
-0.097580008 -0.12791905 0.86100006 1.7966214e-38
-0.092767626 -0.12888953 0.86200011 1.843327e-38
-0.088662863 -0.12888953 0.86200005 1.7135379e-38
-0.11248477 -0.23212257 0.86633343 1.4366742e-38
-0.10767186 -0.23251295 0.86744452 9.6731241e-39
-0.10256429 -0.23160003 0.86849999 6.6386473e-39
-0.096831441 -0.23156784 0.86900008 6.6447611e-39
-0.091760635 -0.23146701 0.86800003 7.012815e-39
-0.086606406 -0.23193623 0.86842859 6.4592671e-39
-0.081934296 -0.23256098 0.86900002 6.7325595e-39
-0.078623816 -0.23338859 0.86900002 7.2885457e-39
-0.11286192 -0.22846985 0.86500013 2.0713735e-38
-0.10815444 -0.22772449 0.86500013 1.9978689e-38
-0.10309397 -0.22763464 0.86600012 1.7217628e-38
-0.098088309 -0.22769405 0.86757153 1.1784985e-38
-0.092574641 -0.22726955 0.86718178 6.8208931e-39
-0.086700015 -0.22789717 0.86700004 9.2261799e-39
-0.081509799 -0.22754329 0.8670001 1.6048571e-38
-0.077041678 -0.22699642 0.86750007 1.4019237e-38
-0.071784452 -0.22689685 0.86633343 8.5743421e-39
-0.1029762 -0.22490004 0.86500013 2.1475782e-38
-0.098033339 -0.22407621 0.86500007 1.9716824e-38
-0.092541277 -0.2229778 0.86500013 1.7124659e-38
-0.088147625 -0.22352701 0.86500013 7.4629709e-39
-0.083204776 -0.22407621 0.86500013 1.107154e-38
-0.078261912 -0.2232524 0.86500013 1.7238877e-38
-0.073319048 -0.223527 0.86500013 1.5398206e-38
-0.066728577 -0.22490004 0.86500013 5.9993315e-39
-0.13592859 -0.14746192 0.86500007 1.2443933e-38
-0.061068099 -0.14771572 0.86650008 8.0182298e-39
-0.058558099 -0.14845619 0.86600006 1.1716743e-38
-0.13342954 -0.14169049 0.86750001 1.2269977e-38
-0.1293381 -0.14087144 0.86500007 1.2633418e-38
-0.070023812 -0.14087144 0.86500007 3.3213618e-39
-0.06713175 -0.143067 0.86666673 4.1478771e-39
-0.063653335 -0.14383906 0.86800003 3.5914719e-39
-0.13159144 -0.13986763 0.86900002 1.2551275e-38
-0.12794463 -0.13784777 0.86671436 1.3189449e-38
-0.12439524 -0.13592859 0.86500007 1.0054878e-38
-0.073089719 -0.13809735 0.86620009 2.4015635e-39
-0.068692386 -0.13986763 0.86900002 3.9645662e-39
-0.12662572 -0.13490191 0.86900002 1.8241854e-38
-0.12299199 -0.13289566 0.86671436 1.0694102e-38
-0.11890318 -0.13153493 0.86500013 1.217488e-38
-0.081557147 -0.13098572 0.86500007 1.279615e-38
-0.077180244 -0.13269478 0.86675006 5.1576934e-39
-0.12069239 -0.12895906 0.86800003 1.520285e-38
-0.11752859 -0.12813565 0.86642867 1.6404979e-38
-0.11309729 -0.12721974 0.86500013 1.7134932e-38
-0.10874286 -0.12604287 0.86500007 1.6765813e-38
-0.1029762 -0.12604287 0.86500013 1.7778544e-38
-0.098033339 -0.12604287 0.86500013 1.8611909e-38
-0.093125723 -0.12691525 0.86533344 1.8246726e-38
-0.08736477 -0.12733598 0.86633337 1.400869e-38
-0.082538106 -0.12903619 0.86666673 9.0265636e-39
-0.078623816 -0.1299362 0.86900002 7.5546691e-39
-0.11586668 -0.12497048 0.86900002 1.7509093e-38
-0.111956 -0.12353124 0.8682 1.7318262e-38
-0.10796215 -0.12323596 0.8670001 1.7136057e-38
-0.10255715 -0.12330784 0.86766672 1.7967256e-38
-0.097680144 -0.12366492 0.8681429 1.8429688e-38
-0.092601344 -0.1242943 0.86660004 1.8799194e-38
-0.088351436 -0.12468287 0.86700004 1.6308185e-38
-0.10534953 -0.2364143 0.87100005 7.8417517e-39
-0.10203143 -0.2364143 0.87100005 8.1176211e-39
-0.097883821 -0.2364143 0.87100005 7.6580737e-39
-0.10203144 -0.23475525 0.87100005 7.4697924e-39
-0.097054295 -0.23434049 0.87100005 6.8294677e-39
-0.092906669 -0.23475525 0.87100005 6.6464987e-39
-0.077203497 -0.23161432 0.87166679 3.9753548e-39
-0.073442861 -0.23086002 0.87300003 5.5401358e-39
-0.075486675 -0.22977811 0.87100005 8.2088176e-39
-0.061384767 -0.14599621 0.87100005 8.8529945e-39
-0.058896195 -0.14682573 0.87100005 1.2452136e-38
-0.13386001 -0.14051144 0.87300003 1.0239556e-38
-0.066399522 -0.14109953 0.87150007 4.515575e-39
-0.062275514 -0.14151415 0.87185729 8.115798e-39
-0.13174419 -0.13739182 0.87220001 1.1907712e-38
-0.1285762 -0.13521239 0.87100005 1.4961599e-38
-0.07226219 -0.13705103 0.87214297 2.3090232e-39
-0.069008574 -0.13884859 0.87300003 3.8723748e-39
-0.061384767 -0.13853048 0.87100005 1.1066715e-38
-0.12706383 -0.1328762 0.8720001 1.5668292e-38
-0.12359905 -0.13023524 0.87100005 1.3818164e-38
-0.076039687 -0.13078827 0.87100005 3.8691322e-39
-0.073997147 -0.13302858 0.87300003 2.6749414e-39
-0.12203461 -0.1281216 0.87166679 1.5845345e-38
-0.11889429 -0.12554573 0.87300003 1.6023946e-38
-0.086270481 -0.1252581 0.87100005 1.4653357e-38
-0.082217149 -0.12678508 0.8720001 1.0878403e-38
-0.077693336 -0.12838191 0.87250006 4.2386238e-39
-0.11633381 -0.12298048 0.87250006 1.7595166e-38
-0.11198572 -0.12111048 0.87100005 1.7415892e-38
-0.10659382 -0.12069573 0.87100005 1.7130331e-38
-0.10203144 -0.12069572 0.87100005 1.7783568e-38
-0.096722484 -0.12094458 0.87100011 1.7321869e-38
-0.092197962 -0.12209893 0.87214297 1.7508099e-38
-0.087232076 -0.12378826 0.87233341 1.7050386e-38
-0.10392858 -0.11889429 0.87300003 1.7413008e-38
-0.060833339 -0.14583334 0.87500006 1.1250755e-38
-0.05916667 -0.14583334 0.87500006 1.3006023e-38
-0.13741398 -0.14187367 0.87800002 1.3183975e-38
-0.06104191 -0.14466096 0.87800002 1.1810373e-38
-0.059369527 -0.14466096 0.87800002 1.3282608e-38
-0.13713524 -0.13880762 0.87800002 1.1434071e-38
-0.13376445 -0.13654414 0.87600005 8.9477783e-39
-0.07083334 -0.13583334 0.87500006 3.1351853e-39
-0.067348808 -0.13740809 0.87575001 4.3319124e-39
-0.06367372 -0.13754153 0.87740004 5.9989027e-39
-0.13629906 -0.13462667 0.87800002 8.7593275e-39
-0.13244039 -0.13377486 0.87680006 8.4900386e-39
-0.12813666 -0.13147429 0.87650001 1.2174223e-38
-0.072127901 -0.1324566 0.87628573 3.0412058e-39
-0.069403812 -0.13462667 0.87800002 3.5025119e-39
-0.12793715 -0.12849461 0.87800002 1.0239533e-38
-0.12308764 -0.12676001 0.87680006 1.4925549e-38
-0.080833338 -0.12583335 0.87500006 6.9111914e-39
-0.077326097 -0.12675886 0.8768 3.221644e-39
-0.073778741 -0.12890446 0.87700003 3.9685193e-39
-0.12960953 -0.12459239 0.87800002 8.4875681e-39
-0.12166699 -0.12389302 0.87700003 1.280433e-38
-0.11811668 -0.12229048 0.87650001 1.5849207e-38
-0.1145581 -0.12124763 0.87800002 1.6581102e-38
-0.090833336 -0.12083334 0.87500006 1.8437594e-38
-0.087650001 -0.12187382 0.87650007 1.7602478e-38
-0.083245091 -0.12333556 0.87700003 1.391647e-38
-0.079438098 -0.12459239 0.87800002 6.8025543e-39
-0.11198534 -0.11832668 0.87620002 1.594041e-38
-0.10771062 -0.11820559 0.87671435 1.6858049e-38
-0.10267572 -0.11797827 0.87650013 1.7689583e-38
-0.09766715 -0.11853477 0.87650007 1.7876126e-38
-0.093653336 -0.11873905 0.87800002 1.7970882e-38
-0.11121334 -0.1145581 0.87800002 1.5020981e-38
-0.10786858 -0.1145581 0.87800002 1.3544376e-38
-0.13744763 -0.13660954 0.88000005 9.0395101e-39
-0.13241905 -0.13158096 0.88000005 7.29618e-39
-0.067993723 -0.13262841 0.88140005 6.6345989e-39
-0.063480005 -0.13355784 0.88200003 7.8449565e-39
-0.13200001 -0.12864763 0.88000005 7.1975103e-39
-0.12827021 -0.12755077 0.8802858 9.5069987e-39
-0.072367154 -0.12711382 0.8810001 1.4098046e-38
-0.069036201 -0.12881143 0.88400006 1.2531788e-38
-0.13180524 -0.12382905 0.88150001 9.0363586e-39
-0.12660733 -0.12268414 0.8823334 1.0787278e-38
-0.12331947 -0.12212002 0.88085723 1.2705011e-38
-0.11984763 -0.12152382 0.88000005 1.428226e-38
-0.081760481 -0.12159192 0.88050008 8.5781775e-39
-0.077918619 -0.12233316 0.88145459 1.1146037e-38
-0.074002862 -0.12305747 0.88300008 1.6035944e-38
-0.12147783 -0.11715076 0.88314295 1.3082394e-38
-0.11776107 -0.11775938 0.88111115 1.4461687e-38
-0.11398096 -0.11733335 0.88000005 1.3730247e-38
-0.10811429 -0.11649524 0.88000005 1.6677579e-38
-0.10224763 -0.11649524 0.88000005 1.8339265e-38
-0.098168574 -0.11578763 0.88100004 1.787615e-38
-0.092445515 -0.11651238 0.88155556 1.5852563e-38
-0.087795399 -0.11775955 0.88216662 1.4099443e-38
-0.083494477 -0.11911049 0.88200009 6.7336273e-39
-0.11569668 -0.11233 0.88350004 1.3168852e-38
-0.11210806 -0.1122601 0.88145465 1.2893669e-38
-0.10737121 -0.11222117 0.88155556 1.2892595e-38
-0.10301317 -0.11293904 0.88200009 1.4548865e-38
-0.097549528 -0.11268668 0.88300008 1.8157067e-38
-0.093379699 -0.11357144 0.88333338 1.7971934e-38
-0.11534096 -0.10860572 0.88400006 1.2898382e-38
-0.11197334 -0.10860573 0.88400006 1.2433846e-38
-0.10776381 -0.10860572 0.88400006 1.4197789e-38
-0.065964766 -0.13108572 0.88800001 6.9129599e-39
-0.063500002 -0.13123333 0.88900006 9.695671e-39
-0.070115246 -0.12671429 0.88700002 1.4373107e-38
-0.067733333 -0.12784667 0.88900006 1.0307977e-38
-0.12854953 -0.12178382 0.88800001 1.0144812e-38
-0.072730482 -0.12262858 0.88800001 1.6133539e-38
-0.12615333 -0.11853334 0.88900006 1.1608418e-38
-0.12418001 -0.11657715 0.88700002 1.1434378e-38
-0.085320957 -0.11573239 0.88700002 1.4105264e-38
-0.082052767 -0.11758 0.88819999 9.218938e-39
-0.077804767 -0.11924572 0.88800001 1.4914837e-38
-0.1216962 -0.11289392 0.88859999 1.0422788e-38
-0.11843562 -0.11201544 0.88700002 1.3448676e-38
-0.10137144 -0.11066382 0.88700002 1.382606e-38
-0.097147629 -0.11066382 0.88700002 1.779153e-38
-0.091955252 -0.1120143 0.88814288 1.5577421e-38
-0.087737784 -0.11312827 0.88866675 1.1344076e-38
-0.11853334 -0.10922001 0.88900006 1.216589e-38
-0.11252223 -0.10744604 0.88833332 1.262069e-38
-0.1069824 -0.1078281 0.88800001 1.473366e-38
-0.10236921 -0.10829143 0.88833332 1.3265364e-38
-0.097366676 -0.10837334 0.88900006 1.6869243e-38
-0.093415573 -0.10865556 0.88900012 1.6595908e-38
-0.067112386 -0.12884383 0.89200008 8.7485838e-39
-0.063642859 -0.12983143 0.89100003 9.8707296e-39
-0.13167429 -0.12261336 0.89200008 1.0232003e-38
-0.071967155 -0.12211477 0.8925001 1.3456648e-38
-0.12756859 -0.11795144 0.89100003 8.7644465e-39
-0.08146286 -0.11625429 0.89100003 7.0123231e-39
-0.077393338 -0.11793144 0.89300007 1.4286025e-38
-0.1241743 -0.11286001 0.89100003 7.3876371e-39
-0.086367629 -0.11185335 0.89200008 6.0050852e-39
-0.082627505 -0.11321323 0.89212501 6.6468603e-39
-0.079182863 -0.11494286 0.89400005 7.0134526e-39
-0.066986673 -0.12714666 0.89600003 8.7493012e-39
-0.064000003 -0.12800001 0.89600003 1.0238776e-38
-0.13241524 -0.12130858 0.89700007 1.0046545e-38
-0.071680009 -0.12032001 0.89600003 1.032307e-38
-0.069274291 -0.1231543 0.89800006 6.6224202e-39
-0.076515563 -0.11576889 0.89600009 7.5630446e-39
-0.072827153 -0.11725001 0.89700001 7.552605e-39
-0.06700667 -0.12628001 0.90200007 9.1137762e-39
-0.06846191 -0.12174382 0.90233344 5.0744633e-39
