# .PCD v0.7 - Point Cloud Data file format
VERSION 0.7
FIELDS x y z
SIZE 4 4 4
TYPE F F F
COUNT 1 1 1
WIDTH 1395
HEIGHT 1
VIEWPOINT 0 0 0 1 0 0 0
POINTS 1395
DATA ascii
0.13518694 0.10040117 0.86000001
-0.39345205 0.11890518 0.86800003
-0.35235488 0.11678152 0.86800003
-0.34490192 0.11538094 0.86456257
-0.3354919 0.11427911 0.86451519
-0.32466635 0.11449944 0.86520016
-0.31469783 0.11458161 0.86494297
-0.30543196 0.1154404 0.86546671
-0.29376858 0.11575342 0.86471438
-0.28551492 0.11592541 0.8648001
-0.27508596 0.11600046 0.86543483
-0.26499403 0.11603434 0.86438471
-0.25485912 0.11629079 0.86510831
-0.24481171 0.11510425 0.86494738
-0.23584458 0.11597021 0.86479181
-0.22457975 0.11502366 0.86364704
-0.21490318 0.11478368 0.86380631
-0.2051879 0.11379991 0.86393768
-0.19495057 0.11337311 0.86307132
-0.18486062 0.11292452 0.86230779
-0.17513824 0.11215961 0.86263645
-0.16571693 0.11246464 0.8638463
-0.15447956 0.11204951 0.86319995
-0.14521986 0.11195534 0.86233336
-0.13482623 0.11210762 0.86100012
-0.12571432 0.11196221 0.86062515
-0.11560909 0.11110057 0.86109096
-0.44139537 0.12814459 0.86800003
-0.43485099 0.12795033 0.86670011
-0.4251647 0.1265613 0.86704355
-0.41465157 0.12653016 0.86451602
-0.40464443 0.1255715 0.86510342
-0.39494252 0.12363528 0.86388892
-0.38521835 0.12385841 0.86331254
-0.3749496 0.12405512 0.86366653
-0.36522818 0.12289858 0.86340916
-0.35541609 0.12348145 0.86206263
-0.3495613 0.12831418 0.86000001
-0.25122958 0.12035017 0.86100006
-0.44077992 0.13087045 0.86500001
-0.43384221 0.13136546 0.86276931
-0.42582136 0.13164908 0.86300004
-0.41696915 0.13079034 0.86000001
-0.40746871 0.13011502 0.86000001
0.4281733 0.078691207 0.87900007
0.43563327 0.078139015 0.87900013
0.44639963 0.078979477 0.87766677
0.45528474 0.078891777 0.87685716
0.46541834 0.078394972 0.8757143
0.4753876 0.078097127 0.87579989
0.48628595 0.077751093 0.87499988
0.49534002 0.076716311 0.87405133
0.50406903 0.076115601 0.87528014
-0.0023949 0.088814646 0.87900007
0.0019978667 0.088814646 0.87900007
0.025567604 0.088774227 0.87860012
0.034828018 0.089340545 0.87900019
0.044846606 0.089734964 0.87900013
0.057594925 0.089666903 0.87833345
0.065182388 0.088848919 0.87783331
0.075413086 0.089147188 0.87774998
0.085016534 0.089194641 0.87885731
0.091598459 0.088713609 0.87800002
0.10588078 0.08842209 0.87771434
0.11475945 0.087526649 0.87762517
0.12557474 0.089030534 0.87659997
0.1344237 0.088291228 0.87621069
0.14514795 0.088658683 0.87676936
0.15575929 0.087676443 0.87633348
0.16481762 0.087611973 0.87583345
0.17554656 0.088680103 0.87666667
0.18417898 0.088316582 0.87680006
0.19458751 0.088796623 0.87340003
0.28825402 0.086999521 0.87350011
0.2959604 0.086321771 0.87376189
0.30541366 0.086061954 0.8734349
0.31473553 0.085967913 0.87369579
0.32457721 0.085633598 0.87385726
0.33521053 0.08500585 0.8742727
0.34520832 0.084842131 0.87375849
0.35512313 0.085827045 0.87400019
0.36564448 0.085903205 0.87396568
0.37498555 0.086032078 0.87396008
0.38495818 0.084436581 0.87457132
0.3951852 0.084330797 0.87509084
0.40422741 0.083582312 0.8745358
0.41545868 0.084809929 0.8744784
0.42473659 0.082852155 0.87407136
0.43473539 0.082777768 0.87361127
0.44428992 0.08230368 0.87254542
0.45411858 0.082049377 0.87147361
0.46477029 0.081463106 0.8701818
0.47476527 0.081138544 0.87107688
0.48338428 0.081019595 0.87040007
-0.14303172 0.098825529 0.87800002
-0.13102308 0.098825529 0.87800002
-0.11593532 0.098825529 0.87800014
-0.10471798 0.099464774 0.8773334
-0.094416857 0.09842433 0.87588245
-0.084976465 0.098454043 0.87471443
-0.074398093 0.098107912 0.87653357
-0.065080419 0.098240294 0.87543994
-0.054409724 0.097659171 0.87618196
-0.044942684 0.097680248 0.87538481
-0.035124473 0.096631564 0.87666667
-0.025889907 0.096190646 0.87500012
-0.014669321 0.094883397 0.87592292
-0.0046446426 0.093436629 0.87494141
0.0050304895 0.093392737 0.87540019
0.015338934 0.093708172 0.87520021
0.024944 0.092733182 0.87406695
0.034944545 0.092908055 0.87425953
0.044887148 0.093159012 0.87374997
0.05468294 0.093291752 0.875
0.064615466 0.0927701 0.87363994
0.07475692 0.091444135 0.87366682
0.084919326 0.092046663 0.87390012
0.095070682 0.091878295 0.87470591
0.10462686 0.091967836 0.87399995
0.11498307 0.091643825 0.87243479
0.12533316 0.091669261 0.87333333
0.13511838 0.091787569 0.87228566
0.14572427 0.091832645 0.87162489
0.15487285 0.092570029 0.87228566
0.1643315 0.092118427 0.87171429
0.17554814 0.091064557 0.87285715
0.18520378 0.091081828 0.87292308
0.19346696 0.090944894 0.87171435
0.20014575 0.090139598 0.87400001
-0.35164317 0.10740535 0.87800002
-0.34592751 0.10700559 0.87600005
-0.33516991 0.10868832 0.87600005
-0.32513091 0.10834365 0.87600017
-0.31468523 0.10827538 0.87555552
-0.3059586 0.10853378 0.87646174
-0.29558957 0.10907125 0.87760001
-0.28393149 0.10771003 0.87737501
-0.27565384 0.10800251 0.87730771
-0.26573637 0.10834033 0.87790918
-0.25450394 0.10878885 0.87628573
-0.24565819 0.10905611 0.87669235
-0.23372506 0.10825106 0.87770587
-0.22512071 0.10763796 0.8768
-0.2144834 0.10734081 0.87569231
-0.20516682 0.10651187 0.87542111
-0.19525905 0.10639014 0.87431031
-0.18467835 0.106813 0.87475002
-0.1745199 0.10610981 0.87484628
-0.16504431 0.1055937 0.87473339
-0.15517673 0.10524481 0.87490922
-0.14510019 0.10420814 0.87504864
-0.1346329 0.10326 0.87409115
-0.12479264 0.10314394 0.87399983
-0.11546665 0.10246047 0.87346178
-0.10519662 0.10270508 0.87304771
-0.094659925 0.10261191 0.87254554
-0.085575804 0.10125597 0.87024999
-0.07532306 0.10103851 0.87066668
-0.065550484 0.10124046 0.87066674
-0.055657063 0.10107293 0.87145454
-0.043516308 0.10128621 0.87149996
-0.035643615 0.1010934 0.87220001
-0.44144034 0.11918496 0.87900007
-0.43661842 0.11913072 0.87860012
-0.41426498 0.11824409 0.87800002
-0.40511024 0.11733937 0.87604767
-0.39469931 0.11851782 0.87466669
-0.38475338 0.11792888 0.87615794
-0.3750509 0.11800003 0.87526309
-0.36510494 0.11668574 0.87515396
-0.356197 0.11499165 0.87573916
-0.34580457 0.1108581 0.87272733
-0.33421034 0.11113508 0.87257159
-0.32618636 0.11145204 0.87250012
-0.31453082 0.11104607 0.8720001
-0.30398244 0.11174338 0.87299991
-0.29560769 0.11138833 0.87457162
-0.28466609 0.11157721 0.87388897
-0.27504674 0.11184393 0.87404764
-0.26435214 0.11110326 0.8733573
-0.25574851 0.11150032 0.87190926
-0.2434911 0.11102283 0.87271452
-0.23432846 0.11250716 0.87322235
-0.22549868 0.1119088 0.87250012
-0.21606442 0.11106426 0.87125015
-0.44403943 0.12409091 0.87559086
-0.43477821 0.12291719 0.87375855
-0.42499012 0.12199905 0.87533343
-0.41466501 0.12182415 0.87294739
-0.40691552 0.1210647 0.87200004
-0.38460323 0.1211678 0.87175006
-0.37319782 0.1209541 0.87350005
-0.36728296 0.12067044 0.8720001
0.46827456 0.069347844 0.88900006
0.47435412 0.069347851 0.88900006
0.48596951 0.06895107 0.88749999
0.495123 0.069326364 0.88725007
0.50405514 0.069205716 0.88538468
0.51083136 0.068417057 0.88900006
0.13313203 0.079407394 0.88700002
0.29898274 0.078655668 0.88900006
0.30580738 0.078876406 0.88800007
0.31528181 0.078970946 0.88657141
0.3254427 0.077722162 0.88605553
0.33450451 0.077745631 0.8864736
0.34397602 0.078319572 0.88684618
0.35502493 0.078993134 0.88699996
0.36585698 0.078259066 0.88528591
0.3750872 0.078449696 0.88505274
0.38504583 0.077942237 0.88358343
0.394795 0.077981949 0.88433355
0.4051536 0.077994898 0.88505584
0.41464522 0.076950982 0.88529629
0.42456359 0.077111207 0.88478273
0.43475476 0.075106926 0.88443494
0.44510105 0.075366996 0.88465238
0.45483783 0.07486856 0.88407713
0.46477622 0.074242204 0.88490009
0.47526902 0.07365375 0.88527608
0.48454145 0.073367864 0.88305891
0.4948397 0.07155358 0.88333338
0.50568843 0.071890816 0.88025004
0.51268011 0.070657097 0.88600004
-0.074600816 0.089386202 0.88728583
-0.065508507 0.089656651 0.88733339
-0.054510541 0.088746421 0.88660014
-0.046240434 0.088342391 0.88720006
-0.034038741 0.088130012 0.8875556
-0.026047636 0.087654792 0.88666672
-0.015363314 0.088319719 0.8867501
-0.0050153085 0.08721187 0.88527286
0.0059485934 0.087058388 0.88500011
0.015299254 0.087179638 0.88507694
0.024951776 0.086043581 0.8846001
0.034900345 0.086041622 0.88500005
0.045565736 0.086320929 0.88503462
0.05499946 0.085519247 0.88487083
0.064675078 0.085144408 0.8841306
0.074978843 0.085695371 0.88400012
0.084662162 0.085591167 0.88342875
0.09529908 0.085730307 0.88429022
0.10496658 0.085263908 0.8836897
0.11558247 0.084377415 0.8843751
0.1252484 0.084670305 0.88382769
0.13517509 0.08362779 0.88383889
0.14539246 0.084516309 0.88407701
0.15477793 0.083950907 0.88386959
0.16460401 0.083036944 0.88352644
0.17531706 0.084138997 0.88380009
0.18504548 0.083799742 0.88377428
0.1949387 0.084790841 0.88387489
0.20175152 0.082880773 0.88450015
0.29511771 0.081977539 0.88423824
0.3041625 0.081958398 0.88300002
0.31490463 0.081808142 0.8821429
0.32443497 0.082051367 0.88112503
0.33418655 0.081501164 0.88129413
0.34418675 0.080921069 0.88200009
0.35571766 0.081507973 0.88212496
0.36444342 0.081923626 0.881625
0.37582701 0.081982777 0.88058347
0.38261712 0.081383452 0.88075006
0.39825094 0.080715075 0.88100004
0.40566611 0.080715075 0.88100004
0.4160977 0.081298962 0.88150012
0.42235029 0.080715075 0.88100004
-0.22236024 0.099951111 0.88800013
-0.21462125 0.099462852 0.88733339
-0.20608866 0.099606119 0.88700008
-0.18435784 0.098125279 0.88754553
-0.17448197 0.097081639 0.88728577
-0.16465715 0.096742548 0.886154
-0.15495698 0.096634127 0.88527268
-0.14487575 0.097153708 0.88413638
-0.13508342 0.096176401 0.88489646
-0.12521648 0.096309103 0.88449985
-0.11484078 0.095373638 0.88392597
-0.10496007 0.09552972 0.88402849
-0.095871083 0.095186681 0.88466686
-0.084579326 0.094827145 0.88496155
-0.075737827 0.09344808 0.8830713
-0.065421298 0.093060046 0.88314283
-0.055014685 0.092604212 0.88224989
-0.044783391 0.092153467 0.88279986
-0.034543954 0.091705553 0.88322228
-0.025450485 0.091278151 0.88294113
-0.016609257 0.091272332 0.88292307
0.012908088 0.090964675 0.88200003
0.04979407 0.09004122 0.88200003
0.053196549 0.09004122 0.88200009
-0.41279113 0.10937148 0.88900006
-0.40584314 0.10937149 0.88900006
-0.39346132 0.10844071 0.88900012
-0.37521052 0.10839192 0.88860005
-0.36248761 0.10609047 0.88845462
-0.35483488 0.1038763 0.88511115
-0.34405741 0.10451822 0.88568425
-0.33499777 0.10492256 0.88435715
-0.32479131 0.10409788 0.88378561
-0.3161853 0.10478956 0.88468432
-0.30454043 0.10497653 0.88462484
-0.29487738 0.10489878 0.88381094
-0.28549999 0.10371356 0.88379192
-0.27497697 0.10520675 0.88430458
-0.26465464 0.10519881 0.88454562
-0.25515386 0.10471452 0.88425016
-0.24521597 0.10485281 0.88516694
-0.2357825 0.10395076 0.88434643
-0.22466433 0.10337298 0.88389999
-0.21605352 0.1026327 0.88310003
-0.20499188 0.10128435 0.88342875
-0.19443563 0.10212231 0.88436842
-0.18535793 0.10239533 0.88400012
-0.17534246 0.10147929 0.88333344
-0.16616356 0.1010684 0.88215381
-0.15579018 0.1009507 0.88050008
-0.45250008 0.11761607 0.88800013
-0.4456605 0.11753167 0.88544446
-0.43416962 0.11630345 0.8853668
-0.42499891 0.11539952 0.88497567
-0.41521889 0.11409093 0.8842175
-0.40466696 0.11273909 0.88406658
-0.39522323 0.1137408 0.8842563
-0.38472259 0.11302686 0.88488221
-0.37499991 0.11306611 0.8845185
-0.36512756 0.1117846 0.88541669
-0.35908189 0.11268547 0.884
-0.45194697 0.1201341 0.88600004
-0.44889474 0.12107809 0.88275003
0.32807612 0.068847254 0.8986668
0.33450434 0.068559155 0.89900011
0.34479889 0.069298834 0.89871442
0.35113829 0.069579273 0.898
0.3671996 0.06910865 0.89800006
0.37056559 0.069971897 0.89700001
0.39976689 0.06918665 0.89900005
0.40638775 0.069029778 0.89900011
0.414906 0.068487659 0.89838469
0.42416784 0.068372078 0.89820004
0.43520817 0.068483323 0.89700007
0.4454273 0.068249464 0.89572752
0.45506936 0.068262897 0.89495009
0.46498045 0.067689136 0.89429188
0.47496316 0.066816568 0.89419997
0.48522177 0.066361479 0.8939501
0.49451044 0.065183826 0.89457142
0.50477284 0.065971479 0.89430439
0.51515567 0.065627158 0.89510536
0.52025443 0.062528253 0.89800006
-0.017326996 0.079451948 0.89800006
0.0069224294 0.079451948 0.89800012
0.015616762 0.077954255 0.89768755
0.026120724 0.077987462 0.89768422
0.034784168 0.078480162 0.89766669
0.045564801 0.078253366 0.89775014
0.05436071 0.078570038 0.89866674
0.064499743 0.077763431 0.8961876
0.07513921 0.077849336 0.89581263
0.085133925 0.078104138 0.89694458
0.09521012 0.077615567 0.89647621
0.10521127 0.07767877 0.89642113
0.11525597 0.077680118 0.89605016
0.12455535 0.078336239 0.89544457
0.13546506 0.078311704 0.89463174
0.14515589 0.077693313 0.89556003
0.1548828 0.077488266 0.89536011
0.16477697 0.07712429 0.89475864
0.17535056 0.077484809 0.89373928
0.18510497 0.076172262 0.89343363
0.19505222 0.075743653 0.89453119
0.20177126 0.076001547 0.89286667
0.29676437 0.075783372 0.89458817
0.30518919 0.075165182 0.89447987
0.31494737 0.074177369 0.89519364
0.32461685 0.073266931 0.89465636
0.33533457 0.072665632 0.89276016
0.34551233 0.073538139 0.89314318
0.3548862 0.074394785 0.89381826
0.36480072 0.073879965 0.89339399
0.37528321 0.073156044 0.8944484
0.38479224 0.073087484 0.89384001
0.39533541 0.07304246 0.89465225
0.40466884 0.073442012 0.89357156
0.41454047 0.072055615 0.89347643
0.42517281 0.072413914 0.89191324
0.43466446 0.071468152 0.89225012
0.44564116 0.071706682 0.8913334
0.45441407 0.071542487 0.89024997
0.46724069 0.071289502 0.89000005
0.47410738 0.071600109 0.89000005
-0.16276841 0.089894205 0.89900005
-0.15512291 0.089894205 0.89900011
-0.14558284 0.08974421 0.89749998
-0.1344023 0.089001149 0.89690912
-0.12447482 0.088428698 0.89642864
-0.11499558 0.088860378 0.89650005
-0.10475792 0.088236429 0.89615387
-0.094994821 0.086726271 0.89664024
-0.085310429 0.086788379 0.89519048
-0.075202487 0.086535588 0.89405549
-0.064841151 0.086338215 0.89443493
-0.055081841 0.085274935 0.89420855
-0.0436684 0.085664771 0.89368421
-0.034930788 0.084075607 0.8941381
-0.024542851 0.083551787 0.89414316
-0.015437379 0.083661728 0.89392596
-0.0051800297 0.083364367 0.89461118
0.0050858282 0.082791969 0.89399999
0.015086874 0.082037292 0.89289999
0.024398029 0.081917554 0.89287496
0.035909787 0.081690438 0.89293748
0.044301964 0.081620827 0.89226669
0.055347413 0.080978133 0.89273351
0.065506868 0.081120692 0.8920002
0.074624345 0.081632711 0.89157897
0.085680678 0.081480056 0.89140004
0.0946237 0.081537627 0.89076942
0.1046835 0.081214868 0.89109105
0.11435785 0.081241935 0.89100015
0.12206031 0.081658989 0.89133334
0.14575505 0.081539623 0.89000005
0.15362053 0.081353262 0.89000005
0.16741818 0.080668181 0.89066672
0.17179286 0.081210621 0.89150006
0.18835971 0.080607794 0.89000005
0.19484739 0.080740914 0.89000005
0.20006429 0.080607794 0.89000005
-0.37073433 0.09908475 0.89700007
-0.36453739 0.098098367 0.89535719
-0.35470435 0.097521499 0.89416689
-0.34492528 0.097540878 0.89459109
-0.33431056 0.097314358 0.8947143
-0.32514715 0.096933194 0.89490485
-0.3150112 0.096579485 0.89468002
-0.30557701 0.097310521 0.89495009
-0.29589647 0.098811314 0.89453357
-0.2850953 0.098232232 0.89480013
-0.27520236 0.098131098 0.89544457
-0.26532799 0.098275237 0.89533353
-0.2543723 0.098084792 0.89537519
-0.2446119 0.097808853 0.8950001
-0.23519728 0.097756773 0.89612514
-0.22486693 0.097175501 0.8950001
-0.21491531 0.096796542 0.8932355
-0.20386626 0.097806007 0.89392865
-0.19465664 0.096267916 0.89382845
-0.1849542 0.095033288 0.89515013
-0.17515318 0.092803732 0.89583343
-0.16509245 0.092550844 0.89530772
-0.15463679 0.092153408 0.89353859
-0.14524536 0.09275151 0.8939001
-0.13518581 0.091697805 0.89400011
-0.12490304 0.091443211 0.89292318
-0.11456965 0.091134273 0.89271438
-0.10451245 0.09097635 0.89300007
-0.094654068 0.091959633 0.8926667
-0.086316451 0.091034792 0.8925001
-0.45369145 0.10903301 0.89900005
-0.44405389 0.10859832 0.89800012
-0.43496749 0.1085809 0.89572227
-0.42479122 0.10776883 0.89485723
-0.41561076 0.10629251 0.89476931
-0.40475652 0.10605758 0.89520705
-0.39451772 0.10623363 0.89488482
-0.38493061 0.10617647 0.89403456
-0.37499282 0.10516005 0.89412516
-0.36685827 0.1041247 0.89191312
-0.35497493 0.10059974 0.89100003
-0.3459532 0.10118487 0.89185715
-0.33629206 0.10103065 0.89137495
-0.32432923 0.10061648 0.89060003
-0.31437442 0.10133687 0.89105874
-0.30515724 0.10059038 0.89000005
-0.29527336 0.10110804 0.89000005
-0.28426343 0.10137101 0.8911429
-0.27544758 0.10158855 0.8915
-0.26548767 0.10127688 0.89150017
-0.25557759 0.10072654 0.89074999
-0.24430829 0.10017622 0.89000005
-0.23449504 0.10074762 0.89300007
-0.22847068 0.10082034 0.89240009
-0.45484161 0.11294233 0.89583337
-0.44517782 0.11291599 0.89415389
-0.43656987 0.11218268 0.89100003
-0.42379701 0.11148329 0.89100003
-0.41676638 0.11055042 0.89100003
-0.38325369 0.11055042 0.89100003
-0.36966112 0.11055042 0.89100003
0.46602303 0.05942186 0.90800011
0.47621703 0.058772922 0.90680009
0.48451963 0.058392644 0.90679997
0.49453822 0.05917431 0.90628582
0.50517058 0.057724964 0.90625
0.51468158 0.057429433 0.90570593
0.52215409 0.056897007 0.90566671
0.045912225 0.069879293 0.90800011
0.088518769 0.068928614 0.90800005
0.095905542 0.068217598 0.90740007
0.10409597 0.068867885 0.90720004
0.1163305 0.069445826 0.90700006
0.1240989 0.069335416 0.90654558
0.13493337 0.069045216 0.90641665
0.1446434 0.069170333 0.9065001
0.15140189 0.069802329 0.90700006
0.17859805 0.0688527 0.90700006
0.18098369 0.0688527 0.90700006
0.19746357 0.068776786 0.90600002
0.20108648 0.068549052 0.90300006
0.29826313 0.065706164 0.90671432
0.30578673 0.06753014 0.90513796
0.31507507 0.066609785 0.90465546
0.32496023 0.066182874 0.90535736
0.33532912 0.06644915 0.90615398
0.34586531 0.066284269 0.90635026
0.35475072 0.065827765 0.90565401
0.36475867 0.067240141 0.90552652
0.37493259 0.066372827 0.90508342
0.38501784 0.066471651 0.90577286
0.39474371 0.066788822 0.90483892
0.40512535 0.065539442 0.9046365
0.41483516 0.064015113 0.90472013
0.42486686 0.064514555 0.90504193
0.43432543 0.065280452 0.90433341
0.44466239 0.064171575 0.90394992
0.4556224 0.063535802 0.90370005
0.4645924 0.062733717 0.90383351
0.47442678 0.062761836 0.90256524
0.48476067 0.062486116 0.90273917
0.49524963 0.061146066 0.90260011
0.50595421 0.061341573 0.90252942
0.51518017 0.06147651 0.90205884
0.52114832 0.060681105 0.90200007
-0.1047589 0.078521751 0.90900004
-0.09723556 0.078521751 0.9090001
-0.08591868 0.078521751 0.90900004
-0.074542142 0.078618862 0.90875
-0.064488322 0.078584291 0.90753329
-0.054667201 0.077893816 0.90780014
-0.044156529 0.078039601 0.90687501
-0.034692373 0.077362008 0.90600026
-0.024739569 0.076858282 0.90677279
-0.014904003 0.076713361 0.90517265
-0.0052013411 0.077016197 0.90468758
0.0044945483 0.075902551 0.90396684
0.014244484 0.073905855 0.90375006
0.024444893 0.073738381 0.9037621
0.035283655 0.074321665 0.90385199
0.044982843 0.073814869 0.90316021
0.055025812 0.074083418 0.90418202
0.065456025 0.073546708 0.9044587
0.075021923 0.073271468 0.90452194
0.084646374 0.073153585 0.90370405
0.094688803 0.072598763 0.90308005
0.10478315 0.072740965 0.90392017
0.11466931 0.072954752 0.90331829
0.12540156 0.073472299 0.90291315
0.13500714 0.073608845 0.90265375
0.14521082 0.072652817 0.90311116
0.15496428 0.072514385 0.90347373
0.16474679 0.072196312 0.90431243
0.17490885 0.07257355 0.90323991
0.18491141 0.071525566 0.90320009
0.19514532 0.071249977 0.90223074
0.20089188 0.070205905 0.90000004
0.29814705 0.071195006 0.90060008
0.30458841 0.071619712 0.90066665
0.3112042 0.071148202 0.90000004
0.35792184 0.070361927 0.90200007
0.36345762 0.070361927 0.90200013
0.38512623 0.070361927 0.90200007
-0.37139091 0.089942418 0.90900004
-0.3650668 0.088933669 0.90754545
-0.35552886 0.089117311 0.90787506
-0.34588808 0.088990703 0.9090001
-0.33428434 0.088610008 0.90900004
-0.31273443 0.089942418 0.9090001
-0.30428663 0.089942418 0.90900004
-0.29552001 0.08962518 0.90900004
-0.28531888 0.089942418 0.90900004
-0.27958074 0.089942418 0.90900004
-0.26141 0.088990696 0.90900004
-0.25901911 0.088990696 0.90900004
-0.23150799 0.088892803 0.90800005
-0.22446391 0.087922134 0.90690917
-0.21467292 0.088968962 0.90716672
-0.20595279 0.088267177 0.90680009
-0.19529781 0.088081442 0.90555
-0.1853158 0.0877553 0.9055295
-0.17534339 0.087675564 0.90528584
-0.16493215 0.087468058 0.90521061
-0.15459305 0.086948738 0.90417391
-0.1447902 0.086079091 0.90384632
-0.13518715 0.085278273 0.90400028
-0.12458248 0.083845489 0.90450007
-0.11501811 0.083575279 0.90415186
-0.10523839 0.083239555 0.90380025
-0.095299624 0.081650816 0.90364993
-0.085039914 0.081979804 0.90433347
-0.075373985 0.082209572 0.90295839
-0.065624073 0.082163699 0.90199995
-0.054946896 0.081689298 0.9011538
-0.044992164 0.081830241 0.90105879
-0.034977686 0.080571197 0.90000004
-0.026361013 0.080571197 0.90000004
-0.0069498285 0.081513502 0.90000004
0.00062526675 0.081513502 0.90000004
-0.41381475 0.098988295 0.90687507
-0.40631214 0.099401928 0.90655559
-0.39725316 0.099350229 0.90800005
-0.38149068 0.099350229 0.90800005
-0.37362489 0.095784515 0.9051429
-0.36498806 0.093286149 0.90272009
-0.35488307 0.092399456 0.9021818
-0.34460679 0.092925102 0.90335709
-0.33452821 0.092203707 0.90366673
-0.32534733 0.092739478 0.90385008
-0.31554148 0.092247166 0.90582377
-0.304685 0.093669474 0.90327263
-0.29545385 0.094180331 0.9037742
-0.2856217 0.093522117 0.90428001
-0.27515346 0.093352765 0.90399998
-0.26482996 0.093554348 0.90411109
-0.25526688 0.093522124 0.90337938
-0.24487399 0.093660913 0.90445471
-0.23513666 0.093068257 0.90372396
-0.22510584 0.092780255 0.90257144
-0.21464141 0.093072876 0.90135998
-0.20568489 0.0936905 0.90158343
-0.1959766 0.09160354 0.90100002
-0.18560763 0.091690615 0.90100008
-0.17455319 0.090471528 0.90100002
-0.1681072 0.090094194 0.90100002
-0.46281028 0.10615601 0.90636379
-0.45514402 0.10629614 0.90461558
-0.44534394 0.10461426 0.90376508
-0.43538404 0.10384683 0.9049288
-0.42517212 0.10197744 0.90436006
-0.41574079 0.10199655 0.9034
-0.40481266 0.10158189 0.90249991
-0.39474389 0.1019258 0.90220004
-0.3846795 0.10200017 0.9044286
-0.37707233 0.10081835 0.90200007
0.51337761 0.049492899 0.91780007
0.53145385 0.049557611 0.91900003
0.30466971 0.0580763 0.91680002
0.31436986 0.059115138 0.9180001
0.3248789 0.059115142 0.9180001
0.33625787 0.058597319 0.91742879
0.34546959 0.058814872 0.91666681
0.35486868 0.058486488 0.91610527
0.36518192 0.058706518 0.91709095
0.37480807 0.059049696 0.91700017
0.38542005 0.059049696 0.91700017
0.394541 0.058908612 0.9163
0.40564954 0.059023149 0.91657144
0.41522348 0.05788219 0.91499996
0.42462665 0.057601761 0.91471434
0.43528223 0.058349445 0.9145
0.44520453 0.058006987 0.91500002
0.45415875 0.057923548 0.91372734
0.46499136 0.056776986 0.91339129
0.47514319 0.054974634 0.91376925
0.48455533 0.05439816 0.91295451
0.49500906 0.055300314 0.91304356
0.50449324 0.05415092 0.9133749
0.51429701 0.053172026 0.91347623
0.52528518 0.052672513 0.91541684
-0.031590763 0.069763646 0.91900003
-0.024000794 0.069147341 0.91663647
-0.014867973 0.068582185 0.91700017
-0.0049289465 0.068582594 0.91707712
0.0053861351 0.068284154 0.91553342
0.015253249 0.068574779 0.91600007
0.024900844 0.067736618 0.91611785
0.033770278 0.067385383 0.91612512
0.045086637 0.067238137 0.91522229
0.054792281 0.066943415 0.91555578
0.064824648 0.066850945 0.91540003
0.074970692 0.06712766 0.91442311
0.085450523 0.066960007 0.91340733
0.094956957 0.064358227 0.91556013
0.10552611 0.065371282 0.9156155
0.1146936 0.065873072 0.91516662
0.12502708 0.065459557 0.91621751
0.13504998 0.065476641 0.91596287
0.14585036 0.06462916 0.91540635
0.15495503 0.065498479 0.91525942
0.16486053 0.065971702 0.91441184
0.17435488 0.065568499 0.91542882
0.18541552 0.065955468 0.9155001
0.19503331 0.06467703 0.91522241
0.20253532 0.0628144 0.91599995
0.30580157 0.062907547 0.91300017
0.31498352 0.061913006 0.91441679
0.32460493 0.061629772 0.91446686
0.33527017 0.062481157 0.91352934
0.34426466 0.062865533 0.91200012
0.35401833 0.06187753 0.9115001
0.36523047 0.062670141 0.91321748
0.37536752 0.061944537 0.91250008
0.38483056 0.062072258 0.91293764
0.39488956 0.061559852 0.91261554
0.40480328 0.061636634 0.9126668
0.41580901 0.06054984 0.9106667
0.42667875 0.060823102 0.90999997
0.43607968 0.06218804 0.91054547
0.44558758 0.061934669 0.90999997
0.45238566 0.061525818 0.91100001
-0.17514233 0.079299197 0.9180001
-0.16295724 0.07948719 0.9154287
-0.15487276 0.078002371 0.91580003
-0.14497985 0.078134127 0.91627777
-0.13526647 0.077700816 0.91666663
-0.12561415 0.077586122 0.9156667
-0.11514755 0.077061668 0.9143182
-0.10559496 0.076196738 0.91490895
-0.095041297 0.076426111 0.91617405
-0.084454261 0.075574182 0.91527271
-0.074862428 0.074583352 0.91611123
-0.065418258 0.073505603 0.91653353
-0.054578379 0.073523067 0.9147895
-0.04505441 0.073765509 0.91471428
-0.034737434 0.073180012 0.91484994
-0.024904059 0.072711378 0.91253334
-0.014649215 0.072148673 0.91266668
-0.0052842661 0.071876846 0.91225016
0.003509687 0.071433932 0.91166675
0.014243043 0.070682459 0.91100007
0.024754152 0.070110172 0.91100013
0.035261344 0.070568293 0.91144454
0.040888231 0.070110165 0.91100007
0.0547859 0.070110172 0.91100013
0.064047635 0.070268415 0.91128588
0.072517417 0.07106398 0.91100007
0.15630674 0.070033208 0.91000003
-0.38031101 0.089007497 0.91900003
-0.37470922 0.086746924 0.91633344
-0.36354238 0.086185321 0.91291666
-0.35453799 0.08558809 0.91479313
-0.34479785 0.086158983 0.91476941
-0.33509979 0.08615952 0.91415983
-0.32534087 0.087373778 0.91454172
-0.31479219 0.08722242 0.91619056
-0.30466658 0.086432211 0.91530764
-0.29503208 0.086624853 0.91513628
-0.28477761 0.086862646 0.91582614
-0.27452925 0.086897127 0.91600019
-0.26492068 0.087155491 0.91547632
-0.25505155 0.088072605 0.91563165
-0.24462369 0.087052695 0.91491687
-0.23528399 0.086517446 0.9139567
-0.22523069 0.08479137 0.91447061
-0.21502139 0.084828585 0.91352391
-0.20441946 0.084291421 0.91249996
-0.19441913 0.083538026 0.91285706
-0.18520957 0.08310388 0.91366667
-0.17517731 0.082601331 0.91411549
-0.16546035 0.082908265 0.91280001
-0.15546478 0.082854047 0.91060001
-0.14515387 0.081948355 0.91054535
-0.13510774 0.081435457 0.91180003
-0.12843797 0.081237331 0.91100001
-0.46360219 0.099137492 0.91357154
-0.45490259 0.098331317 0.91474998
-0.44512123 0.097030893 0.91433334
-0.43472463 0.096613839 0.91223097
-0.42496833 0.096265495 0.91385198
-0.41493514 0.096246719 0.91406667
-0.40527281 0.096427038 0.91443479
-0.39484492 0.09709841 0.91409099
-0.38496622 0.096550062 0.91266668
-0.37738019 0.093152404 0.91250002
-0.32620201 0.091094121 0.91100013
-0.31533942 0.090140305 0.91100013
-0.2945728 0.090140305 0.91100007
-0.28618625 0.090140305 0.91100007
-0.27524385 0.090140305 0.91100013
-0.26869437 0.090140305 0.91100007
-0.25144207 0.091094121 0.91100007
-0.24741657 0.091284893 0.91100007
-0.46373814 0.1020081 0.91090906
-0.45663095 0.10159196 0.91020006
-0.44520077 0.10052183 0.91000003
-0.43849891 0.10083942 0.91000003
-0.39094764 0.1014746 0.91000003
-0.38807541 0.10242737 0.91000003
0.30513299 0.047689494 0.92760003
0.38494644 0.049962051 0.92650008
0.46553397 0.04901845 0.92700005
0.47556424 0.048842538 0.92536366
0.48568723 0.049387064 0.92483342
0.49562812 0.047946498 0.92605013
0.50503981 0.047517553 0.92448163
0.51509565 0.046395488 0.92599988
0.52498502 0.047133755 0.92530763
0.53268486 0.04602905 0.92553842
0.0084554851 0.059759092 0.92800003
0.015045818 0.059759092 0.92800003
0.026192432 0.059759092 0.92800009
0.035007786 0.059662499 0.92650008
0.045166086 0.059759092 0.92800009
0.054343738 0.059759092 0.92800003
0.065600388 0.058618069 0.92840004
0.075201072 0.058166716 0.9280715
0.085797027 0.057655428 0.92784619
0.095641568 0.058117919 0.92766678
0.10513011 0.058077849 0.92764711
0.11468694 0.058286026 0.92777783
0.12501842 0.058053527 0.92666674
0.1353139 0.057799067 0.92605549
0.14512372 0.057740033 0.92683327
0.15530616 0.058091182 0.92726666
0.16461349 0.057517078 0.92652631
0.17402187 0.057730876 0.92666668
0.18526755 0.057546772 0.92647052
0.19518103 0.057110429 0.92606664
0.20447272 0.055900112 0.92672223
0.30739921 0.05436898 0.9234668
0.31513759 0.054997079 0.92469227
0.32520816 0.055355471 0.92463988
0.33507416 0.054387145 0.92416692
0.34517401 0.054329336 0.92477798
0.35529765 0.053862255 0.92452395
0.36535546 0.054566141 0.92405003
0.37525272 0.054472305 0.92354178
0.38478613 0.054367721 0.92296004
0.39488974 0.055069759 0.92272228
0.40474364 0.054896384 0.92256701
0.41451326 0.054068614 0.92311126
0.42497903 0.053241402 0.92240745
0.43548432 0.053414881 0.92340004
0.44459245 0.053777158 0.92347062
0.45459545 0.052668665 0.9230001
0.46453461 0.052744292 0.9236089
0.47294825 0.051379837 0.92150009
0.48718476 0.051538013 0.92000002
0.49462301 0.051556688 0.92033339
0.50430578 0.051556688 0.92033339
0.51944906 0.050574772 0.92000002
-0.13345358 0.069550119 0.92900002
-0.12462442 0.068577446 0.92900002
-0.11639798 0.068577446 0.92900002
-0.10463429 0.068577446 0.92900002
-0.093464039 0.068716399 0.92900002
-0.084033191 0.067997932 0.92774993
-0.074421145 0.067924865 0.9245556
-0.064812288 0.067781538 0.92555565
-0.05447346 0.067245334 0.9275654
-0.044385329 0.066791572 0.92639995
-0.034751665 0.066907868 0.9249258
-0.024996031 0.065512344 0.92410541
-0.014256082 0.064448595 0.92366683
-0.0042919088 0.064339176 0.92299986
0.0055036782 0.063902847 0.92413634
0.015103768 0.063935786 0.92408335
0.024818812 0.063055001 0.92295021
0.035574511 0.063206367 0.92227286
0.044880126 0.063045643 0.92266685
0.055055805 0.06231026 0.92266679
0.064601474 0.06231026 0.92266679
0.074517004 0.062104728 0.92263174
0.084583111 0.062019914 0.92210531
0.09493418 0.060869019 0.92275
0.1040044 0.061094772 0.92250001
0.11541959 0.061895877 0.92220002
0.12534371 0.061732419 0.92200005
0.13535391 0.061544713 0.92199999
0.14153785 0.06154472 0.92200005
0.15616921 0.060981605 0.92200005
0.16457613 0.060820717 0.92199999
0.17575441 0.060869802 0.92275
0.18487221 0.06085784 0.92200005
0.19503519 0.06033805 0.92200005
-0.37134302 0.079191402 0.92800003
-0.36421603 0.079162955 0.92766666
-0.3544184 0.078979455 0.92714292
-0.3451868 0.078865036 0.9274286
-0.33435193 0.079118267 0.92714292
-0.32572758 0.079505488 0.92600006
-0.31013972 0.079990253 0.92600006
-0.30442464 0.079027899 0.92609996
-0.29603615 0.079247221 0.92488891
-0.28644824 0.079903871 0.92500007
-0.27365729 0.079106063 0.92700005
-0.26561114 0.079106063 0.92700005
-0.25293231 0.079106063 0.92700005
-0.24391083 0.079106063 0.92700005
-0.23502922 0.079046048 0.92527282
-0.22459331 0.079172783 0.92430776
-0.21511959 0.07862813 0.92476475
-0.20420359 0.078056216 0.92544448
-0.19433559 0.077396803 0.92376202
-0.18455018 0.076450936 0.92411137
-0.17497709 0.07564538 0.92393345
-0.16502143 0.075235993 0.92437923
-0.1546707 0.0737914 0.92494994
-0.14474814 0.073356181 0.92452395
-0.13508019 0.072444059 0.92352647
-0.12463015 0.072498642 0.92447996
-0.11515445 0.072158277 0.92573678
-0.10474177 0.071687803 0.92316681
-0.094718158 0.071632959 0.92289484
-0.086127065 0.071527779 0.92316669
-0.07712087 0.070879765 0.92100006
-0.060405947 0.070879765 0.92100006
-0.055066399 0.071072161 0.92350006
-0.044625398 0.070879765 0.92100012
-0.4773021 0.089976028 0.92900002
-0.45091236 0.089003362 0.92900002
-0.44348413 0.089003362 0.92900002
-0.4336603 0.088398896 0.92833328
-0.42443353 0.089064606 0.92559999
-0.41558397 0.088944726 0.92684615
-0.40503004 0.088237233 0.92569238
-0.39537999 0.088235229 0.92550015
-0.38479677 0.084764689 0.92490321
-0.37512454 0.082688421 0.92550009
-0.36634287 0.083013922 0.92462504
-0.35455176 0.081550501 0.92172736
-0.34485692 0.081515864 0.92280024
-0.33496541 0.081687547 0.92250019
-0.32513651 0.082652271 0.9223752
-0.31553125 0.082301788 0.92425007
-0.30544648 0.082427889 0.92172736
-0.2947813 0.08223708 0.92283344
-0.28438285 0.08218801 0.92263174
-0.27511662 0.082837008 0.92246687
-0.26548666 0.082323343 0.92285013
-0.25545165 0.08308097 0.92269236
-0.24518837 0.081924215 0.92233342
-0.23518392 0.082099617 0.92140007
-0.22499919 0.082119241 0.9208889
-0.21562694 0.08194641 0.92075002
-0.20544355 0.081427924 0.92033339
-0.19740769 0.081201345 0.92050004
-0.18520318 0.080435194 0.92000002
-0.47298151 0.095916979 0.9266364
-0.46532398 0.096102618 0.92463642
-0.45560166 0.093841955 0.92490929
-0.44534594 0.092018194 0.92414993
-0.43504164 0.091767304 0.92366666
-0.42467752 0.092025988 0.92226666
-0.4151783 0.092803612 0.92087501
-0.40480471 0.092370227 0.92120004
-0.39581549 0.092522793 0.92145008
-0.3863602 0.092650816 0.92107153
0.48703772 0.038838532 0.93900007
0.49444708 0.038838536 0.93900007
0.50185651 0.038838532 0.93900007
0.5146116 0.038913716 0.93787509
0.52506596 0.038670667 0.93776476
0.53471971 0.038299255 0.93787503
0.54178286 0.038468417 0.93800008
0.073429048 0.04965299 0.93900007
0.12216637 0.048669856 0.93900007
0.14587642 0.04965299 0.93900007
0.15397735 0.04965299 0.93900007
0.16662271 0.04965299 0.93900007
0.19901186 0.048618022 0.93800002
0.2040315 0.048545461 0.93660003
0.30783594 0.045231998 0.93233341
0.3139495 0.046073098 0.93621427
0.32459825 0.04800804 0.93760008
0.33603391 0.047455318 0.9345001
0.34458968 0.047354087 0.93427277
0.35506243 0.047847129 0.93410546
0.36453611 0.047505662 0.9343127
0.3744579 0.048460435 0.93500012
0.38438642 0.048424229 0.93430787
0.39439416 0.047392733 0.9345336
0.40504014 0.0475506 0.93633354
0.4149054 0.047299661 0.93526691
0.42524248 0.046729539 0.93442124
0.43493575 0.046443816 0.93390644
0.44510245 0.046724528 0.93370366
0.45514464 0.046827856 0.93391323
0.46541727 0.045965128 0.93306905
0.47466123 0.043824077 0.93366659
0.48521161 0.043986108 0.9349373
0.49451503 0.043001283 0.93385184
0.50526649 0.042102404 0.93357152
0.51398718 0.042092688 0.93178576
0.52454329 0.042473421 0.93250006
0.53453219 0.042383041 0.93215388
-0.050665401 0.058438875 0.93800002
-0.044778906 0.057831019 0.93612504
-0.035666406 0.058802366 0.93527275
-0.024719371 0.058343858 0.93650019
-0.014163711 0.057850011 0.93505889
-0.0045811119 0.057185844 0.93531567
0.0049349377 0.057481404 0.93413639
0.014982395 0.057453867 0.93325007
0.024848659 0.056396723 0.93356001
0.035164248 0.055462994 0.93412125
0.044939667 0.055333208 0.93486208
0.05548412 0.05565279 0.93432152
0.064802192 0.05409028 0.93476921
0.074795298 0.053625293 0.93550003
0.084466197 0.053541526 0.93534797
0.09523914 0.054015078 0.93495983
0.10486501 0.053005993 0.9356522
0.11475407 0.052898485 0.93527997
0.12490591 0.052615914 0.93583983
0.13514778 0.053513296 0.93600005
0.14518917 0.053247489 0.93600011
0.15467061 0.05351026 0.93528587
0.16492328 0.052717566 0.93557912
0.17489129 0.053438842 0.93495452
0.18457678 0.053171873 0.93527997
0.19528931 0.052647255 0.93571419
0.20301464 0.051985957 0.93338466
0.31518945 0.050691869 0.93200004
0.32501316 0.050725129 0.93230766
0.33318776 0.050692096 0.93100011
0.34461528 0.051179476 0.93100011
0.35405558 0.051151991 0.93050003
0.36525044 0.051305111 0.9303335
0.37381005 0.050619502 0.9306668
0.38126314 0.050150789 0.93000007
0.39560041 0.051307809 0.9306156
0.40492222 0.050583333 0.9312501
0.41465628 0.050166197 0.93028593
0.42431495 0.050150789 0.93000013
0.44600391 0.051124506 0.93000019
0.45171151 0.051124498 0.93000007
-0.19408569 0.068013586 0.93718761
-0.18500131 0.068092383 0.93454528
-0.17493172 0.068309613 0.93635297
-0.16502826 0.067607589 0.93556005
-0.15506765 0.067682996 0.93599993
-0.1445953 0.067222349 0.93552166
-0.13467094 0.065640606 0.93458343
-0.1244828 0.065157548 0.93415999
-0.11456828 0.065897815 0.93426085
-0.1042631 0.065052025 0.93431807
-0.094989404 0.063890629 0.93413782
-0.084770545 0.063627996 0.93378943
-0.074334763 0.06313622 0.93490463
-0.064269491 0.062728174 0.93429172
-0.054755263 0.061853938 0.93242872
-0.044573534 0.061250556 0.93100017
-0.034849007 0.061884388 0.93075013
-0.025329731 0.061868947 0.93175006
-0.015637003 0.061410554 0.93027294
-0.0044092154 0.060861595 0.93000019
0.0016245588 0.060861591 0.93000007
-0.41449022 0.07906267 0.93800008
-0.39129886 0.077753223 0.93800008
-0.38417956 0.076032221 0.93573672
-0.37511083 0.076160803 0.93427992
-0.36558986 0.076594159 0.9336189
-0.35491556 0.076302275 0.9339999
-0.34510189 0.075456321 0.93465203
-0.33531505 0.076412149 0.9338823
-0.32465562 0.077577583 0.93461102
-0.31495306 0.07698489 0.93466687
-0.3046715 0.075554058 0.93400019
-0.29441786 0.076516226 0.93376487
-0.28460714 0.076833509 0.93365014
-0.27537206 0.07583075 0.93331027
-0.26491666 0.075986423 0.93326676
-0.25519595 0.075794458 0.93325001
-0.24546924 0.075427242 0.9330833
-0.2352296 0.074931033 0.93307996
-0.22517028 0.074840888 0.93287516
-0.21450019 0.074016385 0.93239993
-0.20517986 0.072722934 0.93232
-0.19506364 0.072851479 0.93131596
-0.18609804 0.072407007 0.93000019
-0.17493136 0.07169155 0.9315716
-0.16547672 0.071649365 0.93100005
-0.15215549 0.070918292 0.93100005
-0.14725798 0.070674598 0.93100005
-0.48046407 0.089961417 0.93900007
-0.47441635 0.088754028 0.93663645
-0.4648279 0.086630173 0.93642861
-0.45496166 0.085526571 0.93468964
-0.44530237 0.085017234 0.93427581
-0.4348563 0.084080227 0.93355995
-0.42517859 0.085018843 0.93499994
-0.41500857 0.084176376 0.93524998
-0.40520176 0.083850756 0.93441677
-0.39563894 0.083481014 0.93393743
-0.38499576 0.08070904 0.93150008
-0.32356834 0.080422163 0.93100005
-0.27429831 0.08130949 0.93000007
-0.47555172 0.092673019 0.9337858
-0.46570817 0.091964602 0.93240017
0.54642099 0.028302625 0.94833344
0.31516889 0.03763923 0.9460001
0.35647663 0.03821823 0.94800007
0.3652038 0.038383655 0.94800007
0.37467897 0.039012272 0.94800007
0.38593629 0.038916115 0.94687504
0.39375472 0.038528401 0.94749999
0.40360323 0.039210785 0.94800007
0.41745865 0.039702859 0.94400012
0.42548913 0.038087942 0.94787496
0.43622169 0.038759794 0.94453865
0.44398507 0.037850872 0.94600016
0.45435128 0.037877589 0.94511116
0.4665378 0.037513979 0.94700015
0.47537696 0.037037961 0.94545829
0.48471999 0.03668176 0.94459093
0.49575633 0.035881832 0.94406682
0.50617671 0.035410386 0.94608331
0.51573342 0.035274625 0.94560874
0.52538794 0.033683747 0.94568008
0.53530574 0.03295067 0.94470376
0.54322189 0.033006832 0.94405264
-0.0030760509 0.049514424 0.94575
0.0048100194 0.049084511 0.94700015
0.014885825 0.048786417 0.94671428
0.024569971 0.049084511 0.94700003
0.033834182 0.048478611 0.94487506
0.044230308 0.049465694 0.9448334
0.054862522 0.048856448 0.94535738
0.065108322 0.048354268 0.94400007
0.075584143 0.04756904 0.94453353
0.085132018 0.047968417 0.94461137
0.095261946 0.047446817 0.94505018
0.10436022 0.04715443 0.94415015
0.11527736 0.047366627 0.94385719
0.12610132 0.047006056 0.94380015
0.13572659 0.047503781 0.94431835
0.14557818 0.046081282 0.94496161
0.15486634 0.046101313 0.94509113
0.16477668 0.047085837 0.94520009
0.17491956 0.047032867 0.94412011
0.18473469 0.047050841 0.94372004
0.19496113 0.046546485 0.94508326
0.205299 0.045661673 0.94605011
0.3172287 0.042543121 0.94190919
0.32548937 0.043693736 0.94292003
0.33506539 0.043479692 0.94436824
0.34578112 0.042115256 0.94400012
0.35506368 0.042285137 0.94257694
0.36530301 0.042419791 0.94322735
0.37534446 0.043609899 0.94216681
0.3849397 0.043371804 0.94191313
0.39484 0.042894315 0.94277298
0.4052994 0.043016341 0.94196165
0.41511524 0.043143328 0.94104779
0.4253628 0.042089593 0.94236857
0.43471628 0.041624017 0.94087505
0.44665304 0.041797698 0.94127274
0.45545653 0.041756045 0.94150025
0.46441433 0.04153293 0.94162512
-0.18138956 0.059124194 0.94900006
-0.17406765 0.059124194 0.94900006
-0.16508169 0.059124194 0.94900006
-0.1543301 0.059489448 0.94763649
-0.14591469 0.059659898 0.94699997
-0.13457127 0.058857162 0.94763637
-0.12650946 0.058706306 0.94600016
-0.11478808 0.058516093 0.94784629
-0.10498431 0.058067892 0.94631577
-0.094662778 0.05765317 0.94483334
-0.085175589 0.05762776 0.94587493
-0.073935017 0.056924425 0.94468427
-0.064469822 0.05619394 0.94508338
-0.054584078 0.055672027 0.9439168
-0.044697464 0.054141324 0.94430453
-0.034256052 0.054551363 0.9451111
-0.024576152 0.053794667 0.94415998
-0.014713358 0.053106099 0.94390488
-0.0050343517 0.052350972 0.94200015
0.0052601332 0.05248107 0.94205904
0.014753942 0.05245826 0.94233322
0.024299912 0.051505107 0.94246161
0.0345033 0.050954208 0.94228572
0.047234975 0.051784173 0.94200003
0.054007318 0.051784169 0.94200003
0.088860124 0.050797898 0.94200003
0.092163704 0.050797902 0.94200009
0.13246742 0.050797898 0.94200003
-0.39276415 0.068824567 0.94771433
-0.38452974 0.068646498 0.94581825
-0.3751924 0.068474323 0.94550008
-0.36501035 0.067858733 0.94725007
-0.35490724 0.067355163 0.9460001
-0.34502223 0.06893307 0.94628572
-0.33528835 0.06936536 0.94700021
-0.32514381 0.069906183 0.94700003
-0.31469449 0.068629086 0.94623083
-0.30481991 0.06814865 0.94500023
-0.29409134 0.069079928 0.94700003
-0.28478914 0.068094537 0.94563645
-0.27632838 0.068346366 0.94600004
-0.26447499 0.068264931 0.94585729
-0.25601342 0.067940794 0.94449997
-0.24513976 0.068609469 0.94537508
-0.2350163 0.068368211 0.94405568
-0.2245651 0.067655645 0.94470006
-0.21469869 0.06557627 0.94482332
-0.20484141 0.066243812 0.94343328
-0.19523212 0.063244358 0.94490469
-0.18451302 0.063058592 0.94509095
-0.17519024 0.063136622 0.94382602
-0.16509037 0.062082637 0.94366676
-0.15569285 0.062929414 0.94253343
-0.14597756 0.062673002 0.94264293
-0.13631955 0.062347345 0.94266671
-0.12491416 0.061581463 0.9410001
-0.11507477 0.061536498 0.94309098
-0.10639774 0.061161295 0.94212502
-0.090923369 0.060596235 0.94100004
-0.08443024 0.060671359 0.94216675
-0.075992182 0.06053184 0.94000006
-0.068574905 0.06053184 0.94000006
-0.46237862 0.07841672 0.94800007
-0.45422417 0.078209244 0.94670004
-0.44529733 0.078332283 0.94614291
-0.43448988 0.078859672 0.94646162
-0.42479095 0.077349581 0.94444448
-0.41428998 0.07746768 0.94378942
-0.40537769 0.077624246 0.94577771
-0.39391959 0.075000256 0.9425
-0.38460141 0.071458675 0.94133341
-0.37445751 0.071380965 0.94130778
-0.36468327 0.072213829 0.94284993
-0.35512927 0.071562521 0.94271439
-0.34577924 0.07129012 0.94200009
-0.33501548 0.073188134 0.94247609
-0.32457832 0.072877899 0.94247079
-0.3156099 0.072618119 0.94085741
-0.30569461 0.071864218 0.94069242
-0.29526517 0.07277327 0.94180012
-0.2859911 0.072179355 0.94157147
-0.27516574 0.071432494 0.94200021
-0.26450592 0.071102031 0.94136381
-0.25419822 0.070861831 0.94054556
-0.24539369 0.071238615 0.9402858
-0.23488683 0.071357816 0.94000006
-0.22532678 0.071357816 0.94000006
-0.21988745 0.071357816 0.94000006
-0.48311853 0.08594472 0.94585735
-0.47546083 0.083428398 0.94514292
-0.46522903 0.081784815 0.94472742
-0.45457578 0.080743305 0.94233334
-0.44616789 0.080776572 0.94144452
-0.43357036 0.081285991 0.9410001
-0.42553744 0.081643194 0.94133341
-0.40454853 0.081285991 0.9410001
-0.39882052 0.080300763 0.94100004
0.45475712 0.029563254 0.95700002
0.46985999 0.029563254 0.95700002
0.50675958 0.029507652 0.95520002
0.51500452 0.028162448 0.95483345
0.52538204 0.027735425 0.95515394
0.53461355 0.02652679 0.9560526
0.54459858 0.026493717 0.95482343
0.55107802 0.024553364 0.95700002
0.078192815 0.039583039 0.95700002
0.085744247 0.039583039 0.95700002
0.094134711 0.039583042 0.95699996
0.10543483 0.039101683 0.95749998
0.11530656 0.038688023 0.95776916
0.12553713 0.038535208 0.95591658
0.13556077 0.03829876 0.95625019
0.14522383 0.037998777 0.95749998
0.15479553 0.037848167 0.95749998
0.16475719 0.038000464 0.95845461
0.1744879 0.038381651 0.95794106
0.18406461 0.038344305 0.95779991
0.19528732 0.039541677 0.95600003
0.20552108 0.037765723 0.95647383
0.2106567 0.036499612 0.95500004
0.31800023 0.034871779 0.95150006
0.32557172 0.037395459 0.95413339
0.33591118 0.036896948 0.95470595
0.34508154 0.036227141 0.95478266
0.3547776 0.035900641 0.95394444
0.3653509 0.034634154 0.95464993
0.37455115 0.035892595 0.95286977
0.38558689 0.035892017 0.95345467
0.39533991 0.034967188 0.95352638
0.4048025 0.03647029 0.9543637
0.41510296 0.036886476 0.9545455
0.42446336 0.035028968 0.95261914
0.434405 0.035707284 0.95225
0.4453935 0.03400315 0.95420015
0.45527774 0.033388801 0.9552353
0.46543312 0.033100717 0.95504999
0.47460526 0.032667428 0.95315397
0.48450014 0.032096934 0.95490009
0.49512947 0.033022195 0.9543637
0.50371498 0.031162385 0.95300001
0.51435494 0.030903913 0.95200008
0.5237807 0.030690327 0.95200014
-0.12028347 0.049654659 0.95800006
-0.11564709 0.049654659 0.95800012
-0.10538738 0.049625043 0.95742869
-0.095690504 0.049654659 0.95800012
-0.083710797 0.049081501 0.95800018
-0.074787393 0.048612759 0.95725012
-0.064759202 0.048518434 0.9554168
-0.05474674 0.048231155 0.95466685
-0.044357501 0.047507249 0.9552002
-0.035011895 0.046368401 0.95518166
-0.025524674 0.046999872 0.95506263
-0.014794196 0.046754252 0.95461112
-0.0051938286 0.046439454 0.95383346
0.0048907236 0.045444198 0.95304352
0.014783959 0.044730619 0.9532401
0.025147334 0.044199485 0.95422608
0.035461016 0.044315122 0.95372009
0.045777678 0.044589847 0.95292306
0.055574842 0.043746155 0.9527145
0.06532228 0.042898744 0.95286369
0.075478949 0.043541446 0.95341164
0.085088827 0.043121032 0.95283329
0.094439425 0.042865198 0.95206237
0.10520874 0.042740475 0.95206249
0.11507051 0.04249439 0.9525789
0.12503353 0.042330451 0.95122212
0.13486098 0.042308901 0.95072228
0.14438832 0.041684259 0.95223087
0.15569624 0.041421942 0.95325011
0.16468149 0.041744418 0.95350015
0.17436051 0.042266998 0.95181835
0.18475404 0.04237628 0.95225024
0.19504905 0.04215236 0.95238483
0.20494527 0.041723888 0.95181841
0.33565634 0.040619716 0.94999999
0.34148669 0.040288161 0.95000005
-0.40148997 0.05968491 0.95800006
-0.39561051 0.05968491 0.95800012
-0.38737929 0.059684914 0.95800006
-0.25157392 0.058743142 0.95900005
-0.24552016 0.058743145 0.95900005
-0.23568279 0.058743142 0.95900005
-0.2242287 0.058046535 0.95855552
-0.21502723 0.058285356 0.95700002
-0.20475203 0.058149349 0.95650011
-0.19508636 0.057236191 0.95558327
-0.18561156 0.056908771 0.95557141
-0.17527771 0.056574043 0.9555909
-0.16483662 0.055935118 0.95585716
-0.15484197 0.055009134 0.95527285
-0.14456756 0.05508662 0.9556666
-0.13542122 0.05404621 0.95415992
-0.12460111 0.054406106 0.95555997
-0.11562365 0.054141212 0.95405006
-0.10565509 0.053042989 0.95283341
-0.095549829 0.052893911 0.95363164
-0.084752657 0.053116769 0.95309114
-0.075199932 0.05262072 0.95222241
-0.064335875 0.051318489 0.95166677
-0.05519399 0.051105242 0.9514001
-0.044530533 0.050287537 0.95100009
-0.034691852 0.050287537 0.95100009
-0.023952683 0.050287534 0.95100003
-0.016598685 0.050287534 0.95100003
-0.45235711 0.068783857 0.95900005
-0.43621373 0.068783857 0.95900005
-0.41462198 0.068783857 0.95900005
-0.40494472 0.067023508 0.95756519
-0.39441547 0.064211726 0.95329177
-0.38498041 0.06378983 0.95383346
-0.37483653 0.063824534 0.953125
-0.3647272 0.063479066 0.95286959
-0.35480747 0.063193969 0.95349997
-0.34444934 0.064587235 0.9533335
-0.33432445 0.065049715 0.95340753
-0.32519412 0.064754151 0.95431042
-0.31501251 0.063977733 0.95416677
-0.30414063 0.06447614 0.95404774
-0.29529634 0.065585487 0.95372742
-0.28513551 0.063983165 0.95368415
-0.27488405 0.064873889 0.95384634
-0.26527604 0.064415269 0.95385736
-0.25473601 0.064345956 0.95350015
-0.24489081 0.063269436 0.95338446
-0.23491465 0.062902533 0.9539597
-0.22561888 0.062310345 0.95299995
-0.2159909 0.060697459 0.95225006
-0.20566741 0.061304592 0.95200008
-0.49148989 0.077889822 0.95740002
-0.48493165 0.078109257 0.95641661
-0.47464371 0.07641688 0.95562506
-0.46498284 0.075102024 0.95429176
-0.45512789 0.073704064 0.9555217
-0.44500449 0.074485175 0.95493752
-0.43562806 0.073644303 0.95500004
-0.42523333 0.07316459 0.95643741
-0.41516274 0.072599977 0.95390487
-0.40480563 0.073559947 0.95338112
-0.39836961 0.073246263 0.95175004
-0.49167761 0.082080737 0.95600003
-0.48623282 0.082293086 0.9526667
-0.47008872 0.081239454 0.95200002
0.53733844 0.019747689 0.96700007
0.54564482 0.019735437 0.96640009
0.55360651 0.01921849 0.96587503
