# .PCD v0.7 - Point Cloud Data file format
VERSION 0.7
FIELDS x y z
SIZE 4 4 4
TYPE F F F
COUNT 1 1 1
WIDTH 325
HEIGHT 1
VIEWPOINT 0 0 0 1 0 0 0
POINTS 325
DATA ascii
0.20889537 -0.040793739 0.67766666
0.21225178 -0.04075361 0.67700005
0.22835693 -0.044428565 0.67900002
0.20695907 -0.036378365 0.67743593
0.21499918 -0.034565125 0.67653328
0.22413412 -0.03539839 0.67710531
0.23016056 -0.037264474 0.67800003
0.21573561 -0.028667219 0.67800003
0.22088738 -0.028746091 0.67800003
0.18869831 -0.042497907 0.68866664
0.19413449 -0.043274466 0.68565845
0.20514941 -0.042607732 0.68396002
0.21168604 -0.0471447 0.6875
0.22644018 -0.042391166 0.68104535
0.23528269 -0.042628314 0.68297225
0.24114707 -0.043541782 0.68510014
0.18896614 -0.03853339 0.68800002
0.19533166 -0.03540948 0.68621671
0.20371887 -0.033579305 0.68161994
0.22799604 -0.032290317 0.68063641
0.23494434 -0.035082739 0.68258494
0.24074037 -0.03605213 0.68511117
0.19777749 -0.027117908 0.68850005
0.20538896 -0.025236528 0.68501294
0.21518725 -0.024456579 0.6824308
0.22501016 -0.02467593 0.68412685
0.23305778 -0.026766332 0.68706244
0.20808506 -0.019376438 0.68875009
0.21530618 -0.01793161 0.68789178
0.22421476 -0.018253358 0.68833339
0.23027025 -0.019113118 0.68900001
0.18750283 -0.050787419 0.69800007
0.19582561 -0.050422017 0.69800001
0.20188412 -0.050422017 0.69800001
0.21182871 -0.050750516 0.69749999
0.22850479 -0.050056614 0.69800001
0.23553674 -0.050577428 0.69762498
0.24616238 -0.051704884 0.69656014
0.25072771 -0.052867554 0.6965
0.18634225 -0.045768842 0.69357884
0.19557475 -0.048099946 0.69569236
0.20501596 -0.047350008 0.69409388
0.21146129 -0.04846235 0.69457144
0.22640452 -0.047706921 0.69342101
0.23471734 -0.0482339 0.69278961
0.24488002 -0.048296109 0.69300008
0.18785213 -0.034543484 0.69471788
0.19133356 -0.031610526 0.69150007
0.24301097 -0.032067321 0.69225001
0.18847106 -0.02669917 0.69762504
0.19425613 -0.024603087 0.69411689
0.2003302 -0.021369908 0.69200003
0.23730597 -0.023555242 0.6924063
0.24266963 -0.024894362 0.69375008
0.19721273 -0.015736545 0.69614631
0.20434196 -0.015035742 0.69197392
0.21422772 -0.012969226 0.69032538
0.22521026 -0.013804695 0.69177276
0.23461878 -0.01533599 0.69485712
0.24186152 -0.016895909 0.69772726
0.19893129 -0.0088159814 0.69785726
0.20592703 -0.0056836721 0.69648379
0.21489866 -0.0048749149 0.69456744
0.2249323 -0.0051123197 0.69599998
0.23225731 -0.0065186718 0.69752181
0.20934364 0.0011013524 0.69900006
0.21514063 0.0014946996 0.69853854
0.22184572 0.0011013524 0.69900006
0.18373343 -0.060410339 0.708
0.24603029 -0.060389008 0.70775002
0.18660495 -0.055462748 0.70628583
0.19526413 -0.052688364 0.70414293
0.20445877 -0.053184099 0.70296001
0.21443483 -0.053742621 0.70389467
0.22582063 -0.053243682 0.70392597
0.23587848 -0.054289851 0.70408595
0.24428125 -0.056459025 0.70365798
0.18445423 -0.034750123 0.70471042
0.18646428 -0.025070652 0.7043528
0.19093806 -0.021433432 0.70085728
0.18866453 -0.015498499 0.70681822
0.19284089 -0.014466901 0.70320457
0.23910186 -0.012211415 0.70000005
0.24179836 -0.012475392 0.70120013
0.18866609 -0.0078861928 0.70814294
0.19512312 -0.0049564475 0.70458764
0.20287406 -0.0020732016 0.70022213
0.23634224 -0.0039687124 0.70160609
0.24228373 -0.0052475575 0.70479172
0.19811411 0.0028810848 0.70616674
0.20502 0.0052198274 0.70408696
0.21486692 0.0059369612 0.70220011
0.22507748 0.005377254 0.70231652
0.23464036 0.0046001999 0.70541519
0.24192737 0.0006222268 0.70900005
0.20698243 0.012580947 0.70757151
0.21487479 0.014695475 0.70678836
0.22441748 0.013900831 0.70695847
0.23277256 0.010998858 0.70800006
0.21650836 0.020388698 0.708
0.1878044 -0.06096492 0.71100003
0.1960406 -0.061863594 0.71484214
0.20398918 -0.061800271 0.71635002
0.21274525 -0.061275288 0.7166667
0.22648104 -0.061479177 0.71466666
0.23529522 -0.061823081 0.7165454
0.24309932 -0.063479833 0.7146666
0.18898341 -0.059342038 0.71000004
0.19528088 -0.057602923 0.71085012
0.20494556 -0.057840198 0.71159112
0.21467154 -0.057664249 0.71147847
0.22508658 -0.057912719 0.71095669
0.23360895 -0.058452792 0.71192312
0.24061503 -0.059177481 0.71100003
0.1842625 -0.024547771 0.71223825
0.18492576 -0.014910437 0.71427768
0.18788897 -0.0060067419 0.71400017
0.19105601 -0.0015786429 0.71099997
0.24602358 -0.0013241121 0.71057147
0.1892955 0.0021234751 0.71400011
0.19426689 0.0057275263 0.71336532
0.20102909 0.0093001146 0.71033335
0.23878264 0.0081806947 0.71000004
0.24359004 0.0049202289 0.71158057
0.19630495 0.014085845 0.71612763
0.20386621 0.016007336 0.71201801
0.21151756 0.018959554 0.71000004
0.22755012 0.017933007 0.71053344
0.23533639 0.015847811 0.71367383
0.24232762 0.014092986 0.71699995
0.1986593 0.022473948 0.71863633
0.20520167 0.024714744 0.71507901
0.21515647 0.024744181 0.71208036
0.22480398 0.024728755 0.71320701
0.23421779 0.024971876 0.71734768
0.20678413 0.030825412 0.71800005
0.21517619 0.032072671 0.71629035
0.22444135 0.032120973 0.71692854
0.23159727 0.031244569 0.71900004
0.20580243 -0.072577626 0.72821736
0.21432935 -0.071713053 0.7287001
0.22527973 -0.071282126 0.72779995
0.23326555 -0.071214773 0.72392321
0.19827607 -0.066538662 0.72300005
0.20560543 -0.067270912 0.72543347
0.21504141 -0.06654685 0.72563046
0.22435056 -0.065738901 0.72375011
0.23540896 -0.067054495 0.72138453
0.24148406 -0.067708015 0.72028583
0.21942048 -0.059926566 0.72000003
0.22093549 -0.059926566 0.72000003
0.18772218 0.0051381947 0.72565717
0.19056964 0.0089445412 0.72166675
0.1892987 0.014506196 0.72668749
0.19265902 0.016265897 0.72240007
0.24396379 0.019377356 0.72000003
0.18936676 0.022665497 0.72750002
0.19482738 0.025329927 0.72373033
0.23772977 0.02793753 0.720182
0.24271597 0.025385538 0.7226001
0.19787338 0.033424515 0.72629631
0.20423552 0.035656597 0.72198319
0.21410839 0.036807954 0.72011411
0.22491066 0.03721454 0.72128576
0.23470025 0.035506986 0.72356266
0.24192947 0.033492949 0.72763646
0.19992086 0.040838271 0.72900003
0.20571901 0.044294529 0.72622055
0.21497124 0.044733711 0.72435975
0.22499369 0.045219533 0.72530037
0.23315054 0.044315867 0.72789294
0.20787849 0.050691057 0.72800004
0.21581773 0.051530119 0.72804773
0.22364268 0.051692139 0.72828585
0.21484569 -0.073160686 0.73019999
0.22381204 -0.073369987 0.73000002
0.23077884 -0.073187791 0.73200005
0.18649609 0.0078593781 0.73200005
0.18713923 0.014799941 0.73565787
0.18790632 0.024214437 0.73312008
0.19129625 0.029244453 0.73299998
0.24821985 0.028502895 0.73233342
0.25071537 0.029207706 0.73400009
0.18918942 0.030524852 0.73800004
0.19435593 0.035417173 0.73479617
0.24517426 0.035111438 0.73190928
0.1964833 0.044656537 0.73514915
0.20138611 0.047270555 0.73138887
0.23703846 0.046071596 0.73105258
0.24249604 0.044822715 0.73396295
0.1988951 0.05435168 0.73800009
0.20463541 0.055444919 0.73369581
0.2148494 0.0564477 0.73166668
0.22494718 0.056383066 0.73155266
0.23431619 0.054717384 0.73395932
0.24272916 0.052683637 0.73750007
0.2064005 0.063212976 0.73722583
0.21483031 0.064871803 0.7364108
0.22466274 0.06453006 0.73645091
0.23231201 0.062904023 0.73825008
0.21602213 0.070518948 0.73900002
0.22337301 0.070378274 0.73900002
0.18793947 0.036176465 0.74282622
0.19131552 0.037695706 0.74055558
0.188511 0.043747641 0.74799997
0.19187753 0.045491055 0.74306059
0.19455682 0.054659985 0.74398255
0.23941572 0.058325969 0.74025005
0.24283557 0.057428725 0.74076927
0.19665965 0.064255022 0.74573821
0.20307095 0.0665498 0.74237138
0.22971827 0.069052354 0.74100006
0.23576261 0.06623894 0.74172729
0.24384876 0.06450925 0.74599999
0.19815613 0.073235728 0.7480588
0.20514034 0.07480076 0.74540931
0.21488801 0.075523689 0.74301791
0.22536898 0.075239211 0.74235392
0.23410794 0.074938513 0.74483335
0.24086657 0.071366258 0.74900001
0.20769341 0.081852153 0.74807698
0.21550684 0.082959615 0.74608338
0.22505714 0.083135009 0.74711424
0.23229808 0.082385726 0.74853849
0.1864572 0.045963779 0.75219059
0.18762295 0.055368971 0.75467563
0.19131298 0.057417918 0.75177777
0.18849398 0.062430918 0.75633341
0.19225428 0.065462835 0.75296867
0.24631715 0.068713173 0.75000006
0.19540854 0.075377718 0.75362855
0.20068245 0.079444915 0.75000012
0.23837566 0.078336842 0.75066674
0.24544255 0.07495255 0.75307846
0.25069535 0.07635577 0.75566673
0.19797334 0.084327787 0.757375
0.20446195 0.085988216 0.75374508
0.21431401 0.087513819 0.75095022
0.22477214 0.0880275 0.75086683
0.23561299 0.085856594 0.75257581
0.2443282 0.083703771 0.75671417
0.19896483 0.092318341 0.75900006
0.20580766 0.094495118 0.75692719
0.21491693 0.095104463 0.75415844
0.22500934 0.094607823 0.75413781
0.23387478 0.094401963 0.75646335
0.24115446 0.090728991 0.75900006
0.20841424 0.10185441 0.75900006
0.21567553 0.10371828 0.75825006
0.22492215 0.10387028 0.75813979
0.23212768 0.10238393 0.75874996
0.18615168 0.066211492 0.76379997
0.19109778 0.068303153 0.76000011
0.18803617 0.074397005 0.76596767
0.19199918 0.076010309 0.7619617
0.18884869 0.08164046 0.76820004
0.19403911 0.085611381 0.76400012
0.24680828 0.087894529 0.76083344
0.25065905 0.086566664 0.76200002
0.19647488 0.09525238 0.76411635
0.20285182 0.098882623 0.7610001
0.23820606 0.097721614 0.7610001
0.24473193 0.095151193 0.76459479
0.25036302 0.091031089 0.76600003
0.19809693 0.10343356 0.76676178
0.2045525 0.1054927 0.76385444
0.21334419 0.10784273 0.76200002
0.22615062 0.10852349 0.7610001
0.23594043 0.10559804 0.76322246
0.24343637 0.10281321 0.76757139
0.20658489 0.11252741 0.76850015
0.2150331 0.11505567 0.76638591
0.22466299 0.11496409 0.764588
0.23349452 0.11403161 0.76659381
0.21643214 0.12154134 0.76875007
0.22453684 0.12216555 0.76852018
0.23111701 0.12037274 0.76900005
0.18429218 0.075485021 0.77453578
0.18725863 0.085297011 0.77420688
0.19055943 0.087345876 0.77062505
0.18811473 0.094666019 0.77606672
0.19186403 0.095786378 0.77243352
0.24924009 0.098762155 0.77000004
0.18962122 0.10141739 0.77800006
0.19385532 0.10521331 0.7732501
0.24576095 0.10686762 0.77222222
0.19665007 0.11428821 0.77561539
0.20383619 0.11617639 0.771909
0.23829836 0.11672618 0.77230781
0.24479181 0.11501864 0.77586108
0.25019252 0.1128213 0.77800006
0.19898736 0.12251928 0.77750009
0.20477594 0.1248668 0.77496672
0.21398516 0.12594558 0.77216268
0.22500952 0.12704438 0.77148139
0.23534217 0.12537608 0.77490246
0.24242666 0.12273026 0.7779091
0.2067575 0.13258623 0.77735013
0.21528439 0.13381726 0.77527922
0.22465245 0.13457534 0.77500004
0.23427638 0.1345727 0.77751237
0.18490954 0.083863899 0.78072733
0.18624376 0.096166395 0.78100008
0.18765502 0.10393593 0.78528571
0.19070753 0.10689949 0.78133339
0.19276424 0.11538486 0.78280014
0.19526759 0.12481094 0.7844187
0.20021264 0.1283839 0.78100002
0.24566618 0.12549442 0.78204018
0.19757299 0.13407744 0.78685725
0.20376693 0.1365567 0.78280449
0.2139753 0.13892536 0.78050011
0.23734148 0.13910335 0.7815001
0.24426886 0.13509838 0.78410822
0.20446971 0.14358938 0.78191894
0.21557148 0.14391039 0.7808333
0.23695254 0.1420501 0.78166676
0.18656717 0.10806613 0.79088897
0.18811314 0.11070155 0.79000008
0.19088365 0.11125296 0.79000002
0.18945311 0.12624578 0.79446673
0.19193387 0.12654004 0.79033339
0.19293666 0.13524386 0.79291904
0.18562719 0.12911773 0.80600005
0.19003697 0.12669313 0.80400002
