# .PCD v0.7 - Point Cloud Data file format
VERSION 0.7
FIELDS x y z rgb
SIZE 4 4 4 4
TYPE F F F F
COUNT 1 1 1 1
WIDTH 273
HEIGHT 1
VIEWPOINT 0 0 0 1 0 0 0
POINTS 273
DATA ascii
-0.32062954 -0.086972386 1.363 1.2932556e-39
-0.3076486 -0.053221907 1.363 4.6242009e-40
-0.30877715 -0.058628574 1.368 5.5461291e-40
-0.30747432 -0.05602286 1.368 4.6277742e-40
-0.30617145 -0.053417146 1.368 5.5425278e-40
-0.30356574 -0.053417146 1.368 6.4537361e-40
-0.30356574 -0.050811432 1.368 4.6206275e-40
-0.32060003 -0.066737145 1.3740001 8.3120541e-40
-0.31798288 -0.066737145 1.3740001 1.1981831e-39
-0.30489716 -0.064120002 1.3740001 7.3828531e-40
-0.31013146 -0.061502863 1.3740001 6.4716587e-40
-0.30751431 -0.061502863 1.3740001 6.4716727e-40
-0.30489716 -0.061502863 1.3740001 5.5461572e-40
-0.30751431 -0.05888572 1.3740001 6.4644841e-40
-0.30489716 -0.05888572 1.3740001 7.3721191e-40
-0.30228001 -0.05888572 1.3740001 6.4573795e-40
-0.30228001 -0.056268577 1.3740001 8.2904881e-40
-0.30228001 -0.053651433 1.3740001 7.3685318e-40
-0.29966289 -0.052342862 1.3740001 6.4501768e-40
-0.29966289 -0.048417147 1.3740001 4.6242429e-40
-0.29704574 -0.040565718 1.3740001 8.2832154e-40
-0.31914002 -0.077486672 1.3790001 1.2907402e-39
-0.31914002 -0.074860007 1.3790001 1.1067091e-39
-0.31651336 -0.066980004 1.3790001 1.5651663e-39
-0.30338001 -0.061726671 1.3790001 5.5461712e-40
-0.30075336 -0.061726671 1.3790001 4.6242429e-40
-0.2981267 -0.056473337 1.3790001 6.4537782e-40
-0.2981267 -0.052533336 1.3790001 6.4537361e-40
-0.2981267 -0.048593335 1.3790001 5.5389405e-40
-0.29550001 -0.043340001 1.3790001 9.2194929e-40
-0.31525239 -0.088376194 1.3850001 1.1088671e-39
-0.31525239 -0.0857381 1.3850001 1.4758419e-39
-0.3205286 -0.080461912 1.3850001 1.5662467e-39
-0.31657144 -0.069909528 1.3850001 1.1978271e-39
-0.29942384 -0.059357148 1.3850001 5.5390245e-40
-0.29678574 -0.051442862 1.3850001 6.4536941e-40
-0.29678574 -0.048804764 1.3850001 6.4608547e-40
-0.29678574 -0.04616667 1.3850001 6.4608407e-40
-0.28359526 -0.014509525 1.3850001 1.1985474e-39
-0.28623337 -0.011871429 1.3850001 4.6170823e-40
-0.28359526 -0.011871429 1.3850001 1.106356e-39
-0.27831906 0.010552382 1.3850001 1.3815149e-39
-0.27304289 0.025061907 1.3850001 2.120159e-39
-0.27304289 0.027700001 1.3850001 2.0265242e-39
-0.27304289 0.031657144 1.3850001 1.8414155e-39
-0.27304289 0.035614289 1.3850001 1.565916e-39
-0.27040479 0.035614289 1.3850001 2.1201716e-39
-0.3044762 -0.093990482 1.3900001 1.474421e-39
-0.31109527 -0.091342866 1.3900001 1.7506702e-39
-0.30844763 -0.091342866 1.3900001 1.9343286e-39
-0.3044762 -0.091342866 1.3900001 1.5662551e-39
-0.32168573 -0.088695243 1.3900001 1.0170386e-39
-0.31903812 -0.088695243 1.3900001 6.4969241e-40
-0.31374288 -0.088695243 1.3900001 1.5669754e-39
-0.31109527 -0.088695243 1.3900001 1.933967e-39
-0.30844763 -0.088695243 1.3900001 2.2094637e-39
-0.31903812 -0.086047627 1.3900001 1.3843694e-39
-0.31374288 -0.086047627 1.3900001 1.5669642e-39
-0.31109527 -0.086047627 1.3900001 1.6584437e-39
-0.31903812 -0.083400004 1.3900001 2.11798e-39
-0.31639048 -0.083400004 1.3900001 1.8428322e-39
-0.31903812 -0.079428576 1.3900001 1.473698e-39
-0.31639048 -0.079428576 1.3900001 1.3818667e-39
-0.31903812 -0.075457148 1.3900001 1.1067133e-39
-0.31639048 -0.075457148 1.3900001 1.198553e-39
-0.31374288 -0.075457148 1.3900001 1.2900284e-39
-0.31903812 -0.072809532 1.3900001 9.2339964e-40
-0.30050477 -0.062219054 1.3900001 4.6278582e-40
-0.29785717 -0.055600002 1.3900001 4.6170122e-40
-0.29520956 -0.046333335 1.3900001 4.6241028e-40
-0.29520956 -0.043685716 1.3900001 5.5424577e-40
-0.29520956 -0.0410381 1.3900001 6.4608127e-40
-0.28726667 -0.027800001 1.3900001 9.219549e-40
-0.28461906 -0.027800001 1.3900001 1.2903801e-39
-0.28461906 -0.025152383 1.3900001 1.3815009e-39
-0.28461906 -0.0092666671 1.3900001 1.0134443e-39
-0.28064764 -0.010590477 1.3900001 1.936481e-39
-0.28197145 -0.0066190478 1.3900001 1.2907584e-39
-0.27932382 0.0013238096 1.3900001 1.5662761e-39
-0.27667621 0.0013238096 1.3900001 2.120889e-39
-0.27932382 0.0039714286 1.3900001 1.5669936e-39
-0.27667621 0.0039714286 1.3900001 2.1205317e-39
-0.27932382 0.0066190478 1.3900001 1.5669866e-39
-0.27667621 0.0066190478 1.3900001 2.0286906e-39
-0.2740286 0.010590477 1.3900001 2.4907464e-39
-0.29914287 -0.094396196 1.396 1.383303e-39
-0.30180192 -0.091737151 1.396 1.4747798e-39
-0.30712003 -0.089078099 1.396 1.8424721e-39
-0.30446097 -0.089078099 1.396 1.3829401e-39
-0.30180192 -0.089078099 1.396 1.474421e-39
-0.30977908 -0.086419053 1.396 1.8413931e-39
-0.30712003 -0.086419053 1.396 1.6584339e-39
-0.30446097 -0.086419053 1.396 1.3829358e-39
-0.30180192 -0.086419053 1.396 1.4747784e-39
-0.31509715 -0.082430482 1.396 1.3825799e-39
-0.31243813 -0.082430482 1.396 1.3825799e-39
-0.30977908 -0.083760008 1.396 1.4744154e-39
-0.30712003 -0.083760008 1.396 1.4747741e-39
-0.31509715 -0.07844191 1.396 1.2900284e-39
-0.31243813 -0.07844191 1.396 1.2893095e-39
-0.30446097 -0.06514667 1.396 7.3793078e-40
-0.30180192 -0.06514667 1.396 6.4645682e-40
-0.29914287 -0.062487625 1.396 4.6278302e-40
-0.29914287 -0.059828576 1.396 4.6242289e-40
-0.29648381 -0.057169527 1.396 4.6277602e-40
-0.29648381 -0.054510478 1.396 5.5389124e-40
-0.29648381 -0.051851433 1.396 6.4500787e-40
-0.29382479 -0.051851433 1.396 5.5353531e-40
-0.29648381 -0.049192384 1.396 5.5388704e-40
-0.29382479 -0.049192384 1.396 4.6134109e-40
-0.29249525 -0.046533335 1.396 3.6986572e-40
-0.29249525 -0.04387429 1.396 2.7767149e-40
-0.28850669 -0.04387429 1.396 6.4537922e-40
-0.29249525 -0.041215241 1.396 1.85836e-40
-0.29116574 -0.038556192 1.396 3.6986993e-40
-0.28318858 -0.038556192 1.396 1.0170316e-39
-0.28850669 -0.035897147 1.396 4.6242289e-40
-0.28584763 -0.033238098 1.396 1.0145121e-39
-0.28318858 -0.034567624 1.396 1.1999851e-39
-0.28584763 -0.030579049 1.396 1.1985432e-39
-0.28318858 -0.030579049 1.396 1.6595213e-39
-0.28318858 -0.027920002 1.396 1.6595213e-39
-0.28052953 -0.027920002 1.396 2.2126923e-39
-0.27787051 -0.0093066674 1.396 3.0442635e-39
-0.28052953 -0.0066476194 1.396 2.0286864e-39
-0.27787051 -0.0066476194 1.396 2.7676822e-39
-0.27521145 -0.0066476194 1.396 3.5970771e-39
-0.28052953 -0.0039885715 1.396 1.7513835e-39
-0.27787051 -0.0039885715 1.396 2.4900233e-39
-0.27521145 -0.0039885715 1.396 3.4123341e-39
-0.28052953 -0.0013295239 1.396 1.6591864e-39
-0.27787051 -0.0013295239 1.396 2.3045586e-39
-0.27521145 -0.0013295239 1.396 3.2268723e-39
-0.27521145 0.0013295239 1.396 3.1346794e-39
-0.29508764 -0.097472385 1.4020001 1.384382e-39
-0.3004286 -0.092131436 1.4020001 1.4754972e-39
-0.2977581 -0.092131436 1.4020001 1.5673313e-39
-0.3004286 -0.089460962 1.4020001 1.5673313e-39
-0.2977581 -0.089460962 1.4020001 1.7520785e-39
-0.3044343 -0.084120005 1.4020001 1.3829415e-39
-0.3004286 -0.08679048 1.4020001 1.4747784e-39
-0.3111105 -0.081449531 1.4020001 1.3818695e-39
-0.30844003 -0.081449531 1.4020001 1.2903969e-39
-0.3044343 -0.081449531 1.4020001 1.1985544e-39
-0.3111105 -0.078779049 1.4020001 1.1981943e-39
-0.30844003 -0.078779049 1.4020001 1.1981971e-39
-0.30576953 -0.078779049 1.4020001 1.1063588e-39
-0.31378096 -0.076108575 1.4020001 1.1063546e-39
-0.3111105 -0.076108575 1.4020001 1.0145191e-39
-0.30844003 -0.076108575 1.4020001 1.0141603e-39
-0.3044343 -0.076108575 1.4020001 9.2196611e-40
-0.30844003 -0.073438101 1.4020001 9.2161158e-40
-0.3111105 -0.070767626 1.4020001 8.3013341e-40
-0.30844003 -0.070767626 1.4020001 9.2197311e-40
-0.3044343 -0.070767626 1.4020001 8.2976768e-40
-0.2977581 -0.060085718 1.4020001 4.6277882e-40
-0.29508764 -0.057415243 1.4020001 4.6278022e-40
-0.29508764 -0.054744765 1.4020001 5.5389545e-40
-0.28974667 -0.054744765 1.4020001 7.3937552e-40
-0.28707621 -0.054744765 1.4020001 1.290757e-39
-0.29241717 -0.052074291 1.4020001 7.3685318e-40
-0.28974667 -0.052074291 1.4020001 9.2196611e-40
-0.28707621 -0.052074291 1.4020001 1.4737022e-39
-0.28440574 -0.052074291 1.4020001 1.9346803e-39
-0.29241717 -0.049403813 1.4020001 6.4573515e-40
-0.28974667 -0.049403813 1.4020001 9.219619e-40
-0.28707621 -0.049403813 1.4020001 1.382217e-39
-0.28440574 -0.049403813 1.4020001 1.8428392e-39
-0.28974667 -0.046733335 1.4020001 8.2976768e-40
-0.28707621 -0.046733335 1.4020001 1.2896654e-39
-0.28440574 -0.046733335 1.4020001 1.6584465e-39
-0.28707621 -0.04406286 1.4020001 1.0141603e-39
-0.28440574 -0.04406286 1.4020001 1.2911018e-39
-0.28974667 -0.041392382 1.4020001 4.6206696e-40
-0.28707621 -0.041392382 1.4020001 7.3793638e-40
-0.28440574 -0.041392382 1.4020001 9.241185e-40
-0.28040004 -0.041392382 1.4020001 1.6606017e-39
-0.28974667 -0.038721908 1.4020001 4.6206836e-40
-0.28707621 -0.037386671 1.4020001 7.3865245e-40
-0.28173527 -0.038721908 1.4020001 1.568762e-39
-0.29614002 -0.10854001 1.4070001 1.4754986e-39
-0.29614002 -0.10586001 1.4070001 1.5669698e-39
-0.29614002 -0.10318001 1.4070001 1.4751287e-39
-0.29346001 -0.10318001 1.4070001 1.566974e-39
-0.29346001 -0.10050001 1.4070001 1.5666181e-39
-0.29346001 -0.097820006 1.4070001 1.5676971e-39
-0.29614002 -0.095140003 1.4070001 1.3836645e-39
-0.29346001 -0.095140003 1.4070001 1.5673383e-39
-0.29614002 -0.092460006 1.4070001 1.6595297e-39
-0.29346001 -0.092460006 1.4070001 1.9361152e-39
-0.29882002 -0.087100007 1.4070001 1.7520771e-39
-0.29614002 -0.088440001 1.4070001 1.936111e-39
-0.29346001 -0.088440001 1.4070001 2.3041747e-39
-0.30150002 -0.084420003 1.4070001 1.3840163e-39
-0.29882002 -0.084420003 1.4070001 1.6605961e-39
-0.29614002 -0.084420003 1.4070001 1.936467e-39
-0.29346001 -0.084420003 1.4070001 2.2123392e-39
-0.30150002 -0.081740007 1.4070001 1.2007012e-39
-0.29882002 -0.081740007 1.4070001 1.3847267e-39
-0.29614002 -0.081740007 1.4070001 1.5691236e-39
-0.29346001 -0.081740007 1.4070001 1.8446371e-39
-0.29078001 -0.081740007 1.4070001 2.1201562e-39
-0.30418003 -0.079060003 1.4070001 1.0152393e-39
-0.30150002 -0.079060003 1.4070001 9.241185e-40
-0.29882002 -0.079060003 1.4070001 1.0163113e-39
-0.29614002 -0.079060003 1.4070001 1.1088685e-39
-0.29346001 -0.079060003 1.4070001 1.4772909e-39
-0.29078001 -0.079060003 1.4070001 1.8446427e-39
-0.30150002 -0.076380007 1.4070001 8.3084808e-40
-0.29882002 -0.076380007 1.4070001 7.3937131e-40
-0.29614002 -0.076380007 1.4070001 6.4753722e-40
-0.29346001 -0.076380007 1.4070001 1.0166729e-39
-0.29078001 -0.076380007 1.4070001 1.4765748e-39
-0.30686003 -0.073700003 1.4070001 9.2160738e-40
-0.30418003 -0.073700003 1.4070001 8.3012641e-40
-0.30150002 -0.073700003 1.4070001 6.4681415e-40
-0.29882002 -0.073700003 1.4070001 4.6278302e-40
-0.29614002 -0.073700003 1.4070001 1.879982e-40
-0.29346001 -0.073700003 1.4070001 6.4825608e-40
-0.29078001 -0.073700003 1.4070001 1.0163211e-39
-0.30150002 -0.071020007 1.4070001 6.4716727e-40
-0.29882002 -0.071020007 1.4070001 4.6313615e-40
-0.29614002 -0.071020007 1.4070001 3.7094893e-40
-0.29346001 -0.071020007 1.4070001 6.4753862e-40
-0.29078001 -0.071020007 1.4070001 1.0163211e-39
-0.31222001 -0.068340003 1.4070001 8.3012781e-40
-0.30954003 -0.068340003 1.4070001 9.2196471e-40
-0.30686003 -0.068340003 1.4070001 9.2196331e-40
-0.30418003 -0.068340003 1.4070001 7.3828951e-40
-0.30150002 -0.068340003 1.4070001 5.5497585e-40
-0.29882002 -0.068340003 1.4070001 5.5461712e-40
-0.29614002 -0.068340003 1.4070001 4.6278442e-40
-0.29346001 -0.068340003 1.4070001 7.3793638e-40
-0.28944001 -0.068340003 1.4070001 1.0155995e-39
-0.28542003 -0.068340003 1.4070001 1.3840247e-39
-0.30150002 -0.065660007 1.4070001 5.5462132e-40
-0.29882002 -0.065660007 1.4070001 4.6278442e-40
-0.29614002 -0.065660007 1.4070001 4.6278442e-40
-0.29346001 -0.065660007 1.4070001 7.3829091e-40
-0.28944001 -0.065660007 1.4070001 1.1070692e-39
-0.29882002 -0.062980004 1.4070001 4.6278162e-40
-0.29614002 -0.061640002 1.4070001 4.6278162e-40
-0.29346001 -0.061640002 1.4070001 6.4609668e-40
-0.28944001 -0.061640006 1.4070001 1.0145219e-39
-0.28542003 -0.061640002 1.4070001 1.7502876e-39
-0.28274003 -0.061640002 1.4070001 2.1190688e-39
-0.29346001 -0.057620004 1.4070001 5.5461852e-40
-0.28944001 -0.057620004 1.4070001 8.3121382e-40
-0.28542003 -0.057620004 1.4070001 1.6591752e-39
-0.28274003 -0.057620004 1.4070001 1.9361194e-39
-0.29346001 -0.054940004 1.4070001 6.4609388e-40
-0.28542003 -0.054940004 1.4070001 1.8428504e-39
-0.29202002 -0.11169429 1.4130001 1.7520855e-39
-0.29202002 -0.10900287 1.4130001 1.6591738e-39
-0.28663716 -0.087471433 1.4130001 3.1306927e-39
-0.29202002 -0.084780008 1.4130001 2.3963759e-39
-0.2893286 -0.084780008 1.4130001 2.5811301e-39
-0.28663716 -0.084780008 1.4130001 2.7637179e-39
-0.2893286 -0.082088575 1.4130001 2.3045572e-39
-0.28663716 -0.082088575 1.4130001 2.5796966e-39
-0.2893286 -0.079397149 1.4130001 2.1205177e-39
-0.28663716 -0.079397149 1.4130001 2.3038258e-39
-0.28394574 -0.079397149 1.4130001 2.1197932e-39
-0.2893286 -0.076705717 1.4130001 1.7520883e-39
-0.28663716 -0.076705717 1.4130001 2.1194331e-39
-0.28394574 -0.076705717 1.4130001 2.0279577e-39
-0.2893286 -0.074014291 1.4130001 1.4755042e-39
-0.28663716 -0.074014291 1.4130001 1.8435665e-39
-0.28394574 -0.074014291 1.4130001 2.0279577e-39
-0.2893286 -0.071322858 1.4130001 1.2918318e-39
-0.28663716 -0.071322858 1.4130001 1.6598941e-39
-0.28394574 -0.071322858 1.4130001 1.9357621e-39
-0.28663716 -0.065940008 1.4130001 1.56769e-39
