# .PCD v0.7 - Point Cloud Data file format
VERSION 0.7
FIELDS x y z
SIZE 4 4 4
TYPE F F F
COUNT 1 1 1
WIDTH 1156
HEIGHT 1
VIEWPOINT 0 0 0 1 0 0 0
POINTS 1156
DATA ascii
0.0082171438 0.12325715 0.71900004
0.013695239 0.12325715 0.71900004
0.019173335 0.12325715 0.71900004
-0.095466673 0.1281981 0.71600002
-0.079100959 0.1281981 0.71600002
-0.073954292 0.12873524 0.71900004
-0.068476193 0.12873524 0.71900004
-0.062998101 0.12873524 0.71900004
-0.057520002 0.12873524 0.71900004
-0.052041907 0.12873524 0.71900004
-0.046563812 0.12873524 0.71900004
-0.041085716 0.12873524 0.71900004
-0.12291429 0.13384001 0.71700001
-0.11745144 0.13384001 0.71700001
-0.10682286 0.13421334 0.71900004
-0.10134477 0.13421334 0.71900004
-0.095866673 0.13421334 0.71900004
0.03017143 0.12342858 0.72000003
0.035805717 0.12394287 0.72300005
0.041314289 0.12394287 0.72300005
-0.035657145 0.1289143 0.72000003
-0.030255239 0.12927239 0.72200006
-0.024754288 0.12927239 0.72200006
-0.019280002 0.12945144 0.72300005
-0.01377143 0.12945144 0.72300005
-0.0082628578 0.12945144 0.72300005
-0.11276953 0.13477334 0.72200006
-0.090514295 0.13440001 0.72000003
-0.085028574 0.13440001 0.72000003
-0.079763815 0.13477334 0.72200006
0.15829715 0.11386286 0.72900003
0.16385144 0.11386286 0.72900003
0.16940573 0.11386286 0.72900003
0.17496002 0.11386286 0.72900003
0.18051429 0.11386286 0.72900003
0.080095246 0.11876191 0.72500002
0.091142863 0.11876191 0.72500002
0.097066671 0.11925334 0.72800004
0.10233144 0.11892572 0.72600001
0.10816 0.11925334 0.72800004
0.11941715 0.11941715 0.72900003
0.046952385 0.12428572 0.72500002
0.052476194 0.12428572 0.72500002
0.058080003 0.12445715 0.72600001
0.063611433 0.12445715 0.72600001
0.069333337 0.12480001 0.72800004
0.074982859 0.12497143 0.72900003
-0.0027657144 0.12998858 0.72600001
0.0027657144 0.12998858 0.72600001
0.0082971435 0.12998858 0.72600001
0.013866668 0.13034667 0.72800004
0.019413335 0.13034667 0.72800004
0.024994288 0.13052572 0.72900003
-0.074571431 0.13533334 0.72500002
-0.069047622 0.13533334 0.72500002
-0.063523814 0.13533334 0.72500002
-0.058000002 0.13533334 0.72500002
-0.052476194 0.13533334 0.72500002
-0.047017146 0.13552001 0.72600001
-0.041600004 0.13589334 0.72800004
-0.036053337 0.13589334 0.72800004
-0.030422859 0.13552001 0.72600001
-0.019440001 0.13608001 0.72900003
-0.12428572 0.14085715 0.72500002
-0.11876191 0.14085715 0.72500002
-0.1132381 0.14085715 0.72500002
-0.1077143 0.14085715 0.72500002
-0.10261334 0.14144 0.72800004
-0.096800007 0.14105144 0.72600001
-0.091520004 0.14144 0.72800004
0.25376001 0.10875429 0.73200005
0.26455238 0.10860572 0.73100001
0.27049145 0.10875429 0.73200005
0.2760686 0.10875429 0.73200005
0.28241527 0.10905144 0.73400003
0.28722286 0.10875429 0.73200005
0.29360002 0.10905144 0.73400003
0.2991924 0.10905144 0.73400003
0.30478477 0.10905144 0.73400003
0.32715431 0.10905144 0.73400003
0.18657906 0.11417525 0.73100001
0.19241144 0.11433144 0.73200005
0.19798858 0.11433144 0.73200005
0.20356573 0.11433144 0.73200005
0.20971429 0.11464382 0.73400003
0.22089906 0.11464382 0.73400003
0.11417525 0.11974477 0.73100001
0.1253143 0.11974477 0.73100001
0.13106287 0.11990858 0.73200005
0.13664001 0.11990858 0.73200005
0.14202286 0.11974477 0.73100001
0.1475924 0.11974477 0.73100001
0.15379049 0.1202362 0.73400003
0.15938286 0.1202362 0.73400003
0.080758102 0.1253143 0.73100001
0.086327627 0.1253143 0.73100001
0.091897152 0.1253143 0.73100001
0.097600006 0.12548572 0.73200005
0.10317715 0.12548572 0.73200005
0.10905144 0.12582858 0.73400003
0.030632382 0.13088381 0.73100001
0.036251429 0.13106287 0.73200005
0.041828573 0.13106287 0.73200005
0.047405716 0.13106287 0.73200005
0.052982859 0.13106287 0.73200005
-0.025062859 0.13645335 0.73100001
-0.013923811 0.13645335 0.73100001
-0.0083657149 0.13664001 0.73200005
-0.0027961906 0.13701335 0.73400003
0.0027961906 0.13701335 0.73400003
0.013980953 0.13701335 0.73400003
-0.086327627 0.14202286 0.73100001
-0.080758102 0.14202286 0.73100001
-0.07549715 0.14260572 0.73400003
-0.069904767 0.14260572 0.73400003
-0.064312384 0.14260572 0.73400003
-0.058720004 0.14260572 0.73400003
-0.053127624 0.14260572 0.73400003
-0.047535241 0.14260572 0.73400003
-0.10905144 0.1481981 0.73400003
0.31122288 0.10934858 0.73600006
0.31683049 0.10934858 0.73600006
0.32243812 0.10934858 0.73600006
0.33410668 0.10949715 0.73700005
0.33972192 0.10949715 0.73700005
0.34533715 0.10949715 0.73700005
0.35095242 0.10949715 0.73700005
0.35656765 0.10949715 0.73700005
0.36218289 0.10949715 0.73700005
0.36879623 0.1097943 0.73900002
0.21589334 0.1149562 0.73600006
0.22710858 0.1149562 0.73600006
0.23303239 0.11511239 0.73700005
0.23929526 0.11542477 0.73900002
0.24492574 0.11542477 0.73900002
0.2505562 0.11542477 0.73900002
0.25618669 0.11542477 0.73900002
0.26181716 0.11542477 0.73900002
0.26744765 0.11542477 0.73900002
0.27307811 0.11542477 0.73900002
0.16542478 0.12056382 0.73600006
0.1710324 0.12056382 0.73600006
0.17664002 0.12056382 0.73600006
0.18224762 0.12056382 0.73600006
0.18862097 0.12105525 0.73900002
0.19425145 0.12105525 0.73900002
0.19934097 0.12072763 0.73700005
0.20551239 0.12105525 0.73900002
0.21114287 0.12105525 0.73900002
0.1149562 0.12617144 0.73600006
0.12072763 0.12634286 0.73700005
0.12634286 0.12634286 0.73700005
0.1319581 0.12634286 0.73700005
0.13794668 0.12668572 0.73900002
0.14357716 0.12668572 0.73900002
0.058880005 0.13177906 0.73600006
0.06457524 0.1319581 0.73700005
0.070190482 0.1319581 0.73700005
0.075805716 0.1319581 0.73700005
0.081641912 0.1323162 0.73900002
0.0084114289 0.13738668 0.73600006
0.019626668 0.13738668 0.73600006
0.025268573 0.13757335 0.73700005
0.030967621 0.13794668 0.73900002
-0.042057145 0.1429943 0.73600006
-0.03649905 0.14318858 0.73700005
-0.030883811 0.14318858 0.73700005
-0.014076191 0.14357716 0.73900002
-0.12617144 0.14860192 0.73600006
-0.12056382 0.14860192 0.73600006
-0.1149562 0.14860192 0.73600006
-0.10374096 0.14860192 0.73600006
-0.09853334 0.14920762 0.73900002
-0.092902862 0.14920762 0.73900002
-0.087272383 0.14920762 0.73900002
-0.081641912 0.14920762 0.73900002
-0.076011434 0.14920762 0.73900002
-0.064750478 0.14920762 0.73900002
-0.058960006 0.14880382 0.73700005
-0.053489529 0.14920762 0.73900002
0.27908573 0.11558096 0.74000001
0.28549334 0.11589334 0.74200004
0.2911467 0.11589334 0.74200004
0.29720002 0.11604953 0.74300003
0.30286098 0.11604953 0.74300003
0.30810669 0.11589334 0.74200004
0.31418288 0.11604953 0.74300003
0.31984383 0.11604953 0.74300003
0.32550478 0.11604953 0.74300003
0.35380954 0.11604953 0.74300003
0.35947049 0.11604953 0.74300003
0.36513144 0.11604953 0.74300003
0.37079242 0.11604953 0.74300003
0.21765335 0.12154668 0.74200004
0.22360763 0.12171049 0.74300003
0.24625145 0.12171049 0.74300003
0.14981334 0.12720001 0.74200004
0.15546668 0.12720001 0.74200004
0.16068572 0.12685715 0.74000001
0.16677335 0.12720001 0.74200004
0.17265905 0.12737143 0.74300003
0.087390482 0.13249524 0.74000001
0.093280002 0.13285334 0.74200004
0.098666675 0.13249524 0.74000001
0.10458668 0.13285334 0.74200004
0.11038858 0.1330324 0.74300003
0.11604953 0.1330324 0.74300003
0.036647622 0.13813335 0.74000001
0.042285718 0.13813335 0.74000001
0.047923815 0.13813335 0.74000001
0.053706672 0.13850668 0.74200004
0.059440006 0.13869335 0.74300003
0.065100953 0.13869335 0.74300003
-0.02537143 0.14377144 0.74000001
-0.019733334 0.14377144 0.74000001
-0.0084571438 0.14377144 0.74000001
-0.0028266669 0.14416 0.74200004
0.0028304763 0.1443543 0.74300003
0.0084914295 0.1443543 0.74300003
0.014133334 0.14416 0.74200004
0.059440006 0.1443543 0.74300003
-0.070476197 0.14940953 0.74000001
-0.03674667 0.14981334 0.74200004
-0.031093335 0.14981334 0.74200004
-0.12154668 0.15546668 0.74200004
-0.099066675 0.1556762 0.74300003
-0.070666671 0.15546668 0.74200004
0.33339432 0.11683048 0.74800003
0.33864003 0.1166743 0.74700004
0.34433144 0.1166743 0.74700004
0.35002288 0.1166743 0.74700004
0.22988573 0.1220381 0.74500006
0.23556192 0.1220381 0.74500006
0.24123812 0.1220381 0.74500006
0.25259051 0.1220381 0.74500006
0.25896001 0.12236572 0.74700004
0.26465145 0.12236572 0.74700004
0.26961908 0.1220381 0.74500006
0.27640381 0.12252953 0.74800003
0.17880002 0.12771429 0.74500006
0.1844762 0.12771429 0.74500006
0.19066288 0.12805715 0.74700004
0.1963543 0.12805715 0.74700004
0.20231621 0.12822857 0.74800003
0.20773716 0.12805715 0.74700004
0.21342859 0.12805715 0.74700004
0.21941335 0.12822857 0.74800003
0.1220381 0.13339049 0.74500006
0.12822857 0.13392763 0.74800003
0.13374858 0.13374858 0.74700004
0.13944001 0.13374858 0.74700004
0.14532572 0.13392763 0.74800003
0.070952386 0.13906668 0.74500006
0.076628573 0.13906668 0.74500006
0.082525723 0.13944001 0.74700004
0.088217147 0.13944001 0.74700004
0.094034292 0.13962668 0.74800003
0.099733338 0.13962668 0.74800003
0.10529143 0.13944001 0.74700004
0.11113144 0.13962668 0.74800003
0.11683048 0.13962668 0.74800003
0.019866668 0.14474286 0.74500006
0.025542859 0.14474286 0.74500006
0.03121905 0.14474286 0.74500006
0.03699429 0.14513144 0.74700004
0.042685717 0.14513144 0.74700004
0.048377145 0.14513144 0.74700004
0.054068577 0.14513144 0.74700004
-0.11636192 0.15609525 0.74500006
-0.11068572 0.15609525 0.74500006
-0.10500953 0.15609525 0.74500006
-0.093657151 0.15609525 0.74500006
-0.087980956 0.15609525 0.74500006
-0.082304768 0.15609525 0.74500006
-0.076628573 0.15609525 0.74500006
0.28285715 0.12285715 0.75000006
0.28934097 0.12318477 0.75200003
0.29428574 0.12285715 0.75000006
0.30000001 0.12285715 0.75000006
0.30652955 0.12318477 0.75200003
0.31225908 0.12318477 0.75200003
0.3179886 0.12318477 0.75200003
0.3241486 0.12334858 0.75300002
0.32988572 0.12334858 0.75300002
0.33517715 0.12318477 0.75200003
0.34090668 0.12318477 0.75200003
0.34663621 0.12318477 0.75200003
0.35283431 0.12334858 0.75300002
0.35857144 0.12334858 0.75300002
0.2257143 0.12857144 0.75000006
0.23142859 0.12857144 0.75000006
0.23777525 0.1289143 0.75200003
0.24350478 0.1289143 0.75200003
0.24956574 0.12908572 0.75300002
0.25530288 0.12908572 0.75300002
0.26104003 0.12908572 0.75300002
0.15183239 0.13464382 0.75200003
0.15714286 0.13428572 0.75000006
0.16329144 0.13464382 0.75200003
0.16924572 0.13482286 0.75300002
0.17475049 0.13464382 0.75200003
0.18048002 0.13464382 0.75200003
0.12285715 0.14000002 0.75000006
0.12857144 0.14000002 0.75000006
0.13464382 0.14037335 0.75200003
-0.11761144 0.16350858 0.75300002
-0.11187429 0.16350858 0.75300002
0.36527622 0.1236762 0.75500005
0.37152001 0.12384001 0.75600004
0.37728003 0.12384001 0.75600004
0.26784003 0.1296 0.75600004
0.27360001 0.1296 0.75600004
0.27936003 0.1296 0.75600004
0.28512001 0.1296 0.75600004
0.29088002 0.1296 0.75600004
0.29742479 0.12994286 0.75800002
0.30320001 0.12994286 0.75800002
0.30816001 0.1296 0.75600004
0.32544002 0.1296 0.75600004
0.33120003 0.1296 0.75600004
0.33696002 0.1296 0.75600004
0.34362668 0.12994286 0.75800002
0.35517716 0.12994286 0.75800002
0.36000001 0.1296 0.75600004
0.36672765 0.12994286 0.75800002
0.1869524 0.13518097 0.75500005
0.19270478 0.13518097 0.75500005
0.19872001 0.13536 0.75600004
0.20448001 0.13536 0.75600004
0.21024001 0.13536 0.75600004
0.21600002 0.13536 0.75600004
0.22176002 0.13536 0.75600004
0.22752002 0.13536 0.75600004
0.23297144 0.13518097 0.75500005
0.23904002 0.13536 0.75600004
0.24480002 0.13536 0.75600004
0.25122288 0.13571811 0.75800002
0.14093335 0.14093335 0.75500005
0.15264001 0.14112002 0.75600004
0.15819049 0.14093335 0.75500005
0.16416001 0.14112002 0.75600004
0.17036954 0.14149334 0.75800002
0.18144001 0.14112002 0.75600004
0.18720001 0.14112002 0.75600004
0.19296001 0.14112002 0.75600004
0.21657145 0.14149334 0.75800002
-0.1236762 0.16394287 0.75500005
-0.10656001 0.16416001 0.75600004
-0.10080001 0.16416001 0.75600004
-0.095040008 0.16416001 0.75600004
-0.08916191 0.16394287 0.75500005
-0.083409533 0.16394287 0.75500005
-0.077760004 0.16416001 0.75600004
0.3159962 0.13045715 0.76100004
0.3217943 0.13045715 0.76100004
0.35032383 0.13028572 0.76000005
0.25801525 0.13625525 0.76100004
0.26381335 0.13625525 0.76100004
0.27032003 0.13661334 0.76300001
0.2866286 0.1360762 0.76000005
0.17684191 0.14205334 0.76100004
0.21218668 0.14242667 0.76300001
-0.12449525 0.17081906 0.76000005
-0.11886096 0.17104383 0.76100004
-0.11306287 0.17104383 0.76100004
-0.10726477 0.17104383 0.76100004
-0.10173334 0.17149335 0.76300001
-0.095920004 0.17149335 0.76300001
-0.090106674 0.17149335 0.76300001
-0.084072389 0.17104383 0.76100004
0.27685717 0.13697144 0.76500005
0.28342479 0.13732953 0.76700002
0.21274287 0.14862858 0.76500005
-0.078891434 0.1723924 0.76700002
-0.12580572 0.17846859 0.76800001
-0.1199543 0.17846859 0.76800001
-0.11410286 0.17846859 0.76800001
-0.10825144 0.17846859 0.76800001
0.2797524 0.14429334 0.77300006
-0.10266668 0.17893335 0.77000004
-0.096800007 0.17893335 0.77000004
-0.090933338 0.17893335 0.77000004
-0.0853981 0.17963049 0.77300006
0.27457145 0.14466667 0.77500004
0.27005336 0.14541334 0.77900004
-0.079714291 0.18009526 0.77500004
-0.073809527 0.18009526 0.77500004
0.27178669 0.15232001 0.78400004
0.27634287 0.15154287 0.78000003
0.28228572 0.15154287 0.78000003
-0.12182858 0.18720001 0.78000003
-0.11618286 0.18768001 0.78200006
-0.10994286 0.18720001 0.78000003
-0.10426667 0.18768001 0.78200006
-0.098560005 0.18816002 0.78400004
-0.092350483 0.18768001 0.78200006
-0.086613342 0.18816002 0.78400004
-0.080640003 0.18816002 0.78400004
-0.074285716 0.18720001 0.78000003
-0.12323429 0.19537143 0.78900003
-0.11722287 0.19537143 0.78900003
-0.11121143 0.19537143 0.78900003
0.26818669 0.14765334 0.79100001
0.26818669 0.15368001 0.79100001
0.27421334 0.15970668 0.79100001
0.28024003 0.15970668 0.79100001
-0.10546667 0.19586667 0.79100001
-0.099440008 0.19586667 0.79100001
-0.093413338 0.19586667 0.79100001
-0.087607622 0.19636191 0.79300004
-0.081565723 0.19636191 0.79300004
-0.075333342 0.19586667 0.79100001
-0.12354667 0.20189334 0.79100001
0.26954287 0.1605143 0.79500002
-0.11248001 0.20368001 0.79800004
0.26580572 0.14970668 0.80200005
0.26646858 0.16233143 0.80400002
0.27123812 0.16761906 0.80000001
0.27802667 0.1680381 0.80200005
0.28484574 0.16845715 0.80400002
0.27872002 0.17458287 0.80400002
-0.1191543 0.20470096 0.80200005
-0.10666668 0.20419049 0.80000001
-0.10082287 0.20470096 0.80200005
-0.094712384 0.20470096 0.80200005
-0.088822864 0.20521145 0.80400002
-0.076571435 0.20521145 0.80400002
0.26713145 0.15659429 0.80600005
0.2732724 0.17501715 0.80600005
0.28555429 0.17501715 0.80600005
-0.082902864 0.20572191 0.80600005
-0.095420957 0.21238859 0.80800003
0.26845717 0.1697143 0.81000006
0.26978287 0.1767543 0.81400001
-0.12064001 0.21344002 0.81200004
-0.11445334 0.21344002 0.81200004
-0.10800001 0.2129143 0.81000006
-0.10182858 0.2129143 0.81000006
-0.08948572 0.2129143 0.81000006
-0.083725721 0.21396573 0.81400001
0.26520002 0.15912001 0.81900007
0.27632383 0.18318096 0.81500006
0.28253335 0.18318096 0.81500006
-0.077619053 0.21422859 0.81500006
-0.071584769 0.2147543 0.81700003
-0.12138286 0.22097906 0.81700003
-0.11544001 0.22152002 0.81900007
-0.10920001 0.22152002 0.81900007
-0.10296001 0.22152002 0.81900007
-0.071760006 0.22152002 0.81900007
0.26584762 0.15325335 0.82100004
0.26649526 0.16616763 0.82300001
0.26649526 0.1724381 0.82300001
0.26584762 0.1782743 0.82100004
0.27210286 0.18452954 0.82100004
0.27903619 0.19124953 0.82300001
-0.097192384 0.22260192 0.82300001
-0.090921909 0.22260192 0.82300001
-0.084445722 0.22206096 0.82100004
-0.078190483 0.22206096 0.82100004
-0.072110482 0.22887239 0.82300001
0.2677905 0.18587811 0.82700002
0.27475432 0.19264382 0.82900006
0.26908574 0.19310859 0.83100003
-0.12376001 0.23165335 0.83300006
-0.11741334 0.23165335 0.83300006
-0.11106668 0.23165335 0.83300006
-0.10472 0.23165335 0.83300006
-0.098373339 0.23165335 0.83300006
-0.092026673 0.23165335 0.83300006
-0.079333335 0.23165335 0.83300006
0.26465145 0.15624002 0.83700001
0.26528382 0.18857525 0.83900005
0.27167621 0.20136002 0.83900005
0.2780686 0.20136002 0.83900005
0.28310478 0.20040001 0.83500004
-0.085885718 0.23220953 0.83500004
-0.11825906 0.23971429 0.83900005
-0.11186668 0.23971429 0.83900005
0.2659162 0.1633943 0.84100002
0.2659162 0.16980192 0.84100002
0.2665486 0.17662859 0.84300005
0.2659162 0.18261716 0.84100002
-0.12494858 0.24028572 0.84100002
-0.10597715 0.24085715 0.84300005
-0.099554293 0.24085715 0.84300005
-0.092910483 0.24028572 0.84100002
0.26718098 0.19636191 0.84500003
0.27459049 0.20998096 0.84800005
0.28005716 0.20923811 0.84500003
-0.086914293 0.24142858 0.84500003
-0.080476195 0.24142858 0.84500003
0.26876193 0.20400001 0.85000002
0.27002668 0.21146668 0.85400003
-0.074476197 0.24285716 0.85000002
-0.12628572 0.24933335 0.85000002
-0.12009144 0.24992001 0.85200006
-0.11360001 0.24992001 0.85200006
-0.10736001 0.25050667 0.85400003
-0.10085334 0.25050667 0.85400003
0.26413715 0.15978667 0.85600007
0.2647543 0.16669716 0.85800004
0.26413715 0.17283049 0.85600007
0.2778286 0.2189943 0.85800004
-0.094567627 0.25109336 0.85600007
-0.088045724 0.25109336 0.85600007
-0.081523813 0.25109336 0.85600007
-0.07500191 0.25109336 0.85600007
0.26537144 0.18019049 0.86000001
0.26598859 0.21344763 0.86200005
0.27192384 0.21950477 0.86000001
0.2681486 0.18869716 0.86900002
0.2681486 0.1953181 0.86900002
0.2681486 0.20193906 0.86900002
0.26691431 0.20760001 0.86500007
0.26753145 0.22129144 0.86700004
0.27476954 0.22842287 0.86900002
0.28074288 0.22789715 0.86700004
-0.12192382 0.26032382 0.86500007
-0.1156 0.26092574 0.86700004
-0.10874286 0.26032382 0.86500007
-0.10215238 0.26032382 0.86500007
-0.095782861 0.26092574 0.86700004
-0.089177147 0.26092574 0.86700004
-0.082761914 0.26152763 0.86900002
0.26938286 0.22947431 0.87300003
0.28268573 0.23612572 0.87300003
-0.076316193 0.26212955 0.87100005
-0.12276953 0.26876572 0.87100005
0.26423621 0.16389334 0.87800002
0.27092573 0.23747811 0.87800002
0.27666667 0.23666668 0.87500006
-0.11666667 0.27000001 0.87500006
-0.11037715 0.27092573 0.87800002
-0.10368763 0.27092573 0.87800002
-0.096998103 0.27092573 0.87800002
-0.090308577 0.27092573 0.87800002
0.2648381 0.17097144 0.88000005
0.26544002 0.17808001 0.88200003
0.2648381 0.18438096 0.88000005
0.2648381 0.19108573 0.88000005
0.26604193 0.19868954 0.88400006
0.2648381 0.20449525 0.88000005
0.26604193 0.21216002 0.88400006
0.26604193 0.22563049 0.88400006
0.26604193 0.23236573 0.88400006
0.26604193 0.23910096 0.88400006
-0.083809532 0.27154288 0.88000005
-0.07710477 0.27154288 0.88000005
0.26754668 0.22013335 0.88900006
0.27432001 0.24722669 0.88900006
-0.11853334 0.28109336 0.88900006
-0.11176001 0.28109336 0.88900006
-0.10498668 0.28109336 0.88900006
-0.098213337 0.28109336 0.88900006
-0.091440007 0.28109336 0.88900006
0.26905143 0.24861716 0.89400005
0.28172573 0.24778287 0.89100003
-0.084857151 0.28172573 0.89100003
-0.078331433 0.28267431 0.89400005
0.26282668 0.17408001 0.89600003
0.26341334 0.18131049 0.89800006
0.26341334 0.2018362 0.89800006
-0.071680002 0.28330669 0.89600003
0.26429334 0.16818668 0.90100002
0.26429334 0.18878096 0.90100002
0.26429334 0.19564572 0.90100002
0.26488003 0.20984001 0.90300006
0.2711581 0.25742859 0.90100002
0.27802289 0.25742859 0.90100002
0.28488764 0.25742859 0.90100002
-0.12040001 0.29240003 0.90300006
-0.11326858 0.2917524 0.90100002
-0.10664 0.29240003 0.90300006
-0.099760003 0.29240003 0.90300006
-0.092880003 0.29240003 0.90300006
-0.086000003 0.29240003 0.90300006
-0.072240002 0.29928002 0.90300006
0.26634669 0.21792002 0.90800005
-0.07929524 0.29304764 0.90500003
-0.072640002 0.29401907 0.90800005
0.26693335 0.22533335 0.91000003
0.26781335 0.23303239 0.91300005
0.26693335 0.23920001 0.91000003
0.26781335 0.25390097 0.91300005
0.26781335 0.26085716 0.91300005
0.27386668 0.26693335 0.91000003
0.28172573 0.26781335 0.91300005
0.26840001 0.24748573 0.91500002
0.26898667 0.26898667 0.91700006
0.28296003 0.27597335 0.91700006
0.2774781 0.2774781 0.92200005
0.26485717 0.19422859 0.92700005
0.26485717 0.20129144 0.92700005
0.26485717 0.21541716 0.92700005
0.26428574 0.22200002 0.92500007
0.27192003 0.27898288 0.92700005
0.26571432 0.20902859 0.93000007
0.26571432 0.23028573 0.93000007
0.26571432 0.23737144 0.93000007
0.26571432 0.24445716 0.93000007
0.26571432 0.25154287 0.93000007
0.26628572 0.25918478 0.93200004
0.26571432 0.26571432 0.93000007
0.26771429 0.18918477 0.93700004
0.26714286 0.27426669 0.93500006
0.26714286 0.28139049 0.93500006
0.27485335 0.28913143 0.93700004
0.28199241 0.28913143 0.93700004
0.26196572 0.19019429 0.94200003
0.26196572 0.20454858 0.94200003
0.26914287 0.2906743 0.94200003
0.28289527 0.29721907 0.94000006
0.26280001 0.19800001 0.94500005
0.26280001 0.21240002 0.94500005
0.26280001 0.23400001 0.94500005
0.26280001 0.24120001 0.94500005
0.27808002 0.2997486 0.94800007
0.2641905 0.22076192 0.95000005
0.2641905 0.22800002 0.95000005
0.26502478 0.25050288 0.95300007
0.26641527 0.2591162 0.95800006
0.26558098 0.26558098 0.95500004
0.25992763 0.18670858 0.96100003
0.2604686 0.1944343 0.96300006
0.2604686 0.20910859 0.96300006
0.2604686 0.21644573 0.96300006
0.26724955 0.27457145 0.96100003
0.26209146 0.18088001 0.96900004
0.26209146 0.20302859 0.96900004
0.26864001 0.28336 0.96600002
0.26864001 0.29072002 0.96600002
0.26864001 0.29808003 0.96600002
0.26290289 0.23328002 0.97200006
0.26290289 0.26290289 0.97200006
0.26587811 0.24340954 0.98300004
0.26506668 0.25760001 0.98000002
0.26587811 0.28834668 0.98300004
0.26587811 0.29583621 0.98300004
0.25970286 0.18442668 0.98800004
0.26641905 0.25140953 0.98500007
0.26723048 0.28228572 0.98800004
0.26128003 0.19312002 0.99400002
0.26804191 0.23028953 0.99100006
0.2620686 0.20129906 0.99700004
0.2620686 0.20889525 0.99700004
0.2620686 0.23168382 0.99700004
0.2620686 0.23928002 0.99700004
0.26285717 0.21714287 1
0.26285717 0.22476192 1
0.26285717 0.24761906 1
0.26364574 0.25600383 1.003
0.27047622 0.27809525 1
0.26364574 0.29421335 1.003
0.25728002 0.19584002 1.008
0.25728002 0.20352001 1.008
0.26443431 0.26443431 1.006
0.26496002 0.28032002 1.008
0.26443431 0.28742859 1.006
0.26653716 0.27426288 1.0140001
0.26034287 0.2137143 1.0200001
0.26034287 0.22148573 1.0200001
0.26034287 0.22925715 1.0200001
0.26366097 0.24004954 1.033
0.26289526 0.27074286 1.0300001
0.26289526 0.2785905 1.0300001
0.26289526 0.28643811 1.0300001
0.26289526 0.29428574 1.0300001
0.26519239 0.24936001 1.039
0.26519239 0.25727621 1.039
0.26442668 0.26442668 1.036
0.25801906 0.20244573 1.0420001
0.25801906 0.28977525 1.0420001
0.25950477 0.21159621 1.0480001
0.25950477 0.22756574 1.0480001
0.25876191 0.2348762 1.0450001
0.25876191 0.25876191 1.0450001
0.26049525 0.25248003 1.052
0.26049525 0.28454098 1.052
0.2612381 0.22104764 1.0550001
0.2612381 0.24516192 1.0550001
0.26198098 0.27810287 1.0580001
0.26272383 0.27080762 1.0610001
0.25776002 0.21684574 1.074
0.25704002 0.22440001 1.0710001
0.25704002 0.24888001 1.0710001
-0.045005716 0.29867432 1.074
-0.036822859 0.29867432 1.074
-0.028640002 0.29867432 1.074
0.25872001 0.20944001 1.0780001
-0.078026675 0.29978669 1.0780001
-0.069813341 0.29978669 1.0780001
-0.061600003 0.29978669 1.0780001
-0.05338667 0.29978669 1.0780001
-0.020533334 0.29978669 1.0780001
-0.012320001 0.29978669 1.0780001
0.0041066669 0.29978669 1.0780001
0.012320001 0.29978669 1.0780001
0.020533334 0.29978669 1.0780001
0.028746668 0.29978669 1.0780001
0.036960002 0.29978669 1.0780001
0.069813341 0.29978669 1.0780001
0.078026675 0.29978669 1.0780001
0.086240008 0.29978669 1.0780001
0.14373334 0.29978669 1.0780001
0.15194668 0.29978669 1.0780001
0.16016001 0.29978669 1.0780001
0.16837335 0.29978669 1.0780001
0.17658667 0.29978669 1.0780001
0.19301334 0.29978669 1.0780001
0.20122668 0.29978669 1.0780001
0.25050667 0.29978669 1.0780001
0.25872001 0.29978669 1.0780001
0.25944 0.2759124 1.0810001
-0.078243814 0.29238477 1.0810001
-0.070007622 0.29238477 1.0810001
-0.061771434 0.29238477 1.0810001
-0.053535242 0.29238477 1.0810001
-0.045299049 0.29238477 1.0810001
-0.037062861 0.29238477 1.0810001
-0.028826669 0.29238477 1.0810001
0.045299049 0.29238477 1.0810001
0.25944 0.29238477 1.0810001
0.26040003 0.26040003 1.085
0.26112002 0.26940954 1.0880001
-0.087040007 0.27769905 1.0880001
-0.086800009 0.28520003 1.085
-0.078750484 0.2859886 1.0880001
-0.062171433 0.2859886 1.0880001
-0.05388191 0.2859886 1.0880001
-0.045592383 0.2859886 1.0880001
-0.037302859 0.2859886 1.0880001
-0.029013336 0.2859886 1.0880001
0.045592383 0.2859886 1.0880001
0.26112002 0.2859886 1.0880001
-0.020666668 0.29346669 1.085
-0.0124 0.29346669 1.085
-0.0041333335 0.29346669 1.085
0.0041333335 0.29346669 1.085
0.0124 0.29346669 1.085
0.020666668 0.29346669 1.085
0.028933335 0.29346669 1.085
0.037200004 0.29346669 1.085
0.053733338 0.29346669 1.085
0.062171433 0.29427812 1.0880001
0.070266671 0.29346669 1.085
0.078533337 0.29346669 1.085
0.086800009 0.29346669 1.085
0.095066674 0.29346669 1.085
0.10361905 0.29427812 1.0880001
0.11190858 0.29427812 1.0880001
0.1201981 0.29427812 1.0880001
0.12848763 0.29427812 1.0880001
0.13640001 0.29346669 1.085
0.14466667 0.29346669 1.085
0.15335619 0.29427812 1.0880001
0.16164573 0.29427812 1.0880001
0.16993526 0.29427812 1.0880001
0.17773335 0.29346669 1.085
0.18600002 0.29346669 1.085
0.19480382 0.29427812 1.0880001
0.20253335 0.29346669 1.085
0.21138287 0.29427812 1.0880001
0.2196724 0.29427812 1.0880001
0.22796191 0.29427812 1.0880001
0.24454097 0.29427812 1.0880001
0.25213334 0.29346669 1.085
0.26184002 0.23690288 1.0910001
0.26184002 0.24521525 1.0910001
-0.078967623 0.27846479 1.0910001
-0.070655242 0.27846479 1.0910001
-0.06234286 0.27846479 1.0910001
-0.0457181 0.27846479 1.0910001
-0.037405718 0.27846479 1.0910001
-0.029093334 0.27846479 1.0910001
-0.070655242 0.28677717 1.0910001
-0.020780955 0.28677717 1.0910001
-0.012468573 0.28677717 1.0910001
-0.0041561909 0.28677717 1.0910001
0.0041561909 0.28677717 1.0910001
0.012468573 0.28677717 1.0910001
0.020780955 0.28677717 1.0910001
0.054030478 0.28677717 1.0910001
0.078967623 0.28677717 1.0910001
0.087280005 0.28677717 1.0910001
0.095592387 0.28677717 1.0910001
0.12052953 0.28677717 1.0910001
0.12884191 0.28677717 1.0910001
0.1371543 0.28677717 1.0910001
0.14546667 0.28677717 1.0910001
0.15377906 0.28677717 1.0910001
0.1787162 0.28677717 1.0910001
0.18702859 0.28677717 1.0910001
0.19534096 0.28677717 1.0910001
0.20365335 0.28677717 1.0910001
0.22859049 0.28677717 1.0910001
0.24521525 0.28677717 1.0910001
0.25352764 0.28677717 1.0910001
0.23690288 0.29508954 1.0910001
0.25445715 0.22108573 1.095
0.25445715 0.22942859 1.095
-0.087600008 0.27114287 1.095
-0.079257146 0.27114287 1.095
-0.07110858 0.27188572 1.098
-0.029280001 0.27188572 1.098
0.11293715 0.27188572 1.098
-0.054228574 0.27948573 1.095
-0.020857144 0.27948573 1.095
0.0041714287 0.27948573 1.095
0.020857144 0.27948573 1.095
0.029200003 0.27948573 1.095
0.054228574 0.27948573 1.095
0.087600008 0.27948573 1.095
0.095942862 0.27948573 1.095
0.10428572 0.27948573 1.095
0.11262858 0.27948573 1.095
0.12097143 0.27948573 1.095
0.13765715 0.27948573 1.095
0.14600001 0.27948573 1.095
0.18771429 0.27948573 1.095
0.19605716 0.27948573 1.095
0.22942859 0.27948573 1.095
0.2461143 0.27948573 1.095
0.25445715 0.27948573 1.095
-0.012548572 0.28025144 1.098
-0.0041828575 0.28025144 1.098
0.012548572 0.28025144 1.098
0.037645716 0.28025144 1.098
0.046011433 0.28025144 1.098
0.062742859 0.28025144 1.098
0.07110858 0.28025144 1.098
0.079474293 0.28025144 1.098
0.12966858 0.28025144 1.098
0.15476573 0.28025144 1.098
0.16313145 0.28025144 1.098
0.17986287 0.28025144 1.098
0.20496002 0.28025144 1.098
0.21332572 0.28025144 1.098
0.22169144 0.28025144 1.098
0.23842287 0.28025144 1.098
0.029200003 0.28782859 1.095
0.037542861 0.28782859 1.095
0.062571436 0.28782859 1.095
0.070914291 0.28782859 1.095
0.10428572 0.28782859 1.095
0.11262858 0.28782859 1.095
0.16268572 0.28782859 1.095
0.17102858 0.28782859 1.095
0.21274287 0.28782859 1.095
0.22108573 0.28782859 1.095
0.23777145 0.28782859 1.095
0.25608382 0.23929144 1.102
-0.088160008 0.26448002 1.102
-0.079763815 0.26448002 1.102
-0.062971435 0.2728762 1.102
-0.054575242 0.2728762 1.102
-0.046179052 0.2728762 1.102
-0.037782859 0.2728762 1.102
-0.020990478 0.2728762 1.102
0.0041980953 0.2728762 1.102
0.012594286 0.2728762 1.102
0.12174477 0.2728762 1.102
0.15532954 0.2728762 1.102
0.16372572 0.2728762 1.102
0.25608382 0.2728762 1.102
0.17212191 0.28127241 1.102
0.25678098 0.21468572 1.105
-0.088400006 0.25678098 1.105
-0.080270484 0.25771049 1.1090001
-0.063371435 0.25771049 1.1090001
0.25771049 0.25771049 1.1090001
-0.07156191 0.26520002 1.105
-0.063142858 0.26520002 1.105
-0.054723814 0.26520002 1.105
-0.046304766 0.26520002 1.105
-0.037885718 0.26520002 1.105
-0.029466668 0.26520002 1.105
-0.02104762 0.26520002 1.105
-0.012674287 0.26616001 1.1090001
0.0042247623 0.26616001 1.1090001
0.012674287 0.26616001 1.1090001
0.021123812 0.26616001 1.1090001
0.029573334 0.26616001 1.1090001
0.038022861 0.26616001 1.1090001
0.046472386 0.26616001 1.1090001
0.05492191 0.26616001 1.1090001
0.063371435 0.26616001 1.1090001
0.071820959 0.26616001 1.1090001
0.080270484 0.26616001 1.1090001
0.088720009 0.26616001 1.1090001
0.097169533 0.26616001 1.1090001
0.10561906 0.26616001 1.1090001
0.11406858 0.26616001 1.1090001
0.1225181 0.26616001 1.1090001
0.13096763 0.26616001 1.1090001
0.13941716 0.26616001 1.1090001
0.15631621 0.26616001 1.1090001
0.16476573 0.26616001 1.1090001
0.17321526 0.26616001 1.1090001
0.18166478 0.26616001 1.1090001
0.1901143 0.26616001 1.1090001
0.19856383 0.26616001 1.1090001
0.20701335 0.26616001 1.1090001
0.21546288 0.26616001 1.1090001
0.24081144 0.26616001 1.1090001
0.24926096 0.26616001 1.1090001
0.25678098 0.26520002 1.105
-0.012628572 0.27361906 1.105
-0.004209524 0.27361906 1.105
0.02104762 0.27361906 1.105
0.029466668 0.27361906 1.105
0.037885718 0.27361906 1.105
0.046304766 0.27361906 1.105
0.054723814 0.27361906 1.105
0.063142858 0.27361906 1.105
0.07156191 0.27361906 1.105
0.079980955 0.27361906 1.105
0.088400006 0.27361906 1.105
0.096819051 0.27361906 1.105
0.1052381 0.27361906 1.105
0.13049525 0.27361906 1.105
0.1389143 0.27361906 1.105
0.14733334 0.27361906 1.105
0.17259049 0.27361906 1.105
0.18100953 0.27361906 1.105
0.18942858 0.27361906 1.105
0.19784763 0.27361906 1.105
0.20626669 0.27361906 1.105
0.21468572 0.27361906 1.105
0.22310477 0.27361906 1.105
0.23152383 0.27361906 1.105
0.23994288 0.27361906 1.105
0.24836192 0.27361906 1.105
0.25864002 0.25016001 1.113
-0.072080001 0.25864002 1.113
-0.055120002 0.25864002 1.113
-0.038160004 0.25864002 1.113
-0.029680002 0.25864002 1.113
0.046640001 0.25864002 1.113
0.055120002 0.25864002 1.113
0.089040004 0.25864002 1.113
0.097520009 0.25864002 1.113
0.10600001 0.25864002 1.113
0.11448001 0.25864002 1.113
-0.0042400002 0.26712 1.113
0.14840001 0.26712 1.113
0.22472002 0.26712 1.113
0.23320001 0.26712 1.113
-0.055268575 0.25083432 1.1160001
-0.029760001 0.25083432 1.1160001
-0.046765719 0.25933716 1.1160001
-0.021257143 0.25933716 1.1160001
-0.012754287 0.25933716 1.1160001
-0.0042514289 0.25933716 1.1160001
0.0042514289 0.25933716 1.1160001
0.012754287 0.25933716 1.1160001
0.021257143 0.25933716 1.1160001
0.029760001 0.25933716 1.1160001
0.038262859 0.25933716 1.1160001
0.080777146 0.25933716 1.1160001
0.12329144 0.25933716 1.1160001
0.13179429 0.25933716 1.1160001
0.15730287 0.25933716 1.1160001
0.16580573 0.25933716 1.1160001
0.17430858 0.25933716 1.1160001
0.19131429 0.25933716 1.1160001
0.21682288 0.25933716 1.1160001
0.22532573 0.25933716 1.1160001
0.25083432 0.25933716 1.1160001
-0.09813334 0.24320002 1.12
-0.089600004 0.24320002 1.12
-0.081283815 0.24385144 1.123
-0.055615243 0.24385144 1.123
-0.047059052 0.24385144 1.123
-0.038502861 0.24385144 1.123
-0.029866669 0.24320002 1.12
-0.0042780954 0.24385144 1.123
-0.089840002 0.25240764 1.123
-0.081066675 0.25173336 1.12
-0.072533339 0.25173336 1.12
-0.064000003 0.25173336 1.12
-0.046933338 0.25173336 1.12
-0.038400002 0.25173336 1.12
-0.021390477 0.25240764 1.123
-0.012800001 0.25173336 1.12
-0.0042666672 0.25173336 1.12
0.0042780954 0.25240764 1.123
0.012834286 0.25240764 1.123
0.021333335 0.25173336 1.12
0.029866669 0.25173336 1.12
0.038502861 0.25240764 1.123
0.046933338 0.25173336 1.12
0.055466671 0.25173336 1.12
0.064171433 0.25240764 1.123
0.072727621 0.25240764 1.123
0.081066675 0.25173336 1.12
0.089600004 0.25173336 1.12
0.098396197 0.25240764 1.123
0.10695239 0.25240764 1.123
0.11520001 0.25173336 1.12
0.12406477 0.25240764 1.123
0.13262096 0.25240764 1.123
0.14117715 0.25240764 1.123
0.14973335 0.25240764 1.123
0.15828954 0.25240764 1.123
0.16684572 0.25240764 1.123
0.17540191 0.25240764 1.123
0.18346667 0.25173336 1.12
0.19200002 0.25173336 1.12
0.20107049 0.25240764 1.123
0.20962667 0.25240764 1.123
0.22673906 0.25240764 1.123
0.23466668 0.25173336 1.12
0.24385144 0.25240764 1.123
0.25240764 0.25240764 1.123
0.064000003 0.26026669 1.12
0.072533339 0.26026669 1.12
0.14080001 0.26026669 1.12
0.14933334 0.26026669 1.12
0.18346667 0.26026669 1.12
0.20053335 0.26026669 1.12
0.20906667 0.26026669 1.12
0.23466668 0.26026669 1.12
0.24320002 0.26026669 1.12
-0.090160005 0.23613335 1.1270001
-0.07298667 0.24472001 1.1270001
-0.064400002 0.24472001 1.1270001
-0.021466669 0.24472001 1.1270001
-0.012880001 0.24472001 1.1270001
0.0042933337 0.24472001 1.1270001
0.012880001 0.24472001 1.1270001
0.021466669 0.24472001 1.1270001
0.030053336 0.24472001 1.1270001
0.038640004 0.24472001 1.1270001
0.047226671 0.24472001 1.1270001
0.055813339 0.24472001 1.1270001
0.064400002 0.24472001 1.1270001
0.07298667 0.24472001 1.1270001
0.081573337 0.24472001 1.1270001
0.090160005 0.24472001 1.1270001
0.098746672 0.24472001 1.1270001
0.11592001 0.24472001 1.1270001
0.15885334 0.24472001 1.1270001
0.16744001 0.24472001 1.1270001
0.18461335 0.24472001 1.1270001
0.19320001 0.24472001 1.1270001
0.23613335 0.24472001 1.1270001
0.24472001 0.24472001 1.1270001
0.21896002 0.25330669 1.1270001
0.25488001 0.22032002 1.1340001
-0.064628579 0.22835431 1.131
-0.0043200003 0.22896002 1.1340001
0.021600001 0.22896002 1.1340001
0.25488001 0.22896002 1.1340001
-0.081862859 0.23697144 1.131
-0.073440008 0.23760001 1.1340001
-0.064628579 0.23697144 1.131
-0.056011431 0.23697144 1.131
-0.047394291 0.23697144 1.131
-0.038777146 0.23697144 1.131
-0.030160002 0.23697144 1.131
-0.021600001 0.23760001 1.1340001
-0.012960001 0.23760001 1.1340001
-0.0043200003 0.23760001 1.1340001
0.0043200003 0.23760001 1.1340001
0.021600001 0.23760001 1.1340001
0.030240001 0.23760001 1.1340001
0.038880002 0.23760001 1.1340001
0.047520004 0.23760001 1.1340001
0.056011431 0.23697144 1.131
0.064800002 0.23760001 1.1340001
0.073440008 0.23760001 1.1340001
0.082080007 0.23760001 1.1340001
0.090720005 0.23760001 1.1340001
0.099360004 0.23760001 1.1340001
0.15120001 0.23760001 1.1340001
0.15984002 0.23760001 1.1340001
0.16848001 0.23760001 1.1340001
0.22032002 0.23760001 1.1340001
0.25488001 0.23760001 1.1340001
0.1077143 0.24558859 1.131
0.12494858 0.24558859 1.131
0.13356572 0.24558859 1.131
0.14218287 0.24558859 1.131
0.1508 0.24558859 1.131
0.17665143 0.24558859 1.131
0.20250288 0.24558859 1.131
0.21112001 0.24558859 1.131
0.21973716 0.24558859 1.131
0.22835431 0.24558859 1.131
0.25420573 0.24558859 1.131
-0.099360004 0.25488001 1.1340001
-0.030346669 0.22976764 1.138
-0.021676192 0.22976764 1.138
-0.013005715 0.22976764 1.138
0.0043352386 0.22976764 1.138
0.030346669 0.22976764 1.138
0.039017145 0.22976764 1.138
0.047687624 0.22976764 1.138
0.056358099 0.22976764 1.138
0.065028578 0.22976764 1.138
0.07369905 0.22976764 1.138
0.082369529 0.22976764 1.138
0.091040008 0.22976764 1.138
0.099710479 0.22976764 1.138
0.16040382 0.22976764 1.138
0.1690743 0.22976764 1.138
0.18641526 0.22976764 1.138
0.013005715 0.23843811 1.138
0.10838096 0.23843811 1.138
0.11705144 0.23843811 1.138
0.12572192 0.23843811 1.138
0.1343924 0.23843811 1.138
0.14306286 0.23843811 1.138
0.17774478 0.23843811 1.138
0.18641526 0.23843811 1.138
0.19508573 0.23843811 1.138
0.2037562 0.23843811 1.138
0.21242668 0.23843811 1.138
0.22976764 0.23843811 1.138
0.23843811 0.23843811 1.138
0.24710859 0.23843811 1.138
0.18707049 0.2218743 1.1420001
-0.073958099 0.23057525 1.1420001
0.01305143 0.23057525 1.1420001
0.10876191 0.23057525 1.1420001
0.11746287 0.23057525 1.1420001
0.12616381 0.23057525 1.1420001
0.13486478 0.23057525 1.1420001
0.15226668 0.23057525 1.1420001
0.17836954 0.23057525 1.1420001
0.19577144 0.23057525 1.1420001
0.21317334 0.23057525 1.1420001
0.2218743 0.23057525 1.1420001
0.23057525 0.23057525 1.1420001
0.10914286 0.22265144 1.146
0.11787429 0.22265144 1.146
0.12660572 0.22265144 1.146
0.15280001 0.22265144 1.146
0.1789943 0.22265144 1.146
0.14406858 0.23138288 1.146
0.20518859 0.23138288 1.146
0.2401143 0.23138288 1.146
0.24884573 0.23138288 1.146
0.22401144 0.21522668 1.153
0.13580953 0.22342859 1.1500001
0.14457144 0.22342859 1.1500001
0.16209525 0.22342859 1.1500001
0.17085716 0.22342859 1.1500001
0.19714287 0.22342859 1.1500001
0.20644192 0.22401144 1.153
0.21466668 0.22342859 1.1500001
0.22342859 0.22342859 1.1500001
0.23219049 0.22342859 1.1500001
0.2409524 0.22342859 1.1500001
0.2497143 0.22342859 1.1500001
