# .PCD v0.7 - Point Cloud Data file format
VERSION 0.7
FIELDS x y z rgb
SIZE 4 4 4 4
TYPE F F F F
COUNT 1 1 1 1
WIDTH 440
HEIGHT 1
VIEWPOINT 0 0 0 1 0 0 0
POINTS 440
DATA ascii
-0.16605811 0.17619906 1.3310001 5.1640553e-39
-0.16859335 0.1787343 1.3310001 5.0729387e-39
-0.16605811 0.1787343 1.3310001 5.0718625e-39
-0.16859335 0.18126954 1.3310001 5.2558936e-39
-0.17940572 0.14250667 1.3360001 5.3466347e-39
-0.17940572 0.14632381 1.3360001 6.1731513e-39
-0.17940572 0.14886858 1.3360001 6.7241699e-39
-0.17686096 0.14886858 1.3360001 5.9898475e-39
-0.17940572 0.15141334 1.3360001 6.2642806e-39
-0.16922668 0.17558858 1.3360001 5.2566083e-39
-0.16159239 0.17940572 1.3360001 4.9789424e-39
-0.18021144 0.13931239 1.342 4.7041477e-39
-0.17765525 0.14442477 1.342 5.3448452e-39
-0.17509906 0.14570287 1.342 5.1615316e-39
-0.17254287 0.14953715 1.342 4.7956259e-39
-0.17254287 0.15209334 1.342 4.8874614e-39
-0.17509906 0.15464954 1.342 5.3466417e-39
-0.17254287 0.15464954 1.342 4.9800158e-39
-0.16743049 0.1648743 1.342 5.0722086e-39
-0.15976192 0.17509906 1.342 4.9789424e-39
-0.15976192 0.17765525 1.342 4.9789438e-39
-0.15976192 0.18148953 1.342 4.8878243e-39
-0.17575143 0.13726573 1.3470001 4.8863796e-39
-0.17831716 0.13983144 1.3470001 4.88746e-39
-0.17575143 0.13983144 1.3470001 4.9782151e-39
-0.17831716 0.14239715 1.3470001 5.0704149e-39
-0.17575143 0.14239715 1.3470001 5.0696933e-39
-0.17318572 0.14239715 1.3470001 5.1615245e-39
-0.17318572 0.14496286 1.3470001 5.0693345e-39
-0.17318572 0.14752857 1.3470001 4.978578e-39
-0.16933715 0.14752857 1.3470001 4.7030715e-39
-0.16933715 0.15137716 1.3470001 4.5194104e-39
-0.16933715 0.15522572 1.3470001 4.7041561e-39
-0.16548859 0.15522572 1.3470001 5.0711366e-39
-0.16933715 0.15779144 1.3470001 4.8878229e-39
-0.16548859 0.15779144 1.3470001 5.4388345e-39
-0.16548859 0.16035715 1.3470001 5.7139837e-39
-0.16548859 0.16292287 1.3470001 5.4384786e-39
-0.16548859 0.16548859 1.3470001 5.0718541e-39
-0.16292287 0.16548859 1.3470001 5.0714995e-39
-0.16035715 0.16548859 1.3470001 5.0704135e-39
-0.16292287 0.16933715 1.3470001 5.0707765e-39
-0.16035715 0.16933715 1.3470001 5.161533e-39
-0.15779144 0.17062001 1.3470001 5.0707723e-39
-0.15522572 0.17062001 1.3470001 4.978941e-39
-0.14752857 0.17062001 1.3470001 5.1615302e-39
-0.16035715 0.17318572 1.3470001 5.0707765e-39
-0.15779144 0.17318572 1.3470001 5.0707751e-39
-0.15522572 0.17318572 1.3470001 4.9792997e-39
-0.15266001 0.17318572 1.3470001 5.1622546e-39
-0.15779144 0.17575143 1.3470001 4.978941e-39
-0.15522572 0.17575143 1.3470001 4.978941e-39
-0.15137716 0.17575143 1.3470001 4.9782207e-39
-0.15779144 0.17831716 1.3470001 4.9789424e-39
-0.15522572 0.17831716 1.3470001 4.9782235e-39
-0.15266001 0.17831716 1.3470001 4.7945511e-39
-0.15522572 0.18088287 1.3470001 4.886388e-39
-0.15266001 0.18088287 1.3470001 4.5194033e-39
-0.15522572 0.18344858 1.3470001 4.977506e-39
-0.17640382 0.13262478 1.3520001 5.1611616e-39
-0.17382859 0.13262478 1.3520001 4.9771249e-39
-0.17640382 0.13520001 1.3520001 4.7941812e-39
-0.17382859 0.13648763 1.3520001 4.8860139e-39
-0.17382859 0.14035049 1.3520001 5.1615245e-39
-0.17125334 0.14292572 1.3520001 5.1611658e-39
-0.1686781 0.14292572 1.3520001 5.0696891e-39
-0.17125334 0.14550096 1.3520001 4.9782165e-39
-0.1686781 0.14550096 1.3520001 4.9782165e-39
-0.16610287 0.14807621 1.3520001 4.9764144e-39
-0.16610287 0.15065144 1.3520001 4.8860223e-39
-0.16352762 0.15065144 1.3520001 4.7034177e-39
-0.16610287 0.15322667 1.3520001 4.9789438e-39
-0.16352762 0.1545143 1.3520001 4.8867411e-39
-0.16352762 0.15837716 1.3520001 5.1626092e-39
-0.16352762 0.16095239 1.3520001 5.3462872e-39
-0.16095239 0.16095239 1.3520001 4.9785766e-39
-0.15837716 0.16095239 1.3520001 4.9782081e-39
-0.15580192 0.16095239 1.3520001 4.9782123e-39
-0.16095239 0.16352762 1.3520001 5.0704135e-39
-0.15837716 0.16352762 1.3520001 4.978564e-39
-0.15580192 0.16352762 1.3520001 4.8870943e-39
-0.14807621 0.16352762 1.3520001 4.5193921e-39
-0.14550096 0.16352762 1.3520001 4.794177e-39
-0.15837716 0.16610287 1.3520001 4.8867341e-39
-0.1545143 0.16610287 1.3520001 4.4272077e-39
-0.15065144 0.16610287 1.3520001 3.7850767e-39
-0.14807621 0.16610287 1.3520001 4.1524145e-39
-0.14550096 0.16610287 1.3520001 4.4271979e-39
-0.15837716 0.1686781 1.3520001 4.9782165e-39
-0.1545143 0.1686781 1.3520001 4.7949154e-39
-0.15065144 0.1686781 1.3520001 4.7956329e-39
-0.14807621 0.1686781 1.3520001 4.6112388e-39
-0.14550096 0.1686781 1.3520001 4.5186803e-39
-0.15322667 0.17125334 1.3520001 5.3466473e-39
-0.15065144 0.17254096 1.3520001 5.5285162e-39
-0.14807621 0.17382859 1.3520001 4.9778536e-39
-0.14550096 0.17254096 1.3520001 4.6108703e-39
-0.14292572 0.17254096 1.3520001 4.5190334e-39
-0.14807621 0.17640382 1.3520001 4.8867383e-39
-0.14550096 0.17640382 1.3520001 4.7027058e-39
-0.14292572 0.17640382 1.3520001 4.519032e-39
-0.15065144 0.17897905 1.3520001 4.6105186e-39
-0.14807621 0.17897905 1.3520001 4.6108745e-39
-0.14550096 0.17897905 1.3520001 4.6105116e-39
-0.14292572 0.17897905 1.3520001 4.4264776e-39
-0.15065144 0.1815543 1.3520001 4.1513411e-39
-0.14807621 0.1815543 1.3520001 4.3353694e-39
-0.14550096 0.1815543 1.3520001 4.4264818e-39
-0.14292572 0.1815543 1.3520001 4.334282e-39
-0.15065144 0.18412954 1.3520001 4.2424591e-39
-0.14807621 0.18412954 1.3520001 4.3342932e-39
-0.14550096 0.18412954 1.3520001 4.5175985e-39
-0.13004953 0.19185525 1.3520001 3.2268555e-39
-0.17848001 0.12545334 1.358 4.8852978e-39
-0.17460001 0.13062668 1.358 5.1597211e-39
-0.17201334 0.13321334 1.358 4.7930994e-39
-0.16684002 0.14356001 1.358 4.8867327e-39
-0.16684002 0.14614667 1.358 4.9782081e-39
-0.16425334 0.14614667 1.358 4.887083e-39
-0.16425334 0.14873335 1.358 4.7945245e-39
-0.16166668 0.15390667 1.358 4.7023485e-39
-0.16037335 0.15649335 1.358 4.9778536e-39
-0.15649335 0.15908001 1.358 5.2522852e-39
-0.15390667 0.16166668 1.358 4.7949056e-39
-0.15132001 0.16166668 1.358 4.6108717e-39
-0.14873335 0.16166668 1.358 4.8856579e-39
-0.14614667 0.16166668 1.358 5.1604441e-39
-0.15390667 0.16425334 1.358 4.5197579e-39
-0.15132001 0.16425334 1.358 4.2446073e-39
-0.14356001 0.16684002 1.358 4.4264762e-39
-0.14356001 0.16942668 1.358 4.4268392e-39
-0.14097334 0.17848001 1.358 4.2424423e-39
-0.12804002 0.19270667 1.358 3.2257737e-39
-0.17783906 0.11812668 1.363 4.5179544e-39
-0.17524287 0.11812668 1.363 4.4257574e-39
-0.17264667 0.11812668 1.363 4.2420808e-39
-0.17264667 0.12851144 1.363 4.6101458e-39
-0.17005049 0.12851144 1.363 4.2424451e-39
-0.17005049 0.13110763 1.363 4.150611e-39
-0.17005049 0.13370381 1.363 4.5183131e-39
-0.16356 0.14538667 1.363 4.7026974e-39
-0.15966572 0.14928097 1.363 4.6105032e-39
-0.15706953 0.14928097 1.363 4.6094312e-39
-0.15966572 0.15187715 1.363 4.6105074e-39
-0.15706953 0.15187715 1.363 4.7012723e-39
-0.15706953 0.15447335 1.363 5.0682611e-39
-0.15706953 0.15706953 1.363 5.435959e-39
-0.15447335 0.15966572 1.363 4.8856635e-39
-0.15187715 0.15966572 1.363 4.6101542e-39
-0.14928097 0.15966572 1.363 4.7012695e-39
-0.14668477 0.15966572 1.363 4.7005506e-39
-0.14408858 0.16356 1.363 4.6090668e-39
-0.1414924 0.1648581 1.363 4.3339065e-39
-0.1414924 0.1674543 1.363 4.4261077e-39
-0.1414924 0.17005049 1.363 4.4264748e-39
-0.1414924 0.17264667 1.363 4.3346393e-39
-0.1414924 0.17524287 1.363 4.3342806e-39
-0.13630001 0.18043526 1.363 3.5970729e-39
-0.13370381 0.18043526 1.363 3.3212035e-39
-0.13630001 0.18432954 1.363 3.5052374e-39
-0.13370381 0.18432954 1.363 3.2293694e-39
-0.13110763 0.18562762 1.363 2.9535014e-39
-0.12851144 0.18562762 1.363 3.0438991e-39
-0.13370381 0.18822382 1.363 3.1371766e-39
-0.13110763 0.18822382 1.363 2.7691115e-39
-0.12851144 0.18822382 1.363 2.7673136e-39
-0.13370381 0.19082001 1.363 3.2282946e-39
-0.13110763 0.19082001 1.363 3.0446166e-39
-0.12851144 0.19082001 1.363 2.9513392e-39
-0.17588572 0.11334858 1.368 4.2410256e-39
-0.17328002 0.11334858 1.368 4.2406599e-39
-0.17067429 0.11334858 1.368 4.0569805e-39
-0.17328002 0.11595429 1.368 4.2406529e-39
-0.17067429 0.11595429 1.368 3.9640632e-39
-0.16937144 0.11856001 1.368 3.9658568e-39
-0.16937144 0.12116572 1.368 4.0580539e-39
-0.16546287 0.12116572 1.368 4.5161663e-39
-0.16285716 0.12116572 1.368 4.8835013e-39
-0.16893718 0.12724572 1.368 4.0580567e-39
-0.16546287 0.1341943 1.368 4.2428291e-39
-0.15764572 0.14461716 1.368 4.3346506e-39
-0.15764572 0.14722286 1.368 4.5183173e-39
-0.15504001 0.14852571 1.368 4.5175999e-39
-0.15243429 0.14852571 1.368 4.5172369e-39
-0.15504001 0.15243429 1.368 4.6090836e-39
-0.15243429 0.15243429 1.368 4.5172411e-39
-0.14982858 0.15243429 1.368 4.3332044e-39
-0.15243429 0.15504001 1.368 4.6097983e-39
-0.15243429 0.15764572 1.368 4.6094382e-39
-0.14852571 0.15764572 1.368 4.3335659e-39
-0.14461716 0.15764572 1.368 4.1491761e-39
-0.14461716 0.16025144 1.368 4.4250413e-39
-0.14201143 0.16025144 1.368 4.1491691e-39
-0.14201143 0.16285716 1.368 4.1495222e-39
-0.13940573 0.16285716 1.368 3.9651253e-39
-0.13940573 0.16546287 1.368 4.0573112e-39
-0.13680001 0.16546287 1.368 3.7803782e-39
-0.1341943 0.16546287 1.368 3.7793104e-39
-0.13940573 0.16937144 1.368 4.1495208e-39
-0.13680001 0.16937144 1.368 3.8729395e-39
-0.1341943 0.17067429 1.368 3.7803866e-39
-0.13940573 0.17328002 1.368 4.2424381e-39
-0.13680001 0.17328002 1.368 4.1488061e-39
-0.1341943 0.17328002 1.368 3.7803866e-39
-0.13940573 0.17588572 1.368 4.1498851e-39
-0.13680001 0.17588572 1.368 3.9644177e-39
-0.1341943 0.17588572 1.368 3.5048787e-39
-0.13158858 0.17588572 1.368 3.1375367e-39
-0.12768 0.17588572 1.368 3.4119754e-39
-0.13940573 0.17849144 1.368 4.058407e-39
-0.13680001 0.17849144 1.368 3.6892685e-39
-0.1341943 0.17849144 1.368 3.2286533e-39
-0.13158858 0.17849144 1.368 2.7701891e-39
-0.12768 0.17849144 1.368 3.5045185e-39
-0.13940573 0.18109715 1.368 3.9654939e-39
-0.13158858 0.18109715 1.368 2.9542146e-39
-0.12768 0.18109715 1.368 3.5037899e-39
-0.12377144 0.18109715 1.368 3.9629786e-39
-0.13158858 0.18370287 1.368 3.1371709e-39
-0.12768 0.18370287 1.368 3.5034353e-39
-0.12377144 0.18370287 1.368 3.5949219e-39
-0.12637715 0.18761143 1.368 2.8591575e-39
-0.12377144 0.18761143 1.368 3.5942072e-39
-0.12637715 0.19152001 1.368 2.9509916e-39
-0.12377144 0.19152001 1.368 3.5931325e-39
-0.17142287 0.11122858 1.3740001 4.1498922e-39
-0.16880572 0.11253715 1.3740001 3.964789e-39
-0.16618858 0.11384572 1.3740001 4.0566287e-39
-0.16880572 0.11646286 1.3740001 3.6892825e-39
-0.16618858 0.11908001 1.3740001 4.2410228e-39
-0.1609543 0.12169715 1.3740001 4.5161537e-39
-0.16357143 0.12431429 1.3740001 4.607992e-39
-0.1609543 0.12431429 1.3740001 4.3321226e-39
-0.16357143 0.12693144 1.3740001 4.2406501e-39
-0.1609543 0.12693144 1.3740001 4.2395725e-39
-0.15833715 0.12693144 1.3740001 4.1477342e-39
-0.1609543 0.12954858 1.3740001 4.2402913e-39
-0.15833715 0.12954858 1.3740001 4.1477342e-39
-0.1609543 0.13347429 1.3740001 4.2410102e-39
-0.15833715 0.13347429 1.3740001 4.1491719e-39
-0.15484762 0.1330381 1.3740001 4.0566133e-39
-0.15833715 0.13740002 1.3740001 4.3332016e-39
-0.15441144 0.13740002 1.3740001 4.1491677e-39
-0.15048572 0.13740002 1.3740001 3.5963554e-39
-0.15441144 0.14001715 1.3740001 4.1491677e-39
-0.15441144 0.1426343 1.3740001 4.2410116e-39
-0.15441144 0.14525144 1.3740001 4.3332128e-39
-0.15048572 0.14525144 1.3740001 4.1491677e-39
-0.15048572 0.14786859 1.3740001 4.3328415e-39
-0.14786859 0.14786859 1.3740001 4.0569707e-39
-0.14525144 0.14786859 1.3740001 4.0562476e-39
-0.15048572 0.15048572 1.3740001 4.333203e-39
-0.14786859 0.15048572 1.3740001 4.1491677e-39
-0.14525144 0.15048572 1.3740001 4.0566091e-39
-0.14786859 0.15441144 1.3740001 4.1498908e-39
-0.14525144 0.15441144 1.3740001 3.9651422e-39
-0.1426343 0.15441144 1.3740001 3.8722249e-39
-0.1426343 0.15833715 1.3740001 4.0566175e-39
-0.14001715 0.15833715 1.3740001 3.4126872e-39
-0.13740002 0.15833715 1.3740001 2.7709108e-39
-0.14001715 0.1609543 1.3740001 3.6892671e-39
-0.13740002 0.1609543 1.3740001 3.3222825e-39
-0.13740002 0.16357143 1.3740001 3.7807397e-39
-0.13478287 0.16357143 1.3740001 3.779309e-39
-0.13216573 0.16618858 1.3740001 3.7778726e-39
-0.12954858 0.16618858 1.3740001 4.0551686e-39
-0.12693144 0.16618858 1.3740001 4.3317387e-39
-0.13347429 0.16880572 1.3740001 3.7796663e-39
-0.13216573 0.17142287 1.3740001 3.5963526e-39
-0.12431429 0.17142287 1.3740001 2.9524182e-39
-0.13216573 0.17404 1.3740001 3.412683e-39
-0.12954858 0.17404 1.3740001 3.3197685e-39
-0.12169715 0.18189144 1.3740001 4.1466397e-39
-0.11908001 0.18189144 1.3740001 2.671881e-39
-0.12169715 0.18450858 1.3740001 3.5027221e-39
-0.12169715 0.18712573 1.3740001 4.0555343e-39
-0.11908001 0.18712573 1.3740001 4.0548141e-39
-0.16416667 0.11688668 1.3790001 4.1488188e-39
-0.16416667 0.11951334 1.3790001 4.5165209e-39
-0.16154002 0.11951334 1.3790001 4.2406472e-39
-0.15891334 0.12476668 1.3790001 4.1477328e-39
-0.15628667 0.12739334 1.3790001 3.9644191e-39
-0.15366001 0.12739334 1.3790001 3.7811012e-39
-0.15628667 0.13002001 1.3790001 4.0566119e-39
-0.15366001 0.13002001 1.3790001 3.9647722e-39
-0.15103334 0.13002001 1.3790001 3.5970673e-39
-0.15103334 0.13264668 1.3790001 3.6885469e-39
-0.14840667 0.13264668 1.3790001 3.3208391e-39
-0.15366001 0.13527334 1.3790001 4.0558959e-39
-0.15103334 0.13527334 1.3790001 3.5963554e-39
-0.14840667 0.13658667 1.3790001 3.1368052e-39
-0.14578001 0.13790001 1.3790001 3.3208293e-39
-0.15103334 0.14052668 1.3790001 3.7807439e-39
-0.14840667 0.14052668 1.3790001 3.4123229e-39
-0.14578001 0.14052668 1.3790001 3.5048731e-39
-0.15103334 0.14315334 1.3790001 3.9651352e-39
-0.14840667 0.14315334 1.3790001 3.688907e-39
-0.14578001 0.14315334 1.3790001 3.7807383e-39
-0.14840667 0.14578001 1.3790001 3.8732969e-39
-0.14578001 0.14578001 1.3790001 3.8725738e-39
-0.14315334 0.14840667 1.3790001 4.0558846e-39
-0.14052668 0.14840667 1.3790001 4.0555217e-39
-0.14315334 0.15103334 1.3790001 3.9636876e-39
-0.14052668 0.15103334 1.3790001 3.9633191e-39
-0.14052668 0.15366001 1.3790001 3.7796607e-39
-0.14052668 0.15628667 1.3790001 3.5967198e-39
-0.13658667 0.15760002 1.3790001 3.2300854e-39
-0.13527334 0.16154002 1.3790001 3.5048759e-39
-0.13264668 0.16416667 1.3790001 3.7793118e-39
-0.13002001 0.16416667 1.3790001 4.5150761e-39
-0.12739334 0.16416667 1.3790001 5.2490272e-39
-0.13002001 0.16942 1.3790001 3.595631e-39
-0.12739334 0.16942 1.3790001 3.4126704e-39
-0.13002001 0.17204668 1.3790001 3.5041528e-39
-0.12739334 0.17204668 1.3790001 3.3211979e-39
-0.12739334 0.17467335 1.3790001 3.2290177e-39
-0.11688668 0.18255335 1.3790001 1.1978383e-39
-0.11951334 0.18518001 1.3790001 2.3052663e-39
-0.11688668 0.18518001 1.3790001 1.0166827e-39
-0.11951334 0.19043335 1.3790001 5.8976196e-39
-0.15696667 0.12267144 1.3850001 3.780388e-39
-0.15432858 0.12530953 1.3850001 3.6896231e-39
-0.15169048 0.12530953 1.3850001 3.1382443e-39
-0.1490524 0.12530953 1.3850001 2.6787137e-39
-0.15169048 0.12794763 1.3850001 3.5055891e-39
-0.1490524 0.12794763 1.3850001 3.229368e-39
-0.1490524 0.13058573 1.3850001 3.3208461e-39
-0.14641429 0.13058573 1.3850001 3.596354e-39
-0.14641429 0.13322382 1.3850001 3.5959799e-39
-0.14377619 0.13322382 1.3850001 3.8722193e-39
-0.14641429 0.13586192 1.3850001 3.5041276e-39
-0.14377619 0.13850001 1.3850001 3.5959869e-39
-0.14289683 0.14289683 1.3850001 3.5959939e-39
-0.14245716 0.14641429 1.3850001 3.7800222e-39
-0.13850001 0.1490524 1.3850001 4.0558832e-39
-0.13850001 0.15169048 1.3850001 3.9629659e-39
-0.13850001 0.15432858 1.3850001 3.780018e-39
-0.13586192 0.15432858 1.3850001 3.8714934e-39
-0.13586192 0.15696667 1.3850001 3.5052276e-39
-0.13322382 0.15696667 1.3850001 3.6892545e-39
-0.13322382 0.15960477 1.3850001 3.5048759e-39
-0.13058573 0.15960477 1.3850001 3.5048801e-39
-0.13322382 0.16224287 1.3850001 3.6874819e-39
-0.13058573 0.16224287 1.3850001 3.9644345e-39
-0.12530953 0.16224287 1.3850001 3.1324976e-39
-0.1522381 0.1231143 1.3900001 2.7705394e-39
-0.14959049 0.1231143 1.3900001 2.0355051e-39
-0.14561906 0.12576191 1.3900001 3.5970771e-39
-0.13370477 0.1231143 1.3900001 3.1364661e-39
-0.14561906 0.12840953 1.3900001 3.6881951e-39
-0.14164762 0.12840953 1.3900001 4.8853006e-39
-0.14429525 0.13105716 1.3900001 3.8722333e-39
-0.14164762 0.13105716 1.3900001 4.5165293e-39
-0.13900001 0.13105716 1.3900001 5.0675198e-39
-0.14164762 0.13370477 1.3900001 4.1491761e-39
-0.13900001 0.13370477 1.3900001 4.3321156e-39
-0.14429525 0.13635239 1.3900001 3.7792936e-39
-0.14164762 0.13635239 1.3900001 3.8725822e-39
-0.14164762 0.13900001 1.3900001 3.6874749e-39
-0.14164762 0.14164762 1.3900001 3.5041598e-39
-0.13900001 0.14561906 1.3900001 3.229375e-39
-0.13635239 0.14959049 1.3900001 4.7923637e-39
-0.13635239 0.1522381 1.3900001 4.3313883e-39
-0.13370477 0.1522381 1.3900001 4.699082e-39
-0.13370477 0.15488572 1.3900001 3.8722052e-39
-0.13105716 0.15753335 1.3900001 3.5041444e-39
-0.12840953 0.16018096 1.3900001 3.4108796e-39
-0.12443811 0.16018096 1.3900001 2.0268703e-39
-0.12840953 0.16282858 1.3900001 4.3331932e-39
-0.1231143 0.16282858 1.3900001 1.8421217e-39
-0.14757715 0.12098668 1.396 3.6889126e-39
-0.1449181 0.12098668 1.396 4.5165251e-39
-0.14225906 0.12098668 1.396 4.7020066e-39
-0.13960001 0.12098668 1.396 4.8853062e-39
-0.14757715 0.12364572 1.396 3.0453453e-39
-0.1449181 0.12364572 1.396 4.0576993e-39
-0.14225906 0.12364572 1.396 4.4275636e-39
-0.13960001 0.12364572 1.396 4.7016282e-39
-0.13694096 0.12364572 1.396 3.9647834e-39
-0.14225906 0.12630478 1.396 4.6097871e-39
-0.13960001 0.12763429 1.396 5.527419e-39
-0.13694096 0.12763429 1.396 4.0537393e-39
-0.12896381 0.12630478 1.396 2.3092348e-39
-0.13694096 0.13162287 1.396 4.1448363e-39
-0.13694096 0.13428192 1.396 4.1452034e-39
-0.13960001 0.13694096 1.396 4.0576839e-39
-0.13694096 0.13694096 1.396 4.0548098e-39
-0.13694096 0.13960001 1.396 4.0573448e-39
-0.13694096 0.14225906 1.396 3.7804258e-39
-0.13428192 0.14757715 1.396 4.7916322e-39
-0.13162287 0.15156573 1.396 3.8700402e-39
-0.12763429 0.15156573 1.396 2.2105371e-39
-0.12364572 0.15156573 1.396 8.3012501e-40
-0.12098668 0.15289524 1.396 7.3863983e-40
-0.11832763 0.15289524 1.396 5.5496744e-40
-0.11566858 0.15289524 1.396 4.6205295e-40
-0.12763429 0.15555429 1.396 2.4874827e-39
-0.12364572 0.15555429 1.396 9.2267937e-40
-0.12098668 0.15555429 1.396 8.3047533e-40
-0.11832763 0.15555429 1.396 6.4680294e-40
-0.11566858 0.15555429 1.396 4.6169421e-40
-0.12763429 0.15821335 1.396 2.6725915e-39
-0.12364572 0.15821335 1.396 1.2893053e-39
-0.12098668 0.15821335 1.396 9.2266956e-40
-0.11832763 0.15821335 1.396 6.475204e-40
-0.12098668 0.16087238 1.396 1.1070608e-39
-0.14554097 0.11616572 1.4020001 5.4359492e-39
-0.14287049 0.1188362 1.4020001 4.978578e-39
-0.1402 0.1188362 1.4020001 4.9767774e-39
-0.13752954 0.12150668 1.4020001 4.2402927e-39
-0.13352382 0.12684762 1.4020001 2.6747691e-39
-0.12684762 0.12684762 1.4020001 2.4925624e-39
-0.13485906 0.12951811 1.4020001 2.3974577e-39
-0.12951811 0.12951811 1.4020001 1.8460888e-39
-0.12417715 0.12951811 1.4020001 2.1226785e-39
-0.13485906 0.13218857 1.4020001 3.1299753e-39
-0.12951811 0.13218857 1.4020001 2.0265102e-39
-0.12417715 0.13218857 1.4020001 1.7520855e-39
-0.12684762 0.14821143 1.4020001 1.6584423e-39
-0.12150668 0.15088192 1.4020001 6.4680714e-40
-0.1188362 0.15088192 1.4020001 4.6277321e-40
-0.11616572 0.15088192 1.4020001 4.6169281e-40
-0.14070001 0.11658001 1.4070001 4.9756956e-39
-0.13266 0.12998001 1.4070001 2.1205093e-39
-0.12730001 0.12998001 1.4070001 2.029771e-39
-0.13266 0.13266 1.4070001 2.5785952e-39
-0.12730001 0.13266 1.4070001 1.8442783e-39
-0.12194001 0.13266 1.4070001 1.6602514e-39
-0.12998001 0.13534001 1.4070001 2.119782e-39
-0.12730001 0.13534001 1.4070001 1.7520799e-39
-0.12462001 0.14874001 1.4070001 9.2160177e-40
-0.11390001 0.15142001 1.4070001 4.6205295e-40
-0.14668287 0.095545724 1.4130001 4.056256e-39
-0.14668287 0.098237149 1.4130001 3.5977974e-39
-0.14399144 0.098237149 1.4130001 3.9654953e-39
-0.14399144 0.10092857 1.4130001 4.0573322e-39
-0.14399144 0.10362001 1.4130001 4.2402927e-39
-0.11976858 0.13322572 1.4130001 1.474428e-39
-0.12515144 0.13591716 1.4130001 1.3843792e-39
-0.12515144 0.13860857 1.4130001 1.3843722e-39
