# .PCD v0.7 - Point Cloud Data file format
VERSION 0.7
FIELDS x y z
SIZE 4 4 4
TYPE F F F
COUNT 1 1 1
WIDTH 201
HEIGHT 1
VIEWPOINT 0 0 0 1 0 0 0
POINTS 201
DATA ascii
-0.15332763 0.21936478 0.79700005
-0.1562416 0.22157431 0.79766673
-0.15272778 0.22187382 0.79783338
-0.14972001 0.22268002 0.79800004
-0.17152001 0.2243543 0.80400002
-0.16922286 0.2243543 0.80400002
-0.15771429 0.22323811 0.80000001
-0.17611431 0.22741716 0.80400002
-0.17228574 0.22741716 0.80399996
-0.16845715 0.22665145 0.80400002
-0.16233143 0.22588573 0.80400002
-0.15643089 0.22616117 0.8028
-0.15218763 0.2263705 0.80299997
-0.1493143 0.22588573 0.80400002
-0.17177527 0.2309905 0.80400008
-0.16679268 0.22864084 0.80600011
-0.16235144 0.22836669 0.80600005
-0.15774572 0.22913431 0.80600005
-0.1527562 0.22951812 0.80600011
-0.14910191 0.22826573 0.80700004
-0.17183113 0.23278224 0.80666673
-0.16799113 0.23175685 0.80666679
-0.16206174 0.23101106 0.80800003
-0.15236573 0.23162667 0.80800003
-0.17006478 0.23624383 0.80800003
-0.14734286 0.22911429 0.81000006
-0.16683525 0.23403144 0.81100005
-0.16219811 0.23403145 0.81099999
-0.15709607 0.2329437 0.81028575
-0.1514286 0.2329326 0.81040001
-0.14770541 0.23277463 0.81200004
-0.14401716 0.23306191 0.81300008
-0.16808763 0.23625398 0.81333339
-0.1625981 0.23615716 0.81300008
-0.15714136 0.23671925 0.81280005
-0.15259621 0.23702922 0.81333339
-0.14884573 0.23644763 0.81400001
-0.14514762 0.23363335 0.81500006
-0.14359525 0.23363335 0.81500006
-0.16776048 0.23843668 0.81550002
-0.16222383 0.23829049 0.81500006
-0.15756668 0.23829049 0.81500006
-0.14719811 0.23816288 0.81633341
-0.14316954 0.23731907 0.81700003
-0.17082001 0.24102001 0.81900007
-0.16770002 0.24102001 0.81900012
-0.16302001 0.24102001 0.81900012
-0.15724935 0.24140859 0.81820011
-0.15217367 0.24124573 0.81800002
-0.17123716 0.2439543 0.82100004
-0.16742811 0.24332049 0.82150006
-0.16146334 0.24356334 0.82100004
-0.15755382 0.24434525 0.82100004
-0.15247145 0.24421494 0.82100004
-0.14722121 0.24276026 0.82225001
-0.14305906 0.24200223 0.82233334
-0.16695145 0.2453324 0.82300007
-0.16224858 0.24533239 0.82300001
-0.15754573 0.24690002 0.82300007
-0.15441048 0.24533239 0.82300001
-0.14970763 0.24533239 0.82300001
-0.17091334 0.2473143 0.82700002
-0.16776288 0.24810001 0.82700002
-0.16313525 0.24725716 0.82550007
-0.15752381 0.24967526 0.82700002
-0.15234497 0.24793506 0.82540005
-0.1471654 0.2471143 0.8263334
-0.14317334 0.24701431 0.82600009
-0.16658953 0.25027907 0.82900006
-0.16185239 0.25027907 0.82900012
-0.1555362 0.25027907 0.82900006
-0.15198335 0.25106859 0.82900006
-0.14869367 0.25080544 0.82900012
-0.14369334 0.25027907 0.82900006
-0.17136002 0.25148669 0.83300006
-0.16679573 0.2519781 0.83200002
-0.16263334 0.25307339 0.83300006
-0.15749431 0.25246572 0.83100003
-0.15298954 0.2539286 0.83233345
-0.14758763 0.25319716 0.83166665
-0.14404002 0.25246572 0.83100003
-0.17177144 0.25368097 0.83500004
-0.16938573 0.25368097 0.83500004
-0.17158923 0.25751972 0.83800006
-0.16715026 0.25751001 0.83775002
-0.16239356 0.25754765 0.83722234
-0.15727717 0.25621676 0.83585715
-0.15185572 0.25787669 0.83700001
-0.14729403 0.25802276 0.83728582
-0.14379811 0.25772285 0.83650005
-0.14382857 0.26128858 0.83900005
-0.17160669 0.26142192 0.84200001
-0.16809811 0.26197809 0.84249997
-0.16278669 0.26302573 0.84200001
-0.15777455 0.26202357 0.84200001
-0.1529562 0.26206034 0.84233344
-0.14799599 0.2628029 0.84180003
-0.17221907 0.26396191 0.84500003
-0.16819525 0.26476669 0.84500003
-0.16014762 0.26476669 0.84500003
-0.15531906 0.26476669 0.84500003
-0.15290478 0.26476669 0.84500003
-0.17242667 0.26691809 0.84800005
-0.16717717 0.26732191 0.84800005
-0.16218644 0.26748931 0.84725004
-0.15748572 0.26732191 0.84800005
-0.15264001 0.26732191 0.84800005
-0.14779429 0.26678354 0.84800005
-0.17566667 0.26714289 0.85000002
-0.17080954 0.26957145 0.85000002
-0.16757143 0.26957148 0.85000008
-0.1627143 0.26957145 0.85000002
-0.15785716 0.26957148 0.85000008
-0.15300001 0.26916671 0.85000002
-0.14740573 0.26912257 0.852
-0.14409524 0.26633334 0.85000002
-0.17608002 0.27101716 0.85200006
-0.17329119 0.2724317 0.85325009
-0.16770935 0.27311736 0.85400003
-0.16227429 0.27240917 0.85280007
-0.15688144 0.27312049 0.85350007
-0.15266795 0.27258354 0.8526668
-0.1481816 0.27117082 0.85333341
-0.17161335 0.27572003 0.85400003
-0.17038478 0.27473524 0.85600007
-0.16712382 0.27473524 0.85600007
-0.1622324 0.27473524 0.85600007
-0.15897144 0.27473524 0.85600007
-0.15081906 0.27473524 0.85600007
-0.14837334 0.27392 0.85600007
-0.16588001 0.27701145 0.85800004
-0.1617943 0.27701145 0.85800004
-0.15716116 0.27727774 0.85680002
-0.152567 0.27658099 0.85666674
-0.14953715 0.27701145 0.85800004
-0.16829525 0.27830288 0.86200005
-0.16324192 0.27918226 0.86133337
-0.1597143 0.27929527 0.86000001
-0.15243001 0.27945763 0.8605001
-0.14824763 0.27601907 0.86000001
-0.16008572 0.28158668 0.86200005
-0.15762287 0.28158668 0.86200005
-0.17155144 0.2795943 0.86600006
-0.14767486 0.27831832 0.8682
-0.17297241 0.28221816 0.86900008
-0.16774955 0.28261274 0.86766672
-0.16266572 0.2837705 0.86700004
-0.15720858 0.28429526 0.86650008
-0.15294573 0.28361925 0.86620009
-0.14789382 0.28234383 0.86874998
-0.14483336 0.28221813 0.86900008
-0.16386858 0.2855286 0.86900002
-0.15269572 0.28677002 0.86900002
-0.14599621 0.2745724 0.87100005
-0.14350763 0.2745724 0.87100005
-0.14622878 0.27735373 0.87140006
-0.14300573 0.27769715 0.87300003
-0.17585906 0.28452668 0.87100005
-0.17254096 0.28452668 0.87100005
-0.14276001 0.28219858 0.87150013
-0.17606096 0.28734574 0.8720001
-0.17197494 0.28745529 0.87233341
-0.16714267 0.28731337 0.87140006
-0.16175716 0.28784478 0.87100005
-0.15678 0.28839779 0.87100005
-0.15138811 0.28825954 0.87100005
-0.14658873 0.2873708 0.87100017
-0.14383715 0.28767431 0.87300003
-0.17626575 0.2921139 0.87242866
-0.17243831 0.29183146 0.87300009
-0.16794857 0.29016858 0.87300003
-0.1621286 0.29016858 0.87300003
-0.15714002 0.29016858 0.87300003
-0.15048859 0.29016858 0.87300003
-0.14716285 0.29072288 0.87300003
-0.14383715 0.29016858 0.87300003
-0.17543145 0.29515716 0.87300003
-0.17376858 0.29515716 0.87300003
-0.14190954 0.28882623 0.87650001
-0.17208335 0.29250002 0.87500006
-0.16722549 0.29233408 0.87575001
-0.16287145 0.2931686 0.87700003
-0.1580531 0.29233408 0.87575006
-0.15250002 0.29250002 0.87500012
-0.14833334 0.29250002 0.87500006
-0.14298858 0.29266667 0.87800002
-0.16807431 0.29517525 0.87800002
-0.16305715 0.29517525 0.87800002
-0.15804002 0.29517525 0.87800002
-0.15385905 0.29517525 0.87800002
-0.14633334 0.29601145 0.87800002
-0.14382477 0.29684764 0.87800002
-0.1416381 0.29417145 0.88000005
-0.16510478 0.29584762 0.88000005
-0.16178554 0.29752955 0.88200009
-0.15656257 0.2980299 0.88066673
-0.15175335 0.29735783 0.88033342
-0.14809144 0.29828286 0.88100004
-0.1433143 0.29584762 0.88000005
-0.17317621 0.29989049 0.88700002
-0.16810763 0.29989049 0.88700002
