# .PCD v0.7 - Point Cloud Data file format
VERSION 0.7
FIELDS x y z rgb
SIZE 4 4 4 4
TYPE F F F F
COUNT 1 1 1 1
WIDTH 318
HEIGHT 1
VIEWPOINT 0 0 0 1 0 0 0
POINTS 318
DATA ascii
-0.34453526 -0.25249335 1.3060001 7.0998398e-39
-0.33956003 -0.23508002 1.3060001 7.6547778e-39
-0.33836287 -0.24472001 1.3110001 8.851526e-39
-0.33836287 -0.24097431 1.3110001 8.6685836e-39
-0.3371467 -0.25192001 1.3160001 8.3844634e-39
-0.33464003 -0.25192001 1.3160001 9.2214211e-39
-0.33591145 -0.25539336 1.3210001 1.0893529e-38
-0.33087906 -0.24532859 1.3210001 8.9430027e-39
-0.33087906 -0.24155429 1.3210001 9.1284688e-39
-0.32836288 -0.2402962 1.3210001 9.312144e-39
-0.33087906 -0.23778002 1.3210001 8.6671417e-39
-0.32960573 -0.25888574 1.3260001 1.8624624e-38
-0.3308486 -0.26746765 1.3310001 1.8902632e-38
-0.3308486 -0.26493239 1.3310001 1.9177783e-38
-0.31056669 -0.18380478 1.3310001 3.0421125e-39
-0.31056669 -0.18126954 1.3310001 2.9506343e-39
-0.32335812 -0.25434098 1.342 1.8346579e-38
-0.31313336 -0.21599811 1.342 5.0715163e-39
-0.31057715 -0.21599811 1.342 5.2562691e-39
-0.31057715 -0.20577335 1.342 4.1495404e-39
-0.30546477 -0.18788001 1.342 3.6878294e-39
-0.3029086 -0.18788001 1.342 3.2282946e-39
-0.30546477 -0.18532382 1.342 3.4105236e-39
-0.3029086 -0.18532382 1.342 3.2264995e-39
-0.30205655 -0.18191557 1.342 3.13502e-39
-0.3016305 -0.17765525 1.342 2.952065e-39
-0.3029086 -0.17509906 1.342 2.6751222e-39
-0.29779622 -0.16231811 1.342 2.5811259e-39
-0.33226001 -0.30403715 1.3470001 1.1428644e-38
-0.33226001 -0.30147144 1.3470001 1.3637381e-38
-0.3296943 -0.29890573 1.3470001 1.5858674e-38
-0.3296943 -0.29634002 1.3470001 1.8161066e-38
-0.32841143 -0.29249144 1.3470001 1.8993377e-38
-0.32841146 -0.28864288 1.3470001 1.9179941e-38
-0.32841146 -0.28607717 1.3470001 1.8903355e-38
-0.32199717 -0.26298574 1.3470001 1.880972e-38
-0.32199717 -0.26042002 1.3470001 1.8533859e-38
-0.31943145 -0.2552886 1.3470001 1.9822783e-38
-0.31943145 -0.25272286 1.3470001 1.5597273e-38
-0.31686574 -0.25272286 1.3470001 1.688119e-38
-0.31430003 -0.25272286 1.3470001 1.8259788e-38
-0.31686574 -0.25015715 1.3470001 1.4211114e-38
-0.31430003 -0.25015715 1.3470001 1.7058385e-38
-0.31686574 -0.24759145 1.3470001 1.0789134e-38
-0.31430003 -0.24759145 1.3470001 1.1991281e-38
-0.31686574 -0.24502572 1.3470001 7.3714311e-39
-0.31430003 -0.24502572 1.3470001 6.8347912e-39
-0.31686574 -0.24246001 1.3470001 8.3894534e-39
-0.31430003 -0.24246001 1.3470001 8.2054377e-39
-0.31430003 -0.23861144 1.3470001 9.4032578e-39
-0.31430003 -0.23476288 1.3470001 9.0362774e-39
-0.31430003 -0.23219717 1.3470001 8.3909163e-39
-0.31173432 -0.22963144 1.3470001 7.7480581e-39
-0.31173432 -0.22706573 1.3470001 7.2859995e-39
-0.31045145 -0.22450002 1.3470001 7.0083336e-39
-0.30660287 -0.22450002 1.3470001 7.1930822e-39
-0.30403715 -0.22450002 1.3470001 7.2849191e-39
-0.31045145 -0.22065145 1.3470001 6.0867403e-39
-0.30660287 -0.22065145 1.3470001 6.2718476e-39
-0.30403715 -0.22065145 1.3470001 6.2718462e-39
-0.30916858 -0.21680287 1.3470001 5.5314183e-39
-0.30660287 -0.21680287 1.3470001 5.6250475e-39
-0.30403715 -0.21680287 1.3470001 5.6257635e-39
-0.30660287 -0.21423715 1.3470001 5.2555461e-39
-0.30660287 -0.21167144 1.3470001 4.9785962e-39
-0.30660287 -0.20910573 1.3470001 4.7938392e-39
-0.30660287 -0.20654002 1.3470001 4.42577e-39
-0.30403715 -0.19627716 1.3470001 3.7803964e-39
-0.30403715 -0.19371144 1.3470001 3.5045255e-39
-0.30147144 -0.19371144 1.3470001 3.5048843e-39
-0.30403715 -0.19114573 1.3470001 3.4130446e-39
-0.30147144 -0.19114573 1.3470001 3.3208489e-39
-0.30147144 -0.18729715 1.3470001 3.2279387e-39
-0.29890573 -0.18601429 1.3470001 3.4112495e-39
-0.30147144 -0.18088287 1.3470001 3.2275743e-39
-0.29634002 -0.16548859 1.3470001 2.8562765e-39
-0.29634002 -0.16292287 1.3470001 2.8566254e-39
-0.32834288 -0.30001527 1.3520001 1.5027132e-38
-0.32576764 -0.30001527 1.3520001 1.4288858e-38
-0.32834288 -0.29744002 1.3520001 1.7241991e-38
-0.32576764 -0.29744002 1.3520001 1.6318966e-38
-0.32319239 -0.29744002 1.3520001 1.6131342e-38
-0.32576764 -0.29486477 1.3520001 1.7888821e-38
-0.32576764 -0.29228956 1.3520001 1.9453991e-38
-0.32319239 -0.29228956 1.3520001 1.9456497e-38
-0.32576764 -0.28971431 1.3520001 1.9271417e-38
-0.32319239 -0.28971431 1.3520001 1.917958e-38
-0.32576764 -0.28713906 1.3520001 1.8995191e-38
-0.32319239 -0.27941334 1.3520001 1.9362528e-38
-0.32319239 -0.27683812 1.3520001 1.9454364e-38
-0.31932956 -0.2626743 1.3520001 1.8717526e-38
-0.3154667 -0.25881144 1.3520001 1.9177422e-38
-0.3154667 -0.2562362 1.3520001 1.9453648e-38
-0.31289145 -0.25366098 1.3520001 1.8718237e-38
-0.31031621 -0.25366098 1.3520001 1.9175262e-38
-0.31289145 -0.25108573 1.3520001 1.8352702e-38
-0.31031621 -0.25108573 1.3520001 1.9638038e-38
-0.31289145 -0.24851049 1.3520001 1.3839863e-38
-0.31289145 -0.24464764 1.3520001 9.3164852e-39
-0.31031621 -0.24336001 1.3520001 1.0225173e-38
-0.31289145 -0.24078478 1.3520001 9.0352012e-39
-0.31031621 -0.24078478 1.3520001 8.5742524e-39
-0.31289145 -0.23820955 1.3520001 9.128473e-39
-0.31031621 -0.23820955 1.3520001 8.9444306e-39
-0.31031621 -0.2356343 1.3520001 9.2203001e-39
-0.30774099 -0.2356343 1.3520001 9.1277387e-39
-0.31031621 -0.23305906 1.3520001 8.5763796e-39
-0.30774099 -0.23305906 1.3520001 8.5763768e-39
-0.31031621 -0.23048383 1.3520001 7.8402509e-39
-0.30774099 -0.23048383 1.3520001 8.1168336e-39
-0.30516574 -0.23048383 1.3520001 8.2990598e-39
-0.31031621 -0.22790858 1.3520001 7.4700306e-39
-0.30774099 -0.22790858 1.3520001 7.6544191e-39
-0.30516574 -0.22790858 1.3520001 7.8373782e-39
-0.30130288 -0.22533335 1.3520001 6.9143429e-39
-0.30130288 -0.22275811 1.3520001 6.7317341e-39
-0.30130288 -0.22018287 1.3520001 6.5466282e-39
-0.30130288 -0.21760763 1.3520001 6.0856585e-39
-0.29744002 -0.21760763 1.3520001 5.6236139e-39
-0.30516574 -0.2150324 1.3520001 5.3488151e-39
-0.30130288 -0.2150324 1.3520001 5.625039e-39
-0.29744002 -0.2150324 1.3520001 5.8994735e-39
-0.30516574 -0.21245715 1.3520001 5.1629847e-39
-0.30259049 -0.21245715 1.3520001 5.3473732e-39
-0.30516574 -0.20859429 1.3520001 4.7012821e-39
-0.30259049 -0.20859429 1.3520001 4.7938364e-39
-0.30259049 -0.20473143 1.3520001 4.1495432e-39
-0.30130288 -0.2021562 1.3520001 4.0573434e-39
-0.30130288 -0.19958097 1.3520001 3.8736696e-39
-0.30130288 -0.19700573 1.3520001 3.6892769e-39
-0.29744002 -0.19700573 1.3520001 3.8733025e-39
-0.30001527 -0.19443049 1.3520001 3.4134033e-39
-0.29744002 -0.19443049 1.3520001 3.7810998e-39
-0.30001527 -0.19056764 1.3520001 3.2282918e-39
-0.29744002 -0.19056764 1.3520001 3.3201231e-39
-0.29744002 -0.18670477 1.3520001 3.4112481e-39
-0.29744002 -0.18412954 1.3520001 3.5949149e-39
-0.29744002 -0.1815543 1.3520001 3.5030752e-39
-0.28713906 -0.15065144 1.3520001 2.2130665e-39
-0.28971431 -0.14807621 1.3520001 1.5702236e-39
-0.28713906 -0.14807621 1.3520001 2.0297542e-39
-0.28713906 -0.14035049 1.3520001 2.3052509e-39
-0.28713906 -0.13648763 1.3520001 2.1212268e-39
-0.31945336 -0.28324002 1.358 1.9085947e-38
-0.31945336 -0.28065336 1.358 1.9177781e-38
-0.31945336 -0.27806669 1.358 1.9269614e-38
-0.3168667 -0.27806669 1.358 1.9269614e-38
-0.3168667 -0.27548003 1.358 1.9177777e-38
-0.3168667 -0.27160001 1.358 1.8993749e-38
-0.31428003 -0.27030668 1.358 1.8901913e-38
-0.31169334 -0.27030668 1.358 1.8809718e-38
-0.3168667 -0.26772001 1.358 1.8994109e-38
-0.31428003 -0.26772001 1.358 1.8901554e-38
-0.31169334 -0.26772001 1.358 1.8717523e-38
-0.31428003 -0.26513335 1.358 1.8717523e-38
-0.31169334 -0.26513335 1.358 1.8533135e-38
-0.31428003 -0.26254669 1.358 1.8534212e-38
-0.31169334 -0.26254669 1.358 1.8258347e-38
-0.31428003 -0.25996003 1.358 1.8809719e-38
-0.31040001 -0.25996003 1.358 1.8533858e-38
-0.31428003 -0.25737336 1.358 1.9084864e-38
-0.31040001 -0.25737336 1.358 1.8717523e-38
-0.30910668 -0.25478667 1.358 1.8993026e-38
-0.31040001 -0.24961334 1.358 1.6517074e-38
-0.31040001 -0.24702668 1.358 1.3656508e-38
-0.30652002 -0.24702668 1.358 1.9082356e-38
-0.30910668 -0.24444002 1.358 1.1254433e-38
-0.30652002 -0.24444002 1.358 1.2372625e-38
-0.30910668 -0.24185336 1.358 7.1023958e-39
-0.30652002 -0.24185336 1.358 5.5573731e-39
-0.30910668 -0.23926668 1.358 8.1135924e-39
-0.30652002 -0.23926668 1.358 7.2792354e-39
-0.30652002 -0.23538668 1.358 8.8493638e-39
-0.30393335 -0.23409335 1.358 7.2834604e-39
-0.30393335 -0.23150668 1.358 6.2768768e-39
-0.30134669 -0.23150668 1.358 4.2522262e-39
-0.30393335 -0.22892001 1.358 6.6417273e-39
-0.30134669 -0.22892001 1.358 5.5350252e-39
-0.29876003 -0.22892001 1.358 6.6409832e-39
-0.29876003 -0.22633335 1.358 4.6026461e-39
-0.29876003 -0.22374669 1.358 4.978578e-39
-0.29876003 -0.22116001 1.358 5.3491668e-39
-0.29617336 -0.21857335 1.358 4.9768012e-39
-0.30134669 -0.21340002 1.358 5.438494e-39
-0.29876003 -0.21340002 1.358 5.6228853e-39
-0.29617336 -0.21598668 1.358 5.988428e-39
-0.30134669 -0.21081334 1.358 5.1622602e-39
-0.30134669 -0.20822668 1.358 4.7023555e-39
-0.29876003 -0.20564002 1.358 4.334652e-39
-0.29876003 -0.20305334 1.358 4.149902e-39
-0.29617336 -0.20305334 1.358 4.3332156e-39
-0.29876003 -0.20046668 1.358 4.0569819e-39
-0.29617336 -0.20046668 1.358 4.2413731e-39
-0.29617336 -0.19658668 1.358 4.0566161e-39
-0.29617336 -0.19270667 1.358 3.6878308e-39
-0.29617336 -0.19012001 1.358 3.228296e-39
-0.29617336 -0.18753335 1.358 3.4105335e-39
-0.28324002 -0.13838668 1.358 2.3056166e-39
-0.28324002 -0.1358 1.358 2.2134252e-39
-0.31803337 -0.28428286 1.363 1.9085946e-38
-0.31543717 -0.27389812 1.363 1.8901913e-38
-0.31024477 -0.27130193 1.363 1.8626044e-38
-0.31024477 -0.26870573 1.363 1.8625686e-38
-0.31024477 -0.26351336 1.363 1.8441661e-38
-0.3076486 -0.25961906 1.363 1.8900836e-38
-0.3076486 -0.25572479 1.363 1.8808637e-38
-0.3050524 -0.25572479 1.363 1.8624965e-38
-0.31024477 -0.25312859 1.363 1.9085946e-38
-0.3076486 -0.25312859 1.363 1.853421e-38
-0.3050524 -0.25312859 1.363 1.8533488e-38
-0.3076486 -0.25053239 1.363 1.8810079e-38
-0.3050524 -0.25053239 1.363 1.8625322e-38
-0.3050524 -0.2479362 1.363 1.8717532e-38
-0.3050524 -0.24534002 1.363 1.5224568e-38
-0.3050524 -0.24144572 1.363 1.0800265e-38
-0.3024562 -0.24014764 1.363 1.2735282e-38
-0.3050524 -0.23755145 1.363 8.3812488e-39
-0.3024562 -0.23755145 1.363 7.6667113e-39
-0.3024562 -0.23495525 1.363 5.9903141e-39
-0.29986003 -0.23495525 1.363 1.1070048e-38
-0.29986003 -0.23235907 1.363 8.665746e-39
-0.29726383 -0.22976287 1.363 7.7610369e-39
-0.29726383 -0.22716668 1.363 2.4223546e-39
-0.29726383 -0.2245705 1.363 3.1397928e-39
-0.29726383 -0.2219743 1.363 3.8801856e-39
-0.29726383 -0.21418573 1.363 5.7150767e-39
-0.29856193 -0.21158955 1.363 5.3466515e-39
-0.29856193 -0.20899335 1.363 4.7952714e-39
-0.29726383 -0.20639716 1.363 4.3350163e-39
-0.29466763 -0.19860858 1.363 3.8733109e-39
-0.29466763 -0.19601239 1.363 4.0559029e-39
-0.29466763 -0.19341621 1.363 3.6881979e-39
-0.30877715 -0.26448002 1.368 1.8533494e-38
-0.30356574 -0.25666288 1.368 1.8441297e-38
-0.30356574 -0.25405717 1.368 1.8440935e-38
-0.30096003 -0.25405717 1.368 1.8348742e-38
-0.30356574 -0.25145143 1.368 1.8440216e-38
-0.30096003 -0.25145143 1.368 1.8256903e-38
-0.30356574 -0.24754287 1.368 1.8167949e-38
-0.30096003 -0.24754287 1.368 1.8166145e-38
-0.30356574 -0.2436343 1.368 1.7703381e-38
-0.30096003 -0.2436343 1.368 1.7984277e-38
-0.2983543 -0.2436343 1.368 1.8257982e-38
-0.30096003 -0.24102859 1.368 1.5682658e-38
-0.2983543 -0.24102859 1.368 1.8716804e-38
-0.30096003 -0.23842287 1.368 1.3477516e-38
-0.2983543 -0.23842287 1.368 1.9174902e-38
-0.2983543 -0.23581716 1.368 1.6145761e-38
-0.29574859 -0.23581716 1.368 1.7064123e-38
-0.2983543 -0.23321144 1.368 1.3006816e-38
-0.29574859 -0.23321144 1.368 1.5597272e-38
-0.29574859 -0.22930288 1.368 1.1910926e-38
-0.29574859 -0.22539429 1.368 8.7719672e-39
-0.29574859 -0.22278859 1.368 6.8297129e-39
-0.29574859 -0.21757716 1.368 4.8820874e-39
-0.29574859 -0.21497144 1.368 4.9771599e-39
-0.29574859 -0.21236573 1.368 5.0707919e-39
-0.29574859 -0.20845716 1.368 4.519416e-39
-0.29314288 -0.20194288 1.368 3.231547e-39
-0.29314288 -0.19933715 1.368 3.6892896e-39
-0.30228001 -0.2577886 1.3740001 1.8349464e-38
-0.29835433 -0.25648001 1.3740001 1.8165066e-38
-0.29442859 -0.25648004 1.3740001 1.807287e-38
-0.29835433 -0.2525543 1.3740001 1.8164705e-38
-0.29442859 -0.2525543 1.3740001 1.8165064e-38
-0.29181144 -0.2525543 1.3740001 1.7981393e-38
-0.29835433 -0.24993716 1.3740001 1.8073229e-38
-0.29442859 -0.24993716 1.3740001 1.8165063e-38
-0.29835433 -0.24732001 1.3740001 1.8165064e-38
-0.29442859 -0.24732001 1.3740001 1.8348734e-38
-0.29704574 -0.24470288 1.3740001 1.8348375e-38
-0.29442859 -0.24470288 1.3740001 1.8439852e-38
-0.29704574 -0.24208573 1.3740001 1.8440568e-38
-0.29704574 -0.23946859 1.3740001 1.8532409e-38
-0.29442859 -0.23554286 1.3740001 1.8073593e-38
-0.29181144 -0.2342343 1.3740001 1.7889203e-38
-0.29442859 -0.23161715 1.3740001 1.8625691e-38
-0.29442859 -0.22900002 1.3740001 1.8990507e-38
-0.29181144 -0.22900002 1.3740001 1.8443097e-38
-0.29442859 -0.22638287 1.3740001 1.440159e-38
-0.29442859 -0.22376573 1.3740001 9.782494e-39
-0.29442859 -0.22114858 1.3740001 6.8157209e-39
-0.29442859 -0.21853144 1.3740001 3.7858474e-39
-0.29181144 -0.21853144 1.3740001 5.9996313e-39
-0.28919432 -0.21853144 1.3740001 8.2083608e-39
-0.29181144 -0.21460572 1.3740001 6.5480785e-39
-0.28919432 -0.21460572 1.3740001 8.574209e-39
-0.28657717 -0.21329716 1.3740001 8.7618415e-39
-0.29181144 -0.21068001 1.3740001 6.084934e-39
-0.28919432 -0.21068001 1.3740001 7.6529828e-39
-0.28657717 -0.21068001 1.3740001 8.0235828e-39
-0.29181144 -0.20806287 1.3740001 5.5285246e-39
-0.28919432 -0.20806287 1.3740001 6.5469995e-39
-0.28919432 -0.20544572 1.3740001 5.9963327e-39
-0.28919432 -0.20282859 1.3740001 5.4417254e-39
-0.2981267 -0.26135334 1.3790001 1.8165783e-38
-0.29287335 -0.25872669 1.3790001 1.7981033e-38
-0.29287335 -0.25610003 1.3790001 1.7981393e-38
-0.2902467 -0.25347334 1.3790001 1.7888839e-38
-0.29287335 -0.25084668 1.3790001 1.7981752e-38
-0.29287335 -0.24822001 1.3790001 1.807251e-38
-0.29550001 -0.24165335 1.3790001 1.7980674e-38
-0.29287335 -0.23771335 1.3790001 1.7797005e-38
-0.29287335 -0.23246002 1.3790001 1.8165789e-38
-0.29287335 -0.22720668 1.3790001 1.5224557e-38
-0.29287335 -0.22458002 1.3790001 1.2093504e-38
-0.29287335 -0.22195335 1.3790001 9.0395774e-39
-0.2902467 -0.22195335 1.3790001 1.1249036e-38
-0.28762001 -0.21932667 1.3790001 7.7445338e-39
-0.28762001 -0.21670002 1.3790001 8.2979878e-39
-0.28762001 -0.20882002 1.3790001 7.1938277e-39
-0.28762001 -0.20619334 1.3790001 6.8250424e-39
-0.28499335 -0.20619334 1.3790001 7.562592e-39
-0.28762001 -0.20356669 1.3790001 6.3629754e-39
-0.28499335 -0.20094001 1.3790001 6.7295859e-39
-0.29414764 -0.24138573 1.3850001 1.7797003e-38
-0.28887144 -0.22555716 1.3850001 1.6422705e-38
-0.28623337 -0.22555716 1.3850001 1.8529899e-38
