# .PCD v0.7 - Point Cloud Data file format
VERSION 0.7
FIELDS x y z
SIZE 4 4 4
TYPE F F F
COUNT 1 1 1
WIDTH 443
HEIGHT 1
VIEWPOINT 0 0 0 1 0 0 0
POINTS 443
DATA ascii
0.3082667 -0.20464763 0.68000001
0.34384382 -0.2073562 0.68900001
0.31144002 -0.20152001 0.68700004
0.3175962 -0.20210668 0.68900001
0.32284573 -0.20210668 0.68900001
0.32714286 -0.20152001 0.68700004
0.33237717 -0.20152001 0.68700004
0.33859432 -0.20210668 0.68900001
0.30403811 -0.20886096 0.69400001
0.30754289 -0.20765716 0.69000006
0.30888003 -0.20328002 0.69300002
0.34484193 -0.20269334 0.69100004
0.31461334 -0.19828573 0.69400001
0.3185181 -0.19742858 0.69100004
0.32472003 -0.19800001 0.69300002
0.33000001 -0.19800001 0.69300002
0.31461334 -0.19299811 0.69400001
0.31944001 -0.19272001 0.69300002
0.2951543 -0.22070096 0.69800001
0.2951543 -0.21538287 0.69800001
0.29918098 -0.21445715 0.69500005
0.29918098 -0.20916192 0.69500005
0.30535239 -0.20445335 0.69700003
0.30977145 -0.19857144 0.69500005
0.33624765 -0.19857144 0.69500005
0.34154287 -0.19857144 0.69500005
0.34833527 -0.19942859 0.69800001
0.31066287 -0.1938324 0.69700003
0.32659429 -0.1938324 0.69700003
0.33190477 -0.1938324 0.69700003
0.33624765 -0.1932762 0.69500005
0.34301716 -0.19411048 0.69800001
0.2972686 -0.21156953 0.70300001
0.30133337 -0.20533335 0.70000005
0.30262479 -0.20085716 0.70300001
0.30666667 -0.20000002 0.70000005
0.30798098 -0.19550097 0.70300001
0.31333718 -0.19014478 0.70300001
0.33476192 -0.19014478 0.70300001
0.34011811 -0.19014478 0.70300001
0.31846669 -0.18732762 0.70250005
0.32266667 -0.18933335 0.70000005
0.32846859 -0.18960382 0.70100003
0.32404953 -0.18478858 0.70300001
0.32940573 -0.18478858 0.70300001
0.2981143 -0.20680001 0.70500004
0.29938287 -0.20228572 0.708
0.30434668 -0.19661334 0.70700002
0.3518286 -0.19605716 0.70500004
0.30477718 -0.19149716 0.708
0.30885717 -0.19068573 0.70500004
0.34793144 -0.19149716 0.708
0.31512001 -0.18584001 0.70700002
0.3366667 -0.18584001 0.70700002
0.34253716 -0.18610287 0.708
0.34744003 -0.18584001 0.70700002
0.32050669 -0.18045335 0.70700002
0.3263543 -0.18070859 0.708
0.3317486 -0.18070859 0.708
0.29606479 -0.20914668 0.71300006
0.29606479 -0.2037143 0.71300006
0.29648003 -0.19856001 0.71400005
0.30149716 -0.19828191 0.71300006
0.30192003 -0.19312002 0.71400005
0.35432383 -0.1920381 0.71000004
0.30692956 -0.18741715 0.71300006
0.31104764 -0.18662858 0.71000004
0.31280002 -0.18224001 0.71400005
0.31645715 -0.18121906 0.71000004
0.33809525 -0.18121906 0.71000004
0.34544003 -0.18224001 0.71400005
0.32322669 -0.1765524 0.71300006
0.3272762 -0.17580953 0.71000004
0.29772574 -0.19393145 0.71700001
0.30318859 -0.18846859 0.71700001
0.30403429 -0.1835162 0.71900004
0.30822098 -0.18275049 0.71600002
0.35333717 -0.1835162 0.71900004
0.30951241 -0.17803811 0.71900004
0.3141143 -0.17754287 0.71700001
0.31913146 -0.17729525 0.71600002
0.33549717 -0.17729525 0.71600002
0.3409524 -0.17729525 0.71600002
0.35186288 -0.17729525 0.71600002
0.31499049 -0.17256001 0.71900004
0.31913146 -0.17184001 0.71600002
0.3112343 -0.25064 0.72300005
0.29348573 -0.21120001 0.72000003
0.29430097 -0.20628573 0.72200006
0.29470858 -0.20106287 0.72300005
0.29897144 -0.18925716 0.72000003
0.29980192 -0.18428192 0.72200006
0.34834287 -0.17828573 0.72000003
0.32640001 -0.1728 0.72000003
0.33188573 -0.1728 0.72000003
0.33737144 -0.1728 0.72000003
0.34380955 -0.17328002 0.72200006
0.34931049 -0.17328002 0.72200006
0.32776001 -0.16801144 0.72300005
0.34158859 -0.25827432 0.72900003
0.31761906 -0.25133336 0.72500002
0.32448003 -0.25237334 0.72800004
0.34158859 -0.25272003 0.72900003
0.34714288 -0.25272003 0.72900003
0.35269716 -0.25272003 0.72900003
0.30699432 -0.24614859 0.72600001
0.31381717 -0.24716572 0.72900003
0.35221335 -0.24682668 0.72800004
0.35677716 -0.24614859 0.72600001
0.36180955 -0.24580954 0.72500002
0.35825145 -0.24161145 0.72900003
0.36180955 -0.24028572 0.72500002
0.36380574 -0.23605716 0.72900003
0.29120001 -0.20800002 0.72800004
0.29552382 -0.19609526 0.72500002
0.29552382 -0.19057144 0.72500002
0.2967467 -0.18581335 0.72800004
0.29715431 -0.18051429 0.72900003
0.30146289 -0.17977144 0.72600001
0.30699432 -0.17977144 0.72600001
0.3027086 -0.17496002 0.72900003
0.30784002 -0.17472 0.72800004
0.31209525 -0.17400001 0.72500002
0.31338668 -0.16917334 0.72800004
0.31805715 -0.16870858 0.72600001
0.32358858 -0.16870858 0.72600001
0.33419049 -0.16847619 0.72500002
0.33971432 -0.16847619 0.72500002
0.31937146 -0.16385144 0.72900003
0.32492575 -0.16385144 0.72900003
0.33557335 -0.16362667 0.72800004
0.3369562 -0.25898287 0.73100001
0.33138669 -0.25341335 0.73100001
0.3369562 -0.25341335 0.73100001
0.32068574 -0.24818288 0.73200005
0.33274668 -0.24886097 0.73400003
0.33833906 -0.24886097 0.73400003
0.34809527 -0.24784383 0.73100001
0.34952384 -0.24326859 0.73400003
0.35366479 -0.2422743 0.73100001
0.35717526 -0.23719049 0.73250002
0.36275619 -0.23160954 0.73250002
0.36275619 -0.22602859 0.73250002
0.36070859 -0.22089906 0.73400003
0.29240003 -0.20328763 0.73100001
0.29240003 -0.19771811 0.73100001
0.29280001 -0.19241144 0.73200005
0.29837716 -0.17568001 0.73200005
0.30478477 -0.17056763 0.73400003
0.34857145 -0.17010286 0.73200005
0.35511622 -0.17056763 0.73400003
0.30910859 -0.16987048 0.73100001
0.3151086 -0.16452573 0.73200005
0.33138669 -0.16430096 0.73100001
0.34252575 -0.16430096 0.73100001
0.34857145 -0.16452573 0.73200005
0.32024765 -0.15873145 0.73100001
0.32626289 -0.15894859 0.73200005
0.33184001 -0.15894859 0.73200005
0.36316574 -0.25618669 0.73900002
0.32804573 -0.24953906 0.73600006
0.3448686 -0.24953906 0.73600006
0.31122288 -0.24393144 0.73600006
0.31683049 -0.24393144 0.73600006
0.32243812 -0.24393144 0.73600006
0.32938287 -0.24492574 0.73900002
0.33410668 -0.24426287 0.73700005
0.33972192 -0.24426287 0.73700005
0.34533715 -0.24426287 0.73700005
0.31249145 -0.23929526 0.73900002
0.31812194 -0.23929526 0.73900002
0.3237524 -0.23929526 0.73900002
0.34627432 -0.23929526 0.73900002
0.35095242 -0.23864764 0.73700005
0.35190478 -0.23366478 0.73900002
0.35608384 -0.2327162 0.73600006
0.35656765 -0.22741716 0.73700005
0.35753527 -0.22240382 0.73900002
0.29440001 -0.18785524 0.73600006
0.30041525 -0.17126477 0.73700005
0.31122288 -0.16542478 0.73600006
0.31249145 -0.16046858 0.73900002
0.31683049 -0.15981716 0.73600006
0.35047621 -0.15981716 0.73600006
0.33637336 -0.24026668 0.74200004
0.32982859 -0.23961906 0.74000001
0.34110478 -0.23961906 0.74000001
0.31984383 -0.23492953 0.74300003
0.3241905 -0.23398097 0.74000001
0.34248763 -0.23492953 0.74300003
0.34674287 -0.23398097 0.74000001
0.35238096 -0.22834288 0.74000001
0.29153907 -0.18964192 0.74300003
0.29600003 -0.1832381 0.74000001
0.29680002 -0.17808001 0.74200004
0.29720002 -0.17265905 0.74300003
0.30245334 -0.16677335 0.74200004
0.30727622 -0.16632383 0.74000001
0.30810669 -0.16112001 0.74200004
0.34248763 -0.16133715 0.74300003
0.34814858 -0.16133715 0.74300003
0.31376001 -0.15546668 0.74200004
0.3185524 -0.15504763 0.74000001
0.32982859 -0.15504763 0.74000001
0.33116573 -0.15001525 0.74300003
0.33339432 -0.23651049 0.74800003
0.33909336 -0.23651049 0.74800003
0.3447924 -0.23081145 0.74800003
0.3447924 -0.22511239 0.74800003
0.34908575 -0.22988573 0.74500006
0.35002288 -0.22481145 0.74700004
0.35571432 -0.22481145 0.74700004
0.29920003 -0.16812192 0.74800003
0.30449146 -0.16220573 0.74700004
0.30489907 -0.15672383 0.74800003
0.3093524 -0.15609525 0.74500006
0.32638097 -0.15609525 0.74500006
0.35049146 -0.15672383 0.74800003
0.31059811 -0.15102477 0.74800003
0.31587431 -0.15082286 0.74700004
0.32156575 -0.15082286 0.74700004
0.32638097 -0.15041906 0.74500006
0.33517715 -0.23204572 0.75200003
0.34090668 -0.23204572 0.75200003
0.29428574 -0.1857143 0.75000006
0.29428574 -0.18000001 0.75000006
0.2950705 -0.17475049 0.75200003
0.29546288 -0.16924572 0.75300002
0.30080003 -0.16329144 0.75200003
0.34663621 -0.15756191 0.75200003
0.30652955 -0.15183239 0.75200003
0.34136003 -0.1520343 0.75300002
0.34709716 -0.1520343 0.75300002
0.35236573 -0.15183239 0.75200003
0.3179886 -0.14610286 0.75200003
0.32285717 -0.1457143 0.75000006
0.32857144 -0.1457143 0.75000006
0.33517715 -0.14610286 0.75200003
0.34709716 -0.14629716 0.75300002
0.29164955 -0.18769525 0.75800002
0.29164955 -0.17614478 0.75800002
0.29664001 -0.16416001 0.75600004
0.29742479 -0.15881906 0.75800002
0.30200002 -0.15819049 0.75500005
0.30240002 -0.15264001 0.75600004
0.30816001 -0.14688002 0.75600004
0.31350479 -0.14668572 0.75500005
0.34226668 -0.14668572 0.75500005
0.31475049 -0.14149334 0.75800002
0.31968004 -0.14112002 0.75600004
0.32500955 -0.14093335 0.75500005
0.33076194 -0.14093335 0.75500005
0.33696002 -0.14112002 0.75600004
0.34362668 -0.14149334 0.75800002
0.29241908 -0.18240002 0.76000005
0.29241908 -0.17081906 0.76000005
0.29860193 -0.15364954 0.76100004
0.30440003 -0.14785144 0.76100004
0.30979049 -0.14186667 0.76000005
0.32264003 -0.13661334 0.76300001
0.3275924 -0.13625525 0.76100004
0.33426669 -0.13661334 0.76300001
0.34008002 -0.13661334 0.76300001
0.29434288 -0.1661143 0.76500005
0.30095622 -0.14901716 0.76700002
0.30600002 -0.1428 0.76500005
0.30720001 -0.13750859 0.76800001
0.31264383 -0.13732953 0.76700002
0.31765717 -0.13697144 0.76500005
0.34770668 -0.13732953 0.76700002
0.35355049 -0.13732953 0.76700002
0.3247543 -0.13165715 0.76800001
0.33060575 -0.13165715 0.76800001
0.33645716 -0.13165715 0.76800001
0.29626667 -0.16133334 0.77000004
0.2970362 -0.15587048 0.77200001
0.2970362 -0.14998858 0.77200001
0.30213335 -0.14373334 0.77000004
0.31468192 -0.13234286 0.77200001
0.31973335 -0.13200001 0.77000004
0.34409145 -0.13234286 0.77200001
0.32097906 -0.12662476 0.77300006
0.32644573 -0.12646095 0.77200001
0.33232763 -0.12646095 0.77200001
0.33864763 -0.12662476 0.77300006
0.29228574 -0.16828573 0.77500004
0.29304001 -0.16280001 0.77700001
0.2937943 -0.15728381 0.77900004
0.2937943 -0.15134858 0.77900004
0.2937943 -0.14541334 0.77900004
0.29896003 -0.14504001 0.77700001
0.30409527 -0.13876191 0.77500004
0.30566478 -0.13354287 0.77900004
0.31000003 -0.13285716 0.77500004
0.35224003 -0.1332 0.77700001
0.31160003 -0.12760763 0.77900004
0.3159048 -0.12695239 0.77500004
0.34632003 -0.12728001 0.77700001
0.3531467 -0.12760763 0.77900004
0.31753525 -0.12167239 0.77900004
0.3234705 -0.12167239 0.77900004
0.32856002 -0.12136001 0.77700001
0.33448002 -0.12136001 0.77700001
0.28970668 -0.15829334 0.78400004
0.3001143 -0.13965715 0.78000003
0.30165336 -0.13440001 0.78400004
0.30762669 -0.12842667 0.78400004
0.31360003 -0.12245334 0.78400004
0.34171432 -0.12182858 0.78000003
0.34765717 -0.12182858 0.78000003
0.31957334 -0.11648001 0.78400004
0.32471621 -0.11618286 0.78200006
0.33152002 -0.11648001 0.78400004
0.33749336 -0.11648001 0.78400004
0.29643431 -0.14073144 0.78600001
0.29756573 -0.13525715 0.78900003
0.30242288 -0.12875429 0.78600001
0.3091962 -0.1230781 0.78800005
0.31560001 -0.11722287 0.78900003
0.34565717 -0.11722287 0.78900003
0.29303241 -0.15406857 0.79300004
0.29907429 -0.12990096 0.79300004
0.30434668 -0.12354667 0.79100001
0.30511621 -0.11781715 0.79300004
0.31037337 -0.11752 0.79100001
0.35345146 -0.11781715 0.79300004
0.31115812 -0.11177524 0.79300004
0.31640002 -0.11149334 0.79100001
0.32242668 -0.11149334 0.79100001
0.32845336 -0.11149334 0.79100001
0.33448002 -0.11149334 0.79100001
0.34136763 -0.11177524 0.79300004
0.29488003 -0.14896001 0.79800004
0.29488003 -0.13680001 0.79800004
0.30096003 -0.12464001 0.79800004
0.30704001 -0.11248001 0.79800004
0.34916192 -0.11233906 0.79700005
0.31920001 -0.10640001 0.79800004
0.3248724 -0.10626667 0.79700005
0.33094478 -0.10626667 0.79700005
0.33701718 -0.10626667 0.79700005
0.29561907 -0.1432381 0.80000001
0.29561907 -0.13104762 0.80000001
0.3017143 -0.11885715 0.80000001
0.30322286 -0.11332572 0.80400002
0.30857906 -0.10693334 0.80200005
0.31390479 -0.10666668 0.80000001
0.34524193 -0.10693334 0.80200005
0.35222858 -0.1072 0.80400002
0.3154743 -0.10107429 0.80400002
0.32080001 -0.10082287 0.80200005
0.32609525 -0.10057144 0.80000001
0.33219048 -0.10057144 0.80000001
0.33997717 -0.10107429 0.80400002
0.29241908 -0.14467049 0.80800003
0.29241908 -0.1385143 0.80800003
0.29783621 -0.12588952 0.80600005
0.30473146 -0.10773334 0.80800003
0.31088763 -0.10157715 0.80800003
0.34696382 -0.10132572 0.80600005
0.31704384 -0.095420957 0.80800003
0.32320002 -0.095420957 0.80800003
0.32935622 -0.095420957 0.80800003
0.33468193 -0.095184766 0.80600005
0.34166861 -0.095420957 0.80800003
0.29314288 -0.13268572 0.81000006
0.29386669 -0.12682667 0.81200004
0.29931432 -0.12034287 0.81000006
0.29931432 -0.11417144 0.81000006
0.3007924 -0.10853334 0.81400001
0.30624002 -0.10208001 0.81200004
0.31242669 -0.095893338 0.81200004
0.35040763 -0.096129529 0.81400001
0.28874287 -0.13350476 0.81500006
0.29495239 -0.12108573 0.81500006
0.29495239 -0.1148762 0.81500006
0.2956762 -0.10893334 0.81700003
0.30190098 -0.10270858 0.81700003
0.30812573 -0.096483819 0.81700003
0.31435049 -0.090259053 0.81700003
0.31979048 -0.090038098 0.81500006
0.32600003 -0.090038098 0.81500006
0.33302477 -0.090259053 0.81700003
0.33924955 -0.090259053 0.81700003
0.30411813 -0.097192384 0.82300001
0.3096343 -0.090700962 0.82100004
0.34801146 -0.090921909 0.82300001
0.31665906 -0.084651433 0.82300001
0.32214478 -0.084445722 0.82100004
0.32840002 -0.084445722 0.82100004
0.33465526 -0.084445722 0.82100004
0.34174097 -0.084651433 0.82300001
0.29228574 -0.12257144 0.82500005
0.29299429 -0.11656763 0.82700002
0.29370287 -0.11053334 0.82900006
0.29857144 -0.10371429 0.82500005
0.29929525 -0.097664766 0.82700002
0.30485716 -0.091142863 0.82500005
0.30633527 -0.085268579 0.82900006
0.31189716 -0.085062861 0.82700002
0.34970289 -0.085062861 0.82700002
0.31896764 -0.078952387 0.82900006
0.32449907 -0.078761913 0.82700002
0.33000001 -0.078571431 0.82500005
0.33710098 -0.078761913 0.82700002
0.34423241 -0.078952387 0.82900006
0.30074286 -0.091805719 0.83100003
0.31340572 -0.079142861 0.83100003
0.32050669 -0.07298667 0.83300006
0.32685336 -0.07298667 0.83300006
0.29085335 -0.10547429 0.83900005
0.29582858 -0.10497144 0.83500004
0.29653716 -0.09884572 0.83700001
0.30291429 -0.086091436 0.83700001
0.3036381 -0.079904765 0.83900005
0.30855241 -0.079523817 0.83500004
0.31003049 -0.073512383 0.83900005
0.31566858 -0.073337145 0.83700001
0.33400002 -0.073161907 0.83500004
0.34117717 -0.073337145 0.83700001
0.3483848 -0.073512383 0.83900005
0.33560002 -0.067120001 0.83900005
0.34199241 -0.067120001 0.83900005
0.29154667 -0.099318102 0.84100002
0.29795429 -0.092910483 0.84100002
0.31793144 -0.067440003 0.84300005
0.32358479 -0.067280002 0.84100002
0.32999241 -0.067280002 0.84100002
0.29293334 -0.093352385 0.84500003
0.29937145 -0.086914293 0.84500003
0.30043429 -0.080761909 0.84800005
0.30580956 -0.074038103 0.84500003
0.31224763 -0.067600004 0.84500003
0.31868574 -0.061161909 0.84500003
0.32512382 -0.061161909 0.84500003
0.33273906 -0.061379053 0.84800005
0.29536003 -0.087634288 0.85200006
0.30114287 -0.074476197 0.85000002
0.30834287 -0.068160005 0.85200006
0.2967467 -0.081523813 0.85600007
0.2967467 -0.07500191 0.85600007
0.29158098 -0.088457152 0.86000001
0.29327622 -0.082380958 0.86500007
