# .PCD v0.7 - Point Cloud Data file format
VERSION 0.7
FIELDS x y z
SIZE 4 4 4
TYPE F F F
COUNT 1 1 1
WIDTH 1431
HEIGHT 1
VIEWPOINT 0 0 0 1 0 0 0
POINTS 1431
DATA ascii
0.2987805 0.059033338 0.63250005
0.29736385 0.06132191 0.63333338
0.29890257 0.061225723 0.6323334
0.29526287 0.062192384 0.634
0.31433669 0.08084619 0.63349998
0.31348479 0.083194293 0.63300002
0.31337717 0.085137151 0.634
0.3135924 0.087276198 0.63200003
0.31448987 0.08942382 0.63300002
0.3152943 0.091031432 0.63300002
0.31735289 0.092912868 0.63349998
0.31770572 0.095251434 0.63300002
0.31840765 0.095100954 0.63200003
0.31770572 0.09706001 0.63300002
0.31579241 0.099024765 0.634
0.31735289 0.098946676 0.63349998
0.31579241 0.1008362 0.634
0.31747049 0.10113207 0.63333338
0.31579241 0.10264762 0.634
0.3169013 0.10268604 0.63300002
0.31579241 0.10506286 0.634
0.31685191 0.10481429 0.63250005
0.31685191 0.10662143 0.63250005
0.31720382 0.12098286 0.63200003
0.31745476 0.12288524 0.63250005
0.31770572 0.1253943 0.63300002
0.31770572 0.12720287 0.63300002
0.31770572 0.12840858 0.63300002
0.31830764 0.12961429 0.63300002
0.31830764 0.13082001 0.63300002
0.31867689 0.13249716 0.63333333
0.31941527 0.13525334 0.634
0.31954607 0.1371778 0.63266671
0.31961146 0.13904001 0.63200003
0.32062289 0.14129144 0.634
0.31961146 0.14265144 0.63200003
0.31961146 0.14505906 0.63200003
0.32062289 0.14431049 0.634
0.32062289 0.14672573 0.634
0.31961146 0.14867048 0.63200003
0.32081527 0.15348573 0.63200003
0.32132289 0.1549343 0.63300002
0.32201907 0.15529144 0.63200003
0.32132289 0.15674287 0.63300002
0.32201907 0.15709715 0.63200003
0.32183051 0.15880191 0.634
0.3225286 0.1591543 0.63300002
0.32183051 0.16000953 0.634
0.32303813 0.16121715 0.634
0.32183051 0.16302858 0.634
0.3225286 0.16277143 0.63300002
0.32183051 0.16484001 0.634
0.3225286 0.16518287 0.63300002
0.32183051 0.16665144 0.634
0.32303813 0.16725525 0.634
0.32183051 0.16846287 0.634
0.32278335 0.16893382 0.63349998
0.30721909 -0.016328573 0.63500005
0.30661431 -0.015119049 0.63500005
0.30661431 -0.013304763 0.63500005
0.30661431 -0.011490477 0.63500005
0.30540478 -0.0090714293 0.63500005
0.30540478 -0.0072571435 0.63500005
0.30540478 -0.0042333337 0.63500005
0.30540478 -0.0030238098 0.63500005
0.30540478 -0.0018142859 0.63500005
0.30419526 0.0030238098 0.63500005
0.30298573 0.0078619057 0.63500005
0.30298573 0.0090714293 0.63500005
0.30298573 0.010885715 0.63500005
0.30298573 0.013304763 0.63500005
0.30298573 0.015119049 0.63500005
0.3017762 0.019957144 0.63500005
0.3017762 0.021166667 0.63500005
0.30056667 0.022980954 0.63500005
0.30056667 0.02479524 0.63500005
0.29935718 0.027214287 0.63500005
0.29935718 0.029028574 0.63500005
0.29935718 0.030842859 0.63500005
0.29875243 0.032657146 0.63500005
0.29935718 0.035076194 0.63500005
0.29935718 0.036890477 0.63500005
0.29935718 0.038704768 0.63500005
0.29935718 0.041123815 0.63500005
0.29875243 0.042938098 0.63500005
0.29855084 0.044953972 0.63500011
0.29814765 0.047171429 0.63500005
0.29814765 0.048985716 0.63500005
0.29814765 0.050800003 0.63500005
0.29814765 0.05261429 0.63500005
0.29572859 0.059871431 0.63500005
0.29512382 0.061080955 0.63500005
0.31508097 0.078619048 0.63500005
0.31387144 0.081642866 0.63500005
0.31266192 0.082852386 0.63500005
0.31266192 0.084061913 0.63500005
0.31387144 0.08769048 0.63500005
0.31508097 0.091319054 0.63500005
0.31689525 0.093133338 0.63500005
0.31689525 0.094947629 0.63500005
0.31689525 0.096761912 0.63500005
0.31508097 0.099180959 0.63500005
0.31508097 0.10099524 0.63500005
0.31508097 0.10280953 0.63500005
0.31508097 0.10522857 0.63500005
0.3162905 0.10704286 0.63500005
0.31750003 0.12337144 0.63500005
0.31750003 0.12518573 0.63500005
0.31750003 0.127 0.63500005
0.31750003 0.12881429 0.63500005
0.31750003 0.13002382 0.63500005
0.31870955 0.13365239 0.63500005
0.31870955 0.13486192 0.63500005
0.31991908 0.13909525 0.63500005
0.31991908 0.14090954 0.63500005
0.32112861 0.14816667 0.63500005
0.32112861 0.15119049 0.63500005
0.32112861 0.15300477 0.63500005
0.3223381 0.16147144 0.63500005
0.30588573 -0.013325715 0.63600004
0.30588573 -0.010902857 0.63600004
0.3046743 -0.0072685718 0.63600004
0.30528003 -0.0048457142 0.63600004
0.3046743 -0.0030285716 0.63600004
0.30346286 -0.0012114287 0.63600004
0.3046743 -0.0012114287 0.63600004
0.30346286 0.0012114287 0.63600004
0.3046743 0.0012114287 0.63600004
0.30346286 0.0030285716 0.63600004
0.30346286 0.0048457142 0.63600004
0.30265528 0.0070666671 0.63600004
0.30225146 0.0090857148 0.63600004
0.30225146 0.010902857 0.63600004
0.30225146 0.013325715 0.63600004
0.30225146 0.015142858 0.63600004
0.30104002 0.016354287 0.63600004
0.30225146 0.016960002 0.63600004
0.30104002 0.019382857 0.63600004
0.30225146 0.018777143 0.63600004
0.30104002 0.021200001 0.63600004
0.29982859 0.023622859 0.63600004
0.29982859 0.024834286 0.63600004
0.29982859 0.026045715 0.63600004
0.29861715 0.029074289 0.63600004
0.29861715 0.030891431 0.63600004
0.29861715 0.033314288 0.63600004
0.29861715 0.035131432 0.63600004
0.29861715 0.036948573 0.63600004
0.29861715 0.039371431 0.63600004
0.29861715 0.041188575 0.63600004
0.29740572 0.056331433 0.63600004
0.29498288 0.059965719 0.63600004
0.29619431 0.058754291 0.63600004
0.31315431 0.085405722 0.63600004
0.31436574 0.086617149 0.63600004
0.31557715 0.092674293 0.63600004
0.31678858 0.09388572 0.63600004
0.31557715 0.095097147 0.63600004
0.31557715 0.096914291 0.63600004
0.31436574 0.099337146 0.63600004
0.31436574 0.10115429 0.63600004
0.31436574 0.10236572 0.63600004
0.31800002 0.11932572 0.63600004
0.31800002 0.12114286 0.63600004
0.31800002 0.13144001 0.63600004
0.31800002 0.13265143 0.63600004
0.31921145 0.13689144 0.63600004
0.31921145 0.13931429 0.63600004
0.32042289 0.14294858 0.63600004
0.32042289 0.14537144 0.63600004
0.32042289 0.14718857 0.63600004
0.32042289 0.14840001 0.63600004
0.32163429 0.16293715 0.63600004
0.30684763 -0.016405715 0.63800001
0.30647954 -0.015202383 0.63850003
0.30526334 -0.012770001 0.63850003
0.30611145 -0.013997144 0.63900006
0.30526334 -0.010945715 0.63850003
0.30367717 -0.0091285724 0.63900006
0.30526334 -0.0091214292 0.63850003
0.30311304 -0.0070965081 0.63866675
0.30441716 -0.0072914287 0.63800001
0.30283096 -0.0048647621 0.63850003
0.30482227 -0.0050634923 0.63800001
0.30283096 -0.0030404765 0.63850003
0.30441716 -0.0030380955 0.63800001
0.30283096 -0.0012161905 0.63850003
0.30283096 0.0012161905 0.63850003
0.30283096 0.0030404765 0.63850003
0.30149084 0.0050685718 0.63866675
0.30295461 0.0046606353 0.63833338
0.30161479 0.0072971433 0.63850003
0.30161479 0.0091214292 0.63850003
0.30161479 0.010945715 0.63850003
0.30161479 0.013378097 0.63850003
0.30161479 0.015202383 0.63850003
0.30149084 0.017233653 0.63866675
0.30077145 0.018836191 0.63800001
0.30077145 0.020659048 0.63800001
0.30077145 0.022481907 0.63800001
0.30002573 0.026168574 0.63900006
0.30002573 0.038340002 0.63900006
0.2988086 0.04138286 0.63900006
0.2988086 0.043208573 0.63900006
0.2988086 0.045034289 0.63900006
0.2988086 0.046860002 0.63900006
0.2988086 0.048685718 0.63900006
0.29857481 0.051079527 0.63850003
0.29834098 0.05286286 0.63800001
0.29834098 0.054685719 0.63800001
0.29703051 0.057378419 0.63866675
0.29637429 0.059031431 0.63900006
0.31560147 0.079051912 0.63850003
0.31535432 0.080813341 0.63800001
0.31341431 0.083374292 0.63900006
0.31413907 0.082028575 0.63800001
0.31584859 0.089460008 0.63900006
0.31584859 0.09128572 0.63900006
0.31584859 0.093111433 0.63900006
0.31560147 0.094862387 0.63850003
0.31656954 0.094180956 0.63800001
0.3149929 0.097295247 0.63850003
0.31463146 0.099197149 0.63900006
0.31463146 0.10041429 0.63900006
0.31535432 0.10390286 0.63800001
0.31535432 0.1051181 0.63800001
0.31535432 0.10633334 0.63800001
0.31656954 0.10754858 0.63800001
0.31828287 0.12110572 0.63900006
0.31828287 0.12293144 0.63900006
0.31828287 0.12536572 0.63900006
0.31828287 0.12719144 0.63900006
0.31828287 0.12901714 0.63900006
0.31828287 0.13084286 0.63900006
0.31828287 0.13266858 0.63900006
0.31900004 0.13489145 0.63800001
0.31900004 0.13671429 0.63800001
0.31950003 0.13875431 0.63900006
0.31950003 0.14118859 0.63900006
0.32021526 0.14157525 0.63800001
0.32021526 0.14279048 0.63800001
0.32021526 0.14461336 0.63800001
0.32046622 0.14715953 0.63850003
0.32071716 0.14910001 0.63900006
0.32119274 0.15056542 0.63833338
0.32193431 0.15336001 0.63900006
0.32193431 0.15518573 0.63900006
0.32264572 0.15494287 0.63800001
0.32193431 0.15701145 0.63900006
0.32264572 0.15676573 0.63800001
0.32193431 0.15883715 0.63900006
0.32264572 0.1591962 0.63800001
0.32264572 0.16101906 0.63800001
0.32264572 0.16223429 0.63800001
0.32264572 0.16527238 0.63800001
0.32264572 0.16709524 0.63800001
0.3090286 -0.018895239 0.64000005
0.30715653 -0.017279049 0.64033341
0.30511883 -0.014645954 0.64075005
0.30340669 -0.012820001 0.64100003
0.3041524 -0.012800001 0.64000005
0.30340669 -0.010988573 0.64100003
0.3041524 -0.010971429 0.64000005
0.30293337 -0.009142858 0.64000005
0.30293337 -0.0079238098 0.64000005
0.30218574 -0.0030523811 0.64100003
0.30218574 -0.0012209525 0.64100003
0.30218574 0.0012209525 0.64100003
0.30218574 0.0030523811 0.64100003
0.30096477 0.011599048 0.64100003
0.30096477 0.012820001 0.64100003
0.30096477 0.01465143 0.64100003
0.30096477 0.017093334 0.64100003
0.30049527 0.018895239 0.64000005
0.30096477 0.020756193 0.64100003
0.30073002 0.023179524 0.64050007
0.30049527 0.024990479 0.64000005
0.29974383 0.026250478 0.64100003
0.30049527 0.027428573 0.64000005
0.29974383 0.029913336 0.64100003
0.29974383 0.034797147 0.64100003
0.29951 0.036599524 0.64050007
0.29902512 0.039233334 0.64033341
0.29852289 0.040901907 0.64100003
0.29829001 0.042700477 0.64050007
0.29829001 0.045140479 0.64050007
0.29852289 0.04700667 0.64100003
0.29805717 0.048761908 0.64000005
0.29805717 0.051200002 0.64000005
0.29805717 0.053028576 0.64000005
0.29730192 0.055553336 0.64100003
0.29805717 0.054857146 0.64000005
0.29645956 0.05734048 0.64050007
0.29561907 0.059123814 0.64000005
0.31634289 0.077409528 0.64000005
0.31537002 0.079299532 0.64050007
0.31512383 0.081066675 0.64000005
0.31561622 0.087298103 0.64100003
0.31561622 0.093402863 0.64100003
0.31512383 0.095085718 0.64000005
0.31512383 0.10179048 0.64000005
0.31561622 0.10317048 0.64100003
0.31561622 0.10561239 0.64100003
0.31683716 0.10866477 0.64100003
0.3186686 0.10927524 0.64100003
0.31878096 0.1176381 0.64000005
0.32000002 0.1176381 0.64000005
0.31878096 0.11885715 0.64000005
0.32000002 0.11885715 0.64000005
0.31841952 0.12078048 0.64050007
0.31756192 0.12312382 0.64000005
0.3180581 0.12514763 0.64100003
0.3180581 0.12697905 0.64100003
0.3180581 0.12881048 0.64100003
0.3180581 0.13003144 0.64100003
0.31878096 0.13470477 0.64000005
0.31903002 0.13663954 0.64050007
0.31927907 0.13918859 0.64100003
0.31927907 0.14102001 0.64100003
0.31927907 0.14224096 0.64100003
0.32000002 0.1432381 0.64000005
0.32000002 0.14506668 0.64000005
0.32000002 0.14689524 0.64000005
0.32050002 0.14895621 0.64100003
0.32121906 0.15177144 0.64000005
0.32172099 0.15322953 0.64100003
0.32172099 0.15506096 0.64100003
0.32172099 0.15689239 0.64100003
0.32172099 0.15872383 0.64100003
0.32172099 0.16116571 0.64100003
0.32243812 0.1609143 0.64000005
0.32172099 0.16299716 0.64100003
0.32243812 0.1633524 0.64000005
0.32243812 0.16518097 0.64000005
0.32269001 0.16714048 0.64050007
0.30693716 -0.018954286 0.64200002
0.30877146 -0.018954286 0.64200002
0.30510288 -0.016508572 0.64200002
0.30632573 -0.01712 0.64200002
0.30388001 -0.014674287 0.64200002
0.30265716 -0.0091714291 0.64200002
0.30265716 -0.0073371432 0.64200002
0.30265716 -0.0048914291 0.64200002
0.30143431 -0.003057143 0.64200002
0.30143431 -0.00061142864 0.64200002
0.30143431 0.0012228573 0.64200002
0.30143431 0.003057143 0.64200002
0.30143431 0.0048914291 0.64200002
0.30143431 0.0073371432 0.64200002
0.30143431 0.0091714291 0.64200002
0.30143431 0.010394286 0.64200002
0.30021146 0.014674287 0.64200002
0.30021146 0.01712 0.64200002
0.30021146 0.018954286 0.64200002
0.30021146 0.020788573 0.64200002
0.30021146 0.023234287 0.64200002
0.30021146 0.025068574 0.64200002
0.30021146 0.027514288 0.64200002
0.30021146 0.028737145 0.64200002
0.30021146 0.031182859 0.64200002
0.30021146 0.033017144 0.64200002
0.29898858 0.036685716 0.64200002
0.29898858 0.038520001 0.64200002
0.29776573 0.042800002 0.64200002
0.29776573 0.04463429 0.64200002
0.29776573 0.054417148 0.64200002
0.29654288 0.056862861 0.64200002
0.31733146 0.076428577 0.64200002
0.31855431 0.12045144 0.64200002
0.31733146 0.12412 0.64200002
0.31855431 0.13145715 0.64200002
0.31855431 0.13329144 0.64200002
0.31855431 0.13512573 0.64200002
0.31855431 0.13696 0.64200002
0.31855431 0.13879429 0.64200002
0.31855431 0.14062858 0.64200002
0.31916574 0.1430743 0.64200002
0.31977716 0.14490858 0.64200002
0.31977716 0.14674287 0.64200002
0.32100001 0.15102287 0.64200002
0.32100001 0.15285715 0.64200002
0.32100001 0.15530287 0.64200002
0.32100001 0.15713716 0.64200002
0.32100001 0.15897143 0.64200002
0.32100001 0.16080573 0.64200002
0.32222289 0.16508573 0.64200002
0.32222289 0.16692001 0.64200002
0.30468574 -0.02027143 0.64500004
0.30690524 -0.020869525 0.64450002
0.30468574 -0.019042859 0.64500004
0.30605334 -0.019013334 0.64400005
0.30489051 -0.017404763 0.6450001
0.30605334 -0.017786669 0.64400005
0.30407146 -0.014742859 0.64500004
0.30407146 -0.0129 0.64500004
0.30322143 -0.011048572 0.64450002
0.30284289 -0.0092142867 0.64500004
0.30161431 -0.0079857148 0.64500004
0.30237335 -0.0073600002 0.64400005
0.30161431 -0.0049142861 0.64500004
0.30237335 -0.0049066674 0.64400005
0.30161431 -0.0030714287 0.64500004
0.30104893 -0.0010234922 0.64466667
0.30237335 -0.0018400002 0.64400005
0.30076623 0.0012276191 0.64450002
0.30076623 0.0030690478 0.64450002
0.30089307 0.0047044451 0.64433336
0.30114669 0.0073600002 0.64400005
0.30114669 0.0092000002 0.64400005
0.30114669 0.01104 0.64400005
0.30076623 0.012890001 0.64450002
0.29992002 0.01472 0.64400005
0.29992002 0.017173335 0.64400005
0.29953861 0.019028097 0.64450002
0.29953861 0.020869525 0.64450002
0.29966575 0.023113972 0.64433336
0.2979286 0.025185715 0.64500004
0.29953861 0.025166191 0.64450002
0.2979286 0.027642859 0.64500004
0.29953858 0.027007621 0.64450002
0.2979286 0.02887143 0.64500004
0.29953861 0.02884905 0.64450002
0.2979286 0.030714288 0.64500004
0.29942265 0.030678812 0.64425004
0.2979286 0.032557145 0.64500004
0.29953861 0.033145718 0.64450002
0.29953861 0.034987144 0.64450002
0.29892528 0.036828101 0.64450002
0.2979286 0.039314289 0.64500004
0.29869336 0.039253339 0.64400005
0.2979286 0.041157145 0.64500004
0.29869336 0.041093335 0.64400005
0.2979286 0.043000001 0.64500004
0.2979286 0.044842862 0.64500004
0.29869336 0.046613336 0.64400005
0.29869336 0.04906667 0.64400005
0.29869336 0.050906669 0.64400005
0.2979286 0.052828576 0.64500004
0.29869336 0.052746668 0.64400005
0.2974667 0.055200003 0.64400005
0.29547146 0.057128575 0.64500004
0.29624003 0.057040002 0.64400005
0.29547146 0.058357146 0.64500004
0.29624003 0.058880001 0.64400005
0.31832001 0.075440004 0.64400005
0.31586668 0.082800008 0.64400005
0.31758574 0.092757151 0.64500004
0.31635717 0.098900005 0.64500004
0.31635717 0.10074286 0.64500004
0.31709334 0.10488001 0.64400005
0.31709334 0.10733334 0.64400005
0.32040811 0.11539572 0.64450002
0.3195467 0.11714667 0.64400005
0.32040811 0.11662334 0.64450002
0.3195467 0.11898667 0.64400005
0.31832001 0.12082668 0.64400005
0.31832001 0.12266667 0.64400005
0.31758574 0.1253143 0.64500004
0.31832001 0.12573335 0.64400005
0.31832001 0.12696001 0.64400005
0.31758574 0.12961429 0.64500004
0.31832001 0.1288 0.64400005
0.31758574 0.13084286 0.64500004
0.31832001 0.13125335 0.64400005
0.31832001 0.13554667 0.64400005
0.31832001 0.13677335 0.64400005
0.31832001 0.13861334 0.64400005
0.31832001 0.14106667 0.64400005
0.31832001 0.14290668 0.64400005
0.3195467 0.14474668 0.64400005
0.32004288 0.1468143 0.64500004
0.32028639 0.14878479 0.64466673
0.32053265 0.15105596 0.64475006
0.32052988 0.15320796 0.64433336
0.32065716 0.15480001 0.64500004
0.32086194 0.15746193 0.6450001
0.32127145 0.15910001 0.64500004
0.32127145 0.16094287 0.64500004
0.32200003 0.16314667 0.64400005
0.32200003 0.16498668 0.64400005
0.30946478 -0.020918097 0.64600003
0.31069526 -0.020302858 0.64600003
0.30339956 -0.019116668 0.64750004
0.30450577 -0.017065717 0.64766669
0.30328214 -0.014794525 0.64725
0.30293095 -0.01293 0.64649999
0.32596478 -0.012940001 0.64700001
0.32719716 -0.012940001 0.64700001
0.32893717 -0.012960001 0.648
0.33078858 -0.012960001 0.648
0.30178288 -0.011108572 0.648
0.30231571 -0.011083335 0.64649999
0.32531053 -0.011302223 0.64733338
0.3271229 -0.010896826 0.64766669
0.32893717 -0.011725715 0.648
0.33078858 -0.011725715 0.648
0.30106097 -0.0084253978 0.64733338
0.30208191 -0.0092285722 0.64600003
0.32770288 -0.0092571434 0.648
0.30093288 -0.0067833336 0.64750004
0.30208191 -0.0067676194 0.64600003
0.30081642 -0.0049316669 0.64725
0.29931432 -0.0030857145 0.648
0.30046809 -0.0030785715 0.64649999
0.29931432 -0.0012342858 0.648
0.30034032 -0.0014368256 0.64666671
0.29935217 0.0012316668 0.64674997
0.29946765 0.0030809524 0.64700001
0.29931432 0.0049371431 0.648
0.30034032 0.0051320642 0.64666671
0.30059588 0.007181271 0.64633334
0.30034035 0.0088273026 0.64666671
0.30046809 0.011082858 0.64649999
0.29931432 0.012960001 0.648
0.30008477 0.012940001 0.64700001
0.29909775 0.014911811 0.64700001
0.29885113 0.017253336 0.64700001
0.29823527 0.019101907 0.64700001
0.29762003 0.021566669 0.64700001
0.29828703 0.020733971 0.64666671
0.29762003 0.022799049 0.64700001
0.29880068 0.023584131 0.64600003
0.29723287 0.024666669 0.64750004
0.29723287 0.027133334 0.64750004
0.29839051 0.02645524 0.64600003
0.29700288 0.028960954 0.64700001
0.29700288 0.030809525 0.64700001
0.29762003 0.033274285 0.64700001
0.29839051 0.033838097 0.64600003
0.29762003 0.03512286 0.64700001
0.29839051 0.035068575 0.64600003
0.29723287 0.037000004 0.64750004
0.29839051 0.036914289 0.64600003
0.29720861 0.03923016 0.64700001
0.29695052 0.040894609 0.64733338
0.29677385 0.043099999 0.64649999
0.29677385 0.044947147 0.64649999
0.29723287 0.04686667 0.64750004
0.29839051 0.0467581 0.64600003
0.29723287 0.049333334 0.64750004
0.29839051 0.04921905 0.64600003
0.29723287 0.051183335 0.64750004
0.29839051 0.051064767 0.64600003
0.29561144 0.053691432 0.648
0.29711837 0.053012621 0.64725006
0.2957705 0.055456191 0.64700001
0.2969026 0.055194609 0.6463334
0.29504794 0.056953337 0.64766669
0.31721145 0.07529144 0.648
0.31898129 0.07496985 0.64700001
0.32103527 0.075175241 0.64700001
0.31696621 0.077083334 0.64750004
0.31807813 0.076904766 0.64600003
0.31536001 0.078994289 0.648
0.31659931 0.078841671 0.64674997
0.31807813 0.078135245 0.64600003
0.3164767 0.081274286 0.64649999
0.3165943 0.083314292 0.648
0.3178286 0.08948572 0.648
0.31807813 0.089209527 0.64600003
0.31725368 0.091495559 0.64766669
0.31807813 0.091055244 0.64600003
0.31733811 0.093044765 0.64700001
0.31536001 0.095657147 0.648
0.31659883 0.094856434 0.64675003
0.31676322 0.097102225 0.64666671
0.3165943 0.098742858 0.648
0.3165943 0.10121143 0.648
0.31676322 0.10326096 0.64666671
0.31667876 0.10501145 0.64733338
0.31733811 0.10721715 0.64700001
0.31684765 0.10889715 0.64600003
0.31807813 0.10889715 0.64600003
0.3170929 0.11082906 0.64649999
0.31865239 0.11100541 0.64633334
0.32053906 0.11135811 0.64600003
0.31692731 0.11358445 0.64700001
0.31832433 0.11329096 0.64649999
0.32078716 0.11329096 0.64649999
0.31672192 0.11522762 0.64700001
0.31869334 0.11504953 0.64600003
0.31536001 0.11664001 0.648
0.31684405 0.11712167 0.64725
0.31893954 0.11698572 0.64649999
0.31696621 0.11901668 0.64750004
0.31889844 0.11915112 0.64600003
0.31709018 0.12062985 0.64733338
0.31832433 0.12067953 0.64649999
0.31733811 0.1232381 0.64700001
0.31807813 0.12304763 0.64600003
0.31696621 0.12518334 0.64750004
0.31709018 0.12679493 0.64733338
0.31807813 0.12735429 0.64600003
0.31733811 0.12878382 0.64700001
0.31807813 0.12858477 0.64600003
0.31709018 0.13049398 0.64733338
0.3178286 0.13268572 0.648
0.31865239 0.1331654 0.6463334
0.31893954 0.13484144 0.64649999
0.31881669 0.13690048 0.64750004
0.31906289 0.13885716 0.648
0.31906289 0.14132573 0.648
0.31980288 0.14480478 0.64700001
0.32029715 0.14688 0.648
0.32029715 0.14934859 0.648
0.32029715 0.15120001 0.648
0.32029715 0.15243429 0.648
0.32041812 0.15527906 0.64700001
0.32053906 0.15688573 0.64600003
0.32053906 0.15934667 0.64600003
0.32053906 0.16119239 0.64600003
0.3214024 0.16316429 0.64649999
0.32127833 0.16494787 0.64625001
0.30318001 -0.019220002 0.65100002
0.30356622 -0.017346669 0.65050006
0.33108002 -0.016740002 0.65100002
0.33268431 -0.017347144 0.65050006
0.30318001 -0.014880001 0.65100002
0.3274762 -0.014238096 0.65000004
0.32945979 -0.014863096 0.65025002
0.3311905 -0.014857143 0.65000004
0.3324286 -0.014857143 0.65000004
0.30194002 -0.01302 0.65100002
0.30271432 -0.013000001 0.65000004
0.30194002 -0.011160001 0.65100002
0.32995239 -0.01052381 0.65000004
0.3311905 -0.01052381 0.65000004
0.3324286 -0.01052381 0.65000004
0.30095875 -0.008881906 0.65066671
0.32995239 -0.0092857145 0.65000004
0.33144528 -0.0086728577 0.65050006
0.33294001 -0.0086800009 0.65100002
0.3002381 -0.0068095243 0.65000004
0.3324286 -0.0068095243 0.65000004
0.29946002 -0.0049600005 0.65100002
0.3002381 -0.0049523814 0.65000004
0.29946002 -0.0031000001 0.65100002
0.29900002 -0.0012380953 0.65000004
0.29900002 0.0012380953 0.65000004
0.29900002 0.0030952382 0.65000004
0.29900002 0.0049523814 0.65000004
0.29946002 0.0068200002 0.65100002
0.3002381 0.0068095243 0.65000004
0.29946002 0.0086800009 0.65100002
0.3002381 0.0086666672 0.65000004
0.29923004 0.011150953 0.65050006
0.3002381 0.011142857 0.65000004
0.29946002 0.01302 0.65100002
0.29861003 0.014869048 0.65050006
0.29822001 0.017360002 0.65100002
0.29822001 0.019220002 0.65100002
0.29822001 0.021080002 0.65100002
0.29822001 0.022940002 0.65100002
0.29822001 0.032860003 0.65100002
0.29822001 0.034720004 0.65100002
0.29698002 0.039060004 0.65100002
0.29574001 0.041540004 0.65100002
0.29698002 0.040920004 0.65100002
0.29551286 0.043366194 0.65050006
0.29652384 0.043333337 0.65000004
0.29574001 0.045260005 0.65100002
0.29652384 0.04519048 0.65000004
0.29574001 0.047120005 0.65100002
0.29652384 0.047047623 0.65000004
0.29574001 0.048980001 0.65100002
0.29652384 0.048904765 0.65000004
0.29532668 0.051046669 0.65100002
0.29652384 0.050761908 0.65000004
0.29500645 0.053299285 0.65075004
0.29652384 0.052619051 0.65000004
0.29489288 0.055137619 0.65050006
0.29326001 0.056420002 0.65100002
0.29446036 0.056746036 0.65000004
0.31707051 0.073328897 0.65066671
0.31880954 0.073666669 0.65000004
0.31558001 0.075020008 0.65100002
0.31633335 0.07490477 0.65000004
0.31558001 0.076880008 0.65100002
0.31633335 0.076761909 0.65000004
0.32376194 0.076142862 0.65000004
0.31558001 0.079360008 0.65100002
0.31633335 0.081095241 0.65000004
0.31657669 0.083016679 0.65050006
0.31930003 0.086800009 0.65100002
0.31843477 0.089211911 0.65050006
0.31806001 0.091140009 0.65100002
0.31707051 0.093158744 0.65066671
0.31633335 0.094714291 0.65000004
0.31558001 0.09672001 0.65100002
0.31633335 0.097190484 0.65000004
0.31558001 0.098580003 0.65100002
0.31657669 0.09912429 0.65050006
0.31558001 0.10106 0.65100002
0.31633335 0.10090477 0.65000004
0.31657669 0.10284048 0.65050006
0.31633335 0.10461906 0.65000004
0.31682003 0.10602 0.65100002
0.31806001 0.10726 0.65100002
0.31806001 0.1085 0.65100002
0.31806001 0.11098 0.65100002
0.31757146 0.11266667 0.65000004
0.31558001 0.11594 0.65100002
0.31682003 0.11594 0.65100002
0.31509525 0.11700001 0.65000004
0.31558001 0.11904 0.65100002
0.31633335 0.11885715 0.65000004
0.31558001 0.12090001 0.65100002
0.31674606 0.1215397 0.65000004
0.31719574 0.12328525 0.65050006
0.31707051 0.12496953 0.65066671
0.31682003 0.12710001 0.65100002
0.317321 0.12862128 0.6503334
0.31757146 0.13185716 0.65000004
0.31880954 0.1349524 0.65000004
0.31880954 0.13680953 0.65000004
0.31930003 0.13888001 0.65100002
0.31930003 0.14136001 0.65100002
0.32004765 0.14052382 0.65000004
0.32004765 0.14300001 0.65000004
0.32004765 0.14485715 0.65000004
0.32054001 0.14694001 0.65100002
0.32054001 0.14880002 0.65100002
0.32054001 0.15128002 0.65100002
0.32054001 0.15314001 0.65100002
0.32128572 0.15414287 0.65000004
0.32128572 0.1572381 0.65000004
0.32128572 0.15909524 0.65000004
0.32103717 0.16082828 0.6503334
0.32128572 0.16280954 0.65000004
0.30116192 -0.018007619 0.65200001
0.30240384 -0.018628571 0.65200001
0.32935667 -0.018643335 0.65250003
0.33072227 -0.018845398 0.65233338
0.33279335 -0.018845398 0.65233338
0.30162382 -0.016791429 0.65300006
0.30240384 -0.016765716 0.65200001
0.32910478 -0.016765716 0.65200001
0.30090129 -0.015117778 0.65233338
0.30240384 -0.014902858 0.65200001
0.32848382 -0.015523811 0.65200001
0.30116192 -0.013040001 0.65200001
0.30116192 -0.011177143 0.65200001
0.29992002 -0.0086933337 0.65200001
0.29992002 -0.0068304767 0.65200001
0.29913622 -0.0043533337 0.65300006
0.29913622 -0.003109524 0.65300006
0.29913622 -0.0012438096 0.65300006
0.29913622 0.0012438096 0.65300006
0.29913622 0.003109524 0.65300006
0.29789239 0.0055971434 0.65300006
0.2986781 0.0049676197 0.65200001
0.29789239 0.0068409527 0.65300006
0.2986781 0.0068304767 0.65200001
0.29789239 0.0087066675 0.65300006
0.2986781 0.0086933337 0.65200001
0.29789239 0.011194287 0.65300006
0.2986781 0.011177143 0.65200001
0.29789239 0.013060001 0.65300006
0.2986781 0.013040001 0.65200001
0.29715645 0.014919763 0.65275007
0.2986781 0.014281905 0.65200001
0.2970424 0.016778573 0.65250003
0.2970424 0.018642858 0.65250003
0.2970424 0.021128573 0.65250003
0.2970424 0.022992859 0.65250003
0.2970424 0.024857143 0.65250003
0.2970424 0.027342858 0.65250003
0.2970424 0.029207144 0.65250003
0.29540479 0.03109524 0.65300006
0.29692882 0.031059287 0.65224999
0.29540479 0.032960955 0.65300006
0.29681528 0.032910477 0.65200001
0.29540479 0.034826666 0.65300006
0.29681528 0.034773339 0.65200001
0.29540479 0.037314288 0.65300006
0.29681528 0.037257142 0.65200001
0.29540479 0.039180003 0.65300006
0.29619431 0.039120004 0.65200001
0.29540479 0.041045718 0.65300006
0.29619431 0.040361907 0.65200001
0.29540479 0.042911433 0.65300006
0.29468858 0.044938736 0.65233338
0.29455668 0.047228575 0.65250003
0.29455668 0.049092859 0.65250003
0.29318163 0.051177144 0.65266675
0.29455668 0.050335716 0.65250003
0.29416096 0.052861907 0.65300006
0.29331383 0.054685719 0.65250003
0.29246858 0.056506671 0.65200001
0.31468385 0.070897147 0.65300006
0.31606477 0.071409531 0.65200001
0.31473017 0.07313969 0.65266675
0.31606477 0.073272385 0.65200001
0.31431559 0.074797474 0.65266675
0.31456923 0.076830164 0.65233338
0.32650003 0.076494291 0.65300006
0.31530574 0.078981914 0.65300006
0.31606477 0.081344768 0.65200001
0.31654954 0.082713336 0.65300006
0.31779334 0.085200958 0.65300006
0.31854859 0.085070483 0.65200001
0.31779334 0.087066673 0.65300006
0.31854859 0.086933337 0.65200001
0.31779334 0.088932388 0.65300006
0.31854859 0.088796198 0.65200001
0.3173067 0.090659052 0.65200001
0.31654954 0.093285725 0.65300006
0.31654954 0.095151432 0.65300006
0.31530574 0.097639054 0.65300006
0.31530574 0.098882861 0.65300006
0.31606477 0.099973343 0.65200001
0.31530574 0.10074858 0.65300006
0.31530574 0.1032362 0.65300006
0.31606477 0.1030781 0.65200001
0.31606477 0.10494096 0.65200001
0.31680194 0.10712001 0.65266675
0.31717145 0.10883334 0.65300006
0.31779334 0.11132096 0.65300006
0.31903717 0.11007715 0.65300006
0.31717145 0.11318667 0.65300006
0.31668574 0.1148762 0.65200001
0.31530574 0.11878382 0.65300006
0.31530574 0.12064953 0.65300006
0.31530574 0.12251525 0.65300006
0.31606477 0.12294858 0.65200001
0.31606477 0.12481143 0.65200001
0.31654954 0.12686858 0.65300006
0.3173067 0.12977906 0.65200001
0.3173067 0.13102096 0.65200001
0.31779334 0.13246572 0.65300006
0.31854859 0.13350476 0.65200001
0.31854859 0.13536763 0.65200001
0.31854859 0.13723049 0.65200001
0.31903717 0.13930666 0.65300006
0.31903717 0.14117239 0.65300006
0.31928831 0.14317207 0.65266675
0.31979048 0.14530286 0.65200001
0.31979048 0.14716573 0.65200001
0.31979048 0.14840762 0.65200001
0.32028097 0.14987905 0.65300006
0.32028097 0.15112287 0.65300006
0.32028097 0.15298858 0.65300006
0.32078195 0.15511017 0.65233338
0.32065669 0.15659954 0.65250003
0.3210324 0.15896383 0.65200001
0.3210324 0.16268954 0.65200001
0.30130002 -0.01434762 0.65500003
0.30130002 -0.011228573 0.65500003
0.3000524 -0.0068619051 0.65500003
0.29880479 -0.004366667 0.65500003
0.3000524 -0.0056142863 0.65500003
0.29880479 -0.0031190477 0.65500003
0.29880479 -0.0012476192 0.65500003
0.29880479 0.0012476192 0.65500003
0.29880479 0.0031190477 0.65500003
0.29755718 0.0049904766 0.65500003
0.29880479 0.004366667 0.65500003
0.29755718 0.0068619051 0.65500003
0.29755718 0.008733334 0.65500003
0.29755718 0.011228573 0.65500003
0.29693335 0.013100001 0.65500003
0.29630953 0.014971429 0.65500003
0.29630953 0.016842859 0.65500003
0.29630953 0.018714286 0.65500003
0.29630953 0.021209525 0.65500003
0.29630953 0.023080954 0.65500003
0.29630953 0.024952382 0.65500003
0.29630953 0.026823811 0.65500003
0.29630953 0.028695241 0.65500003
0.29506192 0.031814288 0.65500003
0.29506192 0.033061907 0.65500003
0.29506192 0.034933336 0.65500003
0.29506192 0.036804765 0.65500003
0.29506192 0.038676195 0.65500003
0.29506192 0.041171432 0.65500003
0.29506192 0.043042861 0.65500003
0.2938143 0.045538098 0.65500003
0.29506192 0.044290479 0.65500003
0.2938143 0.046785716 0.65500003
0.2938143 0.048657149 0.65500003
0.2938143 0.053023811 0.65500003
0.32750002 0.07548096 0.65500003
0.31502384 0.077976197 0.65500003
0.31751907 0.0848381 0.65500003
0.31751907 0.087333336 0.65500003
0.31751907 0.089204766 0.65500003
0.31751907 0.091076195 0.65500003
0.31627145 0.095442861 0.65500003
0.31627145 0.096690483 0.65500003
0.31627145 0.10542382 0.65500003
0.31627145 0.10729524 0.65500003
0.31627145 0.10916667 0.65500003
0.31751907 0.1110381 0.65500003
0.31876668 0.1104143 0.65500003
0.31627145 0.1241381 0.65500003
0.31751907 0.12912858 0.65500003
0.31876668 0.13474287 0.65500003
0.31876668 0.1372381 0.65500003
0.31876668 0.13910954 0.65500003
0.31876668 0.14035715 0.65500003
0.31876668 0.1428524 0.65500003
0.3200143 0.14534763 0.65500003
0.3200143 0.14721906 0.65500003
0.3200143 0.14909048 0.65500003
0.3200143 0.15096191 0.65500003
0.3200143 0.15408096 0.65500003
0.32126191 0.15782382 0.65500003
0.32126191 0.15907145 0.65500003
0.32126191 0.16094287 0.65500003
0.33108354 -0.021044765 0.65633333
0.3327502 -0.021461274 0.65633333
0.33483398 -0.021044765 0.65633333
0.33600861 -0.021900002 0.65700001
0.3005105 -0.014369525 0.65600002
0.30113524 -0.013120001 0.65600002
0.29971716 -0.010637144 0.65700001
0.3005105 -0.011245715 0.65600002
0.29930004 -0.008551429 0.65700001
0.3005105 -0.0087466668 0.65600002
0.29533714 -0.0068828575 0.65700001
0.2972143 -0.0068828575 0.65700001
0.29886335 -0.0068776198 0.65649998
0.29533714 -0.0050057145 0.65700001
0.29698813 -0.0050023813 0.65649998
0.29842794 -0.0052063498 0.65600002
0.29533714 -0.0031285717 0.65700001
0.29676193 -0.0031238098 0.65600002
0.29801145 -0.0031238098 0.65600002
0.29596287 -0.0012514286 0.65700001
0.29676193 -0.0012495238 0.65600002
0.29801145 -0.0012495238 0.65600002
0.29596287 0.0012514286 0.65700001
0.29676193 0.0012495238 0.65600002
0.29801145 0.0012495238 0.65600002
0.29533714 0.0031285717 0.65700001
0.29676193 0.0031238098 0.65600002
0.29801145 0.0031238098 0.65600002
0.29346001 0.0050057145 0.65700001
0.29533714 0.0050057145 0.65700001
0.29676193 0.0049980953 0.65600002
0.29346001 0.0068828575 0.65700001
0.29533714 0.0068828575 0.65700001
0.29676193 0.0068723815 0.65600002
0.29346001 0.0093857152 0.65700001
0.29511192 0.0087533332 0.65649998
0.29676193 0.0087466668 0.65600002
0.29524541 0.011042858 0.65633333
0.29676193 0.011245715 0.65600002
0.29511192 0.013130001 0.65649998
0.29346001 0.015017144 0.65700001
0.29511192 0.015005715 0.65649998
0.29511192 0.016881429 0.65649998
0.29346001 0.018145716 0.65700001
0.29511192 0.018757144 0.65649998
0.29511192 0.021258097 0.65649998
0.29511192 0.023133811 0.65649998
0.29596287 0.025028573 0.65700001
0.29596287 0.026905715 0.65700001
0.29573762 0.028760478 0.65649998
0.29482892 0.031045398 0.65633333
0.29426289 0.033112384 0.65600002
0.29346001 0.034414288 0.65700001
0.29426289 0.034986667 0.65600002
0.29346001 0.036917146 0.65700001
0.29426289 0.036860954 0.65600002
0.29346001 0.038168576 0.65700001
0.29426289 0.038735241 0.65600002
0.29448718 0.041265242 0.65649998
0.29346001 0.043174289 0.65700001
0.29426289 0.043108575 0.65600002
0.29346001 0.045677144 0.65700001
0.29426289 0.044358097 0.65600002
0.29346001 0.046928573 0.65700001
0.29323667 0.048768096 0.65649998
0.29261097 0.051269528 0.65649998
0.29261097 0.053145241 0.65649998
0.29261097 0.054395717 0.65649998
0.31550479 0.079344764 0.65600002
0.31675431 0.080594294 0.65600002
0.31675431 0.086841911 0.65600002
0.31675431 0.088716194 0.65600002
0.31675431 0.091215245 0.65600002
0.31675431 0.093089528 0.65600002
0.31675431 0.09433905 0.65600002
0.31675431 0.11120763 0.65600002
0.31675431 0.11308191 0.65600002
0.31675431 0.1149562 0.65600002
0.31675431 0.11683048 0.65600002
0.31800383 0.13120002 0.65600002
0.31800383 0.1330743 0.65600002
0.31800383 0.13494858 0.65600002
0.31800383 0.13682286 0.65600002
0.31800383 0.13869715 0.65600002
0.31842035 0.14140446 0.65600002
0.31800383 0.14307049 0.65600002
0.31874979 0.14500025 0.65625
0.31911433 0.14704287 0.65700001
0.31974003 0.14892001 0.65700001
0.31974003 0.15079716 0.65700001
0.31974003 0.1526743 0.65700001
0.32050288 0.15306668 0.65600002
0.31974003 0.15517715 0.65700001
0.32050288 0.15556572 0.65600002
0.31974003 0.15705429 0.65700001
0.32050288 0.15681525 0.65600002
0.31974003 0.15893143 0.65700001
0.32050288 0.15868953 0.65600002
0.31974003 0.16080858 0.65700001
0.32050288 0.16118859 0.65600002
0.31974003 0.16206001 0.65700001
0.3315067 -0.023186669 0.65800005
0.33276004 -0.023186669 0.65800005
0.33464003 -0.023186669 0.65800005
0.33652002 -0.023186669 0.65800005
0.30017334 -0.013160001 0.65800005
0.29892001 -0.010653334 0.65800005
0.30017334 -0.011906668 0.65800005
0.29516003 -0.0081466669 0.65800005
0.29704005 -0.0081466669 0.65800005
0.29892001 -0.0094000008 0.65800005
0.29390669 -0.0012533334 0.65800005
0.29516003 -0.0012533334 0.65800005
0.29348892 0.0014622224 0.65800011
0.29516003 0.0012533334 0.65800005
0.29390669 0.0031333335 0.65800005
0.29265335 0.0056400006 0.65800005
0.29265335 0.006893334 0.65800005
0.29307112 0.0085644452 0.65800011
0.29390669 0.01128 0.65800005
0.29516003 0.011906668 0.65800005
0.29390669 0.013160001 0.65800005
0.29265335 0.015040001 0.65800005
0.29328001 0.01692 0.65800005
0.29307112 0.01900889 0.65800011
0.29328001 0.021306667 0.65800005
0.29390669 0.023186669 0.65800005
0.29390669 0.024440002 0.65800005
0.29516003 0.025066668 0.65800005
0.29516003 0.026946668 0.65800005
0.29516003 0.028826669 0.65800005
0.29390669 0.031333335 0.65800005
0.29390669 0.033213336 0.65800005
0.29390669 0.035720002 0.65800005
0.29390669 0.039480001 0.65800005
0.29390669 0.041360006 0.65800005
0.29328001 0.045120001 0.65800005
0.29265335 0.047000002 0.65800005
0.29265335 0.048880003 0.65800005
0.31772003 0.083346672 0.65800005
0.31772003 0.085853338 0.65800005
0.31646669 0.089613341 0.65800005
0.31646669 0.09086667 0.65800005
0.31772003 0.11844001 0.65800005
0.31897336 0.14914668 0.65800005
0.31897336 0.15102668 0.65800005
0.31897336 0.15290667 0.65800005
0.31897336 0.15729335 0.65800005
0.31897336 0.15917334 0.65800005
0.31897336 0.16105334 0.65800005
0.33339477 -0.024532858 0.66050005
0.33494732 -0.025378417 0.6606667
0.33687466 -0.024946352 0.6603334
0.3380543 -0.025810478 0.66100001
0.2994262 -0.011322381 0.66050005
0.29857144 -0.0094285719 0.66000003
0.2927286 0.019515239 0.66100001
0.2927286 0.020774286 0.66100001
0.29335812 0.022662859 0.66100001
0.29398763 0.025180954 0.66100001
0.29480001 0.02577143 0.66000003
0.29398763 0.027069526 0.66100001
0.29480001 0.027028574 0.66000003
0.29480001 0.028914288 0.66000003
0.29398763 0.032735243 0.66100001
0.29398763 0.035253339 0.66100001
0.29398763 0.037141908 0.66100001
0.29398763 0.039030477 0.66100001
0.29398763 0.040919051 0.66100001
0.29398763 0.042807624 0.66100001
0.29250717 0.052839525 0.66050005
0.31665051 0.076172389 0.66100001
0.31665051 0.079949528 0.66100001
0.31790954 0.081208579 0.66100001
0.31790954 0.083097145 0.66100001
0.3191686 0.082467623 0.66100001
0.31868574 0.084857151 0.66000003
0.31790954 0.087503813 0.66100001
0.31742859 0.088628575 0.66000003
0.31665051 0.090651438 0.66100001
0.31742859 0.093028575 0.66000003
0.31742859 0.094914295 0.66000003
0.31742859 0.096799999 0.66000003
0.31790954 0.10387143 0.66100001
0.31790954 0.10513049 0.66100001
0.31790954 0.10701905 0.66100001
0.31742859 0.10874286 0.66000003
0.31790954 0.1107962 0.66100001
0.31790954 0.11331429 0.66100001
0.31790954 0.11520287 0.66100001
0.3191686 0.13157049 0.66100001
0.3191686 0.13282953 0.66100001
0.3191686 0.13471811 0.66100001
0.3191686 0.13723621 0.66100001
0.31868574 0.1389143 0.66000003
0.31892717 0.14090715 0.66050005
0.31892717 0.14342239 0.66050005
0.31868574 0.14520001 0.66000003
0.31742859 0.14645715 0.66000003
0.31868574 0.14708573 0.66000003
0.33486766 -0.028835241 0.66300005
0.33718288 -0.028414287 0.66300005
0.33907717 -0.029045716 0.66300005
0.33440429 -0.027130954 0.66250002
0.3366743 -0.027110478 0.66200006
0.33856574 -0.027110478 0.66200006
0.2919105 0.023327621 0.66200006
0.29317144 0.023327621 0.66200006
0.29121622 0.025021907 0.66233343
0.29289812 0.025442224 0.66233343
0.28982574 0.02715143 0.66300005
0.29108858 0.02715143 0.66300005
0.29276145 0.027130954 0.66250002
0.29298288 0.029045716 0.66300005
0.2944324 0.029001907 0.66200006
0.29298288 0.030940002 0.66300005
0.2944324 0.030893335 0.66200006
0.29276145 0.032809526 0.66250002
0.28982574 0.035360001 0.66300005
0.29136258 0.035552382 0.66266674
0.29289812 0.035113972 0.66233337
0.28982574 0.037254289 0.66300005
0.29108858 0.037254289 0.66300005
0.29276145 0.037226193 0.66250002
0.28982574 0.039148573 0.66300005
0.29108858 0.039148573 0.66300005
0.29276145 0.03911905 0.66250002
0.28919429 0.041042861 0.66300005
0.29149956 0.041011907 0.66250002
0.29317144 0.040980954 0.66200006
0.28919429 0.042937145 0.66300005
0.29149956 0.042904764 0.66250002
0.29317144 0.042872384 0.66200006
0.28982574 0.044831432 0.66300005
0.29108858 0.044831432 0.66300005
0.29276145 0.044797622 0.66250002
0.2944324 0.044763811 0.66200006
0.28919429 0.046725716 0.66300005
0.29149956 0.046690479 0.66250002
0.29317144 0.046655241 0.66200006
0.28919429 0.04925143 0.66300005
0.29128003 0.049177147 0.66200006
0.29317144 0.049177147 0.66200006
0.28919429 0.051145718 0.66300005
0.29128003 0.051068574 0.66200006
0.29317144 0.051068574 0.66200006
0.28982574 0.052408576 0.66300005
0.29106987 0.05274985 0.66200006
0.31712955 0.077548578 0.66200006
0.31760859 0.078928575 0.66300005
0.31760859 0.081454292 0.66300005
0.31760859 0.08334858 0.66300005
0.31760859 0.08524286 0.66300005
0.31839049 0.085114293 0.66200006
0.31736907 0.087070957 0.66250002
0.31839049 0.086375244 0.66200006
0.31712955 0.088897146 0.66200006
0.31634572 0.090294294 0.66300005
0.31712955 0.093310483 0.66200006
0.31760859 0.095345721 0.66300005
0.31760859 0.096608579 0.66300005
0.31887144 0.099134289 0.66300005
0.31863096 0.10095191 0.66250002
0.31839049 0.10276762 0.66200006
0.31760859 0.10734286 0.66300005
0.31760859 0.10923715 0.66300005
0.31760859 0.11113144 0.66300005
0.31760859 0.11302572 0.66300005
0.31887144 0.11681429 0.66300005
0.31887144 0.11870858 0.66300005
0.31863096 0.12114239 0.66250002
0.31887144 0.12312858 0.66300005
0.31887144 0.12502286 0.66300005
0.31939146 0.12720984 0.66233337
0.31913143 0.12895684 0.66266674
0.31913146 0.13106096 0.66266674
0.31887144 0.13323143 0.66300005
0.31887144 0.13512573 0.66300005
0.31839049 0.13681334 0.66200006
0.31839049 0.13870478 0.66200006
0.31839049 0.14122668 0.66200006
0.31839049 0.1431181 0.66200006
0.31839049 0.14500955 0.66200006
0.31902099 0.14879239 0.66200006
0.31965145 0.15068382 0.66200006
0.32013431 0.15280572 0.66300005
0.32091239 0.15572762 0.66200006
0.32091239 0.15698858 0.66200006
0.3375667 -0.031033335 0.66500002
0.33883336 -0.031033335 0.66500002
0.34010002 -0.031033335 0.66500002
0.33503336 -0.029766669 0.66500002
0.3375667 -0.029766669 0.66500002
0.33883336 -0.029766669 0.66500002
0.29133335 0.029133337 0.66500002
0.29133335 0.031033335 0.66500002
0.28965098 0.032957621 0.66550004
0.29133335 0.032933336 0.66500002
0.28943336 0.044966668 0.66500002
0.28816667 0.04686667 0.66500002
0.31856668 0.075366668 0.66500002
0.31777716 0.07674858 0.66600001
0.31777716 0.078651428 0.66600001
0.31730002 0.081066668 0.66500002
0.31777716 0.08309143 0.66600001
0.31777716 0.084994286 0.66600001
0.31777716 0.08689715 0.66600001
0.31730002 0.088666677 0.66500002
0.31730002 0.091833338 0.66500002
0.31730002 0.093100004 0.66500002
0.31777716 0.094508581 0.66600001
0.31777716 0.09704572 0.66600001
0.3188062 0.09887477 0.66550004
0.31904572 0.10085143 0.66600001
0.31904572 0.10275429 0.66600001
0.31777716 0.10592572 0.66600001
0.31856668 0.10513334 0.66500002
0.31777716 0.10719429 0.66600001
0.31777716 0.10909715 0.66600001
0.31777716 0.11100001 0.66600001
0.31777716 0.11290286 0.66600001
0.31777716 0.11480572 0.66600001
0.31856668 0.11463334 0.66500002
0.31904572 0.11670858 0.66600001
0.31904572 0.11924572 0.66600001
0.31904572 0.12114858 0.66600001
0.31777716 0.12305143 0.66600001
0.31856668 0.12286668 0.66500002
0.31777716 0.12495429 0.66600001
0.31856668 0.12476668 0.66500002
0.31777716 0.12685716 0.66600001
0.31856668 0.12666667 0.66500002
0.31777716 0.12876001 0.66600001
0.31856668 0.12920001 0.66500002
0.31777716 0.13066286 0.66600001
0.31856668 0.13110001 0.66500002
0.31777716 0.13256572 0.66600001
0.31856668 0.13300002 0.66500002
0.31856668 0.1349 0.66500002
0.31777716 0.13764001 0.66600001
0.31856668 0.13680001 0.66500002
0.31856668 0.13933334 0.66500002
0.31856668 0.14123334 0.66500002
0.3188062 0.14324144 0.66550004
0.31904572 0.14525144 0.66600001
0.31904572 0.1471543 0.66600001
0.31983337 0.15010001 0.66500002
0.32031432 0.1515943 0.66600001
0.32031432 0.15286286 0.66600001
0.32070717 0.15464905 0.66550004
0.32116005 0.1575143 0.66600001
0.32158288 0.15920572 0.66600001
0.31825429 0.075593337 0.66700006
0.31698382 0.081310481 0.66700006
0.31698382 0.085757151 0.66700006
0.31698382 0.087027624 0.66700006
0.31698382 0.088933341 0.66700006
0.31571335 0.090839051 0.66700006
0.31698382 0.090839051 0.66700006
0.31698382 0.092744768 0.66700006
0.31825429 0.095920958 0.66700006
0.31698382 0.098461911 0.66700006
0.31825429 0.099097148 0.66700006
0.31825429 0.10100286 0.66700006
0.31825429 0.10290858 0.66700006
0.31825429 0.10481429 0.66700006
0.31698382 0.10735524 0.66700006
0.31698382 0.10926096 0.66700006
0.31698382 0.11116667 0.66700006
0.31698382 0.11307239 0.66700006
0.31698382 0.1149781 0.66700006
0.31698382 0.11688381 0.66700006
0.31825429 0.11688381 0.66700006
0.31825429 0.11878953 0.66700006
0.31825429 0.12069525 0.66700006
0.31698382 0.12323619 0.66700006
0.31698382 0.12514192 0.66700006
0.31698382 0.12704763 0.66700006
0.31698382 0.12895334 0.66700006
0.31698382 0.13085905 0.66700006
0.31698382 0.13276477 0.66700006
0.31698382 0.13467048 0.66700006
0.31825429 0.13467048 0.66700006
0.31698382 0.13721144 0.66700006
0.31825429 0.13657621 0.66700006
0.31825429 0.13911715 0.66700006
0.31825429 0.14102286 0.66700006
0.31825429 0.14292859 0.66700006
0.31825429 0.14483429 0.66700006
0.31825429 0.14674 0.66700006
0.31952479 0.14928097 0.66700006
0.31952479 0.15055144 0.66700006
0.32079527 0.15563335 0.66700006
0.32079527 0.15690382 0.66700006
0.32048288 0.071997151 0.66900003
0.32048288 0.073271431 0.66900003
0.31920859 0.074545719 0.66900003
0.32048288 0.074545719 0.66900003
0.3179343 0.077094294 0.66900003
0.3179343 0.079005718 0.66900003
0.31729716 0.082828581 0.66900003
0.3179343 0.084740005 0.66900003
0.31538573 0.087288581 0.66900003
0.31666002 0.086651437 0.66900003
0.31538573 0.089837149 0.66900003
0.31666002 0.089200005 0.66900003
0.31666002 0.093022861 0.66900003
0.3179343 0.094934292 0.66900003
0.3179343 0.096845716 0.66900003
0.31666002 0.098757148 0.66900003
0.31729716 0.10066858 0.66900003
0.31729716 0.10321715 0.66900003
0.31729716 0.10512858 0.66900003
0.31708479 0.10682763 0.66900003
0.31666002 0.10895143 0.66900003
0.31666002 0.11086287 0.66900003
0.31666002 0.11277429 0.66900003
0.31666002 0.11468572 0.66900003
0.31666002 0.11723429 0.66900003
0.3179343 0.11914572 0.66900003
0.3179343 0.12105715 0.66900003
0.31666002 0.13125144 0.66900003
0.31666002 0.13316287 0.66900003
0.31666002 0.13443716 0.66900003
0.3179343 0.13953429 0.66900003
0.3179343 0.14080858 0.66900003
0.3179343 0.14272001 0.66900003
0.3179343 0.14463145 0.66900003
0.31920859 0.14845429 0.66900003
0.32048288 0.1529143 0.66900003
0.32048288 0.15482572 0.66900003
0.32048288 0.15673715 0.66900003
0.31888479 0.070934288 0.671
0.32080191 0.070934288 0.671
0.31928527 0.072797149 0.67050004
0.31840953 0.07529524 0.67000002
0.31760669 0.076685719 0.671
0.31760669 0.079241917 0.671
0.31713337 0.081038103 0.67000002
0.31713337 0.083590485 0.67000002
0.31760669 0.08499334 0.671
0.31713337 0.095076196 0.67000002
0.31713337 0.096990481 0.67000002
0.31673098 0.11877382 0.67050004
0.31713337 0.1212381 0.67000002
0.31713337 0.12315239 0.67000002
0.31713337 0.12506667 0.67000002
0.31713337 0.12698096 0.67000002
0.31713337 0.12889525 0.67000002
0.31713337 0.1359143 0.67000002
0.31713337 0.13719049 0.67000002
0.31713337 0.13910477 0.67000002
0.31713337 0.14101906 0.67000002
0.31713337 0.14293334 0.67000002
0.31713337 0.14484763 0.67000002
0.31760669 0.14634192 0.671
0.31864715 0.14687192 0.67050004
0.31968573 0.1499524 0.67000002
0.31968573 0.15122858 0.67000002
0.31968573 0.15378097 0.67000002
0.32016289 0.15273239 0.671
0.32016289 0.15528858 0.671
0.31968573 0.15760954 0.67000002
0.32016289 0.15656668 0.671
0.31808001 0.071040004 0.67200005
0.31808001 0.072960004 0.67200005
0.31808001 0.074880004 0.67200005
0.31680003 0.091520004 0.67200005
0.31680003 0.092800006 0.67200005
0.31680003 0.094080009 0.67200005
0.31680003 0.11712001 0.67200005
0.31680003 0.11968001 0.67200005
0.31936002 0.14912 0.67200005
0.31936002 0.15104002 0.67200005
0.31936002 0.15680002 0.67200005
0.31926334 0.06937667 0.67449999
0.3182143 0.071357146 0.67500001
0.3169286 0.07392858 0.67500001
0.3182143 0.073285721 0.67500001
0.3182143 0.075214289 0.67500001
0.3182143 0.077142864 0.67500001
0.3169286 0.091928579 0.67500001
0.3169286 0.093214288 0.67500001
0.31720003 0.095309854 0.67466676
0.31733572 0.096999526 0.67449999
0.31733572 0.098926671 0.67449999
0.31774288 0.10077906 0.67400002
0.31774288 0.10206287 0.67400002
0.3182143 0.10350001 0.67500001
0.3182143 0.10928572 0.67500001
0.3182143 0.1112143 0.67500001
0.31774288 0.11297525 0.67400002
0.31774288 0.11490096 0.67400002
0.31774288 0.11618477 0.67400002
0.3169286 0.11892858 0.67500001
0.31720003 0.12101144 0.67466676
0.31774288 0.12260382 0.67400002
0.31774288 0.12517144 0.67400002
0.3182143 0.12407143 0.67500001
0.3182143 0.12664287 0.67500001
0.3182143 0.13564287 0.67500001
0.3182143 0.13692857 0.67500001
0.31774288 0.13929334 0.67400002
0.3182143 0.13821429 0.67500001
0.3182143 0.14078572 0.67500001
0.3203105 0.15341525 0.67400002
0.3203105 0.15534097 0.67400002
0.31739813 0.07081905 0.67600006
0.31868574 0.070175245 0.67600006
0.31739813 0.072750479 0.67600006
0.31739813 0.07532572 0.67600006
0.31739813 0.076613337 0.67600006
0.31868574 0.079188578 0.67600006
0.31611049 0.095927626 0.67600006
0.31611049 0.097215243 0.67600006
0.31739813 0.1010781 0.67600006
0.31868574 0.10494096 0.67600006
0.31868574 0.10687239 0.67600006
0.31739813 0.11395429 0.67600006
0.31739813 0.11781715 0.67600006
0.31739813 0.12296763 0.67600006
0.31739813 0.12489906 0.67600006
