# .PCD v0.7 - Point Cloud Data file format
VERSION 0.7
FIELDS x y z
SIZE 4 4 4
TYPE F F F
COUNT 1 1 1
WIDTH 197
HEIGHT 1
VIEWPOINT 0 0 0 1 0 0 0
POINTS 197
DATA ascii
-0.15521429 0.2188143 0.79500002
-0.15313429 0.21908954 0.796
-0.15663308 0.22232288 0.79671437
-0.15286668 0.22208709 0.79742855
-0.14972001 0.22268002 0.79800004
-0.17130762 0.22407526 0.80300003
-0.16880192 0.2237962 0.80200005
-0.17144923 0.22732352 0.80366671
-0.16759832 0.2272923 0.80355555
-0.16266915 0.22724858 0.80340004
-0.1574263 0.22719164 0.80320007
-0.15212382 0.2262762 0.80266666
-0.1493143 0.22588573 0.80400002
-0.1707543 0.23124573 0.80400002
-0.16845715 0.23048002 0.80400002
-0.1604324 0.22951812 0.80600005
-0.15736191 0.22951812 0.80600005
-0.15352382 0.22951812 0.80600005
-0.14878479 0.2276597 0.80666673
-0.16667572 0.23196526 0.80650002
-0.16251583 0.23201297 0.80720007
-0.15775239 0.23162667 0.80800003
-0.15262222 0.23111367 0.80800003
-0.16817144 0.23374288 0.81000006
-0.16122858 0.23374288 0.81000006
-0.15737143 0.23374288 0.81000006
-0.15177621 0.2328105 0.81033337
-0.14778624 0.23290202 0.81244457
-0.14407621 0.23315684 0.81333345
-0.17048572 0.23605716 0.81000006
-0.16781335 0.2358667 0.81200004
-0.16218179 0.23669717 0.81257159
-0.15718001 0.2369324 0.81300008
-0.15295696 0.23695163 0.81360006
-0.14884573 0.23644763 0.81400001
-0.16750191 0.23860097 0.81500006
-0.15601429 0.23984288 0.81500006
-0.15135716 0.23829049 0.81500006
-0.14719811 0.23816288 0.81633341
-0.14359525 0.23673812 0.81500006
-0.17040287 0.24120954 0.81700003
-0.16710524 0.24150573 0.81800002
-0.16282097 0.24150573 0.81800002
-0.15767829 0.24228458 0.81800002
-0.15210001 0.24102001 0.81900012
-0.16810954 0.24421494 0.82100004
-0.1634181 0.24473622 0.82100004
-0.15559906 0.24473621 0.82100004
-0.15247145 0.24317239 0.82100004
-0.1477581 0.24252352 0.82233334
-0.14274034 0.24138224 0.82200003
-0.17008668 0.24533239 0.82300001
-0.16126953 0.24660002 0.82200003
-0.15728921 0.24650002 0.82166672
-0.15284286 0.2453324 0.82300007
-0.14970763 0.24533239 0.82300001
-0.14614287 0.24435715 0.82500005
-0.14378573 0.24435715 0.82500005
-0.17132668 0.24870002 0.82900006
-0.16735715 0.24750003 0.82500005
-0.16290446 0.24895018 0.8263334
-0.15805493 0.24927273 0.82566679
-0.15261239 0.24832511 0.82600015
-0.14728349 0.24731305 0.82700008
-0.14430858 0.2476124 0.82800007
-0.17132668 0.25027907 0.82900006
-0.16737905 0.25027907 0.82900006
-0.1555362 0.25027907 0.82900006
-0.15198335 0.25146335 0.82900006
-0.14843048 0.25106859 0.82900006
-0.14369334 0.25027907 0.82900006
-0.17148668 0.2533997 0.83233345
-0.16723259 0.25346497 0.83220005
-0.16243812 0.25356287 0.83200014
-0.15764593 0.25334343 0.8318001
-0.15286954 0.2542524 0.83166671
-0.14705876 0.25346097 0.83166665
-0.14389113 0.25319716 0.83166671
-0.17215334 0.25624669 0.83300006
-0.14914668 0.25624669 0.83300006
-0.17111272 0.25706828 0.83566666
-0.16764788 0.25784481 0.83625001
-0.16286115 0.25774574 0.83579999
-0.15792076 0.25800988 0.83700007
-0.15242687 0.25818765 0.83620006
-0.1470124 0.25818762 0.83620006
-0.14411049 0.2579667 0.83600003
-0.17179525 0.26128858 0.83900005
-0.1623162 0.26122099 0.83749998
-0.15821144 0.26128858 0.83900005
-0.1542162 0.26128858 0.83900005
-0.14782383 0.26128858 0.83900005
-0.17140858 0.26339716 0.84233332
-0.16759811 0.26302573 0.84200001
-0.1617924 0.26351336 0.84100002
-0.15766859 0.26358289 0.84250009
-0.15242223 0.26339716 0.84233344
-0.14795096 0.26302573 0.84200007
-0.14497238 0.26191145 0.84100002
-0.16298001 0.26574573 0.84300005
-0.17221907 0.2663762 0.84500003
-0.16753691 0.26661262 0.84575003
-0.16267842 0.26808351 0.84700006
-0.15748572 0.26732191 0.84800005
-0.15102477 0.26732191 0.84800005
-0.14779431 0.26678354 0.84800005
-0.17242858 0.26957148 0.85000008
-0.16757143 0.26957148 0.85000008
-0.16109525 0.26795241 0.85000002
-0.15785716 0.26957148 0.85000008
-0.15332381 0.26892385 0.85000002
-0.14750478 0.26867145 0.85100001
-0.14362286 0.26696002 0.85200006
-0.17608003 0.27182859 0.85200012
-0.17283429 0.27298975 0.85360003
-0.16795683 0.27306736 0.85333341
-0.16220415 0.27214831 0.8530001
-0.15697335 0.27300891 0.85400003
-0.15245754 0.27228156 0.8524
-0.14802667 0.27165335 0.85400003
-0.17608002 0.2750743 0.85200006
-0.15534668 0.27572003 0.85400003
-0.14592762 0.26984382 0.85600007
-0.16712382 0.27473524 0.85600007
-0.1622324 0.27473524 0.85600007
-0.1581562 0.27473524 0.85600007
-0.15244953 0.27473524 0.85600007
-0.14837334 0.27392 0.85600007
-0.1617943 0.27701145 0.85800004
-0.15752572 0.27750477 0.85699999
-0.152567 0.27658099 0.85666674
-0.16816637 0.27808768 0.86133337
-0.16324192 0.27918226 0.86133337
-0.1597143 0.27929527 0.86000001
-0.15251809 0.27962002 0.86100006
-0.14923906 0.27715907 0.86100006
-0.17656986 0.27872226 0.86500013
-0.14747715 0.27786481 0.86833334
-0.17629114 0.28190258 0.86633343
-0.17298074 0.28209975 0.86800003
-0.16742669 0.28206956 0.86600012
-0.16254193 0.28300226 0.86633343
-0.15782344 0.2834886 0.86580008
-0.15317 0.28363287 0.86700004
-0.14789382 0.28234383 0.86874998
-0.1442816 0.28276989 0.86900008
-0.17628287 0.2855286 0.86900002
-0.1729724 0.2855286 0.86900002
-0.16800666 0.28594241 0.86900002
-0.16359273 0.28608036 0.86900008
-0.15642001 0.2855286 0.86900002
-0.15228191 0.2855286 0.86900002
-0.14599621 0.2745724 0.87100005
-0.14616287 0.27779382 0.87200004
-0.14350763 0.27954954 0.87100005
-0.14516668 0.2812086 0.87100005
-0.14295462 0.28342065 0.87100005
-0.17502953 0.28784478 0.87100005
-0.1721262 0.28743002 0.87100005
-0.16728732 0.2889508 0.87100005
-0.16217193 0.28743002 0.87100005
-0.15678 0.28784478 0.87100005
-0.15180288 0.28812128 0.87100017
-0.14688192 0.28712544 0.87133348
-0.14328288 0.28739718 0.87300003
-0.17543145 0.29100001 0.87300003
-0.17210573 0.29100001 0.87300009
-0.16711716 0.29127717 0.87300003
-0.15630859 0.29016858 0.87300003
-0.15048859 0.29016858 0.87300003
-0.14716285 0.29016858 0.87300003
-0.14333335 0.2775 0.87500006
-0.14354604 0.28068131 0.87800002
-0.17750001 0.28916669 0.87500006
-0.14166668 0.28916669 0.87500006
-0.17694446 0.29250002 0.87500012
-0.17083335 0.29416668 0.87500006
-0.16666667 0.29333335 0.87500006
-0.16277859 0.29216811 0.87650013
-0.15791668 0.29208335 0.87500006
-0.1525 0.29250002 0.87500012
-0.147625 0.29233408 0.87575006
-0.14466096 0.29266667 0.87800002
-0.17583334 0.29583335 0.87500006
-0.17392763 0.29517525 0.87800002
-0.16807431 0.29517525 0.87800002
-0.15804002 0.29517525 0.87800002
-0.14187367 0.29740512 0.87800002
-0.1417978 0.29366636 0.88100004
-0.17595811 0.2988762 0.88400006
-0.17259049 0.29887623 0.88400006
-0.1669305 0.29811907 0.88300008
-0.1620594 0.29724923 0.88166678
-0.15644738 0.29791132 0.88114291
-0.15192446 0.29713589 0.88133335
-0.14713526 0.29678783 0.88080007
-0.14342287 0.2966305 0.88066673
