# .PCD v0.7 - Point Cloud Data file format
VERSION 0.7
FIELDS x y z
SIZE 4 4 4
TYPE F F F
COUNT 1 1 1
WIDTH 1438
HEIGHT 1
VIEWPOINT 0 0 0 1 0 0 0
POINTS 1438
DATA ascii
0.053286038 0.15706383 0.55033338
0.054716833 0.15750858 0.55066669
0.056674287 0.15690382 0.551
0.076823339 0.05945953 0.55250001
0.078928098 0.063669056 0.55250001
0.078473337 0.065306671 0.55300003
0.078776509 0.067197464 0.55266666
0.021554288 0.083588578 0.55200005
0.021554288 0.085165724 0.55200005
0.020878097 0.087198734 0.55266672
0.020540001 0.08900667 0.55300003
0.020878097 0.092812702 0.55266666
0.021554288 0.09462858 0.55200005
0.021047145 0.096819058 0.55250001
0.021242224 0.098837793 0.55300009
0.022605715 0.098834291 0.55200005
0.021593334 0.10059334 0.55300003
0.023141669 0.10098311 0.55225003
0.023151906 0.10313334 0.55250001
0.023678573 0.10523763 0.55250001
0.024708573 0.10514286 0.55200005
0.023700001 0.10744001 0.55300003
0.025073972 0.10748604 0.55233335
0.023700001 0.10902001 0.55300003
0.025424447 0.10923906 0.55233335
0.02681143 0.10882287 0.55200005
0.023700001 0.11060001 0.55300003
0.025088891 0.11070858 0.55266666
0.026835717 0.11049953 0.55250001
0.025455561 0.11253113 0.55300009
0.026860002 0.11270668 0.55300003
0.026835717 0.11470906 0.55250001
0.02681143 0.12144001 0.55200005
0.02681143 0.12301715 0.55200005
0.0275454 0.12509589 0.55266672
0.027913336 0.12798001 0.55300003
0.028914288 0.12932572 0.55200005
0.029466193 0.13154715 0.55250001
0.028966669 0.13272001 0.55300003
0.029965715 0.13458286 0.55200005
0.030020002 0.13693334 0.55300003
0.031045239 0.13891476 0.55250001
0.031073336 0.14062001 0.55300003
0.032623336 0.14101905 0.55250001
0.034171432 0.14141715 0.55200005
0.033180002 0.14325334 0.55300003
0.034728095 0.14312382 0.55250001
0.034760002 0.14536001 0.55300003
0.036800005 0.14562286 0.55200005
0.067817144 0.14562286 0.55200005
0.069920003 0.14562286 0.55200005
0.034760002 0.14746667 0.55300003
0.036849763 0.14740025 0.55275005
0.038750798 0.14746445 0.55233335
0.040480003 0.14772573 0.55200005
0.065188572 0.14772573 0.55200005
0.067352384 0.14733382 0.55250001
0.069456667 0.14733382 0.55250001
0.070573337 0.14799334 0.55300003
0.072153337 0.14799334 0.55300003
0.035286669 0.14904667 0.55300003
0.036866669 0.14904667 0.55300003
0.038973335 0.14904667 0.55300003
0.041180953 0.14912763 0.55200005
0.042933337 0.14947811 0.55200005
0.044685718 0.14982858 0.55200005
0.063611433 0.14930287 0.55200005
0.065306671 0.14904667 0.55300003
0.067413338 0.14904667 0.55300003
0.068993337 0.14904667 0.55300003
0.070573337 0.14904667 0.55300003
0.072153337 0.14904667 0.55300003
0.036866669 0.15010001 0.55300003
0.038973335 0.15062667 0.55300003
0.040904447 0.15080224 0.55300009
0.043147147 0.15101668 0.55250001
0.045211434 0.15140572 0.55200005
0.046788573 0.15193143 0.55200005
0.061508577 0.15140572 0.55200005
0.063143343 0.15101668 0.55250001
0.065306671 0.15010001 0.55300003
0.039500002 0.15273334 0.55300003
0.041080002 0.15273334 0.55300003
0.043186668 0.15273334 0.55300003
0.045211434 0.15298286 0.55200005
0.046788573 0.15298286 0.55200005
0.060982861 0.15298286 0.55200005
0.063024454 0.15255779 0.55300009
0.041606668 0.15484001 0.55300003
0.043186668 0.15484001 0.55300003
0.045251906 0.15470001 0.55250001
0.046788573 0.15456001 0.55200005
0.059405718 0.15508573 0.55200005
0.061038576 0.15470001 0.55250001
0.062673338 0.15431334 0.55300003
0.041606668 0.15642001 0.55300003
0.043186668 0.15694667 0.55300003
0.045251906 0.15680477 0.55250001
0.046788573 0.15666287 0.55200005
0.059091117 0.15693304 0.55233335
0.060566671 0.15642001 0.55300003
0.043186668 0.15852667 0.55300003
0.045293335 0.15905334 0.55300003
0.047356669 0.15890953 0.55250001
0.049241912 0.1585905 0.55200005
0.050673973 0.15903716 0.55233335
0.052571431 0.15929145 0.55200005
0.05467429 0.15929145 0.55200005
0.056828577 0.15891001 0.55250001
0.058811121 0.15887779 0.55300009
0.045293335 0.16063334 0.55300003
0.047378335 0.16108738 0.55274999
0.049271435 0.1607908 0.55233335
0.050673973 0.16114128 0.55233335
0.052571431 0.16086859 0.55200005
0.054724287 0.16101429 0.55250001
0.056880005 0.16116001 0.55300003
0.047926668 0.16326667 0.55300003
0.048980001 0.16326667 0.55300003
0.050560005 0.16326667 0.55300003
0.052642621 0.16319311 0.55275005
0.054773338 0.16326667 0.55300003
0.056880005 0.16274001 0.55300003
0.047926668 0.16537334 0.55300003
0.048980001 0.16537334 0.55300003
0.050560005 0.16537334 0.55300003
0.052666672 0.16537334 0.55300003
0.054597788 0.16519779 0.55300009
0.047926668 0.16695334 0.55300003
0.048980001 0.16695334 0.55300003
0.050560005 0.16695334 0.55300003
0.052666672 0.16695334 0.55300003
0.054246671 0.16695334 0.55300003
0.047926668 0.16853334 0.55300003
0.048980001 0.16853334 0.55300003
0.050560005 0.16853334 0.55300003
0.052666672 0.16853334 0.55300003
0.054246671 0.16800667 0.55300003
0.048980001 0.17011334 0.55300003
0.051086672 0.17011334 0.55300003
0.074921906 0.059620958 0.55400002
0.0750231 0.061286911 0.55475003
0.077032387 0.061203811 0.55400002
0.078615241 0.061203815 0.55400002
0.07523334 0.063252389 0.55500001
0.077101439 0.063371435 0.55449998
0.078615241 0.062786669 0.55400002
0.075585723 0.065014288 0.55500001
0.077066913 0.065454051 0.55425
0.075517625 0.066539526 0.55449998
0.077032387 0.067007624 0.55400002
0.075449526 0.068062864 0.55400002
0.077032387 0.068062864 0.55400002
0.020577144 0.090750486 0.55400002
0.020577144 0.099720009 0.55400002
0.021104764 0.10130286 0.55400002
0.021123335 0.10245001 0.55449998
0.021671429 0.10412858 0.55500001
0.022687621 0.1049962 0.55400002
0.022708097 0.10667572 0.55449998
0.022728574 0.10835715 0.55500001
0.022687621 0.11132763 0.55400002
0.023742858 0.11291048 0.55400002
0.024798097 0.1134381 0.55400002
0.023785716 0.1147 0.55500001
0.025348574 0.11512525 0.55449998
0.023785716 0.11681429 0.55500001
0.024842858 0.11681429 0.55500001
0.025900003 0.12315715 0.55500001
0.025900003 0.12474287 0.55500001
0.027276512 0.12688097 0.55433333
0.027963812 0.12926668 0.55400002
0.027963812 0.13032192 0.55400002
0.028014287 0.1316143 0.55500001
0.028014287 0.1332 0.55500001
0.028516669 0.13519239 0.55449998
0.028701589 0.13717018 0.5546667
0.02907143 0.13901429 0.55500001
0.030074287 0.13929144 0.55400002
0.02907143 0.14060001 0.55500001
0.030601908 0.14140192 0.55400002
0.02907143 0.14271429 0.55500001
0.030462226 0.14280446 0.5546667
0.032184765 0.14298478 0.55400002
0.03062905 0.1446981 0.55449998
0.032536514 0.1447435 0.55400002
0.030657146 0.14694287 0.55500001
0.032712385 0.1466781 0.55400002
0.031185716 0.14852858 0.55500001
0.032741431 0.14892286 0.55449998
0.034295239 0.14931621 0.55400002
0.032771431 0.15117145 0.55500001
0.034838334 0.15096739 0.55425
0.036933333 0.15142667 0.55400002
0.06542477 0.15142667 0.55400002
0.0670681 0.15103573 0.55449998
0.068652384 0.15103573 0.55450004
0.070732623 0.15096739 0.55425
0.072283812 0.15089905 0.55400002
0.033300001 0.15275715 0.55500001
0.034885719 0.15328573 0.55500001
0.036949761 0.15307882 0.55425
0.038516194 0.15300953 0.55400002
0.063841909 0.15353715 0.55400002
0.064955719 0.15314811 0.55449998
0.066423818 0.15310954 0.55500001
0.068714291 0.15275715 0.55500001
0.071004763 0.15310954 0.55500001
0.03541429 0.15540001 0.55500001
0.037 0.15540001 0.55500001
0.039043814 0.15512002 0.55400002
0.040626671 0.15512002 0.55400002
0.063528582 0.15538955 0.55433333
0.065014288 0.15540001 0.55500001
0.066071436 0.15487143 0.55500001
0.071357146 0.15487143 0.55500001
0.03924286 0.1571489 0.55433333
0.040978417 0.15740636 0.55400002
0.061379686 0.15740636 0.55400002
0.063428581 0.15698573 0.55500001
0.065014288 0.15698573 0.55500001
0.039078571 0.1589562 0.55450004
0.041154288 0.15934096 0.55400002
0.043264765 0.15986858 0.55400002
0.059620958 0.15986858 0.55400002
0.061314292 0.15910001 0.55500001
0.063428581 0.15857144 0.55500001
0.065014288 0.15804286 0.55500001
0.038938098 0.16086191 0.55500001
0.041330166 0.16127557 0.55400002
0.043264765 0.16145144 0.55400002
0.045375243 0.16197906 0.55400002
0.058917463 0.16127557 0.55400002
0.061314292 0.16068572 0.55500001
0.062900007 0.16015716 0.55500001
0.038938098 0.16262382 0.55500001
0.041027308 0.16287811 0.5546667
0.043264765 0.16303429 0.55400002
0.045375243 0.16303429 0.55400002
0.0469581 0.16303429 0.55400002
0.059340954 0.16287811 0.5546667
0.060785718 0.16280001 0.55500001
0.038585715 0.1649143 0.55500001
0.041209765 0.16484025 0.55475003
0.04330381 0.16476619 0.55449998
0.045375243 0.16461715 0.55400002
0.0469581 0.16461715 0.55400002
0.05698286 0.16461715 0.55400002
0.059173577 0.16484025 0.55475003
0.060785718 0.1649143 0.55500001
0.041228574 0.16702859 0.55500001
0.043342859 0.16702859 0.55500001
0.045375243 0.16672763 0.55400002
0.0469581 0.16672763 0.55400002
0.055400003 0.16672763 0.55400002
0.057060242 0.16695356 0.55475003
0.059023812 0.1668524 0.55500001
0.041757144 0.1686143 0.55500001
0.043342859 0.16914287 0.55500001
0.045415718 0.16899048 0.55449998
0.0469581 0.16883811 0.55400002
0.055081591 0.1691159 0.55433333
0.056909528 0.1689667 0.55500001
0.041757144 0.17072858 0.55500001
0.043342859 0.17125715 0.55500001
0.045415718 0.17110287 0.55449998
0.0469581 0.17094858 0.55400002
0.048365083 0.17112446 0.55400002
0.05047556 0.17112446 0.55400002
0.052785955 0.17102596 0.55425
0.05444286 0.17125715 0.55500001
0.043871433 0.17337143 0.55500001
0.045457147 0.17337143 0.55500001
0.047000483 0.17321572 0.55449998
0.048584767 0.17321572 0.55450004
0.050742865 0.17337143 0.55500001
0.052680954 0.17319524 0.55500001
0.045457147 0.17495716 0.55500001
0.047042862 0.17495716 0.55500001
0.048628576 0.17495716 0.55500001
0.050742861 0.17495716 0.55500001
0.045457143 0.17654288 0.55500001
0.047042862 0.17654288 0.55500001
0.048628576 0.17654288 0.55500001
0.050214291 0.1760143 0.55500001
0.045280956 0.17848097 0.55500001
0.047042862 0.17812859 0.55500001
0.048628576 0.17812859 0.55500001
0.073603816 0.059836194 0.55600005
0.073736198 0.061004765 0.55700004
0.074797146 0.064187624 0.55700004
0.02329905 0.1154362 0.55600005
0.022810478 0.1161743 0.55700004
0.025417145 0.11861335 0.55600005
0.023871429 0.12094858 0.55700004
0.025417145 0.12073144 0.55600005
0.023871429 0.12307048 0.55700004
0.025240637 0.12267303 0.55600011
0.023871429 0.12572287 0.55700004
0.024887621 0.12496763 0.55600005
0.025451193 0.12725738 0.55675006
0.025993334 0.12943619 0.55700004
0.027005715 0.12920383 0.55600005
0.027054287 0.13102762 0.55700004
0.027054287 0.13261905 0.55700004
0.027054287 0.13474095 0.55700004
0.027054287 0.13686287 0.55700004
0.028064763 0.13873525 0.55600005
0.028064763 0.14085335 0.55600005
0.029123811 0.14508954 0.55600005
0.029123811 0.14720762 0.55600005
0.029176192 0.14906383 0.55700004
0.030535875 0.14950225 0.55600011
0.029176192 0.15065524 0.55700004
0.030888891 0.15126732 0.55600011
0.030572068 0.15286224 0.55666673
0.032300953 0.15303239 0.55600005
0.031298097 0.15489906 0.55700004
0.032830477 0.15462096 0.55600005
0.034419049 0.15515049 0.55600005
0.067249529 0.15462096 0.55600005
0.068838105 0.15462096 0.55600005
0.070426673 0.15462096 0.55600005
0.031298097 0.15702096 0.55700004
0.032859527 0.15688001 0.55650008
0.034772065 0.15691558 0.55600011
0.037066668 0.15726858 0.55600005
0.066780478 0.15688001 0.55650008
0.068931192 0.15695073 0.55675006
0.071020007 0.15688048 0.55650008
0.031298097 0.15861239 0.55700004
0.032889526 0.15914287 0.55700004
0.034948573 0.15885715 0.55600005
0.037066668 0.15885715 0.55600005
0.065131433 0.15938668 0.55600005
0.066780478 0.15900001 0.55650008
0.068961903 0.15914287 0.55700004
0.071083814 0.15861239 0.55700004
0.033420004 0.16126478 0.55700004
0.034979526 0.16112 0.55650008
0.037066668 0.16097525 0.55600005
0.063013338 0.16150478 0.55600005
0.064601913 0.16097525 0.55600005
0.066623501 0.16099176 0.55666673
0.033420004 0.16338667 0.55700004
0.034995478 0.16331358 0.55675006
0.037066668 0.16309334 0.55600005
0.039714288 0.16362287 0.55600005
0.06195429 0.16309334 0.55600005
0.063069999 0.16324049 0.55650008
0.064718097 0.16285621 0.55700004
0.034979526 0.16483 0.55650008
0.037066668 0.16521144 0.55600005
0.039714288 0.16521144 0.55600005
0.062065717 0.1649781 0.55700004
0.035011433 0.16656953 0.55700004
0.037066668 0.16680001 0.55600005
0.039184764 0.16732953 0.55600005
0.059836194 0.16785906 0.55600005
0.060895242 0.16680001 0.55600005
0.062065717 0.16656953 0.55700004
0.035541907 0.16869144 0.55700004
0.037133336 0.16869144 0.55700004
0.039384447 0.16937241 0.55633342
0.041126352 0.16962413 0.55600011
0.057718098 0.16997716 0.55600005
0.059130162 0.16927111 0.55600011
0.061004765 0.16869144 0.55700004
0.035541907 0.17081335 0.55700004
0.037133336 0.17081335 0.55700004
0.03905461 0.17088763 0.55666673
0.040773336 0.1710362 0.55600005
0.055600002 0.1710362 0.55600005
0.057291433 0.17134382 0.55700004
0.059943814 0.17028287 0.55700004
0.037310164 0.17275843 0.55700004
0.039219528 0.17278001 0.55650008
0.04130286 0.17262478 0.55600005
0.042891432 0.17315429 0.55600005
0.05528032 0.17290509 0.55633342
0.057291433 0.17240477 0.55700004
0.035541907 0.17505714 0.55700004
0.037133336 0.17505714 0.55700004
0.039255239 0.17505714 0.55700004
0.04130286 0.17474288 0.55600005
0.043244448 0.1749194 0.55600011
0.053128891 0.1749194 0.55600011
0.055120483 0.17490001 0.55650008
0.035541907 0.17664859 0.55700004
0.037310164 0.17700224 0.55700004
0.039255239 0.17717905 0.55700004
0.041339524 0.17702 0.55650008
0.043420956 0.17686096 0.55600005
0.051010799 0.17703748 0.55600011
0.052976429 0.17694072 0.55625004
0.054639053 0.17717907 0.55700004
0.039255239 0.17930096 0.55700004
0.041377146 0.17930096 0.55700004
0.043420956 0.17897905 0.55600005
0.046598099 0.17950858 0.55600005
0.048716195 0.17950858 0.55600005
0.050834291 0.17897907 0.55600005
0.05304762 0.17930096 0.55700004
0.054639053 0.17877048 0.55700004
0.039785717 0.18142286 0.55700004
0.041377146 0.18142287 0.55700004
0.043459527 0.18126 0.55650008
0.045009527 0.18109715 0.55600005
0.046598099 0.18109715 0.55600005
0.048716195 0.18109715 0.55600005
0.050903101 0.18134168 0.55675006
0.052517146 0.18142286 0.55700004
0.041377146 0.1830143 0.55700004
0.042968575 0.1830143 0.55700004
0.04456 0.1830143 0.55700004
0.046598099 0.18268573 0.55600005
0.048803814 0.1830143 0.55700004
0.050925717 0.1830143 0.55700004
0.041553974 0.18478255 0.55700004
0.043295875 0.18467176 0.55666673
0.044736829 0.1844289 0.55700004
0.046681911 0.18460572 0.55700004
0.048626989 0.1844289 0.55700004
0.051456194 0.18407525 0.55700004
0.041377146 0.18619716 0.55700004
0.042968575 0.18672764 0.55700004
0.044383179 0.18655083 0.55700004
0.046151433 0.18619716 0.55700004
0.073066674 0.06026667 0.56
0.073868573 0.062177148 0.55800003
0.074000955 0.063353337 0.55900002
0.074931435 0.065365717 0.55800003
0.075200006 0.06666667 0.56
0.023414049 0.11919977 0.55875003
0.022892382 0.12138191 0.55900002
0.02285143 0.12276001 0.55800003
0.023260318 0.12482858 0.55933332
0.021866668 0.12640001 0.56
0.023233017 0.12680827 0.55866671
0.023435 0.12889405 0.55925
0.024977144 0.12913716 0.55800003
0.021866668 0.13066667 0.56
0.022933334 0.13066667 0.56
0.024510954 0.13108286 0.55949998
0.026040001 0.13126287 0.55800003
0.024711113 0.13315557 0.56000006
0.026086668 0.13309523 0.55900002
0.026133334 0.13493334 0.56
0.026133334 0.13653335 0.56
0.028266668 0.14720002 0.56
0.028266668 0.14933334 0.56
0.028266668 0.15093334 0.56
0.028747622 0.15279239 0.55900002
0.029280953 0.15545429 0.55900002
0.030291431 0.15517715 0.55800003
0.029228574 0.15730286 0.55800003
0.030291431 0.15730286 0.55800003
0.029333334 0.15946668 0.56
0.03082286 0.15942858 0.55800003
0.071211435 0.15996002 0.55800003
0.030681908 0.16086033 0.55866671
0.032417145 0.16102287 0.55800003
0.069085717 0.16102287 0.55800003
0.070680007 0.16102287 0.55800003
0.030891193 0.16298167 0.55925
0.032417145 0.16261715 0.55800003
0.067177467 0.16289175 0.5583334
0.069271438 0.16305476 0.55949998
0.070933335 0.16266668 0.56
0.030905239 0.16518572 0.55949998
0.032771435 0.16492002 0.55800003
0.063240007 0.16527429 0.55800003
0.064834289 0.16474286 0.55800003
0.067140006 0.1651862 0.55949998
0.068800002 0.16480002 0.56
0.03146667 0.16693334 0.56
0.032948576 0.16686858 0.55800003
0.063296676 0.16701858 0.55850005
0.064950481 0.16663525 0.55900002
0.06666667 0.16693334 0.56
0.03146667 0.16853335 0.56
0.032977622 0.16914573 0.55850005
0.034542859 0.16899431 0.55800003
0.062793575 0.16922121 0.55875003
0.065066673 0.16853335 0.56
0.03146667 0.17066666 0.56
0.033007622 0.17142668 0.55900002
0.034542859 0.17112002 0.55800003
0.058988575 0.17165144 0.55800003
0.06079651 0.1713997 0.5583334
0.062877625 0.17104715 0.55949998
0.064533338 0.17013334 0.56
0.03146667 0.1728 0.56
0.033036672 0.17317858 0.55949998
0.035251431 0.17306858 0.55800003
0.036668573 0.17377715 0.55800003
0.057394288 0.17377715 0.55800003
0.058988575 0.17271429 0.55800003
0.060746193 0.17317858 0.55949998
0.062755562 0.17262223 0.56000006
0.03146667 0.17493334 0.56
0.033125337 0.17500231 0.55919999
0.034563497 0.17494383 0.5583334
0.056862861 0.17537144 0.55800003
0.058774613 0.17490289 0.55933332
0.060586356 0.17465177 0.55966669
0.03146667 0.17653334 0.56
0.032830164 0.17692795 0.55900002
0.034542859 0.17696573 0.55800003
0.055800002 0.17696573 0.55800003
0.056964766 0.17728287 0.55900002
0.058614768 0.17690858 0.55949998
0.06026667 0.17706668 0.56
0.033036672 0.17904001 0.55949998
0.035089765 0.17864025 0.55825007
0.037022859 0.17873716 0.55800003
0.055850003 0.17872049 0.55850005
0.056964766 0.17888001 0.55900002
0.058133338 0.17920002 0.56
0.06026667 0.17866668 0.56
0.033224449 0.18104796 0.55966663
0.035105243 0.18084763 0.55850005
0.037200004 0.18068573 0.55800003
0.038794287 0.18121715 0.55800003
0.053674288 0.18121715 0.55800003
0.055343099 0.18092883 0.55875003
0.057066672 0.18133333 0.56
0.058133338 0.18133333 0.56
0.033600003 0.18293335 0.56
0.035168096 0.18277001 0.55949998
0.037266668 0.18260668 0.55900002
0.03919556 0.18320763 0.55866671
0.053238098 0.18313906 0.55900002
0.054933336 0.18293335 0.56
0.056000005 0.18293335 0.56
0.035377782 0.18435559 0.56000006
0.037333336 0.18453336 0.56
0.039573655 0.18509112 0.55900002
0.040920004 0.18440573 0.55800003
0.04942286 0.18546858 0.55800003
0.050840005 0.18511431 0.55800003
0.05312413 0.18495589 0.55966669
0.035733335 0.18613334 0.56
0.037333336 0.18666667 0.56
0.039241906 0.18662161 0.55933332
0.041488096 0.18776239 0.55850005
0.045171432 0.18759429 0.55800003
0.046971112 0.18735209 0.5583334
0.048772704 0.18710923 0.55866671
0.051154766 0.18703288 0.55949998
0.037866671 0.18880001 0.56
0.038933337 0.18880001 0.56
0.040331118 0.18886511 0.55966663
0.04259048 0.18899526 0.55900002
0.044640005 0.18865715 0.55800003
0.046808098 0.1888262 0.55850005
0.049215563 0.18886511 0.55966663
0.050666671 0.18826668 0.56
0.038933337 0.19040002 0.56
0.040515002 0.19084835 0.55975002
0.042628571 0.19076335 0.55949998
0.044740241 0.19067788 0.55925
0.046912622 0.19084835 0.55975002
0.048533335 0.19093335 0.56
0.042666666 0.19253334 0.56
0.044800006 0.19253334 0.56
0.046933338 0.19253334 0.56
0.072128579 0.06037429 0.56100005
0.028317144 0.063580006 0.56100005
0.021905717 0.11914572 0.56100005
0.021905717 0.12074858 0.56100005
0.021905717 0.12235144 0.56100005
0.021905717 0.12502286 0.56100005
0.021905717 0.13196857 0.56100005
0.022974288 0.13196857 0.56100005
0.022974288 0.13303715 0.56100005
0.024577145 0.13464001 0.56100005
0.026180001 0.13838001 0.56100005
0.028317144 0.14372286 0.56100005
0.028317144 0.14532572 0.56100005
0.027248573 0.14746287 0.56100005
0.027248573 0.15120287 0.56100005
0.028317144 0.15494287 0.56100005
0.028317144 0.15654573 0.56100005
0.029385716 0.1613543 0.56100005
0.029385716 0.16295715 0.56100005
0.029385716 0.16456002 0.56100005
0.069991432 0.1650943 0.56100005
0.071060002 0.16402572 0.56100005
0.029385716 0.16616286 0.56100005
0.030454287 0.16723144 0.56100005
0.067854293 0.16723144 0.56100005
0.068922862 0.16669714 0.56100005
0.067141913 0.16865622 0.56100005
0.065360963 0.17114954 0.56100005
0.066785716 0.17043716 0.56100005
0.063580006 0.17364287 0.56100005
0.064648576 0.17310858 0.56100005
0.061442859 0.17578001 0.56100005
0.062867627 0.17506763 0.56100005
0.064648576 0.17471144 0.56100005
0.031522859 0.17791715 0.56100005
0.061442859 0.17738287 0.56100005
0.062511429 0.17684859 0.56100005
0.031522859 0.17898573 0.56100005
0.05930572 0.17898573 0.56100005
0.031522859 0.18005429 0.56100005
0.05930572 0.18058857 0.56100005
0.06037429 0.18058857 0.56100005
0.032591432 0.18219145 0.56100005
0.057168577 0.18326001 0.56100005
0.058771431 0.18272573 0.56100005
0.06037429 0.18219145 0.56100005
0.033660002 0.18486287 0.56100005
0.034728575 0.18539715 0.56100005
0.05396286 0.18539715 0.56100005
0.055031434 0.18486287 0.56100005
0.056456201 0.18468478 0.56100005
0.035084765 0.18717811 0.56100005
0.05360667 0.18717812 0.56100005
0.035440959 0.18895906 0.56100005
0.036865715 0.18913716 0.56100005
0.051469527 0.18931526 0.56100005
0.053428575 0.18913716 0.56100005
0.035797145 0.1912743 0.56100005
0.0374 0.19127429 0.56100005
0.039002858 0.19180858 0.56100005
0.049688574 0.1912743 0.56100005
0.051113337 0.19145238 0.56100005
0.035797145 0.19287716 0.56100005
0.0374 0.19287716 0.56100005
0.039002858 0.19341144 0.56100005
0.040605716 0.19341144 0.56100005
0.04274286 0.19394572 0.56100005
0.044880003 0.19394572 0.56100005
0.047017146 0.19394572 0.56100005
0.048976194 0.19323336 0.56100005
0.040605716 0.1950143 0.56100005
0.04274286 0.1950143 0.56100005
0.044880003 0.1950143 0.56100005
0.047017146 0.1950143 0.56100005
0.048620004 0.1950143 0.56100005
0.04274286 0.19608288 0.56100005
0.044701912 0.19643907 0.56100005
0.047195241 0.19643907 0.56100005
0.048620004 0.19608288 0.56100005
0.030562859 0.06166191 0.56300002
0.071186669 0.06048191 0.56200004
0.073327623 0.061552387 0.56200004
0.029438097 0.063693337 0.56200004
0.030562859 0.063270479 0.56300002
0.073458098 0.062734291 0.56300002
0.028928574 0.065357625 0.5625
0.0743981 0.064763814 0.56200004
0.075602859 0.068096198 0.56300002
0.023035716 0.13500048 0.5625
0.024085715 0.13541524 0.56200004
0.023056192 0.13672858 0.56300002
0.024653573 0.13720405 0.56275004
0.025200954 0.13887334 0.56300002
0.02678524 0.13982144 0.5625
0.027345717 0.14101811 0.56300002
0.027345717 0.14262667 0.56300002
0.027321432 0.14464238 0.5625
0.026614605 0.14665081 0.56266665
0.026614605 0.14915113 0.56266671
0.027297145 0.15040192 0.56200004
0.027297145 0.15307811 0.56200004
0.027345717 0.15495905 0.56300002
0.027345717 0.15603144 0.56300002
0.028367622 0.15789525 0.56200004
0.028367622 0.15896572 0.56200004
0.028367622 0.16057144 0.56200004
0.028392859 0.16285764 0.5625
0.071186669 0.16538858 0.56200004
0.07232143 0.16500048 0.5625
0.029438097 0.16752954 0.56200004
0.070556834 0.16701397 0.56266671
0.029490478 0.1694362 0.56300002
0.030508574 0.16913524 0.56200004
0.067975245 0.16967049 0.56200004
0.069107145 0.16928619 0.5625
0.029490478 0.17104477 0.56300002
0.030508574 0.17127621 0.56200004
0.067440003 0.17127621 0.56200004
0.069168575 0.17104477 0.56300002
0.029490478 0.17211716 0.56300002
0.030508574 0.17341715 0.56200004
0.065834291 0.17288192 0.56200004
0.067023814 0.17318954 0.56300002
0.068632387 0.17211716 0.56300002
0.030508574 0.17502287 0.56200004
0.065951429 0.1747981 0.56300002
0.030562859 0.17694287 0.56300002
0.063693337 0.17662859 0.56200004
0.064879052 0.17694287 0.56300002
0.061552387 0.17930478 0.56200004
0.063186429 0.17884929 0.56225002
0.031579051 0.18144573 0.56200004
0.061552387 0.1809105 0.56200004
0.063091755 0.18105367 0.56300008
0.031579051 0.1825162 0.56200004
0.032649525 0.18358667 0.56200004
0.059411433 0.18358667 0.56200004
0.061070956 0.18321478 0.5625
0.062734291 0.18284096 0.56300002
0.032649525 0.18519239 0.56200004
0.057270478 0.18572763 0.56200004
0.058929048 0.18482144 0.5625
0.033382542 0.18726574 0.56233335
0.055129528 0.18733335 0.56200004
0.056786194 0.1869643 0.5625
0.033045083 0.18880574 0.56266671
0.056300003 0.18820287 0.56300002
0.033780001 0.19088382 0.56300002
0.034790479 0.19054478 0.56200004
0.051918097 0.19108002 0.56200004
0.052988574 0.19108002 0.56200004
0.054059051 0.19108002 0.56200004
0.033780001 0.19302858 0.56300002
0.034790479 0.19268572 0.56200004
0.051382862 0.19322096 0.56200004
0.052988574 0.19268572 0.56200004
0.054059051 0.19268572 0.56200004
0.035357144 0.19500048 0.5625
0.036931433 0.19482668 0.56200004
0.038358733 0.1950051 0.56200004
0.049777146 0.19482668 0.56200004
0.051382858 0.19482668 0.56200004
0.053082861 0.19517335 0.56300002
0.054155242 0.19463715 0.56300002
0.035388574 0.19678192 0.56300002
0.036997147 0.19678192 0.56300002
0.038588338 0.19723073 0.56275004
0.040678099 0.19696763 0.56200004
0.042819049 0.19750287 0.56200004
0.045495242 0.19750287 0.56200004
0.046565719 0.19750287 0.56200004
0.049420323 0.19714604 0.56200004
0.051382862 0.1964324 0.56200004
0.03860572 0.19892667 0.56300002
0.040750481 0.19946286 0.56300002
0.042837858 0.1991974 0.56225002
0.044980243 0.1991974 0.56225002
0.04714286 0.19928621 0.5625
0.049286194 0.19875002 0.5625
0.04128667 0.20107144 0.56300002
0.042895243 0.20107144 0.56300002
0.045040004 0.20107144 0.56300002
0.047720954 0.20107144 0.56300002
0.042895243 0.20214382 0.56300002
0.044503812 0.20214382 0.56300002
0.071566671 0.059728574 0.565
0.072642863 0.059728574 0.565
0.031691432 0.061234288 0.56400001
0.033143815 0.061449848 0.56433332
0.071566671 0.061880957 0.565
0.072514288 0.061771434 0.56400001
0.031691432 0.063382864 0.56400001
0.033143815 0.06324096 0.56433332
0.073115721 0.063438579 0.56449997
0.031182382 0.065051913 0.56449997
0.033361908 0.064571433 0.565
0.073115721 0.064513817 0.56449997
0.029005717 0.067142859 0.56400001
0.031195953 0.066694528 0.56475002
0.032823812 0.06618572 0.565
0.073719054 0.066723816 0.565
0.074662864 0.066605717 0.56400001
0.027442859 0.069414288 0.565
0.029057145 0.068876192 0.565
0.030671431 0.068338096 0.565
0.075333342 0.068876192 0.565
0.027442859 0.071028575 0.565
0.028519049 0.071028575 0.565
0.07587143 0.071028575 0.565
0.076947622 0.071028575 0.565
0.078023814 0.070490479 0.565
0.07587143 0.072642863 0.565
0.076947622 0.072642863 0.565
0.031747621 0.074795246 0.565
0.077885717 0.075737149 0.56400001
0.022022858 0.13589714 0.56400001
0.022022858 0.13697144 0.56400001
0.022589764 0.13876739 0.56475002
0.024171431 0.13912001 0.56400001
0.022600001 0.14098096 0.565
0.024730003 0.14085619 0.56449997
0.026320001 0.14126858 0.56400001
0.022600003 0.14313334 0.565
0.024752382 0.14313334 0.565
0.026320001 0.14288001 0.56400001
0.023138097 0.14528573 0.565
0.024752384 0.14528573 0.565
0.026320001 0.14502858 0.56400001
0.023138097 0.1479762 0.565
0.024741193 0.14737263 0.56474996
0.023138097 0.1490524 0.565
0.024752382 0.1490524 0.565
0.025290478 0.15066668 0.565
0.026320001 0.15093715 0.56400001
0.026343334 0.1526843 0.56449997
0.026366668 0.15497144 0.565
0.026693653 0.15711778 0.56433332
0.027051747 0.1589089 0.56433332
0.027051747 0.16105875 0.56433332
0.027442859 0.16304287 0.565
0.027442859 0.16465715 0.565
0.028468573 0.16544001 0.56400001
0.07358858 0.16597715 0.56400001
0.074662864 0.16597715 0.56400001
0.027442859 0.16680953 0.565
0.028519049 0.16734762 0.565
0.073116675 0.16719952 0.56449997
0.075333342 0.16734762 0.565
0.027442859 0.16842382 0.565
0.028519049 0.16896191 0.565
0.071081907 0.16884193 0.56400001
0.073180959 0.16896191 0.565
0.075153977 0.16914128 0.565
0.028519049 0.1711143 0.565
0.070966199 0.17096287 0.56449997
0.073001593 0.17093495 0.565
0.075333342 0.1705762 0.565
0.029057145 0.17326668 0.565
0.068754293 0.17349716 0.56400001
0.070997387 0.17319025 0.56475002
0.073001593 0.17308733 0.565
0.074795246 0.17272858 0.565
0.029595241 0.17541906 0.565
0.067142859 0.17510858 0.56400001
0.068845958 0.17534168 0.56474996
0.071028575 0.17541906 0.565
0.072642863 0.17541906 0.565
0.029595241 0.17703335 0.565
0.066466361 0.17718256 0.56433332
0.068876192 0.17703335 0.565
0.070490479 0.17703335 0.565
0.072642863 0.17703335 0.565
0.029595241 0.17864764 0.565
0.030617144 0.17886858 0.56400001
0.06499429 0.17940572 0.56400001
0.066864133 0.17872129 0.56466669
0.068876192 0.17864764 0.565
0.029595241 0.18080001 0.565
0.030671431 0.18080001 0.565
0.06499429 0.18101716 0.56400001
0.066723816 0.18079999 0.565
0.068338096 0.18026191 0.565
0.030671431 0.18295239 0.565
0.063920006 0.18262859 0.56400001
0.065109529 0.18295239 0.565
0.066723816 0.18241429 0.565
0.031209525 0.18510476 0.565
0.061449848 0.18506573 0.56433332
0.062957145 0.18510477 0.565
0.064033337 0.18510477 0.565
0.03138889 0.18707781 0.565
0.059138101 0.18709192 0.56449997
0.061342862 0.18725717 0.565
0.062957145 0.18671906 0.565
0.031747621 0.18940954 0.565
0.055325717 0.18961143 0.56400001
0.057150163 0.18936542 0.56433332
0.059190482 0.18887144 0.565
0.031747621 0.19102383 0.565
0.032765716 0.19122288 0.56400001
0.055374764 0.19139192 0.56449997
0.057038099 0.19102383 0.565
0.031747621 0.19263811 0.565
0.032765716 0.19337144 0.56400001
0.055374764 0.19354239 0.56449997
0.056500003 0.19263811 0.565
0.031747621 0.19425239 0.565
0.033331908 0.19515572 0.56449997
0.055423815 0.19532858 0.565
0.056500003 0.19425239 0.565
0.033331908 0.19676858 0.56449997
0.053177148 0.19713144 0.56400001
0.05467429 0.19664763 0.56466669
0.033361908 0.19909525 0.565
0.035451431 0.19874287 0.56400001
0.037062861 0.19874287 0.56400001
0.051028576 0.19874287 0.56400001
0.052710239 0.19900739 0.56475002
0.054347623 0.19855715 0.565
0.033541273 0.20142701 0.565
0.035466906 0.20098072 0.56424999
0.037062861 0.20089144 0.56400001
0.038674287 0.20089144 0.56400001
0.040285718 0.20142858 0.56400001
0.046731431 0.20142858 0.56400001
0.049238097 0.20071238 0.56400001
0.050760321 0.20142701 0.565
0.05219524 0.20070954 0.565
0.033900004 0.20340002 0.565
0.034976192 0.20340002 0.565
0.036590479 0.20340002 0.565
0.038708571 0.2032205 0.56450003
0.04082286 0.20304 0.56400001
0.042971432 0.20357716 0.56400001
0.045299053 0.20321906 0.56400001
0.047289763 0.20313025 0.56424999
0.048966669 0.20340002 0.565
0.05004286 0.20340002 0.565
0.034976192 0.2050143 0.565
0.036590479 0.2050143 0.565
0.038742859 0.2050143 0.565
0.041001908 0.20500955 0.56400001
0.042971432 0.2051886 0.56400001
0.045120001 0.20518859 0.56400001
0.047352385 0.2050143 0.565
0.048966669 0.2050143 0.565
0.034976192 0.20609049 0.565
0.036590479 0.20662859 0.565
0.038742859 0.20662859 0.565
0.040715873 0.20680796 0.565
0.043047622 0.20716669 0.565
0.045200005 0.20716669 0.565
0.047352385 0.20662859 0.565
0.048966669 0.20609049 0.565
0.038922228 0.20860159 0.565
0.040895239 0.20878096 0.565
0.043047622 0.20878096 0.565
0.045200005 0.20878097 0.565
0.046814289 0.20878096 0.565
0.040895239 0.21039525 0.565
0.043047622 0.21039525 0.565
0.044661909 0.21039525 0.565
0.068580002 0.057780005 0.56700003
0.035100002 0.059400003 0.56700003
0.036703572 0.059373576 0.56675005
0.038340002 0.059940003 0.56700003
0.043020003 0.059580006 0.56700003
0.044820003 0.059400003 0.56700003
0.069660008 0.059400003 0.56700003
0.070615239 0.05983429 0.56600004
0.033960003 0.060912386 0.56600004
0.035100002 0.061020005 0.56700003
0.036687143 0.060966194 0.56650007
0.038340002 0.061020005 0.56700003
0.070740007 0.061020005 0.56700003
0.035100002 0.062640004 0.56700003
0.03672 0.062640004 0.56700003
0.033960003 0.065224767 0.56600004
0.035100002 0.064800009 0.56700003
0.071820006 0.064260006 0.56700003
0.07277143 0.065224767 0.56600004
0.033420958 0.066841908 0.56600004
0.034020003 0.067500003 0.56700003
0.072835714 0.06690143 0.56650007
0.031481907 0.069259055 0.56666672
0.073980004 0.069120005 0.56700003
0.075060003 0.069660008 0.56700003
0.029700002 0.071280003 0.56700003
0.030780002 0.071280003 0.56700003
0.073980004 0.071280003 0.56700003
0.074993812 0.071217626 0.56650007
0.02964762 0.07277143 0.56600004
0.030780002 0.07344 0.56700003
0.076680005 0.073980004 0.56700003
0.076680005 0.075060003 0.56700003
0.076611906 0.076072857 0.56650007
0.023220001 0.15066001 0.56700003
0.024278574 0.15106715 0.56650007
0.025357621 0.15322524 0.56650007
0.025380002 0.15498 0.56700003
0.025380002 0.15606001 0.56700003
0.025380002 0.16146001 0.56700003
0.026413335 0.16009715 0.56600004
0.026413335 0.16279238 0.56600004
0.026460001 0.16524002 0.56700003
0.026460001 0.1674 0.56700003
0.026975716 0.16941002 0.56650007
0.027147621 0.17097811 0.56633341
0.074927621 0.1719562 0.56600004
0.027540002 0.17334001 0.56700003
0.073980004 0.17226002 0.56700003
0.07600572 0.1730343 0.56600004
0.028569525 0.17465144 0.56600004
0.073980004 0.17496002 0.56700003
0.074927621 0.17465144 0.56600004
0.028594764 0.17696334 0.56650007
0.071693338 0.17734668 0.56600004
0.073914766 0.1769643 0.56650007
0.074993812 0.1769643 0.56650007
0.028569525 0.17896383 0.56600004
0.071185954 0.1790431 0.56625003
0.028569525 0.18112001 0.56600004
0.06921874 0.18140668 0.56633341
0.070740007 0.18144001 0.56700003
0.027540002 0.18306001 0.56700003
0.029108573 0.18327621 0.56600004
0.066841908 0.18381526 0.56600004
0.068580002 0.18306001 0.56700003
0.027540002 0.18414001 0.56700003
0.029305082 0.18536159 0.56633341
0.065224767 0.18543239 0.56600004
0.066960007 0.18522002 0.56700003
0.028980002 0.18702003 0.56700003
0.06474334 0.18721478 0.56650007
0.066420004 0.18630001 0.56700003
0.029700002 0.18900001 0.56700003
0.030725716 0.18866667 0.56600004
0.061451435 0.18920572 0.56600004
0.063124292 0.18883383 0.56650007
0.064260006 0.18900001 0.56700003
0.029700002 0.19062001 0.56700003
0.030725716 0.19082287 0.56600004
0.059295241 0.19082287 0.56600004
0.061020005 0.19116001 0.56700003
0.062460005 0.19098 0.56700003
0.03075286 0.19314906 0.56650007
0.0576781 0.19297907 0.56600004
0.059348099 0.19314954 0.56650007
0.061020005 0.19278002 0.56700003
0.031085081 0.19531493 0.5660001
0.057139054 0.19513525 0.56600004
0.059400003 0.19494002 0.56700003
0.029700002 0.19710001 0.56700003
0.031462543 0.19722764 0.56633341
0.055521909 0.19783048 0.56600004
0.057190001 0.19692573 0.56650007
0.058860004 0.19602001 0.56700003
0.029700002 0.19872001 0.56700003
0.03129191 0.19908382 0.56650007
0.055031911 0.19962335 0.56650007
0.056700002 0.19926001 0.56700003
0.029700002 0.20088002 0.56700003
0.031121274 0.20094161 0.56666672
0.032881908 0.20106478 0.56600004
0.053365719 0.20106478 0.56600004
0.055080004 0.20088002 0.56700003
0.029700002 0.20250002 0.56700003
0.031481273 0.20274095 0.56666672
0.032881908 0.20322096 0.56600004
0.051209528 0.20322096 0.56600004
0.052873813 0.20286095 0.56650007
0.054540005 0.20250002 0.56700003
0.031860001 0.20520002 0.56700003
0.033280008 0.20525907 0.56666672
0.050880324 0.20513874 0.56633341
0.052380003 0.20520002 0.56700003
0.033450004 0.20663762 0.56650007
0.035038099 0.20753334 0.56600004
0.049053337 0.20753334 0.56600004
0.050737858 0.20726882 0.56675005
0.035100002 0.20898001 0.56700003
0.036834925 0.20897081 0.5660001
0.038272385 0.20968954 0.56600004
0.047975242 0.20861144 0.56600004
0.049140003 0.20898001 0.56700003
0.050220001 0.20898001 0.56700003
0.035100002 0.21006002 0.56700003
0.036540002 0.21078002 0.56700003
0.03881143 0.21076763 0.56600004
0.040967621 0.21184573 0.56600004
0.043123811 0.21184573 0.56600004
0.045459688 0.21148637 0.5660001
0.046897147 0.21076763 0.56600004
0.048420005 0.21042001 0.56700003
0.046980005 0.21222001 0.56700003
0.068700954 0.056800004 0.56800002
0.041112386 0.058963813 0.56800002
0.043817144 0.058963813 0.56800002
0.045980956 0.058963813 0.56800002
0.068700954 0.058963813 0.56800002
0.039489526 0.060586669 0.56800002
0.041112386 0.060586669 0.56800002
0.043276191 0.061127622 0.56800002
0.045620322 0.060766988 0.56800002
0.047062859 0.060586669 0.56800002
0.048229527 0.061235242 0.56900001
0.069782861 0.061127622 0.56800002
0.038948573 0.062750481 0.56800002
0.041112386 0.062750481 0.56800002
0.043276194 0.062750481 0.56800002
0.045440003 0.062750481 0.56800002
0.047145717 0.062860958 0.56900001
0.071225405 0.0629308 0.56800002
0.036784764 0.064914286 0.56800002
0.038983338 0.064971432 0.56850004
0.041112386 0.064914286 0.56800002
0.043276191 0.064914294 0.56800002
0.045440003 0.064914286 0.56800002
0.047145717 0.064486668 0.56900001
0.071225405 0.065094605 0.56800002
0.035161909 0.067078099 0.56800002
0.036817148 0.067137629 0.56850004
0.038982861 0.067137629 0.56850004
0.041112386 0.067078099 0.56800002
0.043276191 0.067078099 0.56800002
0.045259684 0.06689778 0.56800002
0.047145717 0.066654287 0.56900001
0.071436912 0.067107864 0.56825006
0.032998096 0.069241911 0.56800002
0.034651905 0.069302864 0.56850004
0.037391432 0.069363818 0.56900001
0.038836516 0.069183186 0.56900001
0.041317146 0.069102541 0.56833339
0.043276191 0.068700954 0.56800002
0.04489905 0.068700954 0.56800002
0.070989527 0.069905721 0.56900001
0.07255096 0.069302857 0.56850004
0.031972382 0.070989527 0.56900001
0.033056192 0.070989527 0.56900001
0.034140002 0.070989527 0.56900001
0.072710171 0.071266994 0.56833339
0.03194429 0.07255096 0.56850004
0.033056192 0.072615243 0.56900001
0.034140002 0.072615243 0.56900001
0.072615243 0.072615243 0.56900001
0.074651435 0.073028579 0.56800002
0.031916194 0.074110478 0.56800002
0.033027142 0.074716672 0.56850004
0.074716672 0.074717149 0.56850004
0.073157147 0.07640858 0.56900001
0.074716672 0.076882862 0.56850004
0.07424096 0.078576192 0.56900001
0.024342859 0.15308954 0.56800002
0.024385717 0.15498477 0.56900001
0.024732066 0.15724066 0.5686667
0.024905242 0.15918002 0.56850004
0.02490524 0.1608043 0.56850004
0.02490524 0.16296953 0.56850004
0.024732066 0.16482288 0.5686667
0.02490524 0.16676001 0.56850004
0.02492762 0.1690743 0.56900001
0.025108255 0.17106128 0.56900001
0.026506668 0.17148192 0.56800002
0.025469525 0.17286763 0.56900001
0.026530001 0.17325763 0.56850004
0.027588572 0.17526859 0.56800002
0.027637145 0.17720287 0.56900001
0.027612858 0.17867096 0.56850004
0.073028579 0.17905524 0.56800002
0.074651435 0.17905524 0.56800002
0.027588572 0.1806781 0.56800002
0.071946673 0.18121906 0.56800002
0.073092863 0.18083763 0.56850004
0.074684054 0.18075787 0.56825
0.026898414 0.18287621 0.5686667
0.069782861 0.18338287 0.56800002
0.070989527 0.18370573 0.56900001
0.07207334 0.18262191 0.56900001
0.026882861 0.18529493 0.56833339
0.069272622 0.18508738 0.56825006
0.070989527 0.18478954 0.56900001
0.027588572 0.18662858 0.56800002
0.067258418 0.18734986 0.56800002
0.069363818 0.18695715 0.56900001
0.027637145 0.18858287 0.56900001
0.028670479 0.18933335 0.56800002
0.065455243 0.18933335 0.56800002
0.066937469 0.18926382 0.56833339
0.068821907 0.18804097 0.56900001
0.027637145 0.19020858 0.56900001
0.028670479 0.19095621 0.56800002
0.064914286 0.19095621 0.56800002
0.06737683 0.19093113 0.56900001
0.029236669 0.19274858 0.56850004
0.0629308 0.19275938 0.56800002
0.064810172 0.19262478 0.5686667
0.066654287 0.1923762 0.56900001
0.029408574 0.19467652 0.56833339
0.061127622 0.19474286 0.56800002
0.062833577 0.19500025 0.56875002
0.064486668 0.19454382 0.56900001
0.029211432 0.19690669 0.56800002
0.058963813 0.19744763 0.56800002
0.060613573 0.19699359 0.56825
0.062319051 0.19671144 0.56900001
0.028670479 0.19907048 0.56800002
0.05788191 0.19907048 0.56800002
0.059015717 0.1992462 0.56850004
0.060151432 0.19887906 0.56900001
0.028670479 0.2012343 0.56800002
0.055718098 0.20177525 0.56800002
0.057160642 0.20105398 0.56800002
0.028720954 0.2032143 0.56900001
0.030834287 0.20393907 0.56800002
0.055177145 0.20339811 0.56800002
0.057622544 0.20285302 0.56900001
0.029804764 0.20484 0.56900001
0.030834287 0.20502096 0.56800002
0.053554289 0.20502096 0.56800002
0.055422865 0.20490035 0.5686667
0.056900002 0.20484 0.56900001
0.031402383 0.20682526 0.56850004
0.053225081 0.20694575 0.56833339
0.054732386 0.20646572 0.56900001
0.033056192 0.20917526 0.56900001
0.034080002 0.20880763 0.56800002
0.05139048 0.20934859 0.56800002
0.052518576 0.20899191 0.56850004
0.049226671 0.2115124 0.56800002
0.050872147 0.21106455 0.56825006
0.058187623 0.057100005 0.57100004
0.058731433 0.058187623 0.57100004
0.063081905 0.058187623 0.57100004
0.065200001 0.058680482 0.57050002
0.067495242 0.058447622 0.57000005
0.04909588 0.060690165 0.57066673
0.050574288 0.061450481 0.57100004
0.067976192 0.060362861 0.57100004
0.069003336 0.060853817 0.57050002
0.04839905 0.062538102 0.57100004
0.070090003 0.063027143 0.57050002
0.070151433 0.065257147 0.57100004
0.046142861 0.067857146 0.57000005
0.070028573 0.066771433 0.57000005
0.036371432 0.06894286 0.57000005
0.046223812 0.069063812 0.57100004
0.071114287 0.06894286 0.57000005
0.035347622 0.071239054 0.57100004
0.036776513 0.070835561 0.57066673
0.03933556 0.070876516 0.57100004
0.041148257 0.070876516 0.57100004
0.042960957 0.070695244 0.57100004
0.044592384 0.070695244 0.57100004
0.046223812 0.070151433 0.57100004
0.07063286 0.07117667 0.57050002
0.035316668 0.072806194 0.57050002
0.036979049 0.072870478 0.57100004
0.039154287 0.072870478 0.57100004
0.041329525 0.072870478 0.57100004
0.042960957 0.072870478 0.57100004
0.044411115 0.07268922 0.57100004
0.070834927 0.072646998 0.57066673
0.072200008 0.073285721 0.57000005
0.034773812 0.074436672 0.57050002
0.038610477 0.074501909 0.57100004
0.042960957 0.074501909 0.57100004
0.071239054 0.07504572 0.57100004
0.072774529 0.074947387 0.57025003
0.072646357 0.07735683 0.57066673
0.073285721 0.078714289 0.57000005
0.023021271 0.15317303 0.57100004
0.023383811 0.15498573 0.57100004
0.025536668 0.17495382 0.57050002
0.026600001 0.17534287 0.57000005
0.025559049 0.17673811 0.57100004
0.026600001 0.17697144 0.57000005
0.026600001 0.17914286 0.57000005
0.026600001 0.18131429 0.57000005
0.073285721 0.18294287 0.57000005
0.074914292 0.18294287 0.57000005
0.072807148 0.18473335 0.57050002
0.074864447 0.18471399 0.57100004
0.026600001 0.18728572 0.57000005
0.07117667 0.18690714 0.57050002
0.072689213 0.18688922 0.57100004
0.026600001 0.1889143 0.57000005
0.06894286 0.18945715 0.57000005
0.070633814 0.18908 0.57050002
0.072326675 0.18924573 0.57100004
0.026977463 0.19137876 0.57033336
0.06894286 0.19108573 0.57000005
0.070473023 0.19112828 0.57066673
0.027685717 0.1927143 0.57000005
0.065685719 0.19380002 0.57000005
0.06731429 0.19325715 0.57000005
0.069063812 0.1930524 0.57100004
0.027734287 0.19468382 0.57100004
0.02877143 0.19597144 0.57000005
0.065142862 0.19542858 0.57000005
0.067613661 0.19486511 0.57100004
0.069063812 0.19414002 0.57100004
0.02877143 0.19705716 0.57000005
0.063514292 0.19705716 0.57000005
0.065400645 0.19692509 0.57066673
0.067432389 0.19685905 0.57100004
0.061342862 0.19922858 0.57000005
0.062999286 0.19877312 0.57025003
0.065257147 0.1990343 0.57100004
0.066888578 0.19849049 0.57100004
0.059171431 0.20140001 0.57000005
0.060880244 0.20112169 0.57075006
0.062900648 0.20102827 0.57100004
0.059171431 0.20302859 0.57000005
0.060362861 0.20338479 0.57100004
0.028821906 0.20501621 0.57100004
0.05848223 0.20513874 0.57033336
0.029339526 0.2064662 0.57050002
0.030942859 0.20791429 0.57000005
0.055552386 0.2075524 0.57000005
0.057000004 0.20682858 0.57000005
0.058187623 0.20719144 0.57100004
0.030997144 0.20936668 0.57100004
0.032028574 0.20900001 0.57000005
0.05374286 0.20900001 0.57000005
0.054924764 0.20936668 0.57100004
0.057100005 0.20827906 0.57100004
0.053246193 0.21081382 0.57050002
0.054924764 0.2104543 0.57100004
0.055117145 0.057300005 0.57300001
0.056870162 0.056869529 0.57233334
0.058289528 0.056110479 0.57200003
0.051752385 0.058834292 0.57200003
0.05338667 0.058834292 0.57200003
0.055069052 0.058886193 0.57249999
0.056704763 0.058886193 0.57249999
0.058834292 0.059379052 0.57200003
0.061067149 0.059430957 0.57249999
0.063192382 0.059379052 0.57200003
0.067005716 0.059379052 0.57200003
0.05141937 0.060866989 0.57233334
0.052841909 0.061013337 0.57200003
0.054595478 0.061146908 0.57325
0.056803815 0.061173812 0.57350004
0.058937147 0.060574289 0.57300001
0.060574289 0.060574289 0.57300001
0.063413337 0.060680006 0.574
0.065428101 0.060521431 0.57249999
0.066797465 0.061338417 0.57333338
0.06821429 0.061665718 0.57300001
0.04926794 0.063448258 0.5726667
0.051342383 0.062811911 0.57350004
0.053026669 0.062866673 0.574
0.054120004 0.062866673 0.574
0.068981588 0.063157469 0.57333338
0.048875879 0.065227628 0.57233334
0.069426671 0.065053336 0.574
0.048653338 0.067240007 0.574
0.069426671 0.066146672 0.574
0.047477148 0.068760961 0.57300001
0.048653338 0.068333335 0.574
0.070520006 0.068880007 0.574
0.047141593 0.071165726 0.57333338
0.070520006 0.070520006 0.574
0.045215242 0.073542863 0.57200003
0.04672318 0.072900958 0.5726667
0.070520006 0.073800005 0.574
0.034895718 0.075788103 0.57249999
0.037059765 0.075210243 0.57225001
0.039404448 0.075358741 0.57200003
0.041419759 0.075210243 0.57225001
0.043036193 0.075721912 0.57200003
0.044690244 0.075210243 0.57225001
0.046385717 0.075308576 0.57300001
0.037588574 0.076811433 0.57200003
0.039292384 0.076945722 0.57300001
0.040928572 0.076945722 0.57300001
0.0425281 0.076878577 0.57249999
0.044710003 0.076878577 0.57249999
0.046931431 0.076945722 0.57300001
0.071363814 0.077356197 0.57200003
0.039177783 0.07890223 0.574
0.041000001 0.078720003 0.574
0.042565718 0.078582868 0.57300001
0.044566672 0.078400962 0.57300007
0.046931431 0.07803715 0.57300001
0.071488574 0.079128578 0.57300001
0.072453335 0.078990482 0.57200003
0.038813338 0.080360003 0.574
0.041000001 0.080360003 0.574
0.042020004 0.080220006 0.57300001
0.072580002 0.080220006 0.57300001
0.021245716 0.15307811 0.57200003
0.020930797 0.15525526 0.57333338
0.022335239 0.15471238 0.57200003
0.021320002 0.15744001 0.574
0.022879999 0.15689144 0.57200003
0.021320002 0.15908001 0.574
0.022899525 0.15920953 0.57249999
0.021320002 0.16072002 0.574
0.023074605 0.1611616 0.57233334
0.022909287 0.16309692 0.57274997
0.022737462 0.16498765 0.57300007
0.023465715 0.16698858 0.57300001
0.023465715 0.17080796 0.57300001
0.023506667 0.17329335 0.574
0.024514288 0.1732343 0.57200003
0.024557145 0.1751743 0.57300001
0.024557145 0.17681144 0.57300001
0.02529905 0.17891622 0.57333338
0.025693335 0.18094668 0.574
0.025693335 0.18258667 0.574
0.025693335 0.18477334 0.574
0.075721912 0.18576382 0.57200003
0.077356197 0.18576382 0.57200003
0.073542863 0.18794286 0.57200003
0.075177148 0.18739811 0.57200003
0.076945722 0.18718001 0.57300001
0.07803715 0.18718001 0.57300001
0.073542863 0.18903239 0.57200003
0.075177148 0.18903239 0.57200003
0.076945722 0.18881716 0.57300001
0.078105241 0.1889824 0.57350004
0.073179692 0.19084828 0.57200003
0.075242862 0.19083382 0.57249999
0.076945722 0.1904543 0.57300001
0.026693335 0.19339049 0.57200003
0.071000643 0.19302732 0.57200003
0.072453335 0.19230096 0.57200003
0.026693335 0.19502477 0.57200003
0.069184765 0.19556953 0.57200003
0.070912145 0.19528073 0.57274997
0.07270667 0.19461334 0.574
0.027435241 0.19713685 0.57233334
0.069184765 0.19720381 0.57200003
0.07100524 0.19717477 0.57350004
0.07270667 0.19625334 0.574
0.027782859 0.19938287 0.57200003
0.067005716 0.19992763 0.57200003
0.068498731 0.19931716 0.57233334
0.070520006 0.19844002 0.574
0.027782859 0.20101716 0.57200003
0.065371431 0.20101716 0.57200003
0.067005716 0.20101716 0.57200003
0.068820477 0.20099764 0.57350004
0.02783143 0.20300573 0.57300001
0.061558098 0.2031962 0.57200003
0.063373975 0.20283303 0.57200003
0.065227628 0.20258829 0.57233334
0.066720009 0.20306985 0.5726667
0.068333335 0.20281334 0.574
0.061194927 0.20501208 0.57200003
0.063047945 0.20476794 0.57233334
0.065053336 0.20500001 0.574
0.066146672 0.20500001 0.574
0.027880002 0.20664001 0.574
0.028872384 0.2075543 0.57200003
0.059379052 0.20700954 0.57200003
0.06090286 0.20706922 0.57266665
0.063559055 0.20670192 0.57366669
0.027880002 0.20882668 0.574
0.029615557 0.2091286 0.57233334
0.056655243 0.20973335 0.57200003
0.058886193 0.20882621 0.57249999
0.061408892 0.2090089 0.574
0.062866673 0.20828001 0.574
0.058493339 0.21046668 0.574
0.059142858 0.061880957 0.57500005
0.061880957 0.060785718 0.57500005
0.064619049 0.061880957 0.57500005
0.055309527 0.062976196 0.57500005
0.056952387 0.062976196 0.57500005
