# .PCD v0.7 - Point Cloud Data file format
VERSION 0.7
FIELDS x y z rgb
SIZE 4 4 4 4
TYPE F F F F
COUNT 1 1 1 1
WIDTH 143
HEIGHT 1
VIEWPOINT 0 0 0 1 0 0 0
POINTS 143
DATA ascii
-0.43452004 0.055853337 0.99400002 5.3448438e-39
-0.43452004 0.057746671 0.99400002 5.3444907e-39
-0.44227526 0.052538097 1.003 5.8061779e-39
-0.43940955 0.052538097 1.003 5.2533685e-39
-0.43904763 0.054285716 1 5.7132648e-39
-0.43714288 0.054285716 1 5.4359632e-39
-0.44544002 0.046080004 1.008 5.3462787e-39
-0.44516957 0.049533974 1.0066667 5.7136221e-39
-0.44261336 0.050172701 1.0066667 5.4373954e-39
-0.43968004 0.049920004 1.008 4.3335702e-39
-0.43680003 0.048960004 1.008 4.4253888e-39
-0.43488002 0.049920004 1.008 4.6087137e-39
-0.43872002 0.052800003 1.008 4.5176041e-39
-0.43488002 0.052800003 1.008 4.4246868e-39
-0.44229716 0.041525718 1.0140001 4.7005422e-39
-0.43940002 0.041525718 1.0140001 4.5158006e-39
-0.44164145 0.043392859 1.0125 4.4253986e-39
-0.43940002 0.043457147 1.0140001 4.3324855e-39
-0.43746859 0.043457147 1.0140001 4.3324883e-39
-0.44291431 0.046217147 1.011 4.8860195e-39
-0.43906289 0.046217147 1.011 4.4250371e-39
-0.43682146 0.046284288 1.0125 4.7923819e-39
-0.43553716 0.049251433 1.0140001 4.4250553e-39
-0.43810004 0.05199429 1.011 4.3339247e-39
-0.4342486 0.05199429 1.011 4.1491803e-39
-0.43553716 0.055045716 1.0140001 3.5985246e-39
-0.44263718 0.037774287 1.0170001 4.6083564e-39
-0.44070002 0.037774287 1.0170001 4.4243323e-39
-0.43973145 0.040680002 1.0170001 4.5154447e-39
-0.43682575 0.046491433 1.0170001 4.5168824e-39
-0.43811432 0.043714289 1.0200001 4.2410158e-39
-0.43745431 0.04384286 1.023 4.057342e-39
-0.43583861 0.049615718 1.0215001 4.149539e-39
-0.43355718 0.053585719 1.023 4.3332002e-39
-0.43971431 0.028337145 1.026 3.3222937e-39
-0.43482861 0.043971431 1.026 3.8733137e-39
-0.43385145 0.046902858 1.026 3.9655079e-39
-0.43092003 0.046902858 1.026 4.0559113e-39
-0.42896575 0.047880001 1.026 4.1484572e-39
-0.43385148 0.049834289 1.026 4.2410102e-39
-0.42701146 0.049834289 1.026 3.8718605e-39
-0.43352577 0.052440003 1.026 4.2406486e-39
-0.42701146 0.05276572 1.026 3.6885567e-39
-0.42408001 0.05276572 1.026 3.5970827e-39
-0.42798859 0.055697147 1.026 3.8718703e-39
-0.43092003 0.059605718 1.026 4.3310492e-39
-0.42766291 0.058302861 1.026 3.8722277e-39
-0.42440575 0.058302861 1.026 3.6878476e-39
-0.42701146 0.061560005 1.026 3.7807649e-39
-0.43456194 0.028447621 1.0300001 3.5963624e-39
-0.43421099 0.037330478 1.0315001 3.9629898e-39
-0.4318924 0.040336192 1.033 4.2388536e-39
-0.43081844 0.042916831 1.0320001 3.8700823e-39
-0.42831671 0.044207148 1.0315001 3.8715172e-39
-0.42438716 0.043224767 1.0315001 3.6885581e-39
-0.42144147 0.043223336 1.0315001 3.4134061e-39
-0.43063813 0.046104766 1.0300001 3.964087e-39
-0.42769527 0.046104766 1.0300001 3.9640716e-39
-0.42475241 0.046104766 1.0300001 3.9644233e-39
-0.42180955 0.046104766 1.0300001 3.6881951e-39
-0.43063813 0.050028574 1.0300001 4.0562448e-39
-0.42736828 0.048720639 1.0300001 3.963703e-39
-0.42475241 0.049047619 1.0300001 3.9640604e-39
-0.42180955 0.049047623 1.0300001 3.7800292e-39
-0.43063813 0.05297143 1.0300001 3.9644233e-39
-0.42254514 0.052694928 1.0310001 3.5967268e-39
-0.4267143 0.05591429 1.0300001 3.6892797e-39
-0.42438716 0.055995718 1.0315001 3.3205056e-39
-0.42205432 0.056077145 1.033 2.7694884e-39
-0.42475241 0.059838098 1.0300001 3.7796845e-39
-0.42242241 0.05796048 1.0315001 3.4123369e-39
-0.4267143 0.061800003 1.0300001 3.87189e-39
-0.4267143 0.063761912 1.0300001 3.8718787e-39
-0.42747432 0.040570479 1.039 3.5045283e-39
-0.42450574 0.040570479 1.039 3.5970757e-39
-0.42252669 0.046507623 1.039 3.3212091e-39
-0.42153716 0.049476195 1.039 3.6881881e-39
-0.42092717 0.052369051 1.0375 3.8715032e-39
-0.42328003 0.054266669 1.036 3.3201441e-39
-0.42123216 0.055372622 1.03825 3.3204958e-39
-0.41856861 0.055413336 1.039 3.411974e-39
-0.41658956 0.054423813 1.039 3.5963596e-39
-0.4213067 0.058213338 1.036 3.5045283e-39
-0.41895097 0.058297623 1.0375 3.595645e-39
-0.41658956 0.058381908 1.039 3.3201315e-39
-0.41895097 0.060273811 1.0375 3.7786055e-39
-0.41560003 0.062340003 1.039 3.4119684e-39
-0.42771623 0.03870286 1.0420001 3.5048857e-39
-0.42573145 0.03870286 1.0420001 3.5055975e-39
-0.42374671 0.040687621 1.0420001 3.8722193e-39
-0.42374671 0.043664765 1.0420001 3.2290149e-39
-0.42176193 0.046641909 1.0420001 3.1375381e-39
-0.41977718 0.049619049 1.0420001 3.7796677e-39
-0.4187848 0.052596193 1.0420001 3.7789516e-39
-0.41580763 0.052596193 1.0420001 3.5037997e-39
-0.41779241 0.056565717 1.0420001 3.3204916e-39
-0.41580763 0.055573337 1.0420001 3.4123243e-39
-0.41580763 0.058550481 1.0420001 3.41196e-39
-0.41382289 0.058550481 1.0420001 3.5956254e-39
-0.41779241 0.060535241 1.0420001 3.319777e-39
-0.41580763 0.060535241 1.0420001 3.5034367e-39
-0.41283047 0.061527625 1.0420001 3.7792851e-39
-0.41382289 0.064504765 1.0420001 4.7894868e-39
-0.41382289 0.067481905 1.0420001 4.0544539e-39
-0.41382289 0.070459053 1.0420001 3.7789572e-39
-0.42457861 0.037871905 1.0465001 3.6881867e-39
-0.42297623 0.038814288 1.0450001 3.9636932e-39
-0.42297623 0.040804766 1.0450001 4.147367e-39
-0.4227156 0.044165086 1.0460001 3.044625e-39
-0.42098573 0.046776194 1.0450001 3.411967e-39
-0.4183318 0.050093658 1.0450001 3.7793048e-39
-0.41620573 0.050902862 1.0480001 3.3211881e-39
-0.41501433 0.052747622 1.0450001 3.136808e-39
-0.41202861 0.064690478 1.0450001 3.8711262e-39
-0.41420954 0.068868577 1.0480001 3.5956408e-39
-0.41248354 0.067473978 1.0470002 3.5037969e-39
-0.41021717 0.066872388 1.0480001 3.2282876e-39
-0.41420954 0.070864767 1.0480001 3.5038151e-39
-0.41221336 0.070864767 1.0480001 3.3201385e-39
-0.41021717 0.072860956 1.0480001 3.1357444e-39
-0.41879624 0.049093336 1.052 3.5952708e-39
-0.41178289 0.065123811 1.052 3.2275673e-39
-0.40977907 0.065123811 1.052 2.7687458e-39
-0.40977907 0.067127623 1.052 2.9527783e-39
-0.41178289 0.070133343 1.052 3.1368164e-39
-0.40977907 0.070133343 1.052 3.0442607e-39
-0.40977907 0.073139049 1.052 2.9527881e-39
-0.40777525 0.073139049 1.052 2.4943253e-39
-0.40893811 0.065309525 1.0550001 2.7687444e-39
-0.40649956 0.064394765 1.0565001 2.5836356e-39
-0.40391433 0.065309525 1.0550001 2.3996059e-39
-0.40893811 0.06731905 1.0550001 2.9520566e-39
-0.40649956 0.067414761 1.0565001 2.8595037e-39
-0.40405527 0.067510478 1.0580001 2.9499014e-39
-0.40893811 0.070333339 1.0550001 2.8595107e-39
-0.40664256 0.070735887 1.0560001 2.7673122e-39
-0.4039613 0.070066035 1.0560001 3.4097978e-39
-0.40090004 0.069328576 1.0550001 3.2250478e-39
-0.40649956 0.073451906 1.0565001 2.216658e-39
-0.40432003 0.067893341 1.064 2.7662276e-39
-0.40432003 0.071946673 1.064 2.9499e-39
-0.40380573 0.07018286 1.0680001 2.7655046e-39
-0.40177146 0.072217144 1.0680001 2.3059613e-39
