# .PCD v0.7 - Point Cloud Data file format
VERSION 0.7
FIELDS x y z rgb
SIZE 4 4 4 4
TYPE F F F F
COUNT 1 1 1 1
WIDTH 125
HEIGHT 1
VIEWPOINT 0 0 0 1 0 0 0
POINTS 125
DATA ascii
-0.25122002 0.037393335 0.55300003 6.9150352e-39
-0.25356764 0.038724765 0.55700004 6.4536983e-39
-0.25099429 0.03865524 0.55600005 7.0065189e-39
-0.25501049 0.040993337 0.55900002 5.3466473e-39
-0.25294459 0.040721718 0.55820006 6.2682406e-39
-0.25078461 0.041389145 0.55860007 7.4646216e-39
-0.25501049 0.042058099 0.55900002 5.2530251e-39
-0.25394574 0.04259048 0.55900002 5.8973085e-39
-0.25121495 0.043020006 0.55766672 6.7277839e-39
-0.26420477 0.038204763 0.565 1.9350418e-39
-0.26259047 0.038204763 0.565 2.949914e-39
-0.2642048 0.040357146 0.565 1.6584339e-39
-0.26235861 0.039783813 0.56449997 2.6733159e-39
-0.25951713 0.0396781 0.56300002 4.2392179e-39
-0.25671658 0.040241528 0.56040001 5.0682625e-39
-0.25271717 0.040071432 0.56100005 7.0972853e-39
-0.25129241 0.039715242 0.56100005 7.4653475e-39
-0.26420477 0.042509526 0.565 1.4740595e-39
-0.25333336 0.044266671 0.56000006 6.174973e-39
-0.25120002 0.044266671 0.56 7.0972937e-39
-0.26885334 0.026506668 0.56800002 2.118717e-39
-0.27366191 0.029804764 0.56900001 1.012717e-39
-0.27081001 0.028350003 0.56700003 1.105993e-39
-0.26885334 0.02867048 0.56800002 2.117994e-39
-0.26630166 0.028928813 0.56775004 3.1343011e-39
-0.26390764 0.029804764 0.56900001 4.8845901e-39
-0.27366191 0.030888574 0.56900001 8.2904461e-40
-0.27054003 0.030780002 0.56700003 1.1059944e-39
-0.26869249 0.031745359 0.567375 1.3822324e-39
-0.26644382 0.031721909 0.56840008 2.764448e-39
-0.27121878 0.034780636 0.56766671 5.5353812e-40
-0.26925868 0.034320384 0.56840003 9.2233045e-40
-0.26632097 0.034332383 0.56860006 2.3052649e-39
-0.26390764 0.035223812 0.56900001 3.5963695e-39
-0.24756923 0.035058733 0.56633341 5.0704205e-39
-0.27137503 0.036833573 0.56875002 5.5353391e-40
-0.26867241 0.037686035 0.56800008 9.2160177e-40
-0.26565558 0.036920637 0.56733334 1.8439266e-39
-0.26242834 0.03695973 0.56714284 4.056263e-39
-0.26059002 0.037766196 0.56650007 5.1618875e-39
-0.2714943 0.039559051 0.56900001 2.7838756e-40
-0.268933 0.040269341 0.56680006 6.4645401e-40
-0.26628953 0.040428579 0.56600004 1.0152309e-39
-0.26842386 0.042969208 0.56633341 7.3793358e-40
-0.26646924 0.04294413 0.5660001 1.0141575e-39
-0.25618571 0.046481431 0.5675 5.9927286e-39
-0.25641143 0.048144765 0.56800002 5.7182927e-39
-0.24374977 0.048749767 0.56875002 4.8860139e-39
-0.24185453 0.04929167 0.56875002 4.6094424e-39
-0.24072382 0.056800004 0.56800002 4.977499e-39
-0.27305716 0.029857146 0.57000005 1.1056287e-39
-0.26567432 0.02877143 0.57000011 4.2395739e-39
-0.26328573 0.029857146 0.57000005 5.4377653e-39
-0.27704144 0.031569049 0.57150006 3.6914546e-40
-0.27443147 0.031628001 0.57060003 7.3685038e-40
-0.2724486 0.032084763 0.57100004 9.2160597e-40
-0.26498795 0.031559683 0.57133341 4.7005576e-39
-0.26306289 0.031815242 0.57266665 6.0838466e-39
-0.27690274 0.034466807 0.57185721 3.6914265e-40
-0.27428499 0.03405562 0.57120007 5.5317658e-40
-0.2724486 0.033172384 0.57100004 6.4609808e-40
-0.26871431 0.034742858 0.57000005 1.3829527e-39
-0.26525402 0.033981636 0.57157147 4.0562658e-39
-0.26302195 0.034984447 0.57100004 5.0693429e-39
-0.25363764 0.034834288 0.57150006 6.3589957e-39
-0.25178382 0.034803811 0.57100004 5.714355e-39
-0.27685955 0.03755635 0.57150006 4.6062502e-40
-0.27412257 0.03747905 0.57033342 7.3648604e-40
-0.27142859 0.037457146 0.57000005 6.4537081e-40
-0.26871431 0.036371432 0.57000005 1.1985544e-39
-0.25608891 0.03767556 0.57333338 7.0043637e-39
-0.25345048 0.037724763 0.57200003 6.5433884e-39
-0.25080734 0.037204769 0.57166672 5.7147053e-39
-0.2761943 0.039767623 0.57200003 1.011645e-39
-0.27442226 0.040085085 0.57133335 1.1956663e-39
-0.27197143 0.04071429 0.57000005 3.7022726e-40
-0.25561666 0.040418573 0.57350004 7.2809492e-39
-0.25386786 0.040127859 0.57325006 6.6380966e-39
-0.25529334 0.042093337 0.574 7.8312433e-39
-0.25420001 0.042093337 0.574 7.1883921e-39
-0.26039621 0.047394291 0.57200003 4.9764242e-39
-0.24709335 0.047560003 0.574 4.9782179e-39
-0.26162523 0.050250001 0.57350004 3.6874833e-39
-0.26016814 0.048441432 0.57150006 4.6087193e-39
-0.2472086 0.049658738 0.57300001 4.9789326e-39
-0.24471524 0.050574288 0.57100004 4.8867369e-39
-0.24939145 0.052934289 0.57300001 5.8072625e-39
-0.24749351 0.052983001 0.57185721 5.4384842e-39
-0.24436076 0.052790586 0.57144451 4.8860293e-39
-0.24199526 0.052749529 0.57100004 4.4254113e-39
-0.24732502 0.055172145 0.57075006 5.9902202e-39
-0.24454179 0.055560004 0.57114297 5.1618931e-39
-0.24157144 0.055371433 0.57000005 4.4271993e-39
-0.24362668 0.057100005 0.57100004 5.0696975e-39
-0.24265715 0.058085717 0.57000005 5.5281617e-39
-0.27654764 0.028476194 0.57500005 1.0134345e-39
-0.27545241 0.029023811 0.57500005 1.1974656e-39
-0.26450002 0.033404764 0.57500005 5.9938019e-39
-0.26340479 0.033404764 0.57500005 6.5444618e-39
-0.25277907 0.040480319 0.57700008 5.9916524e-39
-0.25039446 0.040723339 0.57783335 5.4359674e-39
-0.24826477 0.040735241 0.57800001 4.976427e-39
-0.25574502 0.043904528 0.57625008 7.1887508e-39
-0.25330254 0.043246791 0.57662505 6.3593545e-39
-0.25063241 0.043536607 0.57657146 5.1618987e-39
-0.24778084 0.043347076 0.57614291 5.435966e-39
-0.25883812 0.04757905 0.57866669 7.4642615e-39
-0.25674397 0.046830639 0.57850003 7.1883921e-39
-0.25358179 0.046540961 0.57685721 6.4515473e-39
-0.25056025 0.046765242 0.57600009 5.4381226e-39
-0.24770638 0.046182543 0.57500005 5.251572e-39
-0.26588002 0.050093338 0.57800001 2.7658745e-39
-0.26253861 0.049876668 0.57550001 3.9622723e-39
-0.25908324 0.04953162 0.57660007 6.0852857e-39
-0.25658572 0.049600955 0.57740003 6.9136129e-39
-0.25366002 0.049413815 0.57650006 6.9125212e-39
-0.25034288 0.049739048 0.57550007 5.7150627e-39
-0.26532954 0.051194288 0.57800001 2.7655214e-39
-0.26166859 0.051017147 0.57600003 4.0566301e-39
-0.25926074 0.051083572 0.57675004 5.4410009e-39
-0.25619146 0.051531117 0.57766676 6.9128912e-39
-0.25376987 0.051413022 0.5763334 7.6468465e-39
-0.25128353 0.051718414 0.57566673 6.6341351e-39
-0.25354287 0.039219052 0.58000004 5.8068968e-39
-0.26845717 0.051371433 0.58000004 1.8431909e-39
