# .PCD v0.7 - Point Cloud Data file format
VERSION 0.7
FIELDS x y z
SIZE 4 4 4
TYPE F F F
COUNT 1 1 1
WIDTH 216
HEIGHT 1
VIEWPOINT 0 0 0 1 0 0 0
POINTS 216
DATA ascii
-0.11229905 -0.29911432 1.102
-0.10600191 -0.29911432 1.102
-0.10285334 -0.29911432 1.102
-0.097080953 -0.29858953 1.102
-0.092707947 -0.29841465 1.102
-0.087110482 -0.29858953 1.102
-0.082212709 -0.29841465 1.102
-0.077664763 -0.29911432 1.102
-0.072417155 -0.29911432 1.102
-0.058423497 -0.29841465 1.102
-0.052476197 -0.29806477 1.102
-0.049327623 -0.29806477 1.102
-0.041980952 -0.29911432 1.102
-0.036733337 -0.29911432 1.102
-0.03211543 -0.29827473 1.1020001
-0.028337145 -0.29806477 1.102
-0.19750763 -0.29890192 1.1090001
-0.19188 -0.29941526 1.1070001
-0.18766287 -0.29941526 1.1070001
-0.13624857 -0.29784572 1.1090001
-0.13284065 -0.29836035 1.1070001
-0.12744053 -0.29806176 1.105889
-0.12222351 -0.29818064 1.1063335
-0.11759689 -0.29798192 1.1067145
-0.11238857 -0.29782987 1.1063335
-0.10763182 -0.29761696 1.1058
-0.10313334 -0.29677144 1.105
-0.098292388 -0.29656097 1.105
-0.092258744 -0.29642066 1.105
-0.08740934 -0.29677507 1.1058
-0.081734926 -0.29642066 1.105
-0.077876195 -0.29677144 1.105
-0.07261429 -0.29677144 1.105
-0.067352384 -0.29782385 1.105
-0.063142866 -0.29782385 1.105
-0.057530165 -0.29712224 1.105
-0.052619051 -0.29571906 1.105
-0.046803676 -0.297829 1.106143
-0.042134289 -0.29703906 1.1060001
-0.038096189 -0.29740286 1.105
-0.033150002 -0.29624525 1.105
-0.026835717 -0.29729763 1.105
-0.023152381 -0.29782385 1.105
-0.017903175 -0.29806259 1.105889
-0.012875619 -0.29826233 1.1082001
-0.007366667 -0.29782385 1.105
-0.0024555558 -0.29642066 1.105
-0.11618096 -0.29467717 1.1090001
-0.11090001 -0.29467717 1.1090001
-0.10773143 -0.29467717 1.1090001
-0.10202801 -0.29383221 1.1090001
-0.09730991 -0.29277468 1.1082001
-0.092860006 -0.29335526 1.1080002
-0.087505721 -0.29361954 1.1070001
-0.081933022 -0.2936213 1.1076667
-0.078017145 -0.29309335 1.1070001
-0.07303524 -0.29277238 1.105
-0.067474291 -0.29308954 1.1070001
-0.062249944 -0.29226109 1.1078573
-0.057542291 -0.2931945 1.1066002
-0.053289052 -0.29282716 1.1080002
-0.047915246 -0.29361963 1.1082001
-0.041895561 -0.29397306 1.1090001
-0.037784956 -0.29277468 1.1082002
-0.032704238 -0.29221135 1.1076667
-0.027427938 -0.29221049 1.1076667
-0.02218 -0.29256478 1.1090001
-0.017427145 -0.29309288 1.1090001
-0.012674287 -0.29256478 1.1090002
-0.0073865619 -0.2923286 1.1081113
-0.0026404765 -0.29256478 1.1090001
0.0017603177 -0.29186067 1.1090001
0.0052809529 -0.29256478 1.1090001
-0.062315241 -0.28834003 1.1090001
-0.031685717 -0.28834003 1.1090001
-0.01795524 -0.28622764 1.1090001
-0.0073933341 -0.28728387 1.1090002
-0.0018980954 -0.28749999 1.1074002
0.0023190479 -0.28749999 1.1074002
0.0058042863 -0.28807813 1.108
-0.20104669 -0.29927337 1.1130002
-0.19716001 -0.29786003 1.113
-0.19292 -0.29786003 1.113
-0.18709001 -0.29839003 1.113
-0.18232 -0.29998001 1.113
-0.17808002 -0.29998001 1.113
-0.17278002 -0.29892004 1.113
-0.16748002 -0.29892004 1.113
-0.16218001 -0.29892004 1.113
-0.15688002 -0.29998001 1.113
-0.15264001 -0.29998001 1.113
-0.14098001 -0.29786003 1.1130002
-0.13833 -0.29733002 1.113
-0.13250002 -0.29574001 1.1130002
-0.12720001 -0.29574001 1.113
-0.12296001 -0.29574001 1.113
-0.11978001 -0.29574001 1.113
-0.11342001 -0.29574001 1.113
-0.00106 -0.29574001 1.113
0.00106 -0.29574001 1.113
-0.14098001 -0.29256004 1.113
-0.13815334 -0.29291338 1.1130002
-0.13250001 -0.29362005 1.1130002
-0.12720001 -0.29362002 1.113
-0.11766001 -0.29362005 1.1130002
-0.11236001 -0.29362002 1.113
-0.10812001 -0.29256004 1.113
-0.10335001 -0.29203004 1.113
-0.096460007 -0.29150003 1.113
-0.091690004 -0.29203004 1.113
-0.085860007 -0.29362002 1.113
-0.083740003 -0.29362002 1.113
-0.071726672 -0.2922067 1.1130002
-0.067840002 -0.29150003 1.113
-0.064660005 -0.29150003 1.113
-0.057240002 -0.29150003 1.113
-0.051940005 -0.29256004 1.113
-0.047700003 -0.2922067 1.1130002
-0.042753339 -0.2922067 1.1130002
-0.039220002 -0.29150003 1.113
-0.015900001 -0.29256004 1.113
-0.10706001 -0.28938001 1.113
-0.10282001 -0.28938001 1.1130002
-0.097520009 -0.28938001 1.113
-0.093280002 -0.28938001 1.113
-0.067840002 -0.28938001 1.113
-0.06254001 -0.28867334 1.1130002
-0.057240002 -0.28938001 1.113
-0.037100002 -0.28938001 1.113
-0.032860003 -0.28832 1.113
-0.027560003 -0.28938001 1.113
-0.022260003 -0.28786576 1.113
-0.016748002 -0.28726003 1.113
-0.01272 -0.28726003 1.113
-0.0084800012 -0.28514001 1.113
-0.015900001 -0.28302002 1.113
-0.012366667 -0.28231335 1.1130002
-0.0084800012 -0.28302002 1.113
-0.020140002 -0.25122002 1.113
-0.01802 -0.25122002 1.113
-0.21150859 -0.29866287 1.1160001
-0.20725715 -0.29866287 1.1160001
-0.20229715 -0.29724574 1.1160001
-0.19662859 -0.29653716 1.1160001
-0.19237718 -0.29653716 1.1160001
-0.18706287 -0.29653716 1.1160001
-0.18281144 -0.29760003 1.1160001
-0.17792229 -0.29738745 1.1160001
-0.17218287 -0.29653716 1.1160001
-0.16793144 -0.29653716 1.1160001
-0.16261715 -0.29653716 1.1160001
-0.15730287 -0.29760003 1.1160001
-0.15305144 -0.29760003 1.1160001
-0.14773715 -0.29760003 1.1160002
-0.14348572 -0.29760003 1.1160001
-0.20088001 -0.29441145 1.1160001
-0.19769144 -0.29441145 1.1160001
-0.19195201 -0.29356119 1.1160001
-0.18706286 -0.29334861 1.1160001
-0.18174858 -0.29441145 1.1160001
-0.17719348 -0.29289308 1.1160002
-0.17218289 -0.29228574 1.1160002
-0.16793144 -0.29334861 1.1160001
-0.16304229 -0.29356119 1.1160001
-0.15730287 -0.29441145 1.1160001
-0.15305144 -0.29334858 1.1160001
-0.14743347 -0.29289308 1.1160002
-0.14295429 -0.29175431 1.1160001
-0.13781714 -0.29086861 1.1160001
-0.13232572 -0.29175431 1.1160001
-0.12789716 -0.29157716 1.1160001
-0.12222859 -0.29228577 1.1160002
-0.11691429 -0.29122287 1.1160001
-0.11266287 -0.2912229 1.1160001
-0.10947429 -0.29016003 1.1160001
-0.090342864 -0.29016003 1.1160001
-0.087154292 -0.29122287 1.1160001
-0.082902864 -0.2912229 1.1160001
-0.077588581 -0.29122287 1.1160002
-0.07227429 -0.29016003 1.1160001
-0.053142861 -0.29016003 1.1160001
-0.047297142 -0.29069147 1.1160001
-0.042514287 -0.29016003 1.1160001
-0.039325718 -0.29016003 1.1160001
-0.14242287 -0.28803429 1.1160001
-0.13923429 -0.28803429 1.1160001
-0.12010287 -0.28803429 1.1160001
-0.11266287 -0.28697145 1.1160001
-0.10734858 -0.28697145 1.1160002
-0.10203429 -0.28697145 1.1160001
-0.097782865 -0.28697145 1.1160001
-0.092468582 -0.28803429 1.1160001
-0.087154292 -0.28803429 1.1160001
-0.082902864 -0.28803429 1.1160001
-0.077588581 -0.28803429 1.1160001
-0.07262858 -0.28732574 1.1160001
-0.068022862 -0.28697145 1.1160001
-0.062708579 -0.28675887 1.1160001
-0.057394292 -0.28697145 1.1160001
-0.048537146 -0.28732574 1.1160001
-0.035782859 -0.28732574 1.1160001
-0.032240003 -0.28661716 1.1160001
-0.027988574 -0.28732574 1.1160001
-0.022320002 -0.28590858 1.1160001
-0.14561144 -0.25614858 1.1160001
-0.14348572 -0.25614858 1.1160001
-0.24492097 -0.29839715 1.123
-0.23658383 -0.29799718 1.1215
-0.23287068 -0.29733166 1.1206001
-0.22715689 -0.29733053 1.1212858
-0.22206382 -0.29786479 1.1210001
-0.21760002 -0.29760003 1.12
-0.21257144 -0.29699051 1.12
-0.20693335 -0.29653335 1.12
-0.20373334 -0.29546669 1.12
-0.18453334 -0.29546669 1.12
