# .PCD v0.7 - Point Cloud Data file format
VERSION 0.7
FIELDS x y z rgb
SIZE 4 4 4 4
TYPE F F F F
COUNT 1 1 1 1
WIDTH 131
HEIGHT 1
VIEWPOINT 0 0 0 1 0 0 0
POINTS 131
DATA ascii
-0.22352573 0.1477543 1.3260001 2.3985339e-39
-0.22352573 0.15028001 1.3260001 2.2141385e-39
-0.22690383 0.14324096 1.3310001 2.5811343e-39
-0.22436859 0.14324096 1.3310001 3.2272198e-39
-0.22436859 0.1457762 1.3310001 2.8587932e-39
-0.22183335 0.14831144 1.3310001 3.4112425e-39
-0.22183335 0.15084668 1.3310001 3.0428173e-39
-0.22521144 0.14123429 1.3360001 3.3201413e-39
-0.22266668 0.14250667 1.3360001 3.8729521e-39
-0.22266668 0.14632381 1.3360001 3.5967128e-39
-0.2150324 0.16032001 1.3360001 4.5172425e-39
-0.21248764 0.16032001 1.3360001 5.254809e-39
-0.22111049 0.13931239 1.342 4.886388e-39
-0.2185543 0.13931239 1.342 5.5321077e-39
-0.22111049 0.14186858 1.342 4.7027128e-39
-0.2185543 0.14186858 1.342 5.3477193e-39
-0.21599811 0.14186858 1.342 5.9923684e-39
-0.2185543 0.14570287 1.342 4.9803745e-39
-0.21599811 0.14570287 1.342 5.625025e-39
-0.21088573 0.14442477 1.342 6.3625929e-39
-0.2185543 0.14953715 1.342 4.8885278e-39
-0.21599811 0.14953715 1.342 5.3498703e-39
-0.2185543 0.15209334 1.342 4.610499e-39
-0.21599811 0.15209334 1.342 5.2562327e-39
-0.21599811 0.15464954 1.342 5.0714883e-39
-0.21599811 0.15720573 1.342 4.88746e-39
-0.21088573 0.15720573 1.342 6.1767639e-39
-0.21088573 0.15976192 1.342 5.9923726e-39
-0.21344192 0.1648743 1.342 5.07221e-39
-0.21088573 0.16231811 1.342 5.8998169e-39
-0.21472001 0.16743049 1.342 4.147388e-39
-0.21088573 0.17254287 1.342 4.7952686e-39
-0.20832954 0.17254287 1.342 5.2566111e-39
-0.20321715 0.17254287 1.342 6.0867263e-39
-0.22065145 0.13341716 1.3470001 5.715427e-39
-0.21680287 0.13341716 1.3470001 6.1767597e-39
-0.21423715 0.13213429 1.3470001 6.5458939e-39
-0.21680287 0.13726573 1.3470001 6.1771184e-39
-0.21423715 0.13726573 1.3470001 6.452992e-39
-0.21167144 0.13726573 1.3470001 6.7288629e-39
-0.21680287 0.13983144 1.3470001 6.1760408e-39
-0.21423715 0.13983144 1.3470001 6.4515557e-39
-0.21423715 0.14239715 1.3470001 6.2689581e-39
-0.21167144 0.14239715 1.3470001 6.5466212e-39
-0.21423715 0.14496286 1.3470001 6.0856473e-39
-0.20654002 0.14496286 1.3470001 7.0990719e-39
-0.21423715 0.14752857 1.3470001 6.0863647e-39
-0.21167144 0.14752857 1.3470001 6.5459065e-39
-0.20910573 0.14752857 1.3470001 6.8232123e-39
-0.20654002 0.14752857 1.3470001 7.0997908e-39
-0.21423715 0.15137716 1.3470001 5.9948809e-39
-0.21167144 0.15137716 1.3470001 6.6384539e-39
-0.20910573 0.15137716 1.3470001 6.9146849e-39
-0.20654002 0.15137716 1.3470001 7.1898284e-39
-0.20269144 0.15137716 1.3470001 6.9132429e-39
-0.21423715 0.15522572 1.3470001 5.7168619e-39
-0.21167144 0.15522572 1.3470001 6.3615111e-39
-0.20910573 0.15522572 1.3470001 7.0054413e-39
-0.20654002 0.15522572 1.3470001 7.6490087e-39
-0.20269144 0.15522572 1.3470001 7.1894725e-39
-0.21423715 0.15779144 1.3470001 5.5321161e-39
-0.20910573 0.15779144 1.3470001 6.7295747e-39
-0.20654002 0.15779144 1.3470001 7.3742239e-39
-0.20269144 0.15779144 1.3470001 7.0983614e-39
-0.19884287 0.15779144 1.3470001 7.0054413e-39
-0.20910573 0.16035715 1.3470001 6.5455436e-39
-0.20654002 0.16035715 1.3470001 7.0061616e-39
-0.20269144 0.16035715 1.3470001 7.0061644e-39
-0.19884287 0.16035715 1.3470001 7.0058001e-39
-0.20910573 0.16292287 1.3470001 6.3615125e-39
-0.20654002 0.16292287 1.3470001 6.9143233e-39
-0.20269144 0.16292287 1.3470001 6.913966e-39
-0.19884287 0.16292287 1.3470001 7.0976356e-39
-0.19627716 0.16292287 1.3470001 7.2805877e-39
-0.21167144 0.16548859 1.3470001 5.7161445e-39
-0.20910573 0.16548859 1.3470001 6.2700371e-39
-0.20654002 0.16548859 1.3470001 6.7299349e-39
-0.20269144 0.16548859 1.3470001 6.8228466e-39
-0.19884287 0.16548859 1.3470001 7.2827401e-39
-0.19627716 0.16548859 1.3470001 7.557169e-39
-0.20910573 0.16933715 1.3470001 5.5328406e-39
-0.20654002 0.16933715 1.3470001 5.9934558e-39
-0.20269144 0.16933715 1.3470001 6.2711147e-39
-0.19884287 0.16933715 1.3470001 6.7302908e-39
-0.19627716 0.16933715 1.3470001 7.0054371e-39
-0.19371144 0.16933715 1.3470001 6.821406e-39
-0.20654002 0.17318572 1.3470001 5.7179451e-39
-0.20140858 0.17318572 1.3470001 6.4547871e-39
-0.19884287 0.17318572 1.3470001 6.7295775e-39
-0.19627716 0.17318572 1.3470001 7.0961992e-39
-0.19371144 0.17318572 1.3470001 6.8217662e-39
-0.20654002 0.17575143 1.3470001 5.7168647e-39
-0.19627716 0.17575143 1.3470001 7.2805877e-39
-0.21760763 0.11974858 1.3520001 6.1774813e-39
-0.22018287 0.12232382 1.3520001 6.268605e-39
-0.21760763 0.12232382 1.3520001 6.4519144e-39
-0.2150324 0.12232382 1.3520001 6.5451821e-39
-0.21760763 0.12489906 1.3520001 6.6366644e-39
-0.2150324 0.12489906 1.3520001 6.9139604e-39
-0.21760763 0.12747429 1.3520001 6.6370246e-39
-0.2150324 0.12747429 1.3520001 6.8214074e-39
-0.21245715 0.12747429 1.3520001 6.9125226e-39
-0.21760763 0.13004953 1.3520001 6.6370204e-39
-0.2150324 0.13004953 1.3520001 6.7302866e-39
-0.20859429 0.13262478 1.3520001 6.5458995e-39
-0.2150324 0.13520001 1.3520001 6.4544228e-39
-0.21245715 0.13520001 1.3520001 6.7295747e-39
-0.20902352 0.13605843 1.3520001 6.6366672e-39
-0.21245715 0.14035049 1.3520001 6.6370246e-39
-0.20859429 0.14035049 1.3520001 6.9125339e-39
-0.20473143 0.14035049 1.3520001 6.8210529e-39
-0.20859429 0.14292572 1.3520001 6.9146835e-39
-0.20473143 0.14292572 1.3520001 6.8228452e-39
-0.21857335 0.10993334 1.358 6.0852927e-39
-0.21598668 0.10993334 1.358 6.0845697e-39
-0.21857335 0.11252001 1.358 6.6363015e-39
-0.21469335 0.11252001 1.358 6.2678763e-39
-0.21857335 0.11510667 1.358 7.1873117e-39
-0.21469335 0.11510667 1.358 6.4515459e-39
-0.21340002 0.11769334 1.358 6.2682308e-39
-0.21678191 0.10254953 1.363 5.8994693e-39
-0.21678191 0.10514572 1.363 5.9920209e-39
-0.21418573 0.10644382 1.363 5.8072695e-39
-0.21418573 0.1103381 1.363 5.9916538e-39
-0.21158955 0.1103381 1.363 5.7150669e-39
-0.21158955 0.11293429 1.363 5.8076142e-39
-0.21497144 0.09771429 1.368 5.3462857e-39
-0.21497144 0.10032 1.368 5.3470088e-39
-0.21236573 0.10292572 1.368 5.3466487e-39
-0.21236573 0.10553144 1.368 5.5306812e-39
-0.20889144 0.1098743 1.368 5.2548104e-39
