# .PCD v0.7 - Point Cloud Data file format
VERSION 0.7
FIELDS x y z
SIZE 4 4 4
TYPE F F F
COUNT 1 1 1
WIDTH 157
HEIGHT 1
VIEWPOINT 0 0 0 1 0 0 0
POINTS 157
DATA ascii
0.48869336 0.29978669 1.0780001
0.41033146 0.29427812 1.0880001
0.41862097 0.29427812 1.0880001
0.42691049 0.29427812 1.0880001
0.43400002 0.29346669 1.085
0.4422667 0.29346669 1.085
0.45177907 0.29427812 1.0880001
0.46835813 0.29427812 1.0880001
0.47664765 0.29427812 1.0880001
0.48360002 0.29346669 1.085
0.49186671 0.29346669 1.085
0.43640003 0.28677717 1.0910001
0.48627433 0.28677717 1.0910001
0.49458671 0.28677717 1.0910001
0.3615886 0.29508954 1.0910001
0.36990097 0.29508954 1.0910001
0.37821335 0.29508954 1.0910001
0.38652575 0.29508954 1.0910001
0.39483812 0.29508954 1.0910001
0.4031505 0.29508954 1.0910001
0.46133718 0.29508954 1.0910001
0.37227431 0.28025144 1.098
0.43920004 0.28025144 1.098
0.45593145 0.28025144 1.098
0.46429718 0.28025144 1.098
0.4726629 0.28025144 1.098
0.48102862 0.28025144 1.098
0.48939431 0.28025144 1.098
0.49776003 0.28025144 1.098
0.37125716 0.28782859 1.095
0.37960002 0.28782859 1.095
0.38794288 0.28782859 1.095
0.39628574 0.28782859 1.095
0.40573716 0.28861716 1.098
0.41410288 0.28861716 1.098
0.4224686 0.28861716 1.098
0.42965716 0.28782859 1.095
0.44634289 0.28782859 1.095
0.45468575 0.28782859 1.095
0.46302861 0.28782859 1.095
0.47137147 0.28782859 1.095
0.4797143 0.28782859 1.095
0.49117717 0.2728762 1.102
0.49957338 0.2728762 1.102
0.3820267 0.28127241 1.102
0.39042288 0.28127241 1.102
0.39881906 0.28127241 1.102
0.40721527 0.28127241 1.102
0.43240383 0.28127241 1.102
0.44919622 0.28127241 1.102
0.39290288 0.26616001 1.1090001
0.44360003 0.26616001 1.1090001
0.45204955 0.26616001 1.1090001
0.48584765 0.26616001 1.1090001
0.37464765 0.27361906 1.105
0.38306668 0.27361906 1.105
0.39148575 0.27361906 1.105
0.39990479 0.27361906 1.105
0.40832382 0.27361906 1.105
0.41825145 0.27460954 1.1090001
0.42670098 0.27460954 1.1090001
0.4351505 0.27460954 1.1090001
0.44200003 0.27361906 1.105
0.45041907 0.27361906 1.105
0.45883814 0.27361906 1.105
0.46725717 0.27361906 1.105
0.47567621 0.27361906 1.105
0.48409528 0.27361906 1.105
0.41674289 0.28203812 1.105
0.42516193 0.28203812 1.105
0.38584003 0.26712 1.113
0.40280002 0.26712 1.113
0.41128004 0.26712 1.113
0.41976002 0.26712 1.113
0.42824003 0.26712 1.113
0.43672004 0.26712 1.113
0.46216002 0.26712 1.113
0.47064003 0.26712 1.113
0.47912005 0.26712 1.113
0.49608004 0.26712 1.113
0.39538288 0.25933716 1.1160001
0.44640002 0.25933716 1.1160001
0.48891431 0.25933716 1.1160001
0.49741718 0.25933716 1.1160001
0.39786288 0.25240764 1.123
0.40641907 0.25240764 1.123
0.41497526 0.25240764 1.123
0.43208766 0.25240764 1.123
0.44064385 0.25240764 1.123
0.44920003 0.25240764 1.123
0.45775622 0.25240764 1.123
0.46631241 0.25240764 1.123
0.4748686 0.25240764 1.123
0.48342478 0.25240764 1.123
0.49198097 0.25240764 1.123
0.40533337 0.26026669 1.12
0.41497526 0.26096383 1.123
0.42353144 0.26096383 1.123
0.43093336 0.26026669 1.12
0.43946669 0.26026669 1.12
0.45653337 0.26026669 1.12
0.4650667 0.26026669 1.12
0.47360003 0.26026669 1.12
0.48213336 0.26026669 1.12
0.42504004 0.25330669 1.1270001
0.47952002 0.23760001 1.1340001
0.48816004 0.23760001 1.1340001
0.49680004 0.23760001 1.1340001
0.41040003 0.24624002 1.1340001
0.41793147 0.24558859 1.131
0.42768002 0.24624002 1.1340001
0.43632004 0.24624002 1.1340001
0.4437829 0.24558859 1.131
0.45240003 0.24558859 1.131
0.46224004 0.24624002 1.1340001
0.47088003 0.24624002 1.1340001
0.47825146 0.24558859 1.131
0.48686859 0.24558859 1.131
0.49548575 0.24558859 1.131
0.42051813 0.23843811 1.138
0.42918861 0.23843811 1.138
0.43785909 0.23843811 1.138
0.44652957 0.23843811 1.138
0.4638705 0.23843811 1.138
0.47254097 0.23843811 1.138
0.42199621 0.23057525 1.1420001
0.43069717 0.23057525 1.1420001
0.47420195 0.23057525 1.1420001
0.48290288 0.23057525 1.1420001
0.49160385 0.23057525 1.1420001
0.45680004 0.2392762 1.1420001
0.44093716 0.23138288 1.146
0.44966859 0.23138288 1.146
0.45840004 0.23138288 1.146
0.46713147 0.23138288 1.146
0.4337143 0.22342859 1.1500001
0.44363052 0.22401144 1.153
0.45241526 0.22401144 1.153
0.46000004 0.22342859 1.1500001
0.46876192 0.22342859 1.1500001
0.47752383 0.22342859 1.1500001
0.48755431 0.22401144 1.153
0.49504766 0.22342859 1.1500001
0.43635431 0.21597335 1.1570001
0.44516954 0.21597335 1.1570001
0.4539848 0.21597335 1.1570001
0.46280003 0.21597335 1.1570001
0.47161525 0.21597335 1.1570001
0.48043051 0.21597335 1.1570001
0.49806097 0.21597335 1.1570001
0.44670859 0.2078743 1.161
0.47324574 0.2078743 1.161
0.48209146 0.2078743 1.161
0.49093717 0.21672001 1.161
0.45712385 0.20859049 1.1650001
0.46600002 0.20859049 1.1650001
0.4926286 0.20859049 1.1650001
