# .PCD v0.7 - Point Cloud Data file format
VERSION 0.7
FIELDS x y z rgb
SIZE 4 4 4 4
TYPE F F F F
COUNT 1 1 1 1
WIDTH 195
HEIGHT 1
VIEWPOINT 0 0 0 1 0 0 0
POINTS 195
DATA ascii
-0.46937811 0.038614288 0.90100002 1.09734e-38
-0.46937811 0.040330477 0.90100002 1.0877617e-38
-0.48470002 0.035806671 0.91700006 1.2165462e-38
-0.48644671 0.037553336 0.91700006 1.2166184e-38
-0.48470002 0.037553336 0.91700006 1.2349855e-38
-0.47771338 0.037553336 0.91700006 1.1063083e-38
-0.47596669 0.037553336 0.91700006 9.3109893e-39
-0.48120669 0.039300002 0.91700006 1.27154e-38
-0.47841433 0.039214287 0.91500002 1.262536e-38
-0.49963623 0.023708573 0.92200005 1.3368698e-38
-0.49592385 0.023657145 0.92000002 1.3277948e-38
-0.49261147 0.023708573 0.92200005 1.318753e-38
-0.49855241 0.025409525 0.92000002 1.2353472e-38
-0.49646384 0.025437145 0.921 1.2903408e-38
-0.49855241 0.028038098 0.92000002 1.4375279e-38
-0.49646291 0.028069526 0.92100006 1.4651496e-38
-0.49378228 0.028391749 0.92200011 1.5387265e-38
-0.49085528 0.028977145 0.92200005 1.5478746e-38
-0.49909431 0.031578097 0.921 1.5206836e-38
-0.49700195 0.031611431 0.92200005 1.5023523e-38
-0.49261147 0.031611431 0.92200005 1.4839141e-38
-0.48997718 0.031611431 0.92200005 1.4103382e-38
-0.48734289 0.032489527 0.92200005 1.3088147e-38
-0.49032289 0.035084765 0.921 1.2443127e-38
-0.48803812 0.035923813 0.92000002 1.1891035e-38
-0.49085528 0.037758097 0.92200005 1.2258019e-38
-0.48465022 0.036560003 0.92133343 1.2533164e-38
-0.48196134 0.0371181 0.92066669 1.2717197e-38
-0.49066669 0.039428573 0.92000002 1.2717558e-38
-0.49881431 0.02207143 0.92700005 1.3446536e-38
-0.49651241 0.022928573 0.92600006 1.3266451e-38
-0.49298477 0.022928573 0.92600006 1.3268967e-38
-0.49175146 0.023837144 0.92700005 1.3649226e-38
-0.49597621 0.02554762 0.92500007 1.3268951e-38
-0.49333337 0.02554762 0.92500007 1.3454407e-38
-0.4908686 0.025602859 0.92700005 1.3821021e-38
-0.48822004 0.025602859 0.92700005 1.3822823e-38
-0.49333337 0.027309526 0.92500007 1.4646098e-38
-0.4904556 0.02791651 0.92566675 1.4464203e-38
-0.48744479 0.028402859 0.92620009 1.3822803e-38
-0.48468861 0.028251432 0.92700005 1.3730261e-38
-0.49597621 0.031714287 0.92500007 1.4930614e-38
-0.48775405 0.031420641 0.92500007 1.3183939e-38
-0.48452383 0.031714287 0.92500007 1.2995583e-38
-0.48177958 0.031765237 0.92650008 1.0692497e-38
-0.49739337 0.034394287 0.92600006 1.3367237e-38
-0.49421433 0.034357145 0.92500007 1.3273957e-38
-0.4906905 0.034357145 0.92500007 1.2720064e-38
-0.48804766 0.034357145 0.92500007 1.2625713e-38
-0.48452383 0.034357145 0.92500007 1.2809753e-38
-0.4815191 0.034394287 0.92600006 1.0416269e-38
-0.49646005 0.036785718 0.92700005 1.2074714e-38
-0.49421433 0.037880953 0.92500007 1.2441336e-38
-0.4815191 0.0361581 0.92600006 1.0141479e-38
-0.49865717 0.02037143 0.93000007 1.5736324e-38
-0.48552766 0.01864 0.93200004 1.7427104e-38
-0.4818286 0.018600002 0.93000007 1.742057e-38
-0.47917145 0.018600002 0.93000007 1.6760801e-38
-0.49688575 0.022142859 0.93000007 1.2981982e-38
-0.49298573 0.022166669 0.93100005 1.3352555e-38
-0.49032575 0.023052381 0.93100005 1.3733168e-38
-0.48714289 0.023914287 0.93000007 1.4199171e-38
-0.48493594 0.023373973 0.93200004 1.2080115e-38
-0.48197716 0.023965716 0.93200004 7.8304712e-39
-0.48714289 0.025685716 0.93000007 1.4100134e-38
-0.48411906 0.025713336 0.93100005 1.1524052e-38
-0.48197716 0.025740953 0.93200004 8.6505307e-39
-0.48448575 0.028342858 0.93000007 1.1892124e-38
-0.48163116 0.028383497 0.93133348 8.2900159e-39
-0.4806959 0.031612702 0.9306668 7.6439206e-39
-0.47879907 0.032806668 0.93100005 5.0682177e-39
-0.48094288 0.034542859 0.93000007 7.8254196e-39
-0.47879907 0.03458 0.93100005 4.9749346e-39
-0.48094288 0.037200004 0.93000007 7.4534239e-39
-0.47917145 0.037200004 0.93000007 5.709627e-39
-0.4870905 0.020480953 0.93500006 1.5114691e-38
-0.48441908 0.020480953 0.93500006 1.3182847e-38
-0.4815883 0.019929843 0.93700004 8.3962455e-39
-0.47831622 0.019632382 0.93700004 2.3045292e-39
-0.48887146 0.022261906 0.93500006 1.4560407e-38
-0.48441908 0.022261906 0.93500006 9.0301313e-39
-0.48188573 0.022309525 0.93700004 3.1501246e-39
-0.47831622 0.022309525 0.93700004 3.6824358e-39
-0.47563908 0.022309525 0.93700004 2.2977063e-39
-0.48174766 0.024933334 0.93500006 5.7117934e-39
-0.47895032 0.024775811 0.93580008 2.6819367e-39
-0.4758943 0.025265716 0.93633336 1.2882445e-39
-0.47325939 0.02528413 0.93700004 1.0130743e-39
-0.47028479 0.024986669 0.93700004 8.2976207e-40
-0.47895032 0.028698478 0.93580008 2.0286766e-39
-0.47589433 0.028239053 0.93633336 9.2160738e-40
-0.47296193 0.02855619 0.93700004 9.2159616e-40
-0.47028479 0.028556192 0.93700004 8.301194e-40
-0.4786962 0.031645242 0.93600005 1.7546036e-39
-0.47563908 0.031233335 0.93700004 1.1963922e-39
-0.4738543 0.031233335 0.93700004 1.0134317e-39
-0.47028479 0.031233335 0.93700004 1.0134317e-39
-0.46671528 0.031233335 0.93700004 1.0130799e-39
-0.4649305 0.031233335 0.93700004 9.2160037e-40
-0.47801876 0.03420794 0.93700004 1.6609661e-39
-0.47563908 0.033910476 0.93700004 1.2893067e-39
-0.47296193 0.033018097 0.93700004 9.2123603e-40
-0.46939242 0.033910476 0.93700004 9.2051717e-40
-0.46671528 0.033018097 0.93700004 1.1045525e-39
-0.4649305 0.033018097 0.93700004 9.2123883e-40
-0.4788664 0.03656159 0.93633336 3.1350045e-39
-0.47563908 0.036587622 0.93700004 1.0141617e-39
-0.47296193 0.036587622 0.93700004 5.5424998e-40
-0.46850002 0.041049525 0.93700004 4.6098235e-40
-0.46671528 0.041049525 0.93700004 9.2016404e-40
-0.4649305 0.041049525 0.93700004 1.3793415e-39
-0.45957622 0.041049525 0.93700004 5.5425838e-40
-0.46671528 0.043726668 0.93700004 6.4465335e-40
-0.4649305 0.043726668 0.93700004 1.0123555e-39
-0.46046859 0.043726668 0.93700004 6.4573094e-40
-0.45779145 0.043726668 0.93700004 8.2939913e-40
-0.46046859 0.045511432 0.93700004 7.372021e-40
-0.45779145 0.045511432 0.93700004 1.3804079e-39
-0.49327621 0.020590477 0.94000006 1.5651266e-38
-0.49148574 0.020590477 0.94000006 1.5923948e-38
-0.47716194 0.019695239 0.94000006 2.5739204e-39
-0.47537145 0.019695239 0.94000006 1.9321552e-39
-0.47212386 0.019709207 0.94066668 1.1974782e-39
-0.46561718 0.020634288 0.94200003 9.2198573e-40
-0.45925719 0.020590477 0.94000006 1.1063532e-39
-0.47537145 0.022380954 0.94000006 1.8392407e-39
-0.47212386 0.022396829 0.94066668 1.105277e-39
-0.46920574 0.022428572 0.94200003 9.2196331e-40
-0.46561718 0.022428572 0.94200003 7.3794619e-40
-0.46292573 0.022428572 0.94200003 7.3793778e-40
-0.45925719 0.022380954 0.94000006 1.1978299e-39
-0.45746669 0.022380954 0.94000006 1.1981887e-39
-0.45567623 0.022380954 0.94000006 1.1981929e-39
-0.47358099 0.024171431 0.94000006 1.1049098e-39
-0.46960288 0.025093334 0.94099998 6.4680854e-40
-0.46651432 0.025120001 0.94200003 8.2976627e-40
-0.46292573 0.025120001 0.94200003 8.2976908e-40
-0.45844004 0.024222858 0.94200003 1.0141603e-39
-0.46935385 0.028662384 0.94050002 8.301208e-40
-0.4661518 0.02836889 0.94066668 9.2159757e-40
-0.46326634 0.028875431 0.94160002 1.0137918e-39
-0.47358099 0.031333335 0.94000006 9.2159616e-40
-0.47000003 0.031333335 0.94000006 1.1049126e-39
-0.46422577 0.031366669 0.94100004 9.219563e-40
-0.46064097 0.031366669 0.94100004 1.1971055e-39
-0.47537145 0.034914289 0.94000006 9.2159336e-40
-0.47358099 0.034914289 0.94000006 6.4572814e-40
-0.46820956 0.034914289 0.94000006 9.208759e-40
-0.46641907 0.034914289 0.94000006 1.0127128e-39
-0.46397957 0.034036666 0.94050002 9.2123883e-40
-0.46064097 0.03405524 0.94099998 8.2976768e-40
-0.48176575 0.038577147 0.94200003 2.4021212e-39
-0.47856671 0.038536191 0.94100004 1.2900396e-39
-0.47537145 0.038495239 0.94000006 7.3756084e-40
-0.47238731 0.037898414 0.94000006 4.6205715e-40
-0.4691048 0.037600003 0.94000006 5.5353391e-40
-0.46641907 0.037600003 0.94000006 1.1963838e-39
-0.46373335 0.037600003 0.94000006 8.2940054e-40
-0.46015242 0.037600003 0.94000006 6.4609248e-40
-0.45844004 0.038577147 0.94200003 1.0134317e-39
-0.47817716 0.040371433 0.94200003 8.2905862e-40
-0.47537145 0.040285718 0.94000006 7.3720491e-40
-0.47268575 0.040285718 0.94000006 5.5317518e-40
-0.46373338 0.040285718 0.94000006 5.5353952e-40
-0.45925719 0.040285718 0.94000006 7.3756784e-40
-0.45746669 0.040285718 0.94000006 1.1963852e-39
-0.47638288 0.042165715 0.94200003 8.2940194e-40
-0.47268575 0.042076193 0.94000006 5.5317378e-40
-0.47000003 0.043866668 0.94000006 1.8547446e-40
-0.46403179 0.042673018 0.94000006 6.4537782e-40
-0.45925719 0.042076193 0.94000006 8.2940474e-40
-0.45746669 0.043866668 0.94000006 8.29039e-40
-0.46641907 0.045657147 0.94000006 1.1041868e-39
-0.46462861 0.045657147 0.94000006 8.2868167e-40
-0.47010002 0.020100003 0.94500005 1.0138044e-39
-0.46890002 0.022500001 0.94500005 9.2196891e-40
-0.46316573 0.026182858 0.94800007 1.0137974e-39
-0.46153003 0.025241431 0.94650006 9.2196331e-40
-0.46316573 0.027988574 0.94800007 1.2896584e-39
-0.46153003 0.029747143 0.94650006 1.3811366e-39
-0.46136004 0.031600002 0.94800007 1.1052742e-39
-0.46233335 0.028047621 0.95000005 1.0137932e-39
-0.48264956 0.0027371431 0.95800006 1.7484856e-39
-0.48700288 -0.01559143 0.96300006 1.6580934e-39
-0.48700288 -0.013757144 0.96300006 1.74921e-39
-0.48599145 -0.010982858 0.96100003 1.6573731e-39
-0.48416099 0.00091523817 0.96100003 1.932874e-39
-0.48374766 0.0045809527 0.96200001 1.4733322e-39
-0.48150003 0.0045857145 0.96300006 1.3818625e-39
-0.48144352 0.0076314285 0.9616667 1.290027e-39
-0.48141527 0.010982858 0.96100003 1.2900256e-39
-0.47866955 0.010982858 0.96100003 1.290027e-39
-0.48150003 0.013757144 0.96300006 1.2903801e-39
-0.48141527 0.016474288 0.96100003 1.2903829e-39
-0.47866955 0.016474286 0.96100003 1.1978243e-39
