# .PCD v0.7 - Point Cloud Data file format
VERSION 0.7
FIELDS x y z
SIZE 4 4 4
TYPE F F F
COUNT 1 1 1
WIDTH 1408
HEIGHT 1
VIEWPOINT 0 0 0 1 0 0 0
POINTS 1408
DATA ascii
0.033300001 0.10095715 0.55500001
0.034357145 0.10095715 0.55500001
0.055600002 0.046598099 0.55600005
0.05718857 0.046598099 0.55600005
0.055700004 0.048273336 0.55700004
0.056760956 0.048273336 0.55700004
-0.0033536511 0.050657786 0.55600011
-0.0037066669 0.052952383 0.55600005
-0.0031804764 0.055120006 0.55650008
-0.0010609524 0.056760956 0.55700004
0.00052952382 0.059836194 0.55600005
0.0010595239 0.060950004 0.55650008
0.0010609524 0.062596187 0.55700004
0.0010602381 0.064689294 0.55675006
0.00052952382 0.067249529 0.55600005
0.049334288 0.066309527 0.55700004
0.050304767 0.066190481 0.55600005
0.048803814 0.071614288 0.55700004
0.048803814 0.072675243 0.55700004
0.047212385 0.075858101 0.55700004
0.0026476192 0.07678096 0.55600005
0.0026476192 0.079958104 0.55600005
0.0026476192 0.081017151 0.55600005
0.0026500002 0.082680479 0.55650008
0.0037133335 0.085406676 0.55700004
0.0047657145 0.087371431 0.55600005
0.043950479 0.087371431 0.55600005
0.045009527 0.087371431 0.55600005
0.046068575 0.087371431 0.55600005
0.0037066669 0.088960007 0.55600005
0.043420956 0.088960007 0.55600005
0.045009527 0.088960007 0.55600005
0.046068575 0.088960007 0.55600005
0.0037066669 0.091078103 0.55600005
0.043950479 0.090548575 0.55600005
0.045009527 0.090548575 0.55600005
0.046068575 0.090548575 0.55600005
0.0037133335 0.09283334 0.55700004
0.0047657145 0.093196198 0.55600005
0.04130286 0.093725719 0.55600005
0.043270163 0.093075886 0.55633342
0.045009527 0.092666671 0.55600005
0.046068575 0.092666671 0.55600005
0.0052995244 0.094870001 0.55650008
0.0074133333 0.095843814 0.55600005
0.039714288 0.095843814 0.55600005
0.041126352 0.09513779 0.55600011
0.042968575 0.094955243 0.55700004
0.0058352384 0.096546672 0.55700004
0.0074133333 0.097432382 0.55600005
0.0090019051 0.09743239 0.55600005
0.010060953 0.09796191 0.55600005
0.016415238 0.09796191 0.55600005
0.039361276 0.097608894 0.55600011
0.041907623 0.096016198 0.55700004
0.007426667 0.099199057 0.55700004
0.0090019051 0.099020958 0.55600005
0.010590477 0.099020958 0.55600005
0.012708573 0.099020958 0.55600005
0.014826667 0.099020958 0.55600005
0.016944762 0.099020958 0.55600005
0.019062858 0.099020958 0.55600005
0.037596192 0.099020958 0.55600005
0.03865524 0.099020958 0.55600005
0.0079571437 0.10079049 0.55700004
0.0090180961 0.10079049 0.55700004
0.010590477 0.10060953 0.55600005
0.012714524 0.10065501 0.55625004
0.014833572 0.100655 0.5562501
0.016944762 0.10060953 0.55600005
0.019062858 0.10060953 0.55600005
0.021180954 0.10060953 0.55600005
0.023475558 0.10078605 0.55600011
0.025240637 0.10078605 0.55600011
0.027005715 0.10060953 0.55600005
0.028594287 0.10113905 0.55600005
0.030182859 0.10113905 0.55600005
0.032300953 0.10113905 0.55600005
0.035478096 0.10060953 0.55600005
0.037066668 0.10060953 0.55600005
0.039078414 0.10061365 0.55700004
0.010609524 0.10238191 0.55700004
0.012731429 0.10238191 0.55700004
0.014853334 0.10291238 0.55700004
0.016975239 0.10291239 0.55700004
0.019097144 0.10291238 0.55700004
0.021190716 0.10277405 0.55625004
0.02329905 0.10272762 0.55600005
0.025417145 0.10272762 0.55600005
0.027030002 0.10282049 0.55650008
0.028594287 0.10272762 0.55600005
0.030712383 0.10272762 0.55600005
0.032830477 0.10272762 0.55600005
0.034980476 0.10282 0.55650008
0.037133336 0.10291239 0.55700004
0.016975239 0.10450382 0.55700004
0.019097144 0.10450382 0.55700004
0.021219049 0.10450382 0.55700004
0.023340954 0.10450382 0.55700004
0.025462858 0.10450382 0.55700004
0.027054287 0.10450382 0.55700004
0.028645717 0.10450382 0.55700004
0.030767621 0.10450382 0.55700004
0.032889526 0.10450382 0.55700004
0.034480955 0.10450382 0.55700004
0.055900004 0.049511433 0.55900002
0.056964766 0.049511433 0.55900002
0.058081433 0.049023338 0.55949998
0.053190954 0.051063336 0.55850005
0.054933336 0.051200002 0.56
0.053333335 0.052800003 0.56
0.054933336 0.052800003 0.56
0.051640958 0.055900004 0.55900002
0.052800003 0.054933336 0.56
-0.0030114288 0.057217147 0.55800003
-0.0010628572 0.05792572 0.55800003
0.051640958 0.056964766 0.55900002
0.05275286 0.056482386 0.55949998
-0.0048000002 0.059200004 0.56
-0.003376191 0.058809213 0.55966663
-0.0010628572 0.058988575 0.55800003
-0.002661905 0.060691431 0.55900002
-0.0010635715 0.060610242 0.55825001
-0.002661905 0.062820956 0.55900002
-0.0010642859 0.062764764 0.55850005
0.050666671 0.062933341 0.56
-0.0026666669 0.065066673 0.56
-0.0010642859 0.064892389 0.55850005
0.049511433 0.065482862 0.55900002
0.050666671 0.065066673 0.56
-0.0026666669 0.06666667 0.56
-0.0010661905 0.067140006 0.55949998
0.000532381 0.066547625 0.55900002
0.04942286 0.067491435 0.55800003
-0.0005328572 0.069271907 0.55949998
0.0005328572 0.069271907 0.55949998
0.048913576 0.069116905 0.55825007
-0.0005333334 0.070933335 0.56
0.0005333334 0.070933335 0.56
0.048891433 0.070680007 0.55800003
0.048360005 0.073868573 0.55800003
0.049023338 0.075132862 0.55949998
0.001597143 0.077195242 0.55900002
0.047381908 0.077195242 0.55900002
0.048533335 0.076266669 0.56
0.0015942858 0.078651436 0.55800003
0.0012406351 0.080695882 0.55866671
0.001597143 0.083051436 0.55900002
0.0015985715 0.085257627 0.55949998
0.0026595239 0.08510524 0.55850005
0.0016000001 0.086933337 0.56
0.0031909526 0.087232389 0.55850005
0.0016000001 0.088533342 0.56
0.002661905 0.089440003 0.55900002
0.0016000001 0.090133339 0.56
0.002661905 0.091037147 0.55900002
0.0026666669 0.092800006 0.56
0.0031933335 0.094763815 0.55900002
0.0037333337 0.097066671 0.56
0.0047914288 0.09689334 0.55900002
0.040920004 0.097251438 0.55800003
0.042793654 0.097128898 0.55933332
0.0037333337 0.09920001 0.56
0.0053185718 0.098934293 0.55850005
0.039857145 0.099377148 0.55800003
0.040920004 0.09884572 0.55800003
0.042647857 0.099155962 0.55975002
0.0053280955 0.10124286 0.55949998
0.0069209528 0.10115239 0.55900002
0.039857145 0.10150287 0.55800003
0.040956669 0.10106239 0.55850005
0.042666666 0.10133334 0.56
0.0058666673 0.10293334 0.56
0.0074497624 0.10323596 0.55875003
0.0090423813 0.10319 0.55850005
0.010628572 0.10362858 0.55800003
0.012754287 0.10362858 0.55800003
0.039361432 0.10318953 0.55850005
0.041066669 0.10293334 0.56
0.042666666 0.10293334 0.56
0.0058666673 0.10453334 0.56
0.007634921 0.10529651 0.55933332
0.0090504764 0.10487905 0.55900002
0.01064262 0.10536453 0.55875003
0.012765715 0.10531762 0.55850005
0.014893334 0.10531762 0.55850005
0.017005716 0.10575429 0.55800003
0.019131429 0.10575429 0.55800003
0.021257143 0.10575429 0.55800003
0.023382857 0.10575429 0.55800003
0.024977144 0.10575429 0.55800003
0.02657143 0.10575429 0.55800003
0.028697144 0.10575429 0.55800003
0.03082286 0.10575429 0.55800003
0.032948576 0.10575429 0.55800003
0.035251431 0.10540001 0.55800003
0.037216906 0.10527025 0.55825001
0.039218735 0.10523397 0.55900002
0.041066669 0.10453334 0.56
0.042133335 0.10453334 0.56
0.0069333338 0.10613334 0.56
0.0087111127 0.10684445 0.56000006
0.010647619 0.10700858 0.55900002
0.012777144 0.10700858 0.55900002
0.014906667 0.10700858 0.55900002
0.017036192 0.10700858 0.55900002
0.019165715 0.10700858 0.55900002
0.02129524 0.10700858 0.55900002
0.023382857 0.10681715 0.55800003
0.024977144 0.10681715 0.55800003
0.026619049 0.10700858 0.55900002
0.028748574 0.10700858 0.55900002
0.030850954 0.10691287 0.55850005
0.032948576 0.10681715 0.55800003
0.035137147 0.10700858 0.55900002
0.037266668 0.10700858 0.55900002
0.038933337 0.1072 0.56
0.040000003 0.10666667 0.56
0.0085333344 0.10880001 0.56
0.010656668 0.10870287 0.55949998
0.012777144 0.10860573 0.55900002
0.014906667 0.10860573 0.55900002
0.017036192 0.10860573 0.55900002
0.019165715 0.10860573 0.55900002
0.02129524 0.10860573 0.55900002
0.023424763 0.10860572 0.55900002
0.025021907 0.10860572 0.55900002
0.026619049 0.10860572 0.55900002
0.028748574 0.10860572 0.55900002
0.030878097 0.10860573 0.55900002
0.033007622 0.10860573 0.55900002
0.035137147 0.10860573 0.55900002
0.037316907 0.10875167 0.55974996
0.038933337 0.10880001 0.56
0.040000003 0.10826667 0.56
0.0090666674 0.11093334 0.56
0.010666667 0.11093334 0.56
0.012800001 0.11093334 0.56
0.014933335 0.11093335 0.56
0.017066669 0.11093334 0.56
0.019191192 0.11088406 0.55975002
0.021323573 0.11088406 0.55974996
0.023274606 0.11068985 0.55966663
0.024696192 0.11104541 0.55966669
0.026642857 0.11083476 0.55949998
0.028774288 0.11083476 0.55949998
0.030905716 0.11083476 0.55949998
0.033007622 0.11073524 0.55900002
0.035184525 0.11088406 0.55975002
0.037333336 0.11093334 0.56
0.010844446 0.11288889 0.56000006
0.012800002 0.11306667 0.56
0.014933335 0.11306667 0.56
0.017066669 0.11306667 0.56
0.019200001 0.11306667 0.56
0.021511113 0.11288889 0.56000006
0.022933334 0.11253334 0.56
0.024533335 0.11306667 0.56
0.026844447 0.11288889 0.56000006
0.028800001 0.11306667 0.56
0.030933335 0.11306667 0.56
0.033066668 0.11306667 0.56
0.0352 0.11306667 0.56
0.036800001 0.11306667 0.56
0.013333335 0.11466667 0.56
0.014933335 0.11466667 0.56
0.029333334 0.11520001 0.56
0.030933335 0.1152 0.56
0.033066668 0.1152 0.56
0.0352 0.11466667 0.56
0.056100003 0.050757147 0.56100005
0.05396286 0.05396286 0.56100005
-0.0048085717 0.058237147 0.56100005
-0.0037400003 0.060908575 0.56100005
-0.0037400003 0.062511429 0.56100005
0.051825717 0.065182865 0.56100005
0.051825717 0.066785716 0.56100005
-0.0016028573 0.069457144 0.56100005
0.050757147 0.069991432 0.56100005
0.050757147 0.071060002 0.56100005
0.049688574 0.074265718 0.56100005
0.049688574 0.076402865 0.56100005
0.0026714287 0.097240001 0.56100005
0.0026714287 0.099377155 0.56100005
0.0037400003 0.10098001 0.56100005
0.0037400003 0.10204858 0.56100005
0.0048085717 0.10311715 0.56100005
0.044345718 0.10311715 0.56100005
0.0048085717 0.10472001 0.56100005
0.043277144 0.10472001 0.56100005
0.044345718 0.10525429 0.56100005
0.0058771432 0.10632286 0.56100005
0.0069457148 0.10739143 0.56100005
0.041140001 0.10685715 0.56100005
0.042208575 0.10685715 0.56100005
0.0069457148 0.10899429 0.56100005
0.040605716 0.10899429 0.56100005
0.042208575 0.10846001 0.56100005
0.0069457148 0.11059715 0.56100005
0.0080142859 0.11113143 0.56100005
0.039002858 0.11113143 0.56100005
0.040071432 0.11059715 0.56100005
0.0090828575 0.11326858 0.56100005
0.010151429 0.11380287 0.56100005
0.020837145 0.11380287 0.56100005
0.022974288 0.11380287 0.56100005
0.026180001 0.11380287 0.56100005
0.037934288 0.11326858 0.56100005
0.039002858 0.11326858 0.56100005
0.010685715 0.11487143 0.56100005
0.012644763 0.11558382 0.56100005
0.014960001 0.11594 0.56100005
0.017097145 0.11487143 0.56100005
0.019234288 0.11487143 0.56100005
0.021549527 0.11522763 0.56100005
0.022974288 0.11487143 0.56100005
0.024577145 0.11540572 0.56100005
0.026714288 0.11540572 0.56100005
0.028317144 0.11540572 0.56100005
0.03526286 0.11594 0.56100005
0.037221909 0.11522763 0.56100005
0.031522859 0.11700858 0.56100005
0.056913655 0.051561274 0.56200004
0.056786194 0.053035717 0.5625
0.058340956 0.052988574 0.56200004
0.05459429 0.05459429 0.56200004
0.056836195 0.054155242 0.56300002
0.058340956 0.054059051 0.56200004
0.054155242 0.056836195 0.56300002
0.052499525 0.06107191 0.5625
0.054059051 0.06048191 0.56200004
-0.0037466669 0.063693337 0.56200004
0.052367941 0.063091755 0.56300008
-0.0037500001 0.065357625 0.5625
-0.0026761906 0.067975245 0.56200004
-0.0026809527 0.069168575 0.56300002
0.0509381 0.068096198 0.56300002
0.05201048 0.068096198 0.56300002
-0.0026809527 0.07024096 0.56300002
-0.0016057144 0.071186669 0.56200004
-0.00053523813 0.072792381 0.56200004
0.00053523813 0.072792381 0.56200004
-0.00053619052 0.075066671 0.56300002
0.00089269853 0.07520064 0.56266665
-0.00053619052 0.077211432 0.56300002
0.00089238107 0.076941915 0.56233335
0.049241908 0.077609532 0.56200004
0.0509381 0.076675244 0.56300002
-0.00053619052 0.079356194 0.56300002
0.00053619052 0.079356194 0.56300002
0.047720954 0.078820005 0.56300002
-0.00053619052 0.080964766 0.56300002
-0.00053619052 0.082573339 0.56300002
0.00053571432 0.082499534 0.5625
0.00053619052 0.085254289 0.56300002
0.00053619052 0.086862862 0.56300002
0.00053619052 0.089007623 0.56300002
0.001072381 0.091152385 0.56300002
0.0016057144 0.093131438 0.56200004
0.0016085715 0.095441908 0.56300002
0.044834923 0.095206998 0.56266665
0.0016085715 0.097050481 0.56300002
0.0016085715 0.098659053 0.56300002
0.0016085715 0.10026763 0.56300002
0.0026761906 0.10116 0.56200004
0.044834923 0.10092255 0.56266671
0.0030346035 0.10300541 0.56233335
0.044424765 0.10223048 0.56200004
0.0032138098 0.105 0.5625
0.044503812 0.10455715 0.56300002
0.0037533336 0.1072381 0.56300002
0.0051739686 0.10722604 0.56200004
0.043392859 0.10714334 0.5625
0.0037533336 0.10884667 0.56300002
0.0053566666 0.10928572 0.5625
0.041213337 0.10972381 0.56200004
0.043048888 0.10949652 0.56266665
0.0053619053 0.11099143 0.56300002
0.0069580958 0.11186477 0.56200004
0.040678099 0.11132953 0.56200004
0.04235905 0.11099143 0.56300002
0.0058980957 0.11260001 0.56300002
0.0069704768 0.11313619 0.56300002
0.0080285715 0.11293525 0.56200004
0.040905401 0.11271176 0.56266665
0.0069704768 0.11474477 0.56300002
0.0083901603 0.11478763 0.56233335
0.039072383 0.1150762 0.56200004
0.040178575 0.11464334 0.5625
0.0087577794 0.1167108 0.56300008
0.010714287 0.1167862 0.5625
0.012868572 0.11742572 0.56300002
0.015000477 0.11732144 0.5625
0.017135477 0.11673406 0.56225002
0.019285716 0.1167862 0.5625
0.021256512 0.11699937 0.56266665
0.023035716 0.1167862 0.5625
0.024642382 0.11732144 0.5625
0.026761906 0.11721715 0.56200004
0.028902858 0.11721715 0.56200004
0.030508574 0.11721715 0.56200004
0.033184763 0.11721715 0.56200004
0.035325717 0.11721715 0.56200004
0.036997147 0.11742572 0.56300002
0.03840445 0.11664191 0.56266665
0.040214289 0.11635334 0.56300002
0.010723811 0.1184981 0.56300002
0.012868572 0.11903429 0.56300002
0.015013334 0.1190343 0.56300002
0.017158097 0.1190343 0.56300002
0.019302858 0.11903429 0.56300002
0.021447619 0.11903429 0.56300002
0.023056192 0.11903429 0.56300002
0.024664763 0.1190343 0.56300002
0.02678524 0.11892857 0.5625
0.028902858 0.11882287 0.56200004
0.031043813 0.11882287 0.56200004
0.033214286 0.11892906 0.5625
0.035373095 0.11898168 0.56274998
0.036997147 0.1184981 0.56300002
0.014477144 0.12064286 0.56300002
0.017158097 0.12064286 0.56300002
0.019302858 0.12117906 0.56300002
0.021447619 0.12117906 0.56300002
0.023056192 0.12117906 0.56300002
0.024664763 0.12117906 0.56300002
0.026809525 0.12117906 0.56300002
0.028954288 0.12117906 0.56300002
0.031099049 0.12117906 0.56300002
0.033065081 0.12100033 0.56300008
0.023056192 0.12278762 0.56300002
0.027345717 0.12278762 0.56300002
0.055325717 0.055325717 0.56400001
0.056937147 0.055325717 0.56400001
0.055325717 0.056937147 0.56400001
0.05696262 0.05696262 0.56424999
0.058652386 0.057038099 0.565
0.053177148 0.059085719 0.56400001
0.054813098 0.059112146 0.56424999
0.057038099 0.059190482 0.565
0.053177148 0.061771434 0.56400001
0.05500032 0.061449211 0.56433338
0.057038099 0.061342862 0.565
0.053177148 0.063920006 0.56400001
0.05460953 0.063203819 0.56400001
0.056500003 0.062957145 0.565
0.053177148 0.06499429 0.56400001
0.055033021 0.06471239 0.56466669
0.056500003 0.064571433 0.565
-0.0037600002 0.067142859 0.56400001
0.053271431 0.066723816 0.565
0.054885719 0.066723816 0.565
-0.0037600002 0.068754293 0.56400001
0.051028576 0.069291435 0.56400001
0.052733336 0.068876192 0.565
0.054347623 0.068338096 0.565
-0.0034041274 0.071124136 0.56433332
0.05219524 0.071028575 0.565
-0.0032273813 0.073148817 0.56474996
-0.0016128572 0.073116675 0.56449997
0.051119052 0.073719054 0.565
-0.0030492067 0.075153977 0.565
-0.0016142859 0.075333342 0.565
0.051028576 0.075200006 0.56400001
0.05219524 0.075333342 0.565
-0.0016142859 0.076947622 0.565
0.051028576 0.077885717 0.56400001
0.05210286 0.077348575 0.56400001
-0.0016142859 0.078561909 0.565
0.049417146 0.078960001 0.56400001
0.051119052 0.079100005 0.565
0.05219524 0.079100005 0.565
-0.0016142859 0.080176197 0.565
0.047848098 0.080643341 0.56449997
0.048923336 0.080643341 0.56449997
0.050580956 0.080714293 0.565
0.05219524 0.080176197 0.565
0.047890481 0.082866669 0.565
0.048966669 0.082866669 0.565
0.05004286 0.082866669 0.565
-0.00053714291 0.08486858 0.56400001
0.00053714291 0.08433143 0.56400001
-0.00053714291 0.087017149 0.56400001
-0.00053761911 0.089245245 0.56449997
0.00053714291 0.091851436 0.56400001
0.00053714291 0.09292572 0.56400001
0.00053761911 0.094621435 0.56449997
0.046814289 0.095242865 0.565
0.00053714291 0.097222865 0.56400001
0.045326035 0.096922234 0.56433332
0.046814289 0.096319057 0.565
0.00053809525 0.099009529 0.565
0.044994291 0.099130802 0.56466669
0.00089587306 0.10128128 0.56466669
0.045657147 0.10044572 0.56400001
0.046814289 0.10062382 0.565
0.001074762 0.10322286 0.56449997
0.0012536509 0.10516286 0.56433332
0.0010761905 0.10654286 0.565
0.0026857145 0.10742858 0.56400001
0.044582859 0.10742858 0.56400001
0.0016142859 0.10869525 0.565
0.0026857145 0.10904001 0.56400001
0.044582859 0.10904001 0.56400001
0.0016142859 0.11084762 0.565
0.0032228574 0.11065143 0.56400001
0.043508574 0.11118858 0.56400001
0.0032269049 0.11295024 0.56475002
0.0048342859 0.11280001 0.56400001
0.042990718 0.11285025 0.56424999
0.003407937 0.11497303 0.565
0.0053735715 0.11499977 0.56424999
0.041360002 0.11494858 0.56400001
0.042509526 0.11515239 0.565
0.0037666669 0.11730477 0.565
0.0053783334 0.1172531 0.56474996
0.0069828578 0.11709715 0.56400001
0.0080571435 0.1176343 0.56400001
0.03921143 0.1176343 0.56400001
0.041074604 0.11748414 0.565
0.042509526 0.11676668 0.565
0.0053809527 0.11945715 0.565
0.0069952384 0.11945715 0.565
0.0085942857 0.11924572 0.56400001
0.010742858 0.11978287 0.56400001
0.037062861 0.11978287 0.56400001
0.03869167 0.11929882 0.56424999
0.040357146 0.11945715 0.565
0.0059190481 0.12107144 0.565
0.0069952384 0.12107144 0.565
0.0086014289 0.12096429 0.56449997
0.010921906 0.12121525 0.56400001
0.012891429 0.12139429 0.56400001
0.01521905 0.12157334 0.56400001
0.017188571 0.12193143 0.56400001
0.033840001 0.12193143 0.56400001
0.035451431 0.12139429 0.56400001
0.037062861 0.12085715 0.56400001
0.038742859 0.12107144 0.565
0.040357146 0.12107144 0.565
0.0059190481 0.12268572 0.565
0.0069952384 0.12268572 0.565
0.008609524 0.12268572 0.565
0.01058254 0.1228651 0.565
0.012891429 0.12300573 0.56400001
0.015040001 0.12300573 0.56400001
0.017188571 0.12300573 0.56400001
0.019337144 0.12300573 0.56400001
0.020948572 0.12300573 0.56400001
0.022022858 0.12300573 0.56400001
0.024708573 0.12300573 0.56400001
0.026320001 0.12300573 0.56400001
0.029005717 0.12300573 0.56400001
0.031154288 0.12300573 0.56400001
0.033302858 0.12300573 0.56400001
0.034976192 0.12322382 0.565
0.036769845 0.1228651 0.565
0.038742859 0.12268572 0.565
0.0069952384 0.12430001 0.565
0.0087888893 0.12465873 0.565
0.010761905 0.1248381 0.565
0.012908334 0.1247831 0.56475002
0.015053335 0.1247281 0.56449997
0.017195953 0.12467262 0.56424999
0.019337144 0.12461714 0.56400001
0.020948572 0.12461714 0.56400001
0.02256 0.12461715 0.56400001
0.024708575 0.12461714 0.56400001
0.026857145 0.12461715 0.56400001
0.029005716 0.12461714 0.56400001
0.031154288 0.12461714 0.56400001
0.03331786 0.12467262 0.56424999
0.034976192 0.1248381 0.565
0.036590479 0.1248381 0.565
0.038204763 0.12430001 0.565
0.0091476198 0.12645239 0.565
0.010761905 0.12699048 0.565
0.012914286 0.12699048 0.565
0.015066668 0.12699048 0.565
0.017211191 0.12693453 0.56474996
0.019337144 0.12676573 0.56400001
0.020948572 0.12676573 0.56400001
0.02256 0.12676573 0.56400001
0.024708575 0.12676573 0.56400001
0.026857145 0.12676573 0.56400001
0.029005716 0.12676573 0.56400001
0.031168334 0.12682214 0.56424999
0.033361908 0.12699048 0.565
0.034976192 0.12699048 0.565
0.036052383 0.12699048 0.565
0.013452382 0.12860477 0.565
0.015066668 0.12914287 0.565
0.017219048 0.12914287 0.565
0.019362621 0.12908596 0.56475002
0.020967145 0.12902907 0.56449997
0.02256 0.1289143 0.56400001
0.024719764 0.12897168 0.56424999
0.026904764 0.12914287 0.565
0.029057145 0.12914287 0.565
0.031209525 0.12914287 0.565
0.033361908 0.12914287 0.565
0.034976192 0.12860477 0.565
0.017219048 0.13075715 0.565
0.019371431 0.13129525 0.565
0.020985715 0.13129525 0.565
0.022600001 0.13129525 0.565
0.024752382 0.13129525 0.565
0.026904764 0.13129525 0.565
0.029057145 0.13129525 0.565
0.031209525 0.13129525 0.565
0.033182543 0.13111588 0.565
0.020985715 0.13290954 0.565
0.022600003 0.13344763 0.565
0.024752384 0.13344763 0.565
0.026904764 0.13290954 0.565
0.028519049 0.13290954 0.565
0.030671431 0.13290954 0.565
0.022600003 0.13506192 0.565
0.059940003 0.057780005 0.56700003
0.059348099 0.059347622 0.56650007
0.058756195 0.060912386 0.56600004
0.0576781 0.063068576 0.56600004
0.0576781 0.064146668 0.56600004
0.056600004 0.066841908 0.56600004
-0.0048600002 0.069660008 0.56700003
0.053365719 0.069537148 0.56600004
0.054982863 0.068998098 0.56600004
0.056600004 0.068459049 0.56600004
-0.0048600002 0.071280003 0.56700003
0.053412862 0.071217626 0.56650007
0.054540005 0.070740007 0.56700003
-0.0048557147 0.073375717 0.56650007
0.051209528 0.07277143 0.56600004
0.052287623 0.07331048 0.56600004
-0.0048600002 0.075060003 0.56700003
-0.0034161906 0.076769851 0.56633341
-0.0032376191 0.078770481 0.56650007
-0.0027000001 0.080460005 0.56700003
-0.0016171429 0.081396192 0.56600004
0.052287623 0.081396192 0.56600004
-0.0016185716 0.083087146 0.56650007
0.051254764 0.083087146 0.56650007
-0.0016200001 0.085320011 0.56700003
0.047975242 0.085169524 0.56600004
0.04909667 0.085245244 0.56650007
0.050550483 0.08509016 0.56666672
-0.0016185716 0.087402388 0.56650007
0.047975242 0.086786672 0.56600004
0.049140003 0.086940005 0.56700003
0.050220001 0.086940005 0.56700003
-0.00324 0.088020004 0.56700003
-0.0016200001 0.089100003 0.56700003
0.048420005 0.088380001 0.56700003
-0.0027000001 0.09018001 0.56700003
-0.0010800001 0.090720013 0.56700003
0.048060004 0.090720013 0.56700003
-0.00054000004 0.092880011 0.56700003
0.048060004 0.095580004 0.56700003
0.00053904764 0.096489534 0.56600004
0.046897147 0.097567625 0.56600004
0.048060004 0.096660003 0.56700003
0.045819052 0.098645724 0.56600004
0.046897147 0.099184766 0.56600004
0.046980005 0.10206001 0.56700003
0.00053904764 0.10834858 0.56600004
0.0016185716 0.11330049 0.56650007
0.0016200001 0.11502001 0.56700003
0.0026952382 0.11589525 0.56600004
0.0016200001 0.11664 0.56700003
0.0026952382 0.11697334 0.56600004
0.0016200001 0.11880001 0.56700003
0.0030577779 0.11890986 0.56666672
0.04150667 0.11912953 0.56600004
0.042660002 0.11880001 0.56700003
0.0032366668 0.12085334 0.56650007
0.0048514288 0.12128572 0.56600004
0.04150667 0.12074667 0.56600004
0.042660002 0.12096001 0.56700003
0.0032366668 0.12301143 0.56650007
0.0048514288 0.12290287 0.56600004
0.041004289 0.12301144 0.56650007
0.00324 0.12528001 0.56700003
0.0053904764 0.12505905 0.56600004
0.0070076194 0.1255981 0.56600004
0.0080857147 0.1255981 0.56600004
0.038991116 0.12523875 0.5660001
0.040500004 0.12528001 0.56700003
0.0037800001 0.1269 0.56700003
0.0053947619 0.12732762 0.56650001
0.0070076194 0.12721525 0.56600004
0.0084450804 0.12739494 0.5660001
0.037194289 0.12721525 0.56600004
0.038846195 0.12732764 0.56650007
0.040500004 0.1269 0.56700003
0.0059400005 0.12906002 0.56700003
0.0070200004 0.12906002 0.56700003
0.0088044452 0.12919176 0.5660001
0.010780953 0.12937143 0.56600004
0.012757461 0.12955111 0.5660001
0.035038099 0.12991048 0.56600004
0.036475562 0.12919176 0.5660001
0.038340002 0.12906002 0.56700003
0.0070200004 0.13068001 0.56700003
0.0084600002 0.13086002 0.56700003
0.010780953 0.13098858 0.56600004
0.012937143 0.13098858 0.56600004
0.015093334 0.13098858 0.56600004
0.035038099 0.13098858 0.56600004
0.036878735 0.13078287 0.56666672
0.038340002 0.13014001 0.56700003
0.008820001 0.13266002 0.56700003
0.010790477 0.13272335 0.56650007
0.012937143 0.13260573 0.56600004
0.015093334 0.13260573 0.56600004
0.017249525 0.13260572 0.56600004
0.019405715 0.13314477 0.56600004
0.02964762 0.13314477 0.56600004
0.031803813 0.13314477 0.56600004
0.03360064 0.13278541 0.5660001
0.035069048 0.13272335 0.56650007
0.036180001 0.13284001 0.56700003
0.0108 0.13500001 0.56700003
0.012960001 0.13500001 0.56700003
0.015113096 0.13494071 0.56675005
0.017257381 0.13482168 0.56625009
0.019405715 0.13476191 0.56600004
0.021022858 0.13476191 0.56600004
0.024796192 0.13530096 0.56600004
0.026952382 0.13476191 0.56600004
0.029108573 0.13476191 0.56600004
0.031278811 0.13482168 0.56625009
0.032910958 0.13488144 0.56650007
0.034380004 0.13482001 0.56700003
0.012960001 0.13716 0.56700003
0.015120001 0.13716 0.56700003
0.017280001 0.13716 0.56700003
0.019405715 0.1369181 0.56600004
0.021022858 0.1369181 0.56600004
0.022640001 0.1369181 0.56600004
0.024796192 0.1369181 0.56600004
0.026952382 0.1369181 0.56600004
0.029121669 0.13697882 0.56625003
0.031320002 0.13716 0.56700003
0.032940004 0.13716 0.56700003
0.015300001 0.13914001 0.56700003
0.017280001 0.13932 0.56700003
0.019440003 0.13932 0.56700003
0.021041431 0.13919762 0.56650007
0.022640001 0.1390743 0.56600004
0.024796192 0.1390743 0.56600004
0.026952382 0.1390743 0.56600004
0.029147383 0.13925882 0.56675005
0.031140003 0.13914001 0.56700003
0.017280001 0.14094001 0.56700003
0.019440003 0.14094001 0.56700003
0.021060001 0.14094001 0.56700003
0.022680001 0.14094001 0.56700003
0.024840001 0.14094001 0.56700003
0.027000003 0.14094001 0.56700003
0.029160002 0.14094001 0.56700003
0.017820001 0.14202 0.56700003
0.019620001 0.14238 0.56700003
0.021060001 0.14256001 0.56700003
0.022680001 0.14256001 0.56700003
0.024840001 0.14256001 0.56700003
0.026820002 0.14238 0.56700003
0.023220001 0.14418001 0.56700003
0.024840001 0.14418001 0.56700003
-0.0081285723 0.059067622 0.56900001
-0.0070447624 0.060151432 0.56900001
-0.005419048 0.061235242 0.56900001
-0.005960953 0.064486668 0.56900001
-0.0055933334 0.069101907 0.56833339
0.055816196 0.069905721 0.56900001
0.057340957 0.069782861 0.56800002
-0.005960953 0.070989527 0.56900001
0.055226196 0.0714681 0.56850004
0.057441905 0.070989527 0.56900001
-0.0059557147 0.07255096 0.56850004
0.053554289 0.073028579 0.56800002
0.054732386 0.073157147 0.56900001
-0.005960953 0.074782863 0.56900001
0.053648576 0.074782863 0.56900001
0.054732386 0.075324766 0.56900001
-0.0032457146 0.081142858 0.56800002
-0.0027071431 0.083380483 0.56850004
0.052472383 0.082765721 0.56800002
-0.002709524 0.085079052 0.56900001
-0.003065397 0.086732708 0.56800002
0.05139048 0.086552382 0.56800002
-0.0032457146 0.089257151 0.56800002
0.049226671 0.089257151 0.56800002
0.05035286 0.088794768 0.56850004
-0.0034276196 0.091113977 0.56833339
-0.0016228573 0.091420956 0.56800002
0.049226671 0.090880007 0.56800002
0.050397146 0.091040008 0.56900001
-0.0030685717 0.092972696 0.5686667
-0.0016257144 0.093207628 0.56900001
0.04875024 0.093166903 0.56875002
0.050397146 0.092665717 0.56900001
-0.00054142863 0.095291913 0.56850004
0.048771434 0.09537524 0.56900001
-0.00054190482 0.097000957 0.56900001
0.049313337 0.097000957 0.56900001
-0.00054142863 0.098539531 0.56850004
0.048229527 0.098626673 0.56900001
-0.00054095243 0.1000762 0.56800002
0.048229527 0.10025239 0.56900001
0.047145717 0.10350382 0.56900001
0.00054190482 0.10783906 0.56900001
0.04489905 0.11197715 0.56800002
0.043817144 0.11522286 0.56800002
0.043817144 0.11684573 0.56800002
0.043855716 0.11911477 0.56850004
0.0016228573 0.12117334 0.56800002
0.043894287 0.12138668 0.56900001
0.0016228573 0.12333715 0.56800002
0.042735241 0.1227962 0.56800002
0.041653335 0.12496001 0.56800002
0.042810477 0.1240962 0.56900001
0.0027047622 0.12712382 0.56800002
0.041690003 0.12669477 0.56850004
0.0034298417 0.12871747 0.5686667
0.0048685716 0.12928763 0.56800002
0.039489526 0.12928763 0.56800002
0.040980324 0.12871747 0.5686667
0.0054138098 0.13102572 0.56850004
0.039128892 0.1310908 0.56800002
0.040642861 0.13114096 0.56900001
0.0059557147 0.13319191 0.56850004
0.0070323814 0.13307428 0.56800002
0.0081142867 0.13361524 0.56800002
0.037325718 0.13307428 0.56800002
0.038791433 0.13297176 0.56833339
0.005960953 0.13493429 0.56900001
0.0070447624 0.13493429 0.56900001
0.0086552389 0.1352381 0.56800002
0.035161909 0.13577905 0.56800002
0.036817621 0.13481572 0.56850004
0.038475242 0.13493429 0.56900001
0.0070447624 0.13656001 0.56900001
0.0086623821 0.13698144 0.56850004
0.010999366 0.1372216 0.56800002
0.034461271 0.13730192 0.56833339
0.036307622 0.1360181 0.56900001
0.0088511119 0.138547 0.56900001
0.010657461 0.13890827 0.56900001
0.012982858 0.13902476 0.56800002
0.032998096 0.13902476 0.56800002
0.034140002 0.13926953 0.56900001
0.011380001 0.14035334 0.56900001
0.013171112 0.14055018 0.56833339
0.01496635 0.14082794 0.56800002
0.03157429 0.1409108 0.56833339
0.032998096 0.14010668 0.56800002
0.034140002 0.14035334 0.56900001
0.01354762 0.14252096 0.56900001
0.015344764 0.14279875 0.5686667
0.017140001 0.14307588 0.56833339
0.018933335 0.14335239 0.56800002
0.027588572 0.14335239 0.56800002
0.029224526 0.14287454 0.56825006
0.031430479 0.14252096 0.56900001
0.01752159 0.14504986 0.56900001
0.01895 0.14510334 0.56850004
0.020556193 0.14497524 0.56800002
0.022539686 0.14515558 0.56800002
0.02488381 0.1455162 0.56800002
0.027059764 0.14503929 0.56825
0.029082224 0.14504986 0.56900001
0.018966667 0.1468562 0.56900001
0.020592382 0.14739811 0.56900001
0.022739526 0.14726858 0.56850004
0.024916906 0.14733359 0.56875002
0.02709524 0.1468562 0.56900001
0.022760002 0.14902382 0.56900001
0.024385717 0.14902382 0.56900001
0.023301907 0.15010762 0.56900001
-0.010332381 0.061450481 0.57100004
-0.0086857155 0.060800005 0.57000005
-0.0070571434 0.061342862 0.57000005
-0.010332381 0.062538102 0.57100004
-0.0087009529 0.063081913 0.57100004
-0.0070571434 0.062971435 0.57000005
-0.0054307142 0.062999293 0.57025003
-0.0087009529 0.065257147 0.57100004
-0.0070571434 0.065142862 0.57000005
-0.0052533336 0.065400004 0.57066673
-0.008519683 0.067251116 0.57100004
-0.0070633339 0.067373812 0.57050002
-0.0054328572 0.067373335 0.57050002
-0.0070695244 0.069063812 0.57100004
-0.0070633339 0.070633814 0.57050002
-0.0070695244 0.072870478 0.57100004
0.05591429 0.072742864 0.57000005
0.057000004 0.072742864 0.57000005
0.058136672 0.072807148 0.57050002
-0.0070695244 0.07504572 0.57100004
0.055552386 0.074733339 0.57000005
0.057100005 0.07504572 0.57100004
0.058187623 0.074501909 0.57100004
-0.0054380959 0.077220961 0.57100004
0.05374286 0.077085719 0.57000005
0.054828577 0.077085719 0.57000005
0.05637493 0.077039689 0.57100004
-0.0048900004 0.079327151 0.57050002
0.05374286 0.079257146 0.57000005
0.054924764 0.079396196 0.57100004
0.056012385 0.079396196 0.57100004
-0.0048942859 0.081027627 0.57100004
-0.0038000003 0.081971437 0.57000005
0.053837147 0.081027627 0.57100004
-0.0048942859 0.08211524 0.57100004
-0.0038000003 0.08305715 0.57000005
-0.0038033337 0.084759533 0.57050002
0.052703336 0.084759533 0.57050002
-0.0048942859 0.087009527 0.57100004
-0.0038000003 0.086314291 0.57000005
0.052657146 0.086857148 0.57000005
-0.0048942859 0.088640958 0.57100004
0.051616669 0.089107148 0.57050002
0.052749526 0.088640958 0.57100004
0.051661909 0.091360003 0.57100004
-0.0038000003 0.093914293 0.57000005
0.051073812 0.093452863 0.57050002
-0.0027190477 0.095166676 0.57100004
-0.0016285715 0.095000006 0.57000005
0.049400002 0.095000006 0.57000005
0.050574288 0.095166676 0.57100004
-0.0027190477 0.096254289 0.57100004
-0.0016300001 0.096713811 0.57050002
0.050847627 0.096447632 0.57000005
-0.0016314287 0.098973341 0.57100004
0.049443334 0.098887146 0.57050002
0.050574288 0.098973341 0.57100004
-0.0012685716 0.10127048 0.57066673
0.049095877 0.10127049 0.57066673
0.050574288 0.10060477 0.57100004
-0.00090571435 0.10302191 0.57033342
0.04894286 0.10278001 0.57100004
-0.00054285716 0.10531429 0.57000005
0.047228575 0.10477144 0.57000005
0.04839905 0.10495525 0.57100004
-0.0010876191 0.10658667 0.57100004
0.047311433 0.10713048 0.57100004
0.04839905 0.10604286 0.57100004
-0.00054380955 0.10876191 0.57100004
0.046559371 0.10851747 0.57066673
0.00054285716 0.11074287 0.57000005
0.046223812 0.11093715 0.57100004
0.00054333336 0.11301382 0.57050002
0.045057144 0.11345715 0.57000005
0.046223812 0.11311239 0.57100004
0.00054380955 0.11528762 0.57100004
0.045057144 0.11508572 0.57000005
0.046223812 0.11528762 0.57100004
0.00054380955 0.11691906 0.57100004
0.045057144 0.11725715 0.57000005
0.00054380955 0.11855048 0.57100004
0.045136195 0.11909429 0.57100004
0.00054380955 0.12072572 0.57100004
0.045136195 0.12018191 0.57100004
0.00054380955 0.12290096 0.57100004
0.043971431 0.12322858 0.57000005
0.0016285715 0.12540001 0.57000005
0.042885717 0.12540001 0.57000005
0.044048574 0.1250762 0.57100004
0.0016300001 0.12714049 0.57050002
0.042885717 0.12702858 0.57000005
0.044048574 0.12725145 0.57100004
0.0016314287 0.12888287 0.57100004
0.0027142859 0.12974286 0.57000005
0.041800003 0.12974286 0.57000005
0.042960957 0.12942669 0.57100004
0.0034380956 0.13119048 0.57000005
0.041800003 0.13137144 0.57000005
0.042960957 0.1310581 0.57100004
0.0030793655 0.13279301 0.57066673
0.0048857145 0.133 0.57000005
0.041293815 0.13311666 0.57050002
0.042960957 0.13214572 0.57100004
0.0034441273 0.1346835 0.57100004
0.0048857145 0.13462859 0.57000005
0.039628573 0.13462859 0.57000005
0.04131167 0.13480596 0.57075006
0.0038066669 0.1364962 0.57100004
0.0054307142 0.13686025 0.57025003
0.037095241 0.13698098 0.57000005
0.039120477 0.13692002 0.57050008
0.041329525 0.1364962 0.57100004
0.005435477 0.13915454 0.57075
0.0070571434 0.13897145 0.57000005
0.0081428578 0.1395143 0.57000005
0.035285715 0.13897145 0.57000005
0.036947146 0.13909335 0.57050002
0.038973019 0.139034 0.57100004
0.0059819054 0.14084667 0.57100004
0.0070695244 0.14084667 0.57100004
0.0086933337 0.14126715 0.57050002
0.010676192 0.14132383 0.57000005
0.012485716 0.14168572 0.57000005
0.033114288 0.14168572 0.57000005
0.034944445 0.14140669 0.57033336
0.036947146 0.14126667 0.57050002
0.0092447624 0.14302191 0.57100004
0.010866191 0.14289668 0.57050002
0.013028572 0.1433143 0.57000005
0.014657144 0.14385715 0.57000005
0.030942859 0.14385715 0.57000005
0.032752387 0.14349526 0.57000005
0.03458254 0.14321683 0.57033336
0.036435239 0.14302191 0.57100004
0.011057462 0.14447208 0.57100004
0.012862223 0.14474986 0.57066673
0.015200001 0.14494286 0.57000005
0.030942859 0.14494286 0.57000005
0.032571431 0.14494286 0.57000005
0.03498508 0.14483462 0.57100004
0.036435239 0.14465335 0.57100004
0.013045478 0.14676455 0.57075006
0.015200002 0.14657143 0.57000005
0.017190479 0.14675239 0.57000005
0.029495239 0.14675239 0.57000005
0.030970002 0.14670049 0.57050002
0.032614525 0.14676453 0.57075006
0.034622543 0.14664732 0.57100004
0.013595239 0.14900382 0.57100004
0.015226668 0.14900382 0.57100004
0.017371431 0.14874287 0.57000005
0.019000001 0.14874285 0.57000005
0.020628572 0.14928572 0.57000005
0.025514288 0.14928572 0.57000005
0.02714286 0.14874285 0.57000005
0.029314287 0.14874287 0.57000005
0.030997144 0.14900382 0.57100004
0.032628573 0.14900382 0.57100004
0.034260001 0.14846002 0.57100004
0.015407938 0.15099779 0.57100004
0.017394051 0.15111309 0.57075006
0.019000001 0.15091428 0.57000005
0.020628572 0.15091428 0.57000005
0.02261905 0.15109524 0.57000005
0.024971429 0.15091428 0.57000005
0.02714286 0.15091428 0.57000005
0.029327381 0.15098071 0.57025003
0.030997144 0.15117905 0.57100004
0.032628573 0.15063524 0.57100004
-0.010386667 0.069426671 0.574
-0.0089025404 0.068861917 0.57233334
-0.0087314285 0.070942864 0.57300001
-0.0081857145 0.072580002 0.57300001
0.058289528 0.075721912 0.57200003
-0.0070819054 0.077356197 0.57200003
0.057200003 0.077900961 0.57200003
0.058289528 0.076811433 0.57200003
-0.0070942864 0.079128578 0.57300001
-0.0059923814 0.078990482 0.57200003
0.057200003 0.078990482 0.57200003
0.058989052 0.078651436 0.57350004
-0.0060028573 0.080765724 0.57300001
0.055020954 0.081169531 0.57200003
0.056902863 0.08090096 0.57266665
0.058340482 0.080695719 0.57249999
-0.0060080956 0.083021432 0.57350004
-0.0049028574 0.08334858 0.57200003
0.053931434 0.082259052 0.57200003
0.054753333 0.083130486 0.57300007
0.056779288 0.082985006 0.57325
-0.0060133338 0.084733337 0.574
-0.0049028574 0.084982857 0.57200003
0.054619525 0.085205719 0.57350004
0.05667112 0.085097782 0.574
0.054421596 0.087182865 0.57333338
0.056306671 0.086920008 0.574
-0.0049028574 0.089885719 0.57200003
0.052841909 0.089885719 0.57200003
0.054817464 0.088690482 0.57366669
-0.0049028574 0.090975247 0.57200003
0.052934289 0.091134295 0.57300001
0.054453023 0.090512082 0.57366669
0.052980479 0.092852861 0.57350004
0.054120004 0.09238667 0.574
-0.0038133336 0.095333338 0.57200003
0.051842861 0.094955243 0.57300001
-0.0034568254 0.097319059 0.57300007
-0.0027261907 0.099232867 0.57249999
-0.0027238098 0.10132572 0.57200003
-0.003459048 0.10283556 0.57333338
0.050707147 0.10250429 0.57249999
-0.0030914291 0.10453397 0.5726667
-0.0016342858 0.10459429 0.57200003
0.049239051 0.10447398 0.57233334
0.050751433 0.10423143 0.57300001
-0.0027261907 0.10686715 0.57249999
-0.0016342858 0.1073181 0.57200003
0.04926794 0.10707938 0.57266665
-0.0027285716 0.10859715 0.57300001
-0.0016357144 0.1090481 0.57249999
0.047394291 0.10949715 0.57200003
0.048989531 0.10908794 0.57366669
-0.00090984133 0.11107874 0.5726667
0.047394291 0.11113144 0.57200003
0.048653338 0.11097334 0.574
-0.0010923811 0.11296192 0.57300001
0.047394291 0.11331049 0.57200003
0.048653338 0.11261334 0.574
-0.0012749208 0.11484826 0.57333338
0.047394291 0.11494477 0.57200003
0.048653338 0.11534668 0.574
-0.0010923811 0.11678287 0.57300001
0.047058731 0.1168289 0.57233334
0.048653338 0.11644001 0.574
-0.0010923811 0.11896572 0.57300001
0.046931908 0.11896619 0.57300001
-0.00054619054 0.12125477 0.57350004
0.045215242 0.12148191 0.57200003
0.04680413 0.12110763 0.57366669
-0.00054666668 0.12300001 0.574
0.045215242 0.1231162 0.57200003
0.046466671 0.12300001 0.574
-0.00054666668 0.12464001 0.574
0.00054476195 0.12529525 0.57200003
0.045215242 0.12529525 0.57200003
0.046466671 0.12464001 0.574
-0.00054666668 0.12682667 0.574
0.00054476195 0.12692954 0.57200003
0.045215242 0.12692954 0.57200003
0.046385717 0.12660572 0.57300001
-0.00054666668 0.12901334 0.574
0.00054523814 0.12867668 0.57249999
0.044852071 0.12874541 0.57200003
0.046466671 0.12901334 0.574
0.0010911906 0.13102882 0.57325
0.04469024 0.13080025 0.57225001
0.0010919048 0.13327047 0.57350004
0.043036193 0.13346668 0.57200003
0.044710003 0.1330381 0.57249999
0.0010919048 0.13490906 0.57350004
0.0027285716 0.13588287 0.57300001
0.043073811 0.13521954 0.57249999
0.0447881 0.13490906 0.57350004
0.0012755557 0.13648446 0.574
0.0032709525 0.13739952 0.57249999
0.041401908 0.13782477 0.57200003
0.043111432 0.13697429 0.57300001
0.044280004 0.13666669 0.574
0.0016400001 0.13885334 0.574
0.0030901588 0.13871241 0.57266665
0.041401908 0.1389143 0.57200003
0.043111432 0.13861144 0.57300001
0.044280004 0.13885334 0.574
0.003275 0.14085597 0.57325
0.0049028574 0.14109334 0.57200003
0.039404448 0.14073017 0.57200003
0.040857144 0.14054859 0.57200003
0.042603336 0.14091715 0.57350004
0.0052746031 0.14279589 0.57300007
0.0067263497 0.14307621 0.57266665
0.0081714289 0.14327239 0.57200003
0.037588574 0.14327239 0.57200003
0.03925762 0.1428524 0.57249999
0.040928572 0.14297715 0.57300001
0.042433336 0.14296161 0.57366669
0.0049200002 0.14486668 0.574
0.0065569053 0.14535025 0.57375002
0.0087238094 0.14503382 0.57249999
0.010350477 0.14545144 0.57200003
0.037588574 0.14490667 0.57200003
0.039308812 0.14522359 0.57325
0.041000001 0.14541334 0.574
0.0087385718 0.14692524 0.57350004
0.010895239 0.14708573 0.57200003
0.035409525 0.14763048 0.57200003
0.037060238 0.14715025 0.57225001
0.039360002 0.14705335 0.574
0.0087466668 0.14869335 0.574
0.010914287 0.14898001 0.57300001
0.012529525 0.14926478 0.57200003
0.03504635 0.14944637 0.57200003
0.037076667 0.14885001 0.57249999
0.038813338 0.14869335 0.574
0.013085239 0.15103096 0.57249999
0.034895718 0.15103096 0.57249999
0.037157383 0.15081453 0.57375002
-0.0060238098 0.085976198 0.57500005
0.057500005 0.085976198 0.57500005
0.05859524 0.085976198 0.57500005
-0.0060238098 0.087071434 0.57500005
0.057500005 0.087071434 0.57500005
0.05859524 0.087071434 0.57500005
0.056952387 0.088714294 0.57500005
0.05859524 0.088714287 0.57500005
0.055309527 0.09145239 0.57500005
0.056404766 0.090357147 0.57500005
-0.0038333335 0.099119052 0.57500005
-0.0038333335 0.10076191 0.57500005
-0.0049285716 0.10459524 0.57500005
-0.0038333335 0.10569049 0.57500005
0.050928574 0.10569049 0.57500005
-0.0060238098 0.10678572 0.57500005
-0.0049285716 0.10678572 0.57500005
-0.0038333335 0.10733334 0.57500005
0.050928574 0.10733334 0.57500005
0.050928574 0.1089762 0.57500005
-0.0027380954 0.11007144 0.57500005
0.049833335 0.11061905 0.57500005
0.050928574 0.11007144 0.57500005
-0.003103175 0.11299207 0.57500005
0.049833335 0.11280953 0.57500005
-0.0027380954 0.11500001 0.57500005
0.049285717 0.11500001 0.57500005
-0.0027380954 0.11719048 0.57500005
0.0487381 0.11773811 0.57500005
-0.0027380954 0.11938096 0.57500005
0.0487381 0.11883334 0.57500005
-0.0016428572 0.12102382 0.57500005
-0.0016428572 0.12266667 0.57500005
0.047642861 0.12266667 0.57500005
-0.0016428572 0.12485716 0.57500005
0.047642861 0.12430953 0.57500005
-0.0016428572 0.12650001 0.57500005
0.047642861 0.12704763 0.57500005
-0.00054761907 0.13142858 0.57500005
0.046547621 0.13142858 0.57500005
-0.00054761907 0.13307144 0.57500005
0.046547621 0.13307144 0.57500005
-0.00054761907 0.13471429 0.57500005
0.046547621 0.13416667 0.57500005
-0.00054761907 0.13690478 0.57500005
0.00054761907 0.13745239 0.57500005
0.045452382 0.13690478 0.57500005
0.00054761907 0.13909525 0.57500005
0.045452382 0.13909525 0.57500005
0.0012777778 0.14110318 0.57500005
0.044722226 0.14110318 0.57500005
0.0032857144 0.14292859 0.57500005
0.0038333335 0.14402382 0.57500005
0.04289683 0.14475398 0.57500005
0.0049285716 0.14621429 0.57500005
0.0065714289 0.14730953 0.57500005
0.04107143 0.14730953 0.57500005
0.042166669 0.14621429 0.57500005
0.006753969 0.14876986 0.57500005
0.039976195 0.14895239 0.57500005
-0.0082428576 0.078581907 0.57700002
-0.0082428576 0.08187905 0.57700002
-0.0071376194 0.08125858 0.57650006
-0.0082428576 0.0829781 0.57700002
-0.0071314289 0.08338286 0.57600003
-0.0071314289 0.085028574 0.57600003
-0.0071438099 0.086275242 0.57700002
-0.0060342862 0.088320009 0.57600003
0.057234287 0.091245726 0.57600009
0.059245717 0.090514295 0.57600003
-0.0049457145 0.092869528 0.57700002
0.054905243 0.093337625 0.57650006
0.053211432 0.094902866 0.57600003
0.054402862 0.095067628 0.57700002
-0.0049457145 0.096716195 0.57700002
0.053211432 0.096000008 0.57600003
0.054402862 0.09616667 0.57700002
-0.0049457145 0.098914295 0.57700002
-0.0049457145 0.10111239 0.57700002
-0.0049457145 0.10331048 0.57700002
-0.0060342862 0.10587429 0.57600003
-0.0049371431 0.10587429 0.57600003
0.052204765 0.10715715 0.57700002
-0.004941429 0.10871191 0.57650006
-0.0038400004 0.10916572 0.57600003
0.052204765 0.10935525 0.57700002
-0.0034742858 0.11099429 0.57600009
0.051017147 0.11136001 0.57600003
-0.0038400004 0.11245715 0.57600003
0.051017147 0.11245715 0.57600003
-0.0038400004 0.11520001 0.57600003
0.049920004 0.11465143 0.57600003
0.049920004 0.11684572 0.57600003
-0.003846667 0.11924668 0.57700002
-0.0032947622 0.12133953 0.57650006
0.048822861 0.12013715 0.57600003
-0.0031107939 0.12276795 0.5763334
-0.003294762 0.12518287 0.57650006
0.047725718 0.12562287 0.57600003
0.048907623 0.12529144 0.57700002
-0.0027428572 0.12726858 0.57600003
-0.0016457144 0.12781715 0.57600003
0.048822861 0.12726858 0.57600003
-0.0027476193 0.1291381 0.57700002
-0.0016457144 0.1289143 0.57600003
0.047725718 0.1289143 0.57600003
0.048822861 0.1289143 0.57600003
-0.0027476193 0.13078667 0.57700002
-0.0016457144 0.13056001 0.57600003
0.047725718 0.13056001 0.57600003
0.048865244 0.13067383 0.57650006
-0.0027476193 0.13298477 0.57700002
-0.0016457144 0.1327543 0.57600003
0.047725718 0.1327543 0.57600003
0.048865244 0.13286906 0.57650006
-0.0027476193 0.13518286 0.57700002
-0.0016457144 0.13494858 0.57600003
0.047360003 0.13513145 0.57600009
0.048822861 0.13494858 0.57600003
-0.0027476193 0.13683143 0.57700002
-0.0016457144 0.13714287 0.57600003
0.047177147 0.13714287 0.57600003
0.048822861 0.13714287 0.57600003
-0.00091523817 0.13923462 0.5763334
0.047177147 0.13933715 0.57600003
0.048822861 0.13933715 0.57600003
-0.0010985716 0.14055572 0.57650006
0.047218576 0.14110525 0.57650006
0.048907623 0.14122763 0.57700002
0.0010990477 0.14287621 0.57700002
0.044982862 0.14262858 0.57600003
0.046709526 0.14232668 0.57700002
0.0016485716 0.14452477 0.57700002
0.0031101592 0.14508985 0.5763334
0.044472858 0.14494905 0.57650006
0.003846667 0.14672287 0.57700002
0.0049371431 0.14756572 0.57600003
0.042996507 0.1472854 0.5763334
0.0049457145 0.14892097 0.57700002
0.041142859 0.14921144 0.57600003
0.042313337 0.14892097 0.57700002
-0.010477143 0.07995715 0.57900006
-0.00880762 0.079819053 0.57800001
-0.010477143 0.081060007 0.57900006
-0.00880762 0.080920003 0.57800001
-0.0093580959 0.082571432 0.57800001
-0.011028572 0.085471436 0.57900006
-0.0088157151 0.084846668 0.57850003
-0.011028572 0.086574294 0.57900006
-0.0082714288 0.087125719 0.57900006
-0.0071561909 0.087525718 0.57800001
-0.0068009528 0.089515254 0.57900012
-0.0060657146 0.090985723 0.57900006
0.058900956 0.091929533 0.57800001
-0.0060657146 0.092640013 0.57900006
0.057249527 0.093030483 0.57800001
0.058900956 0.093030483 0.57800001
-0.0060657146 0.095397152 0.57900006
-0.0049585719 0.094764292 0.57850003
0.05569429 0.094845727 0.57900006
0.057348579 0.09484572 0.57900006
-0.0060657146 0.097051442 0.57900006
0.053396195 0.09743429 0.57800001
0.055142861 0.097051442 0.57900006
-0.0060657146 0.099257156 0.57900006
0.052868813 0.09912882 0.57825005
0.054591432 0.098705724 0.57900006
-0.0060657146 0.10091144 0.57900006
0.052385718 0.10091144 0.57900006
0.052385718 0.1020143 0.57900006
0.052295242 0.10624191 0.57800001
0.052295242 0.10844382 0.57800001
-0.0049542859 0.1111962 0.57800001
0.052340478 0.11129286 0.57850003
-0.0049542859 0.1133981 0.57800001
0.051194288 0.11394858 0.57800001
0.052385718 0.11304286 0.57900006
-0.0049542859 0.11504953 0.57800001
0.051194288 0.11504953 0.57800001
-0.0049542859 0.11615048 0.57800001
-0.0038533336 0.11725143 0.57800001
-0.0038533336 0.11835239 0.57800001
0.050093338 0.11835239 0.57800001
-0.0038600003 0.12076286 0.57900006
0.048992384 0.12165525 0.57800001
-0.0038533336 0.12385715 0.57800001
0.049034767 0.12341286 0.57850003
-0.0038533336 0.12716001 0.57800001
-0.0038533336 0.12881143 0.57800001
0.050180003 0.12958573 0.57900006
-0.0038533336 0.13101333 0.57800001
0.05013667 0.13112715 0.57850003
-0.0049628573 0.13344572 0.57900006
-0.0038533336 0.13321525 0.57800001
0.050687622 0.13333 0.57850003
0.052295242 0.13376573 0.57800001
-0.0038533336 0.13541715 0.57800001
0.050643813 0.13486667 0.57800001
0.052295242 0.13486667 0.57800001
-0.0049628573 0.1367543 0.57900006
-0.0038533336 0.13706858 0.57800001
0.050731428 0.1367543 0.57900006
-0.0033061907 0.13884 0.57850003
0.05128286 0.13951144 0.57900006
0.052385718 0.13951144 0.57900006
-0.0031231749 0.14090097 0.57866669
-0.0016514286 0.14147238 0.57800001
-0.001102381 0.14324763 0.57850003
0.00055047625 0.1436743 0.57800001
0.045689527 0.1436743 0.57800001
0.04742286 0.14337143 0.57900006
-0.00055142859 0.14502573 0.57900006
0.0011009525 0.14532572 0.57800001
0.045768574 0.14502573 0.57900006
-0.00055142859 0.14612858 0.57900006
0.00091809535 0.14677906 0.57866669
0.0027523811 0.14697716 0.57800001
0.045178574 0.14655286 0.57850003
0.043487623 0.14917906 0.57800001
0.044665717 0.14888573 0.57900006
-0.010513334 0.087980002 0.58100003
-0.0093985721 0.087351903 0.58050001
-0.0088461917 0.089010008 0.58050001
