# .PCD v0.7 - Point Cloud Data file format
VERSION 0.7
FIELDS x y z rgb
SIZE 4 4 4 4
TYPE F F F F
COUNT 1 1 1 1
WIDTH 1058
HEIGHT 1
VIEWPOINT 0 0 0 1 0 0 0
POINTS 1058
DATA ascii
0.17682001 0.22012287 1.263 7.4692992e-39
0.18163145 0.22012287 1.263 7.9284794e-39
0.18403715 0.22012287 1.263 7.928841e-39
0.18764573 0.22012287 1.263 6.8264717e-39
0.18764573 0.22373144 1.263 6.0899885e-39
0.20087716 0.22252859 1.263 2.1392937e-39
0.18163145 0.22734001 1.263 7.2813164e-39
0.18403715 0.22734001 1.263 6.8225032e-39
0.18644287 0.22734001 1.263 6.2722147e-39
0.20087716 0.22734001 1.263 3.150566e-39
0.17682001 0.22974573 1.263 6.9125283e-39
0.18163145 0.22974573 1.263 7.0962049e-39
0.17682001 0.23215145 1.263 6.6366574e-39
0.18163145 0.23215145 1.263 6.8196152e-39
0.17922573 0.23455715 1.263 6.4515431e-39
0.20328288 0.23576 1.263 2.943789e-39
0.20568858 0.24418001 1.263 7.3576857e-40
0.21290573 0.25139716 1.263 9.2199834e-41
0.17510477 0.18959621 1.268 5.0819364e-39
0.17752001 0.18959621 1.268 5.8177106e-39
0.17510477 0.19201145 1.268 4.1513733e-39
0.17752001 0.19321907 1.268 3.7840383e-39
0.17510477 0.19684191 1.268 3.2218374e-39
0.17872763 0.19684191 1.268 4.790996e-39
0.18235049 0.19684191 1.268 9.4032354e-39
0.18476573 0.19684191 1.268 8.9422586e-39
0.17510477 0.19925715 1.268 3.3111478e-39
0.17872763 0.19925715 1.268 4.9900911e-39
0.18235049 0.19925715 1.268 9.7730899e-39
0.18476573 0.19925715 1.268 9.3088846e-39
0.1702743 0.20167239 1.268 2.8573597e-39
0.17510477 0.20167239 1.268 3.2246778e-39
0.17872763 0.20167239 1.268 4.9857849e-39
0.18235049 0.20167239 1.268 1.0417017e-38
0.18476573 0.20167239 1.268 9.6783803e-39
0.18718097 0.20167239 1.268 8.9419097e-39
0.18959621 0.20167239 1.268 6.0899941e-39
0.19201145 0.20167239 1.268 3.1491114e-39
0.1702743 0.20408763 1.268 2.7644452e-39
0.17268954 0.20529525 1.268 3.0406593e-39
0.17510477 0.20529525 1.268 3.2232457e-39
0.17872763 0.20408763 1.268 5.084086e-39
0.18235049 0.20408763 1.268 1.1058794e-38
0.18476573 0.20408763 1.268 1.0137198e-38
0.18718097 0.20408763 1.268 9.1248632e-39
0.18959621 0.20408763 1.268 6.1811149e-39
0.19362161 0.20489272 1.268 3.7919669e-39
0.17510477 0.20891811 1.268 3.6774107e-39
0.17752001 0.20891811 1.268 4.2471381e-39
0.19684191 0.20891811 1.268 6.2747623e-39
0.17510477 0.21133335 1.268 3.4994879e-39
0.17993525 0.21133335 1.268 7.0148132e-39
0.19925715 0.21133335 1.268 7.1941878e-39
0.20167239 0.21133335 1.268 8.6667928e-39
0.20167239 0.21374859 1.268 6.7342929e-39
0.20408763 0.21374859 1.268 5.813438e-39
0.17993525 0.21857907 1.268 7.8388076e-39
0.20408763 0.21857907 1.268 4.5273781e-39
0.17993525 0.22099429 1.268 7.745163e-39
0.20408763 0.22099429 1.268 3.793413e-39
0.17872763 0.22340953 1.268 7.4682188e-39
0.18235049 0.22340953 1.268 7.6518954e-39
0.18476573 0.22340953 1.268 7.2856338e-39
0.20408763 0.22340953 1.268 2.9669048e-39
0.17872763 0.22582477 1.268 7.3742267e-39
0.18235049 0.22582477 1.268 7.4664293e-39
0.18476573 0.22582477 1.268 7.0079749e-39
0.20408763 0.22582477 1.268 3.1505856e-39
0.17913017 0.22904509 1.268 7.0969195e-39
0.20408763 0.22944763 1.268 3.1495024e-39
0.17993525 0.23307049 1.268 6.7274153e-39
0.20408763 0.23307049 1.268 2.9539175e-39
0.20650287 0.24152383 1.268 9.2205439e-41
0.20891811 0.24514668 1.268 5.5245631e-40
0.21133335 0.24756192 1.268 3.6914686e-40
0.21374859 0.24997716 1.268 5.5245631e-40
0.21616383 0.25239241 1.268 9.2558566e-41
0.17565715 0.17565715 1.2720001 6.365481e-39
0.17081144 0.17808001 1.2720001 4.4351573e-39
0.1732343 0.17808001 1.2720001 5.0794351e-39
0.17565715 0.17808001 1.2720001 6.2747259e-39
0.17808001 0.17808001 1.2720001 7.5629395e-39
0.16960001 0.1817143 1.2720001 4.0667391e-39
0.1732343 0.1817143 1.2720001 4.8021377e-39
0.17565715 0.1817143 1.2720001 6.182896e-39
0.17808001 0.1817143 1.2720001 7.5640171e-39
0.1813105 0.1821181 1.2720001 8.3952001e-39
0.16960001 0.18534859 1.2720001 3.7915857e-39
0.1732343 0.18534859 1.2720001 4.5266298e-39
0.17565715 0.18534859 1.2720001 5.9063147e-39
0.17808001 0.18534859 1.2720001 7.2881575e-39
0.18050286 0.18534859 1.2720001 8.2108243e-39
0.17081144 0.18777144 1.2720001 3.7926577e-39
0.1732343 0.18777144 1.2720001 4.4344328e-39
0.17565715 0.18777144 1.2720001 5.5400475e-39
0.17808001 0.18777144 1.2720001 6.5538379e-39
0.1817143 0.18777144 1.2720001 9.2224539e-39
0.16960001 0.19019429 1.2720001 3.0572409e-39
0.1732343 0.19019429 1.2720001 4.3407924e-39
0.1817143 0.19019429 1.2720001 9.7741787e-39
0.18534859 0.19019429 1.2720001 9.7680662e-39
0.16960001 0.19261715 1.2720001 2.6798418e-39
0.1732343 0.19261715 1.2720001 3.7775714e-39
0.1817143 0.19261715 1.2720001 8.6678424e-39
0.18534859 0.19261715 1.2720001 9.2184868e-39
0.18777144 0.19261715 1.2720001 8.3901807e-39
0.16960001 0.19625145 1.2720001 2.3996423e-39
0.1732343 0.19625145 1.2720001 3.1343263e-39
0.17565715 0.19504002 1.2720001 3.1300327e-39
0.1817143 0.19504002 1.2720001 7.466086e-39
0.18534859 0.19504002 1.2720001 8.574202e-39
0.18777144 0.19625145 1.2720001 8.2979836e-39
0.19019429 0.19746287 1.2720001 5.7226521e-39
0.16596572 0.19988573 1.2720001 2.6740446e-39
0.16960001 0.19988573 1.2720001 2.8584415e-39
0.1732343 0.19988573 1.2720001 3.2247017e-39
0.18777144 0.19988573 1.2720001 8.7560863e-39
0.19019429 0.19988573 1.2720001 5.9956475e-39
0.19261715 0.19988573 1.2720001 3.1498275e-39
0.16838858 0.20230858 1.2720001 2.5807686e-39
0.1732343 0.20230858 1.2720001 3.1332137e-39
0.19504002 0.20230858 1.2720001 3.5168177e-39
0.19746287 0.2071543 1.2720001 5.4500505e-39
0.19988573 0.20957716 1.2720001 8.4791869e-39
0.20230858 0.20957716 1.2720001 1.0591761e-38
0.20473143 0.21200001 1.2720001 6.274056e-39
0.2071543 0.22169144 1.2720001 4.1614781e-39
0.2071543 0.2241143 1.2720001 3.793783e-39
0.2071543 0.22653715 1.2720001 3.6101176e-39
0.2071543 0.22896002 1.2720001 3.3353286e-39
0.2071543 0.23259431 1.2720001 2.3182816e-39
0.2071543 0.23622859 1.2720001 1.1024197e-39
0.2071543 0.23865144 1.2720001 1.8405355e-40
0.20957716 0.24107431 1.2720001 2.7624217e-40
0.20957716 0.24349716 1.2720001 2.765967e-40
0.21684574 0.25076574 1.2720001 8.2832294e-40
0.17269906 0.17391525 1.2770001 4.5251921e-39
0.17634763 0.17391525 1.2770001 5.9970586e-39
0.17878 0.17269906 1.2770001 7.0104874e-39
0.1812124 0.17391525 1.2770001 7.6547736e-39
0.16661811 0.17634763 1.2770001 3.792676e-39
0.16905048 0.17634763 1.2770001 3.8841485e-39
0.17269906 0.17634763 1.2770001 4.8017762e-39
0.17878 0.17634763 1.2770001 7.4703824e-39
0.1812124 0.17634763 1.2770001 8.1161063e-39
0.16661811 0.17878 1.2770001 3.7008363e-39
0.16905048 0.17878 1.2770001 3.8845058e-39
0.1812124 0.17878 1.2770001 8.1171853e-39
0.16418572 0.1812124 1.2770001 3.5168037e-39
0.16661811 0.1812124 1.2770001 3.7004747e-39
0.16418572 0.18364477 1.2770001 3.6072001e-39
0.16661811 0.18364477 1.2770001 3.6997544e-39
0.16175334 0.18850954 1.2770001 3.1465849e-39
0.16418572 0.18729335 1.2770001 3.3331229e-39
0.16661811 0.18729335 1.2770001 3.3331187e-39
0.16905048 0.18850954 1.2770001 3.1512414e-39
0.18364477 0.18607715 1.2770001 9.1288135e-39
0.18729335 0.18850954 1.2770001 9.0341053e-39
0.16418572 0.19094191 1.2770001 2.6823459e-39
0.16661811 0.19094191 1.2770001 2.6873794e-39
0.18850954 0.19094191 1.2770001 8.480584e-39
0.16418572 0.19337429 1.2770001 2.8577324e-39
0.16661811 0.19337429 1.2770001 2.5876335e-39
0.19094191 0.19337429 1.2770001 5.7226521e-39
0.16661811 0.19580668 1.2770001 2.5854671e-39
0.19094191 0.19580668 1.2770001 5.5382636e-39
0.16661811 0.19823906 1.2770001 2.5836595e-39
0.19337429 0.19823906 1.2770001 2.9665138e-39
0.19580668 0.20067143 1.2770001 3.1509079e-39
0.19945525 0.20310383 1.2770001 3.9770812e-39
0.20310383 0.20310383 1.2770001 4.1607592e-39
0.19945525 0.2055362 1.2770001 4.5295403e-39
0.20067143 0.20796858 1.2770001 6.459183e-39
0.2055362 0.21040097 1.2770001 6.7314413e-39
0.2055362 0.21769811 1.2770001 5.1705825e-39
0.21040097 0.22377905 1.2770001 4.0692895e-39
0.21040097 0.22742763 1.2770001 3.7023062e-39
0.21161716 0.22986001 1.2770001 3.6115525e-39
0.21040097 0.2322924 1.2770001 2.5977775e-39
0.21040097 0.23472477 1.2770001 1.667143e-39
0.21040097 0.23837334 1.2770001 5.53192e-40
0.21283334 0.24202192 1.2770001 3.6807346e-40
0.21283334 0.24445429 1.2770001 3.6843079e-40
0.21283334 0.24688669 1.2770001 3.6914686e-40
0.21526572 0.24931906 1.2770001 9.198011e-40
0.21769811 0.24931906 1.2770001 1.4711714e-39
0.15994477 0.17459621 1.2820001 5.457951e-39
0.16360763 0.17459621 1.2820001 4.2533038e-39
0.16727048 0.17459621 1.2820001 3.9763511e-39
0.16971239 0.17459621 1.2820001 3.9759854e-39
0.15750287 0.17825906 1.2820001 2.6902787e-39
0.15994477 0.17825906 1.2820001 3.8848646e-39
0.16360763 0.17825904 1.2820001 3.6086462e-39
0.15750287 0.18192191 1.2820001 2.9661299e-39
0.15994477 0.18192191 1.2820001 3.6086294e-39
0.16238667 0.18192191 1.2820001 3.6093553e-39
0.15750287 0.18436383 1.2820001 2.8714329e-39
0.15994477 0.18436383 1.2820001 3.5175128e-39
0.16238667 0.18436383 1.2820001 3.5167981e-39
0.15750287 0.18680573 1.2820001 2.8750216e-39
0.15994477 0.18680573 1.2820001 3.4256773e-39
0.16238667 0.18680573 1.2820001 3.5167981e-39
0.15750287 0.18924764 1.2820001 2.7756528e-39
0.15994477 0.19046858 1.2820001 3.052569e-39
0.16238667 0.19168954 1.2820001 2.8609834e-39
0.16238667 0.19413143 1.2820001 3.0428103e-39
0.16360763 0.19657335 1.2820001 3.135736e-39
0.19413143 0.19657335 1.2820001 2.7835603e-39
0.16482858 0.19901524 1.2820001 2.7673234e-39
0.19657335 0.19901524 1.2820001 3.1512624e-39
0.19901524 0.20145716 1.2820001 3.1505534e-39
0.20389906 0.20634097 1.2820001 4.2540381e-39
0.20389906 0.20878287 1.2820001 7.4690063e-39
0.20634097 0.20878287 1.2820001 5.3553451e-39
0.20878287 0.21122478 1.2820001 2.7825177e-39
0.21122478 0.21122478 1.2820001 3.3331762e-39
0.20878287 0.21366668 1.2820001 3.8841835e-39
0.20878287 0.21732953 1.2820001 4.8032504e-39
0.20878287 0.2209924 1.2820001 4.5281012e-39
0.21122478 0.2209924 1.2820001 4.4366314e-39
0.21366668 0.2234343 1.2820001 4.1611278e-39
0.21366668 0.22587621 1.2820001 4.0692923e-39
0.21366668 0.22831811 1.2820001 3.8856213e-39
0.21610859 0.23076001 1.2820001 3.7955893e-39
0.21366668 0.23320192 1.2820001 2.5106112e-39
0.21610859 0.23320192 1.2820001 2.5059533e-39
0.21366668 0.23564382 1.2820001 1.3001583e-39
0.21610859 0.23564382 1.2820001 1.2983633e-39
0.21366668 0.23808573 1.2820001 8.2689922e-40
0.21366668 0.24052763 1.2820001 3.6807627e-40
0.21692257 0.24215558 1.2820001 3.6806786e-40
0.2234343 0.24296954 1.2820001 2.7694422e-40
0.22587621 0.24296954 1.2820001 2.7658549e-40
0.21732953 0.24541144 1.2820001 3.6842659e-40
0.2209924 0.24541144 1.2820001 3.6877972e-40
0.2234343 0.24541144 1.2820001 2.7730435e-40
0.22587621 0.24541144 1.2820001 2.7658829e-40
0.21732953 0.24785335 1.2820001 7.3612871e-40
0.2209924 0.25029525 1.2820001 1.01271e-39
0.2234343 0.25029525 1.2820001 5.5389124e-40
0.2209924 0.25273716 1.2820001 5.5281785e-40
0.2234343 0.25273716 1.2820001 3.7022165e-40
0.2209924 0.25640002 1.2820001 2.2087196e-39
0.2234343 0.25640002 1.2820001 2.2054896e-39
0.22587621 0.25640002 1.2820001 2.2083595e-39
0.2209924 0.26006287 1.2820001 8.5734341e-39
0.2234343 0.26006287 1.2820001 8.5698453e-39
0.22587621 0.26006287 1.2820001 8.7545925e-39
0.22831811 0.26494667 1.2820001 1.1712064e-38
0.2234343 0.26738858 1.2820001 1.1250025e-38
0.22831811 0.26860952 1.2820001 1.1249303e-38
0.22953907 0.27227241 1.2820001 1.1157113e-38
0.22831811 0.27471429 1.2820001 1.1157835e-38
0.22831811 0.2771562 1.2820001 1.1526976e-38
0.14831144 0.16792287 1.2870001 1.2003677e-39
0.15076287 0.16669714 1.2870001 1.3869197e-39
0.15444002 0.16669714 1.2870001 2.2163385e-39
0.15811716 0.16669714 1.2870001 3.0554668e-39
0.16056858 0.16669714 1.2870001 3.7011894e-39
0.16302001 0.16792287 1.2870001 4.0685342e-39
0.16547143 0.16792287 1.2870001 4.0681782e-39
0.14586002 0.1703743 1.2870001 8.3085789e-40
0.14831144 0.1703743 1.2870001 1.1092496e-39
0.15076287 0.1703743 1.2870001 1.3883589e-39
0.15444002 0.1703743 1.2870001 2.5826085e-39
0.15811716 0.1703743 1.2870001 4.2504031e-39
0.16056858 0.1703743 1.2870001 5.44714e-39
0.16302001 0.1703743 1.2870001 4.8035783e-39
0.16669714 0.1703743 1.2870001 4.0678167e-39
0.17282572 0.1703743 1.2870001 3.883787e-39
0.14340858 0.17282572 1.2870001 5.5318219e-40
0.14586002 0.17282572 1.2870001 6.4717989e-40
0.14831144 0.17282572 1.2870001 1.0170442e-39
0.15076287 0.17282572 1.2870001 1.2940165e-39
0.15444002 0.17282572 1.2870001 2.6784153e-39
0.15811716 0.17282572 1.2870001 4.9958855e-39
0.16056858 0.17282572 1.2870001 6.8293598e-39
0.16302001 0.17282572 1.2870001 5.5389923e-39
0.16669714 0.17282572 1.2870001 4.1600179e-39
0.1703743 0.17282572 1.2870001 4.0678181e-39
0.17282572 0.17282572 1.2870001 4.251845e-39
0.14340858 0.17527716 1.2870001 4.6134529e-40
0.14586002 0.17527716 1.2870001 7.3829231e-40
0.14831144 0.17527716 1.2870001 9.2376257e-40
0.15076287 0.17527716 1.2870001 1.1089161e-39
0.15444002 0.17527716 1.2870001 1.9512899e-39
0.15811716 0.17527716 1.2870001 3.7995493e-39
0.14586002 0.17772858 1.2870001 8.2977328e-40
0.14831144 0.17772858 1.2870001 9.2233745e-40
0.15076287 0.17772858 1.2870001 9.2596261e-40
0.15444002 0.17772858 1.2870001 1.118295e-39
0.14586002 0.18140572 1.2870001 8.2977468e-40
0.14831144 0.18140572 1.2870001 1.1067343e-39
0.15076287 0.18140572 1.2870001 1.2940165e-39
0.15444 0.18140572 1.2870001 1.8504426e-39
0.15444002 0.18508287 1.2870001 2.0330192e-39
0.15566573 0.1875343 1.2870001 2.2206517e-39
0.1875343 0.1875343 1.2870001 8.9419083e-39
0.16056858 0.19488858 1.2870001 3.2243233e-39
0.19366287 0.19366287 1.2870001 4.4351657e-39
0.19734001 0.19734001 1.2870001 3.2441741e-39
0.19979145 0.19979145 1.2870001 3.4267717e-39
0.20224287 0.20224287 1.2870001 3.6093763e-39
0.2046943 0.20224287 1.2870001 4.0689195e-39
0.20878002 0.20796287 1.2870001 3.7019489e-39
0.21204859 0.20959716 1.2870001 3.7008783e-39
0.21450001 0.21204859 1.2870001 3.8849066e-39
0.21204859 0.21450001 1.2870001 3.7930683e-39
0.21204859 0.21695144 1.2870001 4.2529619e-39
0.21204859 0.21940286 1.2870001 4.344796e-39
0.21450001 0.22062859 1.2870001 4.0689335e-39
0.21695144 0.2218543 1.2870001 4.5273964e-39
0.21695144 0.22430573 1.2870001 4.3440841e-39
0.21695144 0.22675715 1.2870001 4.0692951e-39
0.21695144 0.22920859 1.2870001 3.8859828e-39
0.21940286 0.23166001 1.2870001 3.7952277e-39
0.22062859 0.23533715 1.2870001 1.9462732e-39
0.22430573 0.23656288 1.2870001 1.2954822e-39
0.22675715 0.23656288 1.2870001 1.1971881e-39
0.21695144 0.2390143 1.2870001 8.301194e-40
0.22062859 0.2390143 1.2870001 8.2724254e-40
0.22430573 0.2390143 1.2870001 8.26881e-40
0.22062859 0.24146573 1.2870001 2.7658689e-40
0.22430573 0.24146573 1.2870001 2.7658549e-40
0.2218543 0.24391715 1.2870001 2.7694282e-40
0.2218543 0.24882002 1.2870001 6.4500507e-40
0.22430573 0.24882002 1.2870001 4.6241168e-40
0.22675715 0.24882002 1.2870001 4.6133688e-40
0.22675715 0.25372288 1.2870001 3.6950279e-40
0.22920859 0.25372288 1.2870001 3.7057898e-40
0.22920859 0.2561743 1.2870001 9.3276031e-41
0.22920859 0.25862575 1.2870001 4.5013756e-39
0.23166001 0.25862575 1.2870001 4.601462e-39
0.23533717 0.25862575 1.2870001 4.5046056e-39
0.22062859 0.26352859 1.2870001 1.0517853e-38
0.22430573 0.26352859 1.2870001 1.0062618e-38
0.22675715 0.26352859 1.2870001 1.0147993e-38
0.22920859 0.26230288 1.2870001 9.5922705e-39
0.23166001 0.26230288 1.2870001 9.7745038e-39
0.23411144 0.26230288 1.2870001 9.7687669e-39
0.22430573 0.26598001 1.2870001 1.1436923e-38
0.22675715 0.26598001 1.2870001 1.1620231e-38
0.23166001 0.26598001 1.2870001 1.1710986e-38
0.23533717 0.26598001 1.2870001 1.1616644e-38
0.22675715 0.26843145 1.2870001 1.1342213e-38
0.23166001 0.26843145 1.2870001 1.1433689e-38
0.23533717 0.26843145 1.2870001 1.1524808e-38
0.22430573 0.27088287 1.2870001 1.1065994e-38
0.22675715 0.27088287 1.2870001 1.1157469e-38
0.23166001 0.27088287 1.2870001 1.1249305e-38
0.23411144 0.27088287 1.2870001 1.134114e-38
0.22675715 0.27333429 1.2870001 1.1248947e-38
0.23411144 0.27333429 1.2870001 1.1341143e-38
0.13647716 0.16106763 1.291 4.6061802e-40
0.13893621 0.16106763 1.291 4.6097675e-40
0.14262477 0.16106763 1.291 6.4465615e-40
0.14631334 0.16106763 1.291 1.1052826e-39
0.14877239 0.16106763 1.291 1.2003579e-39
0.15123144 0.16106763 1.291 1.2039564e-39
0.15369049 0.16106763 1.291 1.4794741e-39
0.15737906 0.16106763 1.291 2.1295589e-39
0.16598572 0.16106763 1.291 4.3436805e-39
0.16844477 0.16106763 1.291 4.1600095e-39
0.13155906 0.16352668 1.291 4.6025788e-40
0.13401811 0.16352668 1.291 4.6061802e-40
0.13647716 0.16352668 1.291 3.6878252e-40
0.13893621 0.16352668 1.291 4.6061802e-40
0.14262477 0.16352668 1.291 6.4429742e-40
0.14631334 0.16352668 1.291 1.1056427e-39
0.14877239 0.16352668 1.291 1.1996446e-39
0.15123144 0.16352668 1.291 1.2943612e-39
0.15369049 0.16352668 1.291 1.4787608e-39
0.15737906 0.16352668 1.291 1.8579999e-39
0.16106763 0.16352668 1.291 2.5988047e-39
0.16598572 0.16352668 1.291 3.9763427e-39
0.13155906 0.16598572 1.291 4.6025788e-40
0.13401811 0.16598572 1.291 3.6842379e-40
0.13647716 0.16598572 1.291 3.6878252e-40
0.13893621 0.16598572 1.291 3.6878252e-40
0.14262477 0.16598572 1.291 5.5281925e-40
0.14631334 0.16598572 1.291 1.0134513e-39
0.14877239 0.16598572 1.291 1.2003663e-39
0.16352668 0.16598572 1.291 3.7011908e-39
0.16598572 0.16598572 1.291 4.068181e-39
0.16844477 0.16598572 1.291 3.9763525e-39
0.13155906 0.17090382 1.291 1.1953034e-39
0.13401811 0.16967429 1.291 5.5209198e-40
0.13647716 0.16967429 1.291 3.6842098e-40
0.13893621 0.16967429 1.291 3.6842098e-40
0.14262477 0.16967429 1.291 5.5281925e-40
0.14631334 0.16844477 1.291 9.2233325e-40
0.17008415 0.16926447 1.2910001 3.8837898e-39
0.12664096 0.17336287 1.291 3.8667976e-39
0.13032953 0.17336287 1.291 2.3909641e-39
0.13401811 0.17336287 1.291 1.2871389e-39
0.13647716 0.17336287 1.291 6.4428761e-40
0.13893621 0.17336287 1.291 5.5173324e-40
0.14139524 0.17336287 1.291 3.6878672e-40
0.12664096 0.17582192 1.291 3.6924677e-39
0.13032953 0.17582192 1.291 2.5814552e-39
0.13401811 0.17582192 1.291 1.6580724e-39
0.13647716 0.17582192 1.291 1.0119911e-39
0.13893621 0.17582192 1.291 6.4428621e-40
0.14139524 0.17582192 1.291 2.7659249e-40
0.13647716 0.17828096 1.291 1.3814953e-39
0.13893621 0.17828096 1.291 7.3684617e-40
0.14262477 0.17828096 1.291 2.7695403e-40
0.13647716 0.18074001 1.291 4.9634482e-39
0.14262477 0.18074001 1.291 2.7695403e-40
0.15123144 0.18565811 1.291 1.3851219e-39
0.19303524 0.1905762 1.291 6.0896452e-39
0.19549429 0.19303524 1.291 3.3331411e-39
0.19795334 0.19549429 1.291 3.3349334e-39
0.20041239 0.19795334 1.291 3.6107986e-39
0.20287144 0.20041239 1.291 3.6100868e-39
0.21516669 0.21516669 1.291 3.7937872e-39
0.21516669 0.21762572 1.291 3.6101148e-39
0.21762572 0.22008477 1.291 4.1607718e-39
0.22008477 0.22008477 1.291 4.4355637e-39
0.22008477 0.22254382 1.291 4.8029042e-39
0.22254382 0.22254382 1.291 4.6192347e-39
0.22623239 0.22254382 1.291 4.3430023e-39
0.22008477 0.22623239 1.291 4.2515311e-39
0.22623239 0.22500287 1.291 4.2522402e-39
0.22008477 0.22992097 1.291 3.9771008e-39
0.22254382 0.22992097 1.291 3.9774596e-39
0.22254382 0.23238002 1.291 3.7955836e-39
0.22623239 0.23238002 1.291 3.6115553e-39
0.22623239 0.23483907 1.291 2.4148212e-39
0.23729812 0.26188859 1.291 8.6623983e-39
0.23729812 0.26434764 1.291 1.0142612e-38
0.23729812 0.27172479 1.291 1.1340781e-38
0.23729812 0.27418384 1.291 1.1432977e-38
0.13700572 0.15428573 1.296 2.7730576e-40
0.13947429 0.15428573 1.296 4.6061661e-40
0.14194287 0.15428573 1.296 6.4429181e-40
0.14441144 0.15428573 1.296 7.3613291e-40
0.12713143 0.16169144 1.296 4.6061802e-40
0.1296 0.16169144 1.296 4.6025788e-40
0.13330287 0.16169144 1.296 4.6025928e-40
0.13700572 0.15922287 1.296 4.6061802e-40
0.13947429 0.15922287 1.296 5.5281224e-40
0.14194287 0.15922287 1.296 5.5281785e-40
0.14564574 0.15922287 1.296 9.2160457e-40
0.14934859 0.15922287 1.296 1.108521e-39
0.15181716 0.15922287 1.296 1.1106888e-39
0.16169144 0.16169144 1.296 3.056906e-39
0.16416001 0.16169144 1.296 3.7004733e-39
0.12713143 0.16416001 1.296 3.6842098e-40
0.1296 0.16416001 1.296 4.5989775e-40
0.16416001 0.16416001 1.296 3.3338488e-39
0.16909716 0.16416001 1.296 3.9759868e-39
0.17156573 0.16416001 1.296 3.8845044e-39
0.12713143 0.16662858 1.296 3.6806085e-40
0.1296 0.16662858 1.296 3.6806085e-40
0.17156573 0.16662858 1.296 3.8848688e-39
0.1740343 0.16662858 1.296 3.2412958e-39
0.12713143 0.16909716 1.296 2.7622816e-40
0.1296 0.16909716 1.296 3.6806646e-40
0.13206857 0.16909716 1.296 3.6842379e-40
0.17526859 0.16909716 1.296 3.2405798e-39
0.18144001 0.16909716 1.296 8.6646194e-39
0.12466287 0.17156573 1.296 4.7919503e-39
0.12713143 0.17156573 1.296 2.1125822e-39
0.1296 0.17156573 1.296 1.6544851e-39
0.17897144 0.17156573 1.296 5.7219374e-39
0.17650287 0.1740343 1.296 4.3426015e-39
0.17897144 0.1740343 1.296 5.6282957e-39
0.13947429 0.18144001 1.296 2.5735631e-39
0.13947429 0.18390858 1.296 4.3166369e-39
0.14194287 0.18390858 1.296 1.8439686e-40
0.19625144 0.19131429 1.296 3.6075756e-39
0.21846859 0.21723431 1.296 3.8856227e-39
0.22093716 0.21723431 1.296 4.0692937e-39
0.22340573 0.22093716 1.296 4.4359238e-39
0.2258743 0.22093716 1.296 4.435921e-39
0.22340573 0.2258743 1.296 4.3437254e-39
0.22340573 0.22834288 1.296 4.1604131e-39
0.2258743 0.22957715 1.296 4.1607718e-39
0.12762192 0.15240286 1.3010001 1.0173973e-39
0.1350562 0.15488096 1.3010001 4.6061942e-40
0.13753429 0.15735906 1.3010001 3.6878252e-40
0.14001238 0.15735906 1.3010001 4.6061802e-40
0.14249049 0.15735906 1.3010001 6.4393448e-40
0.14496858 0.15735906 1.3010001 8.2868587e-40
0.14868572 0.15735906 1.3010001 1.0152421e-39
0.12762192 0.15983716 1.3010001 4.6097815e-40
0.13010001 0.15983716 1.3010001 4.6061802e-40
0.1325781 0.15983716 1.3010001 3.6878252e-40
0.1350562 0.15983716 1.3010001 4.6061802e-40
0.11770953 0.16479334 1.3010001 9.2198432e-41
0.12142667 0.1635543 1.3010001 2.7622956e-40
0.12514381 0.1635543 1.3010001 2.7658689e-40
0.11770953 0.16727144 1.3010001 1.8370715e-39
0.12142667 0.16727144 1.3010001 3.6762911e-39
0.12514381 0.16727144 1.3010001 2.2966063e-39
0.12266573 0.16974953 1.3010001 8.4664632e-39
0.12514381 0.16974953 1.3010001 4.4084654e-39
0.11770953 0.17222764 1.3010001 4.3686979e-39
0.12018763 0.17222764 1.3010001 5.9162863e-39
0.11523144 0.17470573 1.3010001 4.795944e-39
0.1895743 0.18709621 1.3010001 8.6664032e-39
0.19329144 0.1895743 1.3010001 7.5604424e-39
0.19700858 0.1895743 1.3010001 3.8841569e-39
0.19948667 0.19329144 1.3010001 3.6097266e-39
0.20196478 0.19453049 1.3010001 3.610084e-39
0.21683335 0.19205239 1.3010001 7.5672752e-39
0.20196478 0.19700858 1.3010001 3.6111546e-39
0.20444287 0.19948667 1.3010001 3.6097224e-39
0.20692097 0.20196478 1.3010001 3.8856031e-39
0.22426763 0.21931145 1.3010001 4.2529675e-39
0.11567429 0.14801334 1.3060001 1.3825743e-39
0.11816191 0.14801334 1.3060001 1.1985404e-39
0.093285717 0.15298858 1.3060001 4.6134389e-40
0.11069906 0.15298858 1.3060001 1.1063406e-39
0.11318667 0.15298858 1.3060001 1.4740427e-39
0.11567429 0.15174478 1.3060001 1.4747629e-39
0.11816191 0.15174478 1.3060001 1.1988991e-39
0.12064953 0.15174478 1.3060001 1.107065e-39
0.12396636 0.15215939 1.3060001 9.2412971e-40
0.13060001 0.15298858 1.3060001 1.2910933e-39
0.095773339 0.1554762 1.3060001 1.8511433e-40
0.10572381 0.1554762 1.3060001 3.7129785e-40
0.11069906 0.1554762 1.3060001 7.382825e-40
0.11318667 0.1554762 1.3060001 1.0141491e-39
0.11816191 0.1554762 1.3060001 1.0145079e-39
0.12064953 0.1554762 1.3060001 8.3083687e-40
0.12438096 0.1554762 1.3060001 6.4682115e-40
0.12811239 0.1554762 1.3060001 5.5462132e-40
0.13060001 0.1554762 1.3060001 6.4465335e-40
0.13308764 0.1554762 1.3060001 6.4500928e-40
0.095773339 0.15796383 1.3060001 6.4500227e-40
0.098260961 0.15796383 1.3060001 4.6169281e-40
0.10074858 0.15796383 1.3060001 3.7021885e-40
0.1032362 0.15796383 1.3060001 3.7093912e-40
0.10572381 0.15796383 1.3060001 4.6277602e-40
0.10945524 0.15796383 1.3060001 6.4608968e-40
0.11318667 0.15796383 1.3060001 1.0134317e-39
0.11567429 0.15796383 1.3060001 9.219549e-40
0.11816191 0.15796383 1.3060001 7.382811e-40
0.12064953 0.15796383 1.3060001 6.464414e-40
0.12438096 0.15796383 1.3060001 5.5425278e-40
0.12811239 0.15796383 1.3060001 5.5281645e-40
0.13060001 0.15796383 1.3060001 5.5281224e-40
0.13308764 0.15796383 1.3060001 5.5245351e-40
0.13557525 0.15796383 1.3060001 4.6061802e-40
0.10572381 0.16045144 1.3060001 4.6241448e-40
0.10945524 0.16045144 1.3060001 6.4466315e-40
0.11318667 0.16045144 1.3060001 1.0120009e-39
0.11567429 0.16045144 1.3060001 7.372035e-40
0.11816191 0.16045144 1.3060001 4.6133688e-40
0.12064953 0.16045144 1.3060001 5.5317238e-40
0.12438096 0.16045144 1.3060001 5.5281505e-40
0.10572381 0.16293906 1.3060001 5.5352971e-40
0.10945524 0.16293906 1.3060001 9.2197031e-40
0.11318667 0.16293906 1.3060001 1.470105e-39
0.11567429 0.16293906 1.3060001 9.1943396e-40
0.11816191 0.16293906 1.3060001 2.7622956e-40
0.10572381 0.16667049 1.3060001 1.2918318e-39
0.10945524 0.16667049 1.3060001 2.4006611e-39
0.11318667 0.16667049 1.3060001 2.9491503e-39
0.11567429 0.16667049 1.3060001 1.9303419e-39
0.11069906 0.17040192 1.3060001 6.2696349e-39
0.11318667 0.17040192 1.3060001 6.1741883e-39
0.11567429 0.17040192 1.3060001 4.867661e-39
0.11816191 0.17040192 1.3060001 3.6002665e-39
0.12064953 0.17040192 1.3060001 6.0819857e-39
0.11069906 0.17288953 1.3060001 4.9904498e-39
0.11318667 0.17288953 1.3060001 5.3728165e-39
0.11567429 0.17288953 1.3060001 4.8052584e-39
0.19030286 0.17288953 1.3060001 8.6664004e-39
0.11069906 0.17537716 1.3060001 3.6928839e-39
0.11318667 0.17537716 1.3060001 4.5233284e-39
0.18781525 0.17537716 1.3060001 7.6551282e-39
0.19030286 0.17537716 1.3060001 7.5600599e-39
0.19279049 0.17537716 1.3060001 7.4703908e-39
0.11567429 0.17786478 1.3060001 3.5938443e-39
0.18781525 0.17786478 1.3060001 8.2047006e-39
0.19030286 0.17786478 1.3060001 8.1128553e-39
0.19279049 0.17786478 1.3060001 8.0217541e-39
0.19652191 0.17786478 1.3060001 5.5396986e-39
0.18781525 0.18035239 1.3060001 8.66532e-39
0.19030286 0.18159619 1.3060001 8.4809288e-39
0.19279049 0.18159619 1.3060001 8.2972732e-39
0.19693652 0.18118159 1.3060001 4.9879779e-39
0.19279049 0.18532763 1.3060001 7.9292179e-39
0.19652191 0.18532763 1.3060001 5.8141415e-39
0.20025335 0.18532763 1.3060001 4.6199157e-39
0.20274097 0.18532763 1.3060001 4.1611025e-39
0.20522858 0.18532763 1.3060001 4.160748e-39
0.19279049 0.18781525 1.3060001 8.3891115e-39
0.19652191 0.18781525 1.3060001 5.4457191e-39
0.20025335 0.18781525 1.3060001 4.2522136e-39
0.20274097 0.18781525 1.3060001 4.0696244e-39
0.2077162 0.18781525 1.3060001 3.8859646e-39
0.21020383 0.18781525 1.3060001 3.8859702e-39
0.20025335 0.19030286 1.3060001 3.8848744e-39
0.20274097 0.19030286 1.3060001 3.8855947e-39
0.20522858 0.19030286 1.3060001 3.7937634e-39
0.2077162 0.19030286 1.3060001 3.610098e-39
0.21020383 0.19030286 1.3060001 3.8856101e-39
0.20274097 0.19279049 1.3060001 3.7934018e-39
0.20522858 0.19279049 1.3060001 3.4260612e-39
0.21144763 0.19279049 1.3060001 3.977084e-39
0.21517906 0.19279049 1.3060001 5.9102902e-39
0.20522858 0.19652191 1.3060001 3.2420203e-39
0.2077162 0.19776572 1.3060001 3.1498359e-39
0.21144763 0.19652191 1.3060001 3.9774442e-39
0.21517906 0.19527811 1.3060001 5.5404413e-39
0.21766669 0.19527811 1.3060001 6.6471279e-39
0.2077162 0.20025335 1.3060001 3.6097336e-39
0.21020383 0.20025335 1.3060001 3.977447e-39
0.11112286 0.14858001 1.3110001 1.1067189e-39
0.10862572 0.15107715 1.3110001 8.311984e-40
0.11237143 0.15107715 1.3110001 1.6580794e-39
0.091145717 0.1535743 1.3110001 7.3684898e-40
0.10363144 0.1535743 1.3110001 4.6313475e-40
0.10612858 0.1535743 1.3110001 5.5532477e-40
0.10862572 0.1535743 1.3110001 6.4716167e-40
0.091145717 0.15607144 1.3110001 8.2725234e-40
0.093642861 0.15732001 1.3110001 5.5245772e-40
0.098637149 0.15607144 1.3110001 9.39977e-41
0.10113429 0.15607144 1.3110001 1.8547586e-40
0.10363144 0.15607144 1.3110001 2.7874489e-40
0.10862572 0.15607144 1.3110001 4.6313335e-40
0.11611715 0.15607144 1.3110001 1.0145079e-39
0.093642861 0.16106573 1.3110001 1.4711742e-39
0.09738858 0.16106573 1.3110001 9.2087169e-40
0.10113429 0.16106573 1.3110001 5.5425138e-40
0.10363144 0.16106573 1.3110001 3.7057898e-40
0.09738858 0.16356286 1.3110001 8.2939633e-40
0.10113429 0.16356286 1.3110001 5.5425278e-40
0.10363144 0.16356286 1.3110001 3.7057898e-40
0.098637149 0.16606002 1.3110001 8.2975506e-40
0.10113429 0.16606002 1.3110001 6.4572674e-40
0.10363144 0.16606002 1.3110001 3.695126e-40
0.098637149 0.16855715 1.3110001 9.2158916e-40
0.10113429 0.16855715 1.3110001 6.4500647e-40
0.10363144 0.16855715 1.3110001 3.6844481e-40
0.098637149 0.17355144 1.3110001 6.4609949e-40
0.10113429 0.17230287 1.3110001 5.5283186e-40
0.10363144 0.17230287 1.3110001 3.7346005e-40
0.10612858 0.17230287 1.3110001 2.8720271e-39
0.10862572 0.17230287 1.3110001 5.3566484e-39
0.098637149 0.17604858 1.3110001 3.7023286e-40
0.10612858 0.17604858 1.3110001 1.6602304e-39
0.10862572 0.17604858 1.3110001 2.7730562e-39
0.20102002 0.18104286 1.3110001 4.1614515e-39
0.19602573 0.18354002 1.3110001 6.3665964e-39
0.20102002 0.18354002 1.3110001 4.3447693e-39
0.19103144 0.18603715 1.3110001 8.3891017e-39
0.20851144 0.19352858 1.3110001 3.1498429e-39
0.20851144 0.19602573 1.3110001 2.6910213e-39
0.21100858 0.19602573 1.3110001 3.5179093e-39
0.083973341 0.15416001 1.3160001 1.4744014e-39
0.088986672 0.15416001 1.3160001 1.0123597e-39
0.083973341 0.15666668 1.3160001 2.7636969e-39
0.086480007 0.15666668 1.3160001 2.026506e-39
0.088986672 0.15666668 1.3160001 1.291099e-39
0.091493338 0.16042668 1.3160001 2.3906124e-39
0.091493338 0.16418667 1.3160001 3.2182108e-39
0.094000004 0.16418667 1.3160001 8.2760968e-40
0.086480007 0.16669334 1.3160001 1.0042767e-38
0.088986672 0.16669334 1.3160001 6.9960316e-39
0.091493338 0.16669334 1.3160001 3.5819557e-39
0.094000004 0.16669334 1.3160001 9.3278834e-41
0.09650667 0.16669334 1.3160001 4.6241168e-40
0.086480007 0.16920002 1.3160001 1.0871806e-38
0.088986672 0.16920002 1.3160001 7.9186914e-39
0.091493338 0.16920002 1.3160001 3.9543087e-39
0.094000004 0.16920002 1.3160001 9.2198432e-41
0.09650667 0.16920002 1.3160001 4.6169421e-40
0.086480007 0.17170668 1.3160001 1.1706922e-38
0.088986672 0.17170668 1.3160001 8.740899e-39
0.091493338 0.17170668 1.3160001 4.4084639e-39
0.09650667 0.17170668 1.3160001 5.5425138e-40
0.099013343 0.17170668 1.3160001 9.2123883e-40
0.09650667 0.17421335 1.3160001 6.4573094e-40
0.074227624 0.15222953 1.3210001 7.3793078e-40
0.076743811 0.15222953 1.3210001 8.2976067e-40
0.079260007 0.15222953 1.3210001 9.2231223e-40
0.081776194 0.15222953 1.3210001 5.5245772e-40
0.074227624 0.15474573 1.3210001 1.1978243e-39
0.076743811 0.15474573 1.3210001 1.4747559e-39
0.079260007 0.15474573 1.3210001 1.7499009e-39
0.081776194 0.15474573 1.3210001 1.6580626e-39
0.086808577 0.15474573 1.3210001 1.1981859e-39
0.074227624 0.15726191 1.3210001 1.571992e-39
0.076743811 0.15726191 1.3210001 2.1208568e-39
0.079260007 0.15726191 1.3210001 2.580386e-39
0.081776194 0.15726191 1.3210001 2.6718572e-39
0.074227624 0.1597781 1.3210001 2.3074047e-39
0.076743811 0.1597781 1.3210001 2.3056278e-39
0.079260007 0.1597781 1.3210001 2.4010408e-39
0.081776194 0.1597781 1.3210001 2.6743837e-39
0.085550487 0.1597781 1.3210001 2.9520412e-39
0.089324765 0.1597781 1.3210001 2.8587638e-39
0.074227624 0.1635524 1.3210001 5.3444416e-39
0.076743811 0.1635524 1.3210001 5.0628255e-39
0.079260007 0.1635524 1.3210001 4.7873162e-39
0.081776194 0.1635524 1.3210001 5.2490034e-39
0.085550487 0.1635524 1.3210001 5.4355527e-39
0.089324765 0.1635524 1.3210001 5.0621038e-39
0.074227624 0.16732667 1.3210001 1.243193e-38
0.076743811 0.16732667 1.3210001 1.2709582e-38
0.079260007 0.16732667 1.3210001 1.298186e-38
0.081776194 0.16732667 1.3210001 1.3081228e-38
0.084292389 0.16732667 1.3210001 1.3074772e-38
0.074227624 0.16984287 1.3210001 1.3815571e-38
0.076743811 0.16984287 1.3210001 1.3724101e-38
0.079260007 0.16984287 1.3210001 1.3632982e-38
0.081776194 0.16984287 1.3210001 1.3725891e-38
0.084292389 0.16984287 1.3210001 1.3910275e-38
0.071711436 0.17235906 1.3210001 1.4829715e-38
0.074227624 0.17235906 1.3210001 1.519598e-38
0.076743811 0.17235906 1.3210001 1.4737879e-38
0.079260007 0.17235906 1.3210001 1.4185424e-38
0.081776194 0.17235906 1.3210001 1.4462357e-38
0.084292389 0.17235906 1.3210001 1.4643153e-38
0.094357148 0.17235906 1.3210001 9.3276031e-41
0.074227624 0.17487524 1.3210001 9.6858591e-39
0.076743811 0.17487524 1.3210001 9.0354688e-39
0.086808577 0.17487524 1.3210001 6.1727436e-39
0.089324765 0.17487524 1.3210001 4.5003163e-39
0.09184096 0.17487524 1.3210001 2.5721128e-39
0.094357148 0.17487524 1.3210001 6.4429041e-40
0.070453338 0.17739144 1.3210001 6.6348315e-39
0.094357148 0.17739144 1.3210001 1.1963824e-39
0.070720002 0.15533143 1.3260001 3.401879e-39
0.070720002 0.15785715 1.3260001 6.6326399e-39
0.070720002 0.16038287 1.3260001 7.8376375e-39
0.070720002 0.16290858 1.3260001 8.9350097e-39
0.070720002 0.16669716 1.3260001 1.2064241e-38
0.070720002 0.17048572 1.3260001 1.39074e-38
0.061880004 0.17301144 1.3260001 1.5200289e-38
0.064405717 0.17301144 1.3260001 1.4462378e-38
0.066931434 0.17301144 1.3260001 1.446238e-38
0.069457151 0.17301144 1.3260001 1.4461658e-38
0.061880004 0.17553715 1.3260001 1.2442024e-38
0.064405717 0.17553715 1.3260001 1.198356e-38
0.066931434 0.17553715 1.3260001 1.1428236e-38
0.070720002 0.17553715 1.3260001 1.0603146e-38
0.079560004 0.17553715 1.3260001 8.3979887e-39
0.082085721 0.17553715 1.3260001 8.1156523e-39
0.084611431 0.17553715 1.3260001 7.8401388e-39
0.056828573 0.17806287 1.3260001 1.0874716e-38
0.05935429 0.17806287 1.3260001 1.0043888e-38
0.061880004 0.17806287 1.3260001 9.7705283e-39
0.064405717 0.17806287 1.3260001 9.394574e-39
0.066931434 0.17806287 1.3260001 8.4754987e-39
0.049437147 0.15084668 1.3310001 1.1077839e-39
0.051972385 0.15084668 1.3310001 8.3120681e-40
0.046901908 0.15464953 1.3310001 1.4765524e-39
0.049437147 0.15464953 1.3310001 1.4762063e-39
0.051972385 0.15464953 1.3310001 2.0308178e-39
0.054507624 0.15464953 1.3310001 2.4932253e-39
0.057042859 0.15464953 1.3310001 2.3030971e-39
0.062113337 0.15591715 1.3310001 4.1401363e-39
0.067183815 0.15591715 1.3310001 4.2334053e-39
0.046901908 0.15845239 1.3310001 1.7488597e-39
0.049437147 0.15845239 1.3310001 1.3018735e-39
0.051972385 0.15845239 1.3310001 4.8059661e-39
0.054507624 0.15845239 1.3310001 8.29142e-39
0.058310479 0.15845239 1.3310001 8.1038113e-39
0.062113337 0.15845239 1.3310001 8.105242e-39
0.064648576 0.15845239 1.3310001 8.1953007e-39
0.067183815 0.15845239 1.3310001 8.2961213e-39
0.046901908 0.16098763 1.3310001 3.872585e-39
0.049437147 0.16098763 1.3310001 4.2470778e-39
0.051972385 0.16098763 1.3310001 5.9940794e-39
0.062113337 0.16098763 1.3310001 8.2925354e-39
0.064648576 0.16098763 1.3310001 8.4798287e-39
0.067183815 0.16098763 1.3310001 9.0330291e-39
0.046901908 0.16352287 1.3310001 5.9069467e-39
0.049437147 0.16352287 1.3310001 7.0932565e-39
0.051972385 0.16352287 1.3310001 7.2722458e-39
0.058310479 0.16352287 1.3310001 7.9226669e-39
0.062113337 0.16352287 1.3310001 8.4769252e-39
0.064648576 0.16352287 1.3310001 8.7538849e-39
0.067183815 0.16352287 1.3310001 9.8562892e-39
0.046901908 0.16605811 1.3310001 7.4627579e-39
0.049437147 0.16605811 1.3310001 1.0120595e-38
0.051972385 0.16605811 1.3310001 1.012417e-38
0.058310479 0.16605811 1.3310001 1.0497291e-38
0.062113337 0.16605811 1.3310001 1.0959714e-38
0.064648576 0.16605811 1.3310001 1.1232712e-38
0.067183815 0.16605811 1.3310001 1.1694761e-38
0.046901908 0.16859335 1.3310001 9.0304494e-39
0.049437147 0.16859335 1.3310001 1.3165903e-38
0.058310479 0.16859335 1.3310001 1.317273e-38
0.062113337 0.16859335 1.3310001 1.3539703e-38
0.064648576 0.16859335 1.3310001 1.372015e-38
0.067183815 0.16859335 1.3310001 1.3537919e-38
0.046901908 0.17112859 1.3310001 8.3861954e-39
0.049437147 0.17112859 1.3310001 1.2816525e-38
0.051972385 0.17112859 1.3310001 1.3639083e-38
0.054507624 0.17112859 1.3310001 1.4470996e-38
0.058310479 0.1723962 1.3310001 1.5200306e-38
0.062113337 0.17112859 1.3310001 1.4369794e-38
0.064648576 0.17112859 1.3310001 1.4091068e-38
0.067183815 0.17112859 1.3310001 1.3999598e-38
0.058310479 0.17619906 1.3310001 1.3179948e-38
0.047078099 0.14886858 1.3360001 5.5461291e-40
0.047078099 0.15141334 1.3360001 1.0163001e-39
0.044533335 0.15650287 1.3360001 1.7542085e-39
0.05980191 0.15650287 1.3360001 4.135491e-39
0.044533335 0.16032001 1.3360001 2.8530325e-39
0.054712385 0.16159239 1.3360001 7.8347536e-39
0.058529526 0.16159239 1.3360001 8.0155786e-39
0.044533335 0.16413715 1.3360001 4.6990806e-39
0.054712385 0.16413715 1.3360001 7.3691203e-39
0.044533335 0.16668192 1.3360001 4.7930713e-39
0.054712385 0.16668192 1.3360001 1.0122034e-38
0.044533335 0.16922668 1.3360001 4.8859928e-39
0.052167624 0.16922668 1.3360001 1.2981141e-38
0.054712385 0.16922668 1.3360001 1.2801791e-38
0.044533335 0.17177144 1.3360001 3.9572444e-39
0.047078099 0.17558858 1.3360001 6.7273803e-39
0.04962286 0.17558858 1.3360001 9.961367e-39
0.052167624 0.17558858 1.3360001 1.253995e-38
0.054712385 0.17558858 1.3360001 1.5020593e-38
0.044733338 0.15464954 1.342 1.2939548e-39
0.039620955 0.1648743 1.342 1.93646e-39
0.042177144 0.16359621 1.342 2.855175e-39
0.037064765 0.16743049 1.342 3.7749607e-39
0.039620955 0.16743049 1.342 3.4962397e-39
0.042177144 0.16743049 1.342 4.1455593e-39
0.037064765 0.16998668 1.342 5.3375991e-39
0.039620955 0.16998668 1.342 4.9717005e-39
0.042177144 0.16998668 1.342 4.9770912e-39
0.037064765 0.17254287 1.342 4.8777042e-39
0.039620955 0.17254287 1.342 4.7894602e-39
0.042177144 0.17254287 1.342 4.329568e-39
0.044733338 0.17509906 1.342 2.9531468e-39
0.044900004 0.15137716 1.3470001 6.4895533e-40
0.039768573 0.15522572 1.3470001 7.4258169e-40
0.042334288 0.15522572 1.3470001 1.019163e-39
0.037202861 0.15779144 1.3470001 5.5711843e-40
0.039768573 0.15779144 1.3470001 7.4329915e-40
0.042334288 0.15779144 1.3470001 1.2943093e-39
0.034637146 0.16035715 1.3470001 2.8053295e-40
0.037202861 0.16035715 1.3470001 5.5532337e-40
0.039768573 0.16035715 1.3470001 7.4186562e-40
0.042334288 0.16035715 1.3470001 1.4769111e-39
0.034637146 0.16292287 1.3470001 1.3836337e-39
0.037202861 0.16292287 1.3470001 1.3839924e-39
0.039768573 0.16292287 1.3470001 1.3854344e-39
0.034637146 0.16548859 1.3470001 2.4889065e-39
0.037202861 0.16548859 1.3470001 2.2115965e-39
0.03207143 0.16933715 1.3470001 4.1441258e-39
0.034637146 0.16933715 1.3470001 4.8798706e-39
0.03207143 0.17318572 1.3470001 4.3256052e-39
0.034637146 0.17318572 1.3470001 5.0602947e-39
0.037202861 0.17575143 1.3470001 4.5074895e-39
0.039768573 0.17575143 1.3470001 4.6036424e-39
0.042334288 0.17575143 1.3470001 3.7785691e-39
0.044900004 0.17831716 1.3470001 4.143058e-39
0.046354286 0.14550096 1.3520001 9.219535e-40
0.034765717 0.14807621 1.3520001 1.8474999e-40
0.037340954 0.14807621 1.3520001 4.6061521e-40
0.039916191 0.14807621 1.3520001 7.3684057e-40
0.042491432 0.14807621 1.3520001 6.4608267e-40
0.032190479 0.15065144 1.3520001 3.6949718e-40
0.034765717 0.15065144 1.3520001 1.8618492e-40
0.037340954 0.15065144 1.3520001 4.6133408e-40
0.039916191 0.15065144 1.3520001 7.382755e-40
0.042491432 0.15065144 1.3520001 6.464414e-40
0.024464764 0.1545143 1.3520001 1.8978065e-40
0.028327622 0.1545143 1.3520001 3.7272858e-40
0.032190479 0.1545143 1.3520001 3.7200971e-40
0.034765717 0.1545143 1.3520001 3.7200971e-40
0.037340954 0.1545143 1.3520001 5.5747436e-40
0.039916191 0.15322667 1.3520001 7.4078803e-40
0.042491432 0.15322667 1.3520001 8.3298225e-40
0.024464764 0.15837716 1.3520001 1.8978486e-40
0.028327622 0.15837716 1.3520001 2.8161335e-40
0.032190479 0.15837716 1.3520001 3.7272998e-40
0.034765717 0.15837716 1.3520001 3.7129505e-40
0.024464764 0.16095239 1.3520001 1.8870726e-40
0.028327622 0.16095239 1.3520001 1.8834292e-40
0.032190479 0.16095239 1.3520001 2.8053295e-40
0.024464764 0.16352762 1.3520001 1.7470394e-39
0.028327622 0.16352762 1.3520001 1.3839966e-39
0.032190479 0.16352762 1.3520001 1.3847085e-39
0.024464764 0.16610287 1.3520001 3.2214408e-39
0.028327622 0.16610287 1.3520001 2.5811035e-39
0.032190479 0.16610287 1.3520001 2.4892764e-39
0.024464764 0.1686781 1.3520001 3.4965998e-39
0.028327622 0.1686781 1.3520001 3.1321305e-39
0.016739048 0.17382859 1.3520001 6.4489479e-39
0.021889525 0.17382859 1.3520001 4.6922325e-39
0.024464764 0.17254096 1.3520001 3.2189213e-39
0.028327622 0.17254096 1.3520001 3.4972976e-39
0.016739048 0.17640382 1.3520001 6.0826835e-39
0.021889525 0.17640382 1.3520001 3.7702916e-39
0.024464764 0.17640382 1.3520001 1.5662341e-39
0.028327622 0.17640382 1.3520001 3.2214226e-39
0.032190479 0.17640382 1.3520001 4.0493798e-39
0.019400001 0.16166668 1.358 7.4566412e-39
0.021986669 0.16037335 1.358 3.7756768e-39
0.021986669 0.16425334 1.358 4.1433733e-39
0.016813334 0.16684002 1.358 5.7146535e-39
0.019400001 0.16684002 1.358 5.8046855e-39
0.021986669 0.16684002 1.358 4.5096517e-39
0.016813334 0.16942668 1.358 6.2656524e-39
0.019400001 0.16942668 1.358 6.5425981e-39
0.021986669 0.16942668 1.358 5.0621122e-39
0.016813334 0.17201334 1.358 6.7262565e-39
0.019400001 0.17201334 1.358 7.2722486e-39
0.021986669 0.17201334 1.358 5.5151786e-39
0.014226668 0.17460001 1.358 6.1709401e-39
0.019400001 0.17460001 1.358 6.6319e-39
0.011640001 0.17718668 1.358 5.9869216e-39
0.014226668 0.17718668 1.358 6.171659e-39
0.019471429 0.15706953 1.363 7.1814851e-39
0.022067621 0.15706953 1.363 3.6870685e-39
0.016875239 0.15966572 1.363 6.5393569e-39
0.019471429 0.15966572 1.363 7.3680273e-39
0.011682858 0.16356 1.363 5.4337492e-39
0.014279049 0.16356 1.363 5.7107004e-39
0.016875239 0.16356 1.363 6.35643e-39
0.019471429 0.1648581 1.363 6.6347923e-39
0.011682858 0.1674543 1.363 5.4348254e-39
0.014279049 0.1674543 1.363 5.6202985e-39
0.011682858 0.17005049 1.363 5.7110507e-39
0.014279049 0.17005049 1.363 5.8957993e-39
0.010384763 0.17264667 1.363 5.9861999e-39
0.014279049 0.17264667 1.363 6.1720191e-39
0.011682858 0.17524287 1.363 5.9869188e-39
-0.032452382 0.17783906 1.363 4.6026209e-40
-0.029856192 0.17783906 1.363 1.0119981e-39
0.0091200005 0.15504001 1.368 5.7106892e-39
0.0039085718 0.15764572 1.368 5.4344667e-39
0.0065142862 0.15764572 1.368 5.8021674e-39
0.010422857 0.15764572 1.368 5.9858398e-39
0.014331429 0.15764572 1.368 5.8947203e-39
0.016937144 0.15764572 1.368 6.539717e-39
0.0039085718 0.16025144 1.368 4.6994268e-39
0.0065142862 0.16025144 1.368 5.1586056e-39
0.010422857 0.16025144 1.368 5.6181433e-39
0.014331429 0.16025144 1.368 5.8014499e-39
0.0013028572 0.16285716 1.368 4.4246349e-39
0.0039085718 0.16285716 1.368 3.9643813e-39
0.0065142862 0.16285716 1.368 4.5143194e-39
0.0091200005 0.16285716 1.368 5.0664086e-39
0.0013028572 0.16546287 1.368 4.6072269e-39
0.0039085718 0.16546287 1.368 4.2395276e-39
0.0065142862 0.16546287 1.368 4.6987051e-39
0.0091200005 0.16546287 1.368 5.1589588e-39
0.0013028572 0.16937144 1.368 5.0653268e-39
0.0039085718 0.16937144 1.368 4.6976289e-39
0.0065142862 0.16937144 1.368 5.0660499e-39
0.0091200005 0.16937144 1.368 5.3426326e-39
-0.0013028572 0.17328002 1.368 6.3510308e-39
0.0013028572 0.17328002 1.368 5.8922078e-39
0.0039085718 0.17328002 1.368 5.4330331e-39
0.0065142862 0.17328002 1.368 5.7085424e-39
0.0013028572 0.17588572 1.368 5.2497195e-39
0.0039085718 0.17588572 1.368 4.8830978e-39
0.0065142862 0.17588572 1.368 5.3429955e-39
0.0091200005 0.17588572 1.368 5.8032492e-39
0.0013085715 0.14786859 1.3740001 4.2359333e-39
0.0013085715 0.15048572 1.3740001 4.8812859e-39
-0.019628573 0.15572001 1.3740001 4.3321072e-39
0.0013085715 0.15441144 1.3740001 5.4344625e-39
0.0039257146 0.15441144 1.3740001 5.618132e-39
0.0065428577 0.15441144 1.3740001 5.5262951e-39
0.010468572 0.15441144 1.3740001 5.526298e-39
-0.019628573 0.15833715 1.3740001 4.1487837e-39
-0.0013085715 0.15833715 1.3740001 5.4348338e-39
0.0013085715 0.15833715 1.3740001 5.4344681e-39
-0.0013085715 0.1609543 1.3740001 5.1586042e-39
0.0013085715 0.1609543 1.3740001 4.8834551e-39
-0.0013085715 0.16357143 1.3740001 4.7912552e-39
-0.0013085715 0.16618858 1.3740001 4.8830851e-39
-0.022245716 0.16880572 1.3740001 3.1349835e-39
-0.019628573 0.16880572 1.3740001 3.8703934e-39
-0.01701143 0.16880572 1.3740001 4.6043599e-39
-0.010468572 0.16880572 1.3740001 5.3401186e-39
-0.0013085715 0.16880572 1.3740001 4.9742088e-39
-0.022245716 0.17142287 1.3740001 3.1342633e-39
-0.019628573 0.17142287 1.3740001 3.6867154e-39
-0.01701143 0.17142287 1.3740001 4.2366535e-39
-0.014394287 0.17142287 1.3740001 4.695831e-39
-0.010468572 0.17142287 1.3740001 4.879865e-39
-0.0013085715 0.17142287 1.3740001 5.7078222e-39
-0.027480002 0.17665716 1.3740001 1.2907332e-39
-0.024862859 0.17665716 1.3740001 2.1211987e-39
-0.022245716 0.17534858 1.3740001 3.0427851e-39
-0.019628573 0.17534858 1.3740001 3.5041178e-39
-0.01701143 0.17534858 1.3740001 3.9618659e-39
-0.014394287 0.17534858 1.3740001 4.2370193e-39
-0.010468572 0.17534858 1.3740001 4.513602e-39
-0.0039257146 0.17404 1.3740001 5.1564561e-39
-0.0013085715 0.17665716 1.3740001 5.708541e-39
-0.0013085715 0.17927429 1.3740001 5.0660569e-39
0.0013085715 0.17927429 1.3740001 4.6987135e-39
0.0039257146 0.17927429 1.3740001 4.2406108e-39
-0.0039400002 0.15103334 1.3790001 4.8809173e-39
-0.0013133334 0.15103334 1.3790001 4.5132222e-39
0.0039400002 0.15103334 1.3790001 5.1578686e-39
0.006566667 0.15103334 1.3790001 4.8812845e-39
-0.0013133334 0.15366001 1.3790001 5.1582385e-39
-0.024953336 0.15891334 1.3790001 2.3037921e-39
-0.022326669 0.15760002 1.3790001 3.5945295e-39
-0.017073335 0.15760002 1.3790001 4.884181e-39
-0.014446667 0.15760002 1.3790001 5.1593203e-39
-0.01006889 0.1580378 1.3790001 5.8018086e-39
-0.006566667 0.15760002 1.3790001 6.4446655e-39
-0.0039400002 0.15760002 1.3790001 5.8936638e-39
-0.0013133334 0.15628667 1.3790001 5.3433612e-39
-0.024953336 0.16154002 1.3790001 2.3041481e-39
-0.022326669 0.16154002 1.3790001 3.5945197e-39
-0.019700002 0.16154002 1.3790001 4.055142e-39
-0.017073335 0.16154002 1.3790001 4.6065207e-39
-0.014446667 0.16154002 1.3790001 4.9745857e-39
-0.010506667 0.16154002 1.3790001 5.3415592e-39
-0.006566667 0.16154002 1.3790001 5.8929295e-39
-0.0039400002 0.16154002 1.3790001 5.5259476e-39
-0.024953336 0.16416667 1.3790001 2.395985e-39
-0.022326669 0.16416667 1.3790001 3.5938037e-39
-0.019700002 0.16416667 1.3790001 4.054786e-39
-0.017073335 0.16416667 1.3790001 4.5139663e-39
-0.014446667 0.16416667 1.3790001 4.7901931e-39
-0.011820001 0.16416667 1.3790001 5.0656939e-39
-0.006566667 0.16416667 1.3790001 4.9742088e-39
-0.0039400002 0.16416667 1.3790001 4.8827292e-39
-0.024953336 0.16679335 1.3790001 2.3055844e-39
-0.022326669 0.16679335 1.3790001 3.4119277e-39
-0.019700002 0.16679335 1.3790001 3.9622359e-39
-0.017073335 0.16679335 1.3790001 4.6040081e-39
-0.014446667 0.16679335 1.3790001 4.9727837e-39
-0.010506667 0.16679335 1.3790001 5.1575238e-39
-0.006566667 0.16679335 1.3790001 4.8823677e-39
-0.0039400002 0.16679335 1.3790001 4.882718e-39
-0.024953336 0.16942 1.3790001 2.306662e-39
-0.014446667 0.16942 1.3790001 5.0631786e-39
-0.006566667 0.16942 1.3790001 4.698345e-39
-0.0039400002 0.16942 1.3790001 4.8823719e-39
-0.024953336 0.17204668 1.3790001 2.2126741e-39
-0.006566667 0.17204668 1.3790001 4.3313687e-39
-0.0039400002 0.17204668 1.3790001 4.9735025e-39
-0.024953336 0.17467335 1.3790001 2.1197638e-39
-0.006566667 0.17467335 1.3790001 3.8714738e-39
-0.031520002 0.17730001 1.3790001 6.4465335e-40
-0.006566667 0.17730001 1.3790001 4.4232042e-39
-0.0039400002 0.17730001 1.3790001 5.0653366e-39
-0.027700001 0.15696667 1.3850001 1.0145065e-39
-0.025061907 0.15696667 1.3850001 2.3041537e-39
-0.027700001 0.15960477 1.3850001 1.0148638e-39
-0.027700001 0.16224287 1.3850001 1.1063392e-39
-0.0092333341 0.16488096 1.3850001 5.0656897e-39
-0.027700001 0.16751906 1.3850001 1.290729e-39
-0.030338097 0.17015715 1.3850001 9.197969e-40
-0.027700001 0.17015715 1.3850001 1.4747587e-39
-0.043528575 0.17279525 1.3850001 3.6770352e-40
-0.038252383 0.17279525 1.3850001 3.6806225e-40
-0.031657144 0.17279525 1.3850001 6.4393028e-40
