# .PCD v0.7 - Point Cloud Data file format
VERSION 0.7
FIELDS x y z
SIZE 4 4 4
TYPE F F F
COUNT 1 1 1
WIDTH 643
HEIGHT 1
VIEWPOINT 0 0 0 1 0 0 0
POINTS 643
DATA ascii
-0.12840001 -0.1944343 0.96300006
-0.11372572 -0.1944343 0.96300006
-0.10638858 -0.1944343 0.96300006
-0.099051438 -0.1944343 0.96300006
-0.091714293 -0.1944343 0.96300006
-0.084377147 -0.1944343 0.96300006
-0.040354289 -0.1944343 0.96300006
0.0036685716 -0.1944343 0.96300006
0.011005715 -0.1944343 0.96300006
-0.092285722 -0.20302859 0.96900004
-0.08490286 -0.20302859 0.96900004
-0.077520005 -0.20302859 0.96900004
-0.069920003 -0.20240001 0.96600002
-0.062560007 -0.20240001 0.96600002
-0.055371433 -0.20302859 0.96900004
-0.047988575 -0.20302859 0.96900004
-0.040605716 -0.20302859 0.96900004
-0.033222858 -0.20302859 0.96900004
-0.0036914288 -0.20302859 0.96900004
0.0036800003 -0.20240001 0.96600002
0.011040001 -0.20240001 0.96600002
0.018457144 -0.20302859 0.96900004
0.025840001 -0.20302859 0.96900004
0.040605716 -0.20302859 0.96900004
0.047988575 -0.20302859 0.96900004
0.055371433 -0.20302859 0.96900004
0.062754288 -0.20302859 0.96900004
0.070137151 -0.20302859 0.96900004
0.077520005 -0.20302859 0.96900004
0.084640004 -0.20240001 0.96600002
0.092285722 -0.20302859 0.96900004
0.10705143 -0.20302859 0.96900004
0.11443429 -0.20302859 0.96900004
0.12181715 -0.20302859 0.96900004
0.12920001 -0.20302859 0.96900004
0.13658287 -0.20302859 0.96900004
0.1661143 -0.20302859 0.96900004
0.18088001 -0.20302859 0.96900004
0.21041144 -0.20302859 0.96900004
0.1892343 -0.21891811 0.97400004
0.24860193 -0.21891811 0.97400004
0.3153905 -0.21891811 0.97400004
0.35991621 -0.21891811 0.97400004
-0.070499055 -0.21149716 0.97400004
-0.063078098 -0.21149716 0.97400004
-0.048236195 -0.21149716 0.97400004
-0.04073143 -0.21106288 0.97200006
-0.033394288 -0.21149716 0.97400004
0.0037104764 -0.21149716 0.97400004
0.011131429 -0.21149716 0.97400004
0.048236195 -0.21149716 0.97400004
0.055657148 -0.21149716 0.97400004
0.07035429 -0.21106288 0.97200006
0.077920005 -0.21149716 0.97400004
0.085340954 -0.21149716 0.97400004
0.092761911 -0.21149716 0.97400004
0.10018286 -0.21149716 0.97400004
0.12986667 -0.21149716 0.97400004
0.13728763 -0.21149716 0.97400004
0.14470857 -0.21149716 0.97400004
0.16662858 -0.21106288 0.97200006
0.1740343 -0.21106288 0.97200006
0.18144001 -0.21106288 0.97200006
0.18884572 -0.21106288 0.97200006
0.19625144 -0.21106288 0.97200006
0.20365715 -0.21106288 0.97200006
0.21106288 -0.21106288 0.97200006
0.21891811 -0.21149716 0.97400004
0.22633906 -0.21149716 0.97400004
0.23376001 -0.21149716 0.97400004
0.24118097 -0.21149716 0.97400004
0.24860193 -0.21149716 0.97400004
0.25602287 -0.21149716 0.97400004
0.26344383 -0.21149716 0.97400004
0.27030858 -0.21106288 0.97200006
0.27771431 -0.21106288 0.97200006
0.3153905 -0.21149716 0.97400004
0.16748573 -0.21959239 0.97700006
0.19726096 -0.21959239 0.97700006
0.20470478 -0.21959239 0.97700006
0.32380575 -0.21959239 0.97700006
0.33124954 -0.21959239 0.97700006
-0.093047626 -0.21214859 0.97700006
-0.085603818 -0.21214859 0.97700006
-0.078160003 -0.21214859 0.97700006
-0.055828575 -0.21214859 0.97700006
-0.026053336 -0.21214859 0.97700006
-0.011165715 -0.21214859 0.97700006
-0.0037219049 -0.21214859 0.97700006
0.018609526 -0.21214859 0.97700006
0.026053336 -0.21214859 0.97700006
0.033497144 -0.21214859 0.97700006
0.040940955 -0.21214859 0.97700006
0.063272387 -0.21214859 0.97700006
0.10793524 -0.21214859 0.97700006
0.11537906 -0.21214859 0.97700006
0.12282287 -0.21214859 0.97700006
0.1525981 -0.21214859 0.97700006
0.16004191 -0.21214859 0.97700006
0.28658667 -0.21214859 0.97700006
0.29403049 -0.21214859 0.97700006
0.3014743 -0.21214859 0.97700006
0.30891812 -0.21214859 0.97700006
0.32380575 -0.21214859 0.97700006
0.35358098 -0.21214859 0.97700006
0.24340954 -0.22843049 0.98300004
0.28834668 -0.22843049 0.98300004
0.29583621 -0.22843049 0.98300004
0.34077334 -0.22843049 0.98300004
0.34720004 -0.22773334 0.98000002
0.35466668 -0.22773334 0.98000002
0.36324194 -0.22843049 0.98300004
-0.048681907 -0.22094096 0.98300004
-0.041192383 -0.22094096 0.98300004
-0.033702858 -0.22094096 0.98300004
-0.01872381 -0.22094096 0.98300004
0.0037447622 -0.22094096 0.98300004
0.011234286 -0.22094096 0.98300004
0.018666668 -0.22026668 0.98000002
0.026213335 -0.22094096 0.98300004
0.033702858 -0.22094096 0.98300004
0.041192383 -0.22094096 0.98300004
0.048681907 -0.22094096 0.98300004
0.056171432 -0.22094096 0.98300004
0.063466668 -0.22026668 0.98000002
0.070933335 -0.22026668 0.98000002
0.078640006 -0.22094096 0.98300004
0.086129531 -0.22094096 0.98300004
0.093333341 -0.22026668 0.98000002
0.10080001 -0.22026668 0.98000002
0.10859811 -0.22094096 0.98300004
0.11608763 -0.22094096 0.98300004
0.12357715 -0.22094096 0.98300004
0.13106668 -0.22094096 0.98300004
0.1385562 -0.22094096 0.98300004
0.14604573 -0.22094096 0.98300004
0.15353525 -0.22094096 0.98300004
0.16053334 -0.22026668 0.98000002
0.17546667 -0.22026668 0.98000002
0.18293335 -0.22026668 0.98000002
0.21280001 -0.22026668 0.98000002
0.22026668 -0.22026668 0.98000002
0.22773334 -0.22026668 0.98000002
0.23520002 -0.22026668 0.98000002
0.24266668 -0.22026668 0.98000002
0.25760001 -0.22026668 0.98000002
0.26506668 -0.22026668 0.98000002
0.27336764 -0.22094096 0.98300004
0.28000003 -0.22026668 0.98000002
0.28746668 -0.22026668 0.98000002
0.29493335 -0.22026668 0.98000002
0.30240002 -0.22026668 0.98000002
0.3098667 -0.22026668 0.98000002
0.33973336 -0.22026668 0.98000002
0.34720004 -0.22026668 0.98000002
0.35466668 -0.22026668 0.98000002
0.36508954 -0.23712002 0.98800004
-0.033874288 -0.2295924 0.98800004
0.063984767 -0.2295924 0.98800004
0.071512386 -0.2295924 0.98800004
0.079040006 -0.2295924 0.98800004
0.086567625 -0.2295924 0.98800004
0.1166781 -0.2295924 0.98800004
0.12420572 -0.2295924 0.98800004
0.16184382 -0.2295924 0.98800004
0.16937144 -0.2295924 0.98800004
0.17689906 -0.2295924 0.98800004
0.18442668 -0.2295924 0.98800004
0.23640001 -0.22889525 0.98500007
0.25140953 -0.22889525 0.98500007
0.25891429 -0.22889525 0.98500007
0.26641905 -0.22889525 0.98500007
0.27392381 -0.22889525 0.98500007
0.28142858 -0.22889525 0.98500007
0.30394289 -0.22889525 0.98500007
0.31144765 -0.22889525 0.98500007
0.31895241 -0.22889525 0.98500007
0.33396193 -0.22889525 0.98500007
-0.09380953 -0.22139049 0.98500007
-0.086304769 -0.22139049 0.98500007
-0.071295246 -0.22139049 0.98500007
-0.063790478 -0.22139049 0.98500007
-0.056285717 -0.22139049 0.98500007
-0.011257144 -0.22139049 0.98500007
-0.0037523813 -0.22139049 0.98500007
0.36730668 -0.24613334 0.99400002
0.026506668 -0.23856002 0.99400002
0.12496001 -0.23856002 0.99400002
0.13253334 -0.23856002 0.99400002
0.14010668 -0.23856002 0.99400002
0.14768001 -0.23856002 0.99400002
0.15525335 -0.23856002 0.99400002
0.17040001 -0.23856002 0.99400002
0.18554668 -0.23856002 0.99400002
0.19312002 -0.23856002 0.99400002
0.20069334 -0.23856002 0.99400002
0.20826668 -0.23856002 0.99400002
0.23098668 -0.23856002 0.99400002
0.23856002 -0.23856002 0.99400002
0.25370669 -0.23856002 0.99400002
0.26049146 -0.23784001 0.99100006
0.26885334 -0.23856002 0.99400002
0.27642667 -0.23856002 0.99400002
0.28400001 -0.23856002 0.99400002
0.29157335 -0.23856002 0.99400002
0.29914668 -0.23856002 0.99400002
0.3057943 -0.23784001 0.99100006
0.31429335 -0.23856002 0.99400002
0.32186669 -0.23856002 0.99400002
0.32844573 -0.23784001 0.99100006
0.33701336 -0.23856002 0.99400002
0.3445867 -0.23856002 0.99400002
0.35216004 -0.23856002 0.99400002
0.35973334 -0.23856002 0.99400002
-0.10981334 -0.23098668 0.99400002
-0.10224 -0.23098668 0.99400002
-0.09438096 -0.23028953 0.99100006
-0.087093338 -0.23098668 0.99400002
-0.079520002 -0.23098668 0.99400002
-0.071729526 -0.23028953 0.99100006
-0.064179055 -0.23028953 0.99100006
-0.056628574 -0.23028953 0.99100006
-0.049078099 -0.23028953 0.99100006
-0.041527621 -0.23028953 0.99100006
-0.026506668 -0.23098668 0.99400002
-0.018933335 -0.23098668 0.99400002
-0.011360001 -0.23098668 0.99400002
-0.0037752383 -0.23028953 0.99100006
0.0037752383 -0.23028953 0.99100006
0.011325715 -0.23028953 0.99100006
0.018876191 -0.23028953 0.99100006
0.026426669 -0.23028953 0.99100006
0.033977143 -0.23028953 0.99100006
0.041653335 -0.23098668 0.99400002
0.049226671 -0.23098668 0.99400002
0.056628574 -0.23028953 0.99100006
0.09438096 -0.23028953 0.99100006
0.10193144 -0.23028953 0.99100006
0.10948191 -0.23028953 0.99100006
0.13213333 -0.23028953 0.99100006
0.13968381 -0.23028953 0.99100006
0.14723429 -0.23028953 0.99100006
0.15478477 -0.23028953 0.99100006
0.19253716 -0.23028953 0.99100006
0.20008764 -0.23028953 0.99100006
0.20763811 -0.23028953 0.99100006
0.21518859 -0.23028953 0.99100006
0.22273906 -0.23028953 0.99100006
0.23028953 -0.23028953 0.99100006
0.32844573 -0.23028953 0.99100006
0.29245335 -0.24687621 0.99700004
0.33043429 -0.24687621 0.99700004
0.0037980955 -0.23928002 0.99700004
0.018990478 -0.23928002 0.99700004
0.09495239 -0.23928002 0.99700004
0.10254858 -0.23928002 0.99700004
0.11014477 -0.23928002 0.99700004
0.11774096 -0.23928002 0.99700004
0.16331811 -0.23928002 0.99700004
0.22408764 -0.23928002 0.99700004
0.24687621 -0.23928002 0.99700004
0.12609144 -0.24836192 1.003
0.14137524 -0.24836192 1.003
0.16430096 -0.24836192 1.003
0.17194287 -0.24836192 1.003
0.17958477 -0.24836192 1.003
0.18722668 -0.24836192 1.003
0.19428572 -0.24761906 1
0.20190477 -0.24761906 1
0.21015239 -0.24836192 1.003
0.2177943 -0.24836192 1.003
0.22543621 -0.24836192 1.003
0.23307811 -0.24836192 1.003
0.24072002 -0.24836192 1.003
0.26364574 -0.24836192 1.003
0.27128765 -0.24836192 1.003
0.27892953 -0.24836192 1.003
0.2857143 -0.24761906 1
0.30949718 -0.24836192 1.003
0.31619051 -0.24761906 1
0.32380953 -0.24761906 1
0.34006479 -0.24836192 1.003
0.34666669 -0.24761906 1
0.35534859 -0.24836192 1.003
0.3619048 -0.24761906 1
-0.14137524 -0.24072002 1.003
-0.13373335 -0.24072002 1.003
-0.12609144 -0.24072002 1.003
-0.11844953 -0.24072002 1.003
-0.11080763 -0.24072002 1.003
-0.10316572 -0.24072002 1.003
-0.095523819 -0.24072002 1.003
-0.064956196 -0.24072002 1.003
-0.057314288 -0.24072002 1.003
-0.026746668 -0.24072002 1.003
0.064956196 -0.24072002 1.003
0.0725981 -0.24072002 1.003
-0.087619051 -0.24000001 1
-0.080000006 -0.24000001 1
-0.07238096 -0.24000001 1
-0.049523812 -0.24000001 1
-0.041904766 -0.24000001 1
-0.034285717 -0.24000001 1
-0.01904762 -0.24000001 1
-0.011428572 -0.24000001 1
-0.003809524 -0.24000001 1
0.011428572 -0.24000001 1
0.034285717 -0.24000001 1
0.041904766 -0.24000001 1
0.049523812 -0.24000001 1
0.057142861 -0.24000001 1
0.080000006 -0.24000001 1
0.087619051 -0.24000001 1
0.17904763 -0.24000001 1
0.21714287 -0.24000001 1
0.15744001 -0.25728002 1.008
0.21888001 -0.25728002 1.008
0.22656001 -0.25728002 1.008
0.26496002 -0.25728002 1.008
0.27209908 -0.25676954 1.006
0.27976382 -0.25676954 1.006
0.31808764 -0.25676954 1.006
0.32575241 -0.25676954 1.006
0.33408001 -0.25728002 1.008
0.34176001 -0.25728002 1.008
0.34874669 -0.25676954 1.006
0.35641146 -0.25676954 1.006
0.36407623 -0.25676954 1.006
0.37174097 -0.25676954 1.006
-0.072960004 -0.24960002 1.008
-0.065280005 -0.24960002 1.008
-0.057600003 -0.24960002 1.008
-0.049820956 -0.24910478 1.006
-0.042156193 -0.24910478 1.006
-0.034491431 -0.24910478 1.006
-0.026880002 -0.24960002 1.008
-0.019161906 -0.24910478 1.006
-0.011497144 -0.24910478 1.006
-0.0038323812 -0.24910478 1.006
0.0038323812 -0.24910478 1.006
0.011497144 -0.24910478 1.006
0.019161906 -0.24910478 1.006
0.026826669 -0.24910478 1.006
0.034491431 -0.24910478 1.006
0.042156193 -0.24910478 1.006
0.049820956 -0.24910478 1.006
0.057485718 -0.24910478 1.006
0.065150477 -0.24910478 1.006
0.072815239 -0.24910478 1.006
0.080640003 -0.24960002 1.008
0.088144764 -0.24910478 1.006
0.095809527 -0.24910478 1.006
0.10347429 -0.24910478 1.006
0.11113905 -0.24910478 1.006
0.11880381 -0.24910478 1.006
0.13413334 -0.24910478 1.006
0.14946286 -0.24910478 1.006
0.15712763 -0.24910478 1.006
0.24960002 -0.24960002 1.008
0.25676954 -0.24910478 1.006
0.30275813 -0.24910478 1.006
0.26653716 -0.26653716 1.0140001
0.35152003 -0.26653716 1.0140001
0.35924575 -0.26653716 1.0140001
0.36588573 -0.26574859 1.011
0.37358859 -0.26574859 1.011
-0.065668575 -0.25881144 1.0140001
-0.050217148 -0.25881144 1.0140001
-0.034765717 -0.25881144 1.0140001
-0.0038628574 -0.25881144 1.0140001
0.0038628574 -0.25881144 1.0140001
0.011588573 -0.25881144 1.0140001
0.034765717 -0.25881144 1.0140001
0.042365719 -0.25804573 1.011
0.050217148 -0.25881144 1.0140001
0.05794286 -0.25881144 1.0140001
0.065668575 -0.25881144 1.0140001
0.073394291 -0.25881144 1.0140001
0.081120007 -0.25881144 1.0140001
0.088845722 -0.25881144 1.0140001
0.096571438 -0.25881144 1.0140001
0.10429715 -0.25881144 1.0140001
0.11202286 -0.25881144 1.0140001
0.11974858 -0.25881144 1.0140001
0.12709714 -0.25804573 1.011
0.13520001 -0.25881144 1.0140001
0.14292572 -0.25881144 1.0140001
0.15020573 -0.25804573 1.011
0.16561145 -0.25804573 1.011
0.17382859 -0.25881144 1.0140001
0.1815543 -0.25881144 1.0140001
0.18872002 -0.25804573 1.011
0.19700573 -0.25881144 1.0140001
0.20412573 -0.25804573 1.011
0.21245715 -0.25881144 1.0140001
0.23493716 -0.25804573 1.011
0.24336001 -0.25881144 1.0140001
0.25108573 -0.25881144 1.0140001
0.25804573 -0.25804573 1.011
0.28885716 -0.25804573 1.011
0.29656002 -0.25804573 1.011
0.30516574 -0.25881144 1.0140001
0.31289145 -0.25881144 1.0140001
-0.14250286 -0.25034288 1.011
-0.10398858 -0.25034288 1.011
-0.096285723 -0.25034288 1.011
-0.088582866 -0.25034288 1.011
-0.080880009 -0.25034288 1.011
0.37580574 -0.2750743 1.0170001
0.11235429 -0.26732573 1.0170001
0.12010287 -0.26732573 1.0170001
0.12785144 -0.26732573 1.0170001
0.13560002 -0.26732573 1.0170001
0.15109715 -0.26732573 1.0170001
0.15884572 -0.26732573 1.0170001
0.1665943 -0.26732573 1.0170001
0.18984002 -0.26732573 1.0170001
0.19758858 -0.26732573 1.0170001
0.20533715 -0.26732573 1.0170001
0.21308573 -0.26732573 1.0170001
0.2208343 -0.26732573 1.0170001
0.22858287 -0.26732573 1.0170001
0.24408002 -0.26732573 1.0170001
0.25182858 -0.26732573 1.0170001
0.25957716 -0.26732573 1.0170001
0.2750743 -0.26732573 1.0170001
0.28282288 -0.26732573 1.0170001
0.29057145 -0.26732573 1.0170001
0.29832003 -0.26732573 1.0170001
0.3060686 -0.26732573 1.0170001
0.31381717 -0.26732573 1.0170001
0.32156575 -0.26732573 1.0170001
0.32931432 -0.26732573 1.0170001
0.33706287 -0.26732573 1.0170001
0.34481144 -0.26732573 1.0170001
-0.081360005 -0.25957716 1.0170001
-0.073611431 -0.25957716 1.0170001
-0.05811429 -0.25957716 1.0170001
-0.042617146 -0.25957716 1.0170001
-0.011622858 -0.25957716 1.0170001
0.019371429 -0.25957716 1.0170001
0.027120002 -0.25957716 1.0170001
0.27588573 -0.27588573 1.0200001
0.33125716 -0.27669716 1.023
0.33905146 -0.27669716 1.023
0.35464004 -0.27669716 1.023
0.3624343 -0.27669716 1.023
0.37022859 -0.27669716 1.023
-0.066251434 -0.26890287 1.023
-0.042868573 -0.26890287 1.023
-0.035074286 -0.26890287 1.023
0.01169143 -0.26890287 1.023
0.019428574 -0.2681143 1.0200001
0.027280001 -0.26890287 1.023
0.042868573 -0.26890287 1.023
0.066057146 -0.2681143 1.0200001
0.074045718 -0.26890287 1.023
0.081840008 -0.26890287 1.023
0.089634292 -0.26890287 1.023
0.09714286 -0.2681143 1.0200001
0.10491429 -0.2681143 1.0200001
0.14377144 -0.2681143 1.0200001
0.18262859 -0.2681143 1.0200001
0.23702858 -0.2681143 1.0200001
-0.12822857 -0.26034287 1.0200001
0.074262865 -0.27750859 1.026
0.09771429 -0.27750859 1.026
0.15243429 -0.27750859 1.026
0.16025144 -0.27750859 1.026
0.16806859 -0.27750859 1.026
0.17588572 -0.27750859 1.026
0.18370287 -0.27750859 1.026
0.19933715 -0.27750859 1.026
0.21497144 -0.27750859 1.026
0.22278859 -0.27750859 1.026
0.23060574 -0.27750859 1.026
0.23842287 -0.27750859 1.026
0.26187429 -0.27750859 1.026
0.28532574 -0.27750859 1.026
0.29314288 -0.27750859 1.026
0.30096003 -0.27750859 1.026
0.30877715 -0.27750859 1.026
0.3165943 -0.27750859 1.026
0.32441145 -0.27750859 1.026
0.34786287 -0.27750859 1.026
-0.12116572 -0.26969144 1.026
-0.09771429 -0.26969144 1.026
-0.089897148 -0.26969144 1.026
-0.082080007 -0.26969144 1.026
-0.074262865 -0.26969144 1.026
-0.058628574 -0.26969144 1.026
-0.050811432 -0.26969144 1.026
-0.027360002 -0.26969144 1.026
-0.011725715 -0.26969144 1.026
-0.0039085718 -0.26969144 1.026
0.0039085718 -0.26969144 1.026
0.035177145 -0.26969144 1.026
0.050811432 -0.26969144 1.026
0.058628574 -0.26969144 1.026
0.17588572 -0.26969144 1.026
0.17708573 -0.28727239 1.033
0.18495621 -0.28727239 1.033
0.30301335 -0.28727239 1.033
0.31088382 -0.28727239 1.033
0.31875432 -0.28727239 1.033
0.32662478 -0.28727239 1.033
0.33449525 -0.28727239 1.033
0.34236574 -0.28727239 1.033
0.35023621 -0.28727239 1.033
0.3649143 -0.28643811 1.0300001
0.37276193 -0.28643811 1.0300001
0.38171813 -0.28727239 1.033
0.38845718 -0.28643811 1.0300001
-0.074769527 -0.27940193 1.033
-0.066899054 -0.27940193 1.033
-0.059028577 -0.27940193 1.033
-0.0511581 -0.27940193 1.033
-0.043161906 -0.2785905 1.0300001
-0.035314288 -0.2785905 1.0300001
-0.019676192 -0.27940193 1.033
-0.011805715 -0.27940193 1.033
-0.0039352383 -0.27940193 1.033
0.0039352383 -0.27940193 1.033
0.011771429 -0.2785905 1.0300001
0.019676192 -0.27940193 1.033
0.027466668 -0.2785905 1.0300001
0.035417147 -0.27940193 1.033
0.043161906 -0.2785905 1.0300001
0.051009528 -0.2785905 1.0300001
0.059028577 -0.27940193 1.033
0.066704765 -0.2785905 1.0300001
0.082400009 -0.2785905 1.0300001
0.090247624 -0.2785905 1.0300001
0.10594287 -0.2785905 1.0300001
0.11379048 -0.2785905 1.0300001
0.12199239 -0.27940193 1.033
0.12948573 -0.2785905 1.0300001
0.13733335 -0.2785905 1.0300001
0.14518096 -0.2785905 1.0300001
0.19226667 -0.2785905 1.0300001
0.20796192 -0.2785905 1.0300001
0.24720001 -0.2785905 1.0300001
0.25504765 -0.2785905 1.0300001
0.27074286 -0.2785905 1.0300001
0.31268954 -0.29685715 1.039
0.32060573 -0.29685715 1.039
0.32852194 -0.29685715 1.039
0.35227051 -0.29685715 1.039
0.3601867 -0.29685715 1.039
0.36810288 -0.29685715 1.039
0.38393527 -0.29685715 1.039
0.39185145 -0.29685715 1.039
0.043539051 -0.28894097 1.039
0.051455241 -0.28894097 1.039
0.059371434 -0.28894097 1.039
0.067287624 -0.28894097 1.039
0.074986674 -0.28810668 1.036
0.082880005 -0.28810668 1.036
0.090773337 -0.28810668 1.036
0.11478477 -0.28894097 1.039
0.12270096 -0.28894097 1.039
0.13061716 -0.28894097 1.039
0.13853334 -0.28894097 1.039
0.14644954 -0.28894097 1.039
0.15436572 -0.28894097 1.039
0.16228192 -0.28894097 1.039
0.16970667 -0.28810668 1.036
0.19338667 -0.28810668 1.036
0.20186287 -0.28894097 1.039
0.20917335 -0.28810668 1.036
0.21706668 -0.28810668 1.036
0.22496001 -0.28810668 1.036
0.23285335 -0.28810668 1.036
0.24074668 -0.28810668 1.036
0.24864002 -0.28810668 1.036
0.25653335 -0.28810668 1.036
0.26442668 -0.28810668 1.036
0.2731086 -0.28894097 1.039
0.28102478 -0.28894097 1.039
0.28894097 -0.28894097 1.039
0.29685715 -0.28894097 1.039
0.35914668 -0.28810668 1.036
-0.12234668 -0.28021336 1.036
-0.098666675 -0.28021336 1.036
-0.090773337 -0.28021336 1.036
-0.082880005 -0.28021336 1.036
-0.027626669 -0.28021336 1.036
0.16275048 -0.29771429 1.0420001
0.17862858 -0.29771429 1.0420001
0.22626287 -0.29771429 1.0420001
0.23420192 -0.29771429 1.0420001
0.2659581 -0.29771429 1.0420001
0.27389717 -0.29771429 1.0420001
0.28183621 -0.29771429 1.0420001
0.28977525 -0.29771429 1.0420001
0.29771429 -0.29771429 1.0420001
0.30565336 -0.29771429 1.0420001
0.33740956 -0.29771429 1.0420001
0.3453486 -0.29771429 1.0420001
0.37710479 -0.29771429 1.0420001
-0.099238105 -0.28977525 1.0420001
-0.091299057 -0.28977525 1.0420001
-0.043664765 -0.28977525 1.0420001
-0.035725717 -0.28977525 1.0420001
-0.01984762 -0.28977525 1.0420001
-0.011908572 -0.28977525 1.0420001
-0.0039695241 -0.28977525 1.0420001
0.0039695241 -0.28977525 1.0420001
0.011908572 -0.28977525 1.0420001
0.01984762 -0.28977525 1.0420001
0.027786668 -0.28977525 1.0420001
0.035725717 -0.28977525 1.0420001
0.099238105 -0.28977525 1.0420001
0.10717715 -0.28977525 1.0420001
-0.067870483 -0.29942858 1.0480001
-0.059885718 -0.29942858 1.0480001
0.067870483 -0.29942858 1.0480001
0.075638101 -0.29857144 1.0450001
0.083600007 -0.29857144 1.0450001
0.09182477 -0.29942858 1.0480001
0.099523813 -0.29857144 1.0450001
0.10779429 -0.29942858 1.0480001
0.13174859 -0.29942858 1.0480001
0.13973334 -0.29942858 1.0480001
0.1477181 -0.29942858 1.0480001
0.15525715 -0.29857144 1.0450001
0.17167239 -0.29942858 1.0480001
0.18710478 -0.29857144 1.0450001
0.19506668 -0.29857144 1.0450001
0.20302859 -0.29857144 1.0450001
0.21099049 -0.29857144 1.0450001
0.21958096 -0.29942858 1.0480001
0.24283811 -0.29857144 1.0450001
0.25152001 -0.29942858 1.0480001
0.25876191 -0.29857144 1.0450001
-0.11544763 -0.29060954 1.0450001
-0.10748572 -0.29060954 1.0450001
-0.083600007 -0.29060954 1.0450001
-0.075638101 -0.29060954 1.0450001
-0.067676194 -0.29060954 1.0450001
-0.059714291 -0.29060954 1.0450001
-0.051752385 -0.29060954 1.0450001
-0.027866669 -0.29060954 1.0450001
