# .PCD v0.7 - Point Cloud Data file format
VERSION 0.7
FIELDS x y z
SIZE 4 4 4
TYPE F F F
COUNT 1 1 1
WIDTH 1542
HEIGHT 1
VIEWPOINT 0 0 0 1 0 0 0
POINTS 1542
DATA ascii
-0.46800196 -0.11621524 1.649
-0.46172005 -0.11621524 1.649
-0.45543814 -0.11621524 1.649
-0.41617623 -0.11621525 1.649
-0.40989432 -0.11621524 1.649
-0.40478003 -0.11565144 1.641
-0.32665908 -0.11621524 1.649
-0.31880668 -0.11621525 1.649
-0.31095433 -0.11621524 1.649
-0.30467242 -0.11621524 1.649
-0.29682001 -0.11621525 1.649
-0.28896764 -0.11621524 1.649
-0.28111526 -0.11621525 1.649
-0.27326286 -0.11621524 1.649
-0.26698095 -0.11621524 1.649
-0.25912857 -0.11621525 1.649
-0.2512762 -0.11621524 1.649
-0.24342382 -0.11621525 1.649
-0.23557144 -0.11621524 1.649
-0.22928953 -0.11621524 1.649
-0.22143716 -0.11621525 1.649
-0.21358478 -0.11621524 1.649
-0.20573239 -0.11621525 1.649
-0.19788001 -0.11621524 1.649
-0.19159809 -0.11621524 1.649
-0.18374573 -0.11621525 1.649
-0.17589334 -0.11621524 1.649
-0.16961144 -0.11621524 1.649
-0.16175906 -0.11621525 1.649
-0.15390667 -0.11621524 1.649
-0.1460543 -0.11621525 1.649
-0.13820192 -0.11621524 1.649
-0.13192001 -0.11621524 1.649
-0.12406763 -0.11621525 1.649
-0.11621524 -0.11621524 1.649
-0.10836286 -0.11621525 1.649
-0.10051048 -0.11621524 1.649
-0.094228581 -0.11621524 1.649
-0.08637619 -0.11621525 1.649
-0.078523815 -0.11621524 1.649
-0.070671432 -0.11621525 1.649
-0.062819049 -0.11621524 1.649
-0.056537148 -0.11621524 1.649
-0.048684765 -0.11621525 1.649
-0.040832385 -0.11621524 1.649
-0.034550481 -0.11621524 1.649
-0.026698098 -0.11621525 1.649
-0.018845715 -0.11621524 1.649
-0.012563811 -0.11621524 1.649
0.86166292 -0.11593334 1.645
0.86582291 -0.11565144 1.641
0.8736372 -0.11565144 1.641
-0.87946671 -0.10836286 1.649
-0.87475532 -0.10836286 1.649
-0.86658877 -0.10773467 1.6489999
-0.85905051 -0.10836286 1.649
-0.85119814 -0.10836286 1.649
-0.84283239 -0.10829525 1.6480001
-0.83545053 -0.10821266 1.6467143
-0.82921147 -0.10836286 1.649
-0.82135916 -0.10836287 1.649
-0.81350678 -0.10836286 1.649
-0.80565441 -0.10836288 1.649
-0.79701674 -0.10757762 1.649
-0.79183418 -0.10773467 1.6489999
-0.78680861 -0.10679239 1.649
-0.75225812 -0.10836286 1.649
-0.72336137 -0.10773467 1.6489999
-0.71582305 -0.10899105 1.6489999
-0.70828485 -0.10836287 1.649
-0.70043248 -0.10836286 1.649
-0.69415051 -0.10836286 1.649
-0.68943912 -0.11150382 1.649
-0.53239149 -0.10679239 1.649
-0.48213622 -0.10836286 1.649
-0.47585434 -0.10836287 1.649
-0.46800193 -0.10836286 1.649
-0.46172002 -0.10836286 1.649
-0.45543814 -0.10836286 1.649
-0.4161762 -0.11150382 1.649
-0.40989432 -0.11150382 1.649
-0.31723619 -0.10836287 1.649
-0.30938384 -0.10522191 1.649
-0.30467239 -0.10836286 1.649
-0.29682001 -0.10836287 1.649
-0.28896764 -0.10836288 1.649
-0.28111526 -0.10836288 1.649
-0.27326286 -0.10836286 1.649
-0.26698098 -0.10836288 1.649
-0.2591286 -0.10836287 1.649
-0.25127622 -0.10836286 1.649
-0.2434238 -0.10836287 1.649
-0.23557144 -0.10836288 1.649
-0.22928953 -0.10836288 1.649
-0.22143716 -0.10836288 1.649
-0.21358478 -0.10836286 1.649
-0.20573239 -0.10836288 1.649
-0.19788003 -0.10836286 1.649
-0.1915981 -0.10836286 1.649
-0.18426923 -0.10940985 1.649
-0.17589334 -0.11150382 1.649
-0.16961144 -0.10993334 1.649
-0.16136643 -0.10875549 1.649
-0.15390667 -0.10836288 1.649
-0.1460543 -0.10836287 1.649
-0.13820191 -0.10836286 1.649
-0.13192001 -0.10836286 1.649
-0.12406763 -0.10836287 1.649
-0.11621525 -0.10836288 1.649
-0.10836287 -0.10836287 1.649
-0.10051048 -0.10836286 1.649
-0.094228573 -0.10836286 1.649
-0.08637619 -0.10836287 1.649
-0.078523815 -0.10836286 1.649
-0.070671439 -0.10836287 1.649
-0.062819049 -0.10836286 1.649
-0.056537148 -0.10836286 1.649
-0.048684765 -0.10836287 1.649
-0.040832385 -0.10836286 1.649
-0.034550477 -0.10836288 1.649
-0.026698096 -0.10836288 1.649
-0.018845715 -0.10836286 1.649
-0.012031429 -0.10827524 1.6476668
0.86166292 -0.10966667 1.645
0.86609095 -0.10796477 1.6430001
0.87087911 -0.10800731 1.6436666
-0.893601 -0.10208096 1.649
-0.8881008 -0.10000439 1.6458
-0.88103724 -0.10051048 1.649
-0.87475532 -0.10051048 1.649
-0.86533242 -0.10208096 1.649
-0.85905051 -0.10051049 1.649
-0.85119814 -0.10051049 1.649
-0.8433457 -0.10051049 1.649
-0.83549339 -0.10051048 1.649
-0.82921147 -0.10051048 1.649
-0.82055914 -0.10072859 1.6474001
-0.81428033 -0.10010038 1.6474001
-0.80565435 -0.10051049 1.649
-0.79780197 -0.10051048 1.649
-0.79152006 -0.10051048 1.649
-0.78576165 -0.10103396 1.649
-0.77424479 -0.10051048 1.649
-0.73341244 -0.10051048 1.649
-0.72398961 -0.10051049 1.649
-0.71613717 -0.10051049 1.649
-0.70828485 -0.10051048 1.649
-0.70043242 -0.10051048 1.649
-0.69415051 -0.10051048 1.649
-0.53239149 -0.10208096 1.649
-0.48998863 -0.10051048 1.649
-0.47585431 -0.10051048 1.649
-0.46800193 -0.10051048 1.649
-0.46172005 -0.10051048 1.649
-0.45543814 -0.10051048 1.649
-0.42874002 -0.10051048 1.649
-0.31671271 -0.10103398 1.649
-0.31095433 -0.10051048 1.649
-0.30467242 -0.10051048 1.649
-0.29744822 -0.10082458 1.6489999
-0.28896764 -0.10051049 1.649
-0.28111526 -0.10051049 1.649
-0.27326286 -0.10208096 1.649
-0.26698095 -0.10208096 1.649
-0.25912857 -0.10051049 1.649
-0.24970573 -0.10051048 1.649
-0.24342382 -0.10051048 1.649
-0.23400097 -0.10051048 1.649
-0.22928953 -0.10051049 1.649
-0.22300765 -0.10051048 1.649
-0.21358478 -0.10051049 1.649
-0.20573239 -0.10051048 1.649
-0.19788003 -0.10051048 1.649
-0.19159809 -0.10051049 1.649
-0.18374573 -0.10208096 1.649
-0.16018859 -0.10051049 1.649
-0.15390667 -0.10051049 1.649
-0.1460543 -0.10051048 1.649
-0.13820192 -0.10051049 1.649
-0.13192001 -0.10051049 1.649
-0.12406763 -0.10051048 1.649
-0.11621524 -0.10051048 1.649
-0.10836288 -0.10051049 1.649
-0.10051048 -0.10051048 1.649
-0.094228581 -0.10051048 1.649
-0.086376198 -0.10051048 1.649
-0.078523815 -0.10051048 1.649
-0.070671432 -0.10051048 1.649
-0.062819049 -0.10051048 1.649
-0.056537144 -0.10051048 1.649
-0.048684765 -0.10051049 1.649
-0.040832385 -0.10051049 1.649
-0.034550481 -0.10051049 1.649
-0.026698098 -0.10051049 1.649
-0.018845715 -0.10051048 1.649
-0.010960681 -0.10090273 1.6444286
0.8621915 -0.10051048 1.649
0.86531413 -0.10115562 1.6442
0.87225813 -0.10010286 1.6423331
-0.8867296 -0.095566675 1.645
-0.88131964 -0.093940005 1.6478571
-0.87475532 -0.094228581 1.649
-0.85905051 -0.094228573 1.649
-0.85067463 -0.093705088 1.649
-0.8433457 -0.094228588 1.649
-0.83549339 -0.094228581 1.649
-0.827048 -0.093400322 1.6436666
-0.82021248 -0.094266862 1.6442
-0.81479597 -0.094076194 1.6463333
-0.80565435 -0.094228573 1.649
-0.79780197 -0.094228581 1.649
-0.79152006 -0.094228581 1.649
-0.78366768 -0.093914486 1.6489999
-0.77424479 -0.092658103 1.649
-0.73341244 -0.094228581 1.649
-0.72398961 -0.094228581 1.649
-0.71561366 -0.093705088 1.649
-0.70828485 -0.094228573 1.649
-0.70043242 -0.094228581 1.649
-0.69415051 -0.094228581 1.649
-0.55908954 -0.094228581 1.649
-0.48998863 -0.094228581 1.649
-0.48370671 -0.094228581 1.649
-0.47585431 -0.094228573 1.649
-0.46800196 -0.094228581 1.649
-0.46172005 -0.094228581 1.649
-0.45543814 -0.094228581 1.649
-0.44444481 -0.092658103 1.649
-0.43973339 -0.092658103 1.649
-0.42978701 -0.093705088 1.649
-0.31566572 -0.095799051 1.649
-0.31095433 -0.094228581 1.649
-0.30467242 -0.094228581 1.649
-0.297867 -0.094752073 1.649
-0.28896764 -0.094228581 1.649
-0.28111529 -0.094228573 1.649
-0.27326286 -0.094228581 1.649
-0.26698095 -0.094228581 1.649
-0.25912857 -0.094228588 1.649
-0.24970573 -0.092658103 1.649
-0.24342382 -0.092658103 1.649
-0.23400097 -0.092658103 1.649
-0.20416193 -0.094228581 1.649
-0.19788001 -0.094228581 1.649
-0.1915981 -0.094228581 1.649
-0.18374573 -0.093914486 1.6489999
-0.16804096 -0.092658103 1.649
-0.16175906 -0.094228573 1.649
-0.15390667 -0.094228581 1.649
-0.14605428 -0.094228573 1.649
-0.13820192 -0.094228581 1.649
-0.13192001 -0.094228581 1.649
-0.12406763 -0.094228573 1.649
-0.11673874 -0.093705088 1.649
-0.10836286 -0.094228573 1.649
-0.10051048 -0.094228581 1.649
-0.094228581 -0.094228581 1.649
-0.08637619 -0.094228573 1.649
-0.078523815 -0.094228581 1.649
-0.070671432 -0.094228573 1.649
-0.062819049 -0.094228581 1.649
-0.056537148 -0.094228581 1.649
-0.048684765 -0.094228588 1.649
-0.040832385 -0.094228581 1.649
-0.034550481 -0.094228581 1.649
-0.026698098 -0.094228573 1.649
-0.018779051 -0.093887627 1.6429999
-0.010952699 -0.093923807 1.6436666
0.8621915 -0.094228581 1.649
0.86479628 -0.094000004 1.645
0.87437755 -0.094076194 1.6463333
0.87789625 -0.094228581 1.649
-0.88731909 -0.087946668 1.649
-0.88013983 -0.086824901 1.649
-0.87475532 -0.08637619 1.649
-0.86533242 -0.08637619 1.649
-0.85949928 -0.087273613 1.649
-0.8510499 -0.085580952 1.6436666
-0.84336513 -0.085979149 1.6468182
-0.83549339 -0.08637619 1.649
-0.82853979 -0.086303808 1.6476668
-0.82192963 -0.08626762 1.6470001
-0.81469649 -0.086185724 1.6453637
-0.80565441 -0.086376205 1.649
-0.79780197 -0.08637619 1.649
-0.79152006 -0.08637619 1.649
-0.78366762 -0.08637619 1.649
-0.77550113 -0.085748002 1.6489999
-0.7700569 -0.084282227 1.649
-0.76482195 -0.083235241 1.649
-0.72398961 -0.089517146 1.649
-0.71561366 -0.088470161 1.649
-0.7082848 -0.088731907 1.649
-0.70043242 -0.087946668 1.649
-0.69415051 -0.086376198 1.649
-0.65802956 -0.089517146 1.649
-0.50412291 -0.089517146 1.649
-0.50098193 -0.083235241 1.649
-0.49116647 -0.085983574 1.649
-0.48370671 -0.08637619 1.649
-0.47585434 -0.086376198 1.649
-0.46800193 -0.08637619 1.649
-0.46172002 -0.08637619 1.649
-0.45543814 -0.08637619 1.649
-0.30938384 -0.08637619 1.649
-0.30467239 -0.08637619 1.649
-0.29996097 -0.08637619 1.649
-0.28896764 -0.08637619 1.649
-0.28111526 -0.08637619 1.649
-0.27326286 -0.08637619 1.649
-0.26698098 -0.08637619 1.649
-0.2591286 -0.086376205 1.649
-0.24970573 -0.08637619 1.649
-0.24216744 -0.087632574 1.6489999
-0.2347862 -0.085590951 1.649
-0.22897545 -0.08637619 1.6489999
-0.22196065 -0.085329205 1.649
-0.21358478 -0.083235241 1.649
-0.2041619 -0.08637619 1.649
-0.19788003 -0.08637619 1.649
-0.1915981 -0.08637619 1.649
-0.18374573 -0.085983574 1.649
-0.17589334 -0.083235241 1.649
-0.16882619 -0.085590951 1.649
-0.16175908 -0.086376205 1.649
-0.15390667 -0.08637619 1.649
-0.1460543 -0.08637619 1.649
-0.13820191 -0.08637619 1.649
-0.13192001 -0.08637619 1.649
-0.12406763 -0.086376198 1.649
-0.11621525 -0.08637619 1.649
-0.10836287 -0.086376205 1.649
-0.10051048 -0.08637619 1.649
-0.094228573 -0.08637619 1.649
-0.086376198 -0.08637619 1.649
-0.078523815 -0.08637619 1.649
-0.070671439 -0.08637619 1.649
-0.062819049 -0.08637619 1.649
-0.05653714 -0.08637619 1.649
-0.048684768 -0.086376205 1.649
-0.040832385 -0.08637619 1.649
-0.034550477 -0.08637619 1.649
-0.026698098 -0.08637619 1.649
-0.018801272 -0.086161591 1.6450001
-0.012523175 -0.086091749 1.6436667
0.034550481 -0.086376198 1.649
0.85964817 -0.085807748 1.6467143
0.86468905 -0.085496575 1.6442
0.87343442 -0.086145081 1.6445556
0.87789625 -0.08637619 1.649
-0.88040906 -0.078209721 1.6489999
-0.87370831 -0.078000322 1.649
-0.86637944 -0.078000322 1.649
-0.86009747 -0.079047307 1.649
-0.85175723 -0.077830292 1.641
-0.84278959 -0.078530475 1.6444285
-0.83624554 -0.078135051 1.6474001
-0.82921147 -0.078523815 1.649
-0.82135916 -0.078209721 1.6489999
-0.81348944 -0.078682482 1.6458
-0.80565435 -0.078523815 1.649
-0.79780197 -0.078523815 1.649
-0.79152006 -0.078523815 1.649
-0.78366762 -0.078523815 1.649
-0.77581525 -0.078523815 1.649
-0.7695334 -0.078523815 1.649
-0.76168102 -0.078523815 1.649
-0.49941146 -0.078523815 1.649
-0.49093089 -0.078209721 1.6489999
-0.48370671 -0.078523815 1.649
-0.47585431 -0.078523815 1.649
-0.46800196 -0.078523815 1.649
-0.46172005 -0.078523815 1.649
-0.45543814 -0.078523815 1.649
-0.44130385 -0.078523815 1.649
-0.30938384 -0.080094293 1.649
-0.30467242 -0.078523815 1.649
-0.29891399 -0.078000322 1.649
-0.28896764 -0.078523815 1.649
-0.28111526 -0.078523815 1.649
-0.27326286 -0.078523815 1.649
-0.26698095 -0.078523815 1.649
-0.25912857 -0.078837909 1.6489999
-0.24028288 -0.076953337 1.649
-0.23557144 -0.078523815 1.649
-0.22928953 -0.078523815 1.649
-0.22206536 -0.078209721 1.6489999
-0.21410827 -0.078000322 1.649
-0.20416191 -0.078523815 1.649
-0.19788001 -0.078523815 1.649
-0.19159809 -0.078523815 1.649
-0.18374573 -0.078523815 1.649
-0.17589334 -0.078523815 1.649
-0.16961145 -0.078523815 1.649
-0.16175906 -0.078523815 1.649
-0.15338318 -0.079047307 1.649
-0.14605428 -0.078523815 1.649
-0.13820192 -0.078523815 1.649
-0.13192001 -0.078523815 1.649
-0.12406763 -0.078523815 1.649
-0.11673874 -0.079047307 1.649
-0.10836287 -0.078837909 1.6489999
-0.10051048 -0.078523815 1.649
-0.094228581 -0.078523815 1.649
-0.08637619 -0.078523815 1.649
-0.078523815 -0.078523815 1.649
-0.070671439 -0.078523815 1.649
-0.062819049 -0.078523815 1.649
-0.056537148 -0.078523815 1.649
-0.048684765 -0.078523815 1.649
-0.040832385 -0.078523815 1.649
-0.034550481 -0.078523815 1.649
-0.026698098 -0.078523815 1.649
-0.018824764 -0.078426674 1.6470001
-0.012533335 -0.078329533 1.6450001
0.056537144 -0.076953337 1.649
0.85357291 -0.077454768 1.6429999
0.85883915 -0.07853315 1.6426001
0.86426008 -0.078142866 1.641
0.8731848 -0.078523815 1.649
0.87946671 -0.078523815 1.649
-0.89588815 -0.070540965 1.646
-0.88888955 -0.070671439 1.649
-0.88148594 -0.071568847 1.649
-0.87397009 -0.070671439 1.649
-0.86690301 -0.070671439 1.649
-0.8621915 -0.070671439 1.649
-0.85175723 -0.071891434 1.6409999
-0.84319532 -0.071019247 1.6425998
-0.83637255 -0.071159437 1.6458
-0.82921147 -0.070671439 1.649
-0.82135916 -0.070671432 1.649
-0.81350678 -0.070671439 1.649
-0.80691069 -0.071927816 1.6489999
-0.79748785 -0.071299627 1.6489999
-0.79152006 -0.070671439 1.649
-0.78366762 -0.070671432 1.649
-0.77581525 -0.070671432 1.649
-0.7695334 -0.070671439 1.649
-0.76168102 -0.070671439 1.649
-0.75435209 -0.068577468 1.649
-0.49941143 -0.070671439 1.649
-0.49155906 -0.070278823 1.649
-0.48423019 -0.072765402 1.649
-0.46800196 -0.070671439 1.649
-0.46172002 -0.070671439 1.649
-0.45543814 -0.070671432 1.649
-0.29996097 -0.073812388 1.649
-0.28739718 -0.073812388 1.649
-0.28111526 -0.070671439 1.649
-0.27404812 -0.071456671 1.649
-0.26698095 -0.070671432 1.649
-0.25912857 -0.07224191 1.649
-0.24970573 -0.07224191 1.649
-0.24342382 -0.072556004 1.6489999
-0.23557144 -0.070671439 1.649
-0.22928953 -0.070671439 1.649
-0.22143717 -0.070671432 1.649
-0.21358478 -0.070671439 1.649
-0.20447603 -0.069415048 1.6489999
-0.19756591 -0.070671439 1.6489999
-0.19128399 -0.070043251 1.6489999
-0.18374573 -0.070671439 1.649
-0.17589335 -0.070671432 1.649
-0.16992554 -0.071299627 1.6489999
-0.16215166 -0.070671439 1.649
-0.15359257 -0.070671439 1.6489999
-0.1460543 -0.070671439 1.649
-0.13820194 -0.070671432 1.649
-0.13192001 -0.070671439 1.649
-0.12406763 -0.070671432 1.649
-0.11652935 -0.071299627 1.6489999
-0.10836286 -0.070671432 1.649
-0.10051049 -0.070671439 1.649
-0.094228588 -0.070671439 1.649
-0.08637619 -0.070671439 1.649
-0.078523815 -0.070671439 1.649
-0.070671439 -0.070671432 1.649
-0.062819049 -0.070671439 1.649
-0.05653714 -0.070671439 1.649
-0.048684765 -0.070671439 1.649
-0.040832385 -0.070671439 1.649
-0.034550477 -0.070671439 1.649
-0.026698098 -0.070671439 1.649
-0.018845715 -0.070671439 1.649
-0.012563811 -0.070671432 1.649
0.056537148 -0.070671432 1.649
0.062819049 -0.070671439 1.649
0.068315722 -0.0698862 1.649
0.85417813 -0.070437782 1.6436666
0.85800201 -0.071368583 1.6444285
0.86426008 -0.071891434 1.641
0.87318486 -0.070671439 1.649
0.87946671 -0.070671432 1.649
-0.90176862 -0.060951434 1.641
-0.89708012 -0.064077146 1.6409999
-0.88931918 -0.062629528 1.6439999
-0.88417816 -0.064389527 1.649
-0.87161434 -0.064389527 1.649
-0.8674264 -0.063342541 1.649
-0.85983574 -0.06203381 1.649
-0.85139626 -0.064525187 1.6436666
-0.84349501 -0.063914999 1.6470001
-0.83624554 -0.063695811 1.6474001
-0.82921147 -0.062819049 1.649
-0.82135916 -0.062819049 1.649
-0.81350672 -0.062819049 1.649
-0.80879527 -0.062819049 1.649
-0.79623151 -0.062819049 1.649
-0.79152006 -0.062819049 1.649
-0.78366762 -0.062819049 1.649
-0.77581525 -0.062819049 1.649
-0.7695334 -0.062819049 1.649
-0.76168102 -0.062819049 1.649
-0.75382864 -0.062819049 1.649
-0.74754673 -0.061248574 1.649
-0.50412291 -0.062819049 1.649
-0.49941143 -0.062819049 1.649
-0.49155906 -0.062819049 1.649
-0.48370671 -0.061248574 1.649
-0.46800196 -0.062819049 1.649
-0.46172005 -0.062819049 1.649
-0.45543814 -0.062819049 1.649
-0.27954477 -0.062819049 1.649
-0.27326286 -0.062819049 1.649
-0.26698095 -0.062819049 1.649
-0.26226953 -0.062819049 1.649
-0.23557144 -0.062819049 1.649
-0.22928953 -0.062819049 1.649
-0.22143717 -0.062819049 1.649
-0.21358478 -0.062819049 1.649
-0.20573239 -0.062819049 1.649
-0.19788001 -0.062819049 1.649
-0.1915981 -0.062819049 1.649
-0.17589334 -0.064389527 1.649
-0.16175906 -0.062819049 1.649
-0.1523362 -0.064389527 1.649
-0.14605428 -0.062819049 1.649
-0.13820192 -0.062819049 1.649
-0.13192001 -0.062819049 1.649
-0.12406763 -0.062819049 1.649
-0.11778572 -0.062819049 1.649
-0.10836287 -0.062819049 1.649
-0.099986993 -0.063342541 1.649
-0.094228581 -0.062819049 1.649
-0.08637619 -0.062819049 1.649
-0.078523815 -0.062819049 1.649
-0.070671432 -0.062819056 1.649
-0.062819049 -0.062819049 1.649
-0.056537144 -0.062819049 1.649
-0.048684765 -0.062819049 1.649
-0.040832385 -0.062819049 1.649
-0.034550481 -0.062819049 1.649
-0.026630796 -0.062667944 1.6450001
-0.018845715 -0.062819049 1.649
-0.012563811 -0.062819049 1.649
0.026698098 -0.061248574 1.649
0.056537148 -0.062819049 1.649
0.062819049 -0.062819049 1.649
0.068577468 -0.062295556 1.649
0.095799051 -0.061248574 1.649
0.85403717 -0.063573912 1.6442
0.85865605 -0.06376262 1.6429999
0.86426002 -0.064077146 1.6410002
0.8731848 -0.062819049 1.649
0.87946671 -0.062819049 1.649
-0.89687717 -0.056110285 1.6458
-0.89064437 -0.057181429 1.645
-0.8674264 -0.056013655 1.649
-0.85905057 -0.05653714 1.649
-0.85119814 -0.056537148 1.649
-0.8433457 -0.056537148 1.649
-0.83549339 -0.056537144 1.649
-0.82921147 -0.056537144 1.649
-0.82135916 -0.05653714 1.649
-0.81350672 -0.056537148 1.649
-0.80879527 -0.056537144 1.649
-0.79623151 -0.056537144 1.649
-0.79152006 -0.056537148 1.649
-0.78262073 -0.05706064 1.649
-0.77738577 -0.056537144 1.649
-0.7695334 -0.056537144 1.649
-0.76168102 -0.056537148 1.649
-0.75382859 -0.056537144 1.649
-0.74597627 -0.05496667 1.649
-0.59206957 -0.05496667 1.649
-0.55751908 -0.05496667 1.649
-0.55437815 -0.05496667 1.649
-0.52610958 -0.05496667 1.649
-0.51982766 -0.05496667 1.649
-0.51197529 -0.05496667 1.649
-0.50412291 -0.056537144 1.649
-0.49941146 -0.056537144 1.649
-0.49155906 -0.05653714 1.649
-0.48370671 -0.056537144 1.649
-0.4774248 -0.05496667 1.649
-0.46800196 -0.056537148 1.649
-0.46172005 -0.056537148 1.649
-0.45543814 -0.056537144 1.649
-0.28111526 -0.05653714 1.649
-0.27326286 -0.056537148 1.649
-0.26698095 -0.056537148 1.649
-0.24970573 -0.05496667 1.649
-0.24342382 -0.05496667 1.649
-0.23557144 -0.056537148 1.649
-0.22928953 -0.056537148 1.649
-0.22143717 -0.056537148 1.649
-0.21358478 -0.056537144 1.649
-0.20573241 -0.056537148 1.649
-0.19788001 -0.056537148 1.649
-0.1915981 -0.056537148 1.649
-0.14448382 -0.056537148 1.649
-0.13767843 -0.05706064 1.649
-0.13192001 -0.056537148 1.649
-0.12406763 -0.05653714 1.649
-0.11778572 -0.056537144 1.649
-0.11150382 -0.056537144 1.649
-0.098940007 -0.056537144 1.649
-0.094228581 -0.056537144 1.649
-0.08637619 -0.056537148 1.649
-0.078523815 -0.056537148 1.649
-0.070671432 -0.056851238 1.6489999
-0.062819049 -0.056537148 1.649
-0.056537148 -0.056537148 1.649
-0.048684765 -0.056537148 1.649
-0.040832385 -0.056537148 1.649
-0.034550481 -0.056537144 1.649
-0.026630796 -0.056401271 1.645
-0.018800002 -0.056403812 1.645
-0.012563811 -0.056537148 1.649
0.023557145 -0.058107622 1.649
0.058107622 -0.056537144 1.649
0.062819049 -0.056537148 1.649
0.067530483 -0.056537144 1.649
0.10522191 -0.05496667 1.649
0.85341203 -0.056685142 1.6442
0.85883904 -0.056003619 1.6425998
0.8663438 -0.055741906 1.6410002
0.87051147 -0.056262858 1.641
0.87946671 -0.056537144 1.649
-0.89674193 -0.04973175 1.649
-0.88894331 -0.048651021 1.6478573
-0.88208419 -0.047637779 1.649
-0.86690289 -0.047114287 1.649
-0.85905051 -0.048684768 1.649
-0.85041291 -0.04947 1.649
-0.84334576 -0.048684768 1.649
-0.83470815 -0.047899529 1.649
-0.82764101 -0.051825717 1.649
-0.81978863 -0.048684765 1.649
-0.81298321 -0.050778732 1.649
-0.80565429 -0.050255239 1.649
-0.79780197 -0.051825717 1.649
-0.79152006 -0.04711429 1.649
-0.78366768 -0.047428384 1.6489999
-0.77612936 -0.048056573 1.6489999
-0.7695334 -0.048684765 1.649
-0.76168102 -0.048684768 1.649
-0.75414276 -0.049312957 1.6489999
-0.74702328 -0.049731746 1.649
-0.72084862 -0.048684765 1.649
-0.59206957 -0.050255239 1.649
-0.56066006 -0.048684765 1.649
-0.55437815 -0.050255239 1.649
-0.52610958 -0.051825717 1.649
-0.51982766 -0.050255239 1.649
-0.51264834 -0.049133472 1.649
-0.50569338 -0.048684765 1.649
-0.49941146 -0.050255243 1.649
-0.49155909 -0.048684768 1.649
-0.4840208 -0.048056573 1.6489999
-0.47585431 -0.047114287 1.649
-0.46800193 -0.048684765 1.649
-0.46172002 -0.048684765 1.649
-0.45543814 -0.050255239 1.649
-0.28844416 -0.046590794 1.649
-0.28111529 -0.048684768 1.649
-0.27357697 -0.048056573 1.6489999
-0.26698098 -0.048684765 1.649
-0.26226953 -0.04711429 1.649
-0.24970573 -0.045543812 1.649
-0.24263859 -0.046329051 1.649
-0.23557144 -0.048684765 1.649
-0.22960362 -0.049312957 1.6489999
-0.22188585 -0.049582183 1.649
-0.21389887 -0.049312957 1.6489999
-0.20573239 -0.048684761 1.649
-0.19788001 -0.048684765 1.649
-0.1915981 -0.048684765 1.649
-0.14448382 -0.050255243 1.649
-0.13663144 -0.050255239 1.649
-0.13160592 -0.049312957 1.6489999
-0.12451633 -0.049582176 1.649
-0.11778572 -0.050255239 1.649
-0.11150382 -0.050255239 1.649
-0.099725246 -0.047899529 1.649
-0.094228588 -0.048684765 1.649
-0.085590951 -0.051040478 1.649
-0.079047307 -0.050778732 1.649
-0.070147939 -0.04973175 1.649
-0.062819049 -0.048684765 1.649
-0.056537148 -0.048684765 1.649
-0.048684768 -0.048684765 1.649
-0.040832385 -0.048684765 1.649
-0.034523811 -0.048645403 1.6476668
-0.02661344 -0.048525613 1.6436667
-0.018754289 -0.048448574 1.6409999
-0.012523175 -0.048532385 1.6436667
0.020416193 -0.04711429 1.649
0.02512762 -0.047114287 1.649
0.058107622 -0.051825717 1.649
0.063342541 -0.050778732 1.649
0.067530483 -0.051825717 1.649
0.84648675 -0.04711429 1.649
0.85174602 -0.048228838 1.6431819
0.85925895 -0.047823433 1.641
0.86530191 -0.048448574 1.6410002
0.87180138 -0.047959052 1.6458
0.87946671 -0.048684765 1.649
-0.893601 -0.04240286 1.649
-0.88731909 -0.040832385 1.649
-0.88417816 -0.040832385 1.649
-0.8674264 -0.041355874 1.649
-0.85905051 -0.040832385 1.649
-0.85119814 -0.040832385 1.649
-0.84543973 -0.040308893 1.649
-0.83706385 -0.040832385 1.649
-0.80251336 -0.039261907 1.649
-0.79623151 -0.040832385 1.649
-0.79152006 -0.040832385 1.649
-0.78366762 -0.040832385 1.649
-0.77581525 -0.040832385 1.649
-0.7695334 -0.040832385 1.649
-0.76168102 -0.04240286 1.649
-0.75539911 -0.04240286 1.649
-0.51197529 -0.040832385 1.649
-0.50726384 -0.040832385 1.649
-0.49155909 -0.04114648 1.6489999
-0.48318323 -0.041355878 1.649
-0.47585431 -0.040832385 1.649
-0.46800196 -0.040832385 1.649
-0.46172005 -0.040832385 1.649
-0.4570086 -0.039261907 1.649
-0.28739718 -0.04240286 1.649
-0.28111529 -0.040832385 1.649
-0.27326286 -0.040832385 1.649
-0.26698095 -0.040832385 1.649
-0.24970573 -0.040832385 1.649
-0.24185336 -0.040832385 1.649
-0.23609494 -0.041355878 1.649
-0.22143716 -0.04240286 1.649
-0.21358478 -0.040832385 1.649
-0.20573239 -0.040832385 1.649
-0.19788003 -0.040832385 1.649
-0.1915981 -0.040832385 1.649
-0.18688668 -0.040832385 1.649
-0.17118192 -0.039261907 1.649
-0.15861811 -0.039261907 1.649
-0.15547715 -0.039261907 1.649
-0.10051049 -0.040832385 1.649
-0.094752073 -0.041355878 1.649
-0.067530483 -0.040832385 1.649
-0.062819049 -0.040832385 1.649
-0.056537144 -0.040832385 1.649
-0.048684765 -0.040832382 1.649
-0.040832385 -0.040832385 1.649
-0.034550481 -0.040832385 1.649
-0.026660003 -0.040766355 1.6463333
-0.018779051 -0.040681906 1.6430001
-0.012546668 -0.040780954 1.6470001
0.014134287 -0.04240286 1.649
0.018845715 -0.040832385 1.649
0.025912859 -0.041617624 1.649
0.84599626 -0.039166667 1.645
0.85145295 -0.040886939 1.6421429
0.85957146 -0.040634289 1.641
0.86426008 -0.040634289 1.641
0.8731848 -0.040832385 1.649
0.87946671 -0.040832385 1.649
-0.88692611 -0.035015557 1.6463333
-0.88166541 -0.034236383 1.6489999
-0.87161434 -0.036120955 1.649
-0.86690295 -0.034550477 1.649
-0.85842228 -0.034864575 1.6489999
-0.85119814 -0.034550481 1.649
-0.8433457 -0.034550477 1.649
-0.83601689 -0.034026984 1.649
-0.83078194 -0.032980002 1.649
-0.80251336 -0.036120955 1.649
-0.79623151 -0.036120955 1.649
-0.79152006 -0.034550477 1.649
-0.78366762 -0.034550477 1.649
-0.77581525 -0.034550477 1.649
-0.7695334 -0.034550481 1.649
-0.73969436 -0.032980002 1.649
-0.51197529 -0.034550481 1.649
-0.50726384 -0.034550481 1.649
-0.49155912 -0.034550477 1.649
-0.48213622 -0.034550481 1.649
-0.47585431 -0.034550477 1.649
-0.46800193 -0.034550481 1.649
-0.46116197 -0.034510478 1.6470001
-0.4570086 -0.036120955 1.649
-0.27954477 -0.034550481 1.649
-0.27326286 -0.034550481 1.649
-0.26698095 -0.034550481 1.649
-0.26122257 -0.034026988 1.649
-0.2512762 -0.034550481 1.649
-0.24185336 -0.034550477 1.649
-0.23714192 -0.036120955 1.649
-0.2120143 -0.034550481 1.649
-0.20573241 -0.034550477 1.649
-0.19788003 -0.034550481 1.649
-0.1915981 -0.034550477 1.649
-0.18688668 -0.034550481 1.649
-0.17118192 -0.036120955 1.649
-0.15861811 -0.036120955 1.649
-0.15547715 -0.036120955 1.649
-0.11150382 -0.034550481 1.649
-0.10208096 -0.036120955 1.649
-0.067530483 -0.034550481 1.649
-0.062819049 -0.034550477 1.649
-0.056537148 -0.034550481 1.649
-0.048684765 -0.034550477 1.649
-0.040832385 -0.034550481 1.649
-0.034550481 -0.034550477 1.649
-0.026679048 -0.034523811 1.6476668
-0.018803813 -0.034466669 1.645
-0.012563811 -0.034550481 1.649
0.014134287 -0.032980002 1.649
0.018845715 -0.034550481 1.649
0.023557145 -0.034550481 1.649
0.095799051 -0.032980002 1.649
0.84599626 -0.034466669 1.645
0.85175723 -0.034382857 1.6409999
0.85957146 -0.034382857 1.641
0.86426008 -0.034382857 1.641
0.8731848 -0.034550481 1.649
0.87946671 -0.034550481 1.649
-0.88313121 -0.027745083 1.649
-0.87161434 -0.026698098 1.649
-0.86690289 -0.026698098 1.649
-0.85944319 -0.026305476 1.649
-0.85119814 -0.026698098 1.649
-0.84386927 -0.02722159 1.649
-0.83627862 -0.027483337 1.649
-0.81193626 -0.023557145 1.649
-0.80565429 -0.023557145 1.649
-0.79152006 -0.028268574 1.649
-0.78366762 -0.026698096 1.649
-0.77612936 -0.02732629 1.6489999
-0.7695334 -0.028268574 1.649
-0.73969436 -0.02983905 1.649
-0.72713053 -0.028268574 1.649
-0.51197529 -0.028268574 1.649
-0.50647861 -0.026698098 1.649
-0.49155909 -0.026698098 1.649
-0.4840208 -0.02732629 1.6489999
-0.47546172 -0.027090717 1.649
-0.46800193 -0.026698098 1.649
-0.46172002 -0.026698098 1.649
-0.4570086 -0.028268574 1.649
-0.27797431 -0.026698098 1.649
-0.27326286 -0.026698098 1.649
-0.26698098 -0.026698098 1.649
-0.25952119 -0.026698099 1.649
-0.2517997 -0.028792066 1.649
-0.24185336 -0.02983905 1.649
-0.23714192 -0.02983905 1.649
-0.2120143 -0.026698098 1.649
-0.20612501 -0.026698098 1.649
-0.19788003 -0.026698098 1.649
-0.1915981 -0.026698098 1.649
-0.18322223 -0.027745081 1.649
-0.17746381 -0.026698098 1.649
-0.17118192 -0.023557145 1.649
-0.13034953 -0.025127621 1.649
-0.12406763 -0.023557145 1.649
-0.080094293 -0.023557145 1.649
-0.069624454 -0.025651112 1.649
-0.062819049 -0.026698098 1.649
-0.056537148 -0.026698098 1.649
-0.048684765 -0.026698098 1.649
-0.040832385 -0.026698098 1.649
-0.034550477 -0.026698098 1.649
-0.026698098 -0.026698096 1.649
-0.018845715 -0.026698098 1.649
-0.01256381 -0.026698098 1.649
0.013349049 -0.025912859 1.649
0.018845715 -0.026698098 1.649
0.026698098 -0.027146805 1.649
0.032980002 -0.02983905 1.649
0.84648675 -0.028268574 1.649
0.8491295 -0.026633335 1.645
0.85852575 -0.026633337 1.645
0.86426002 -0.026568571 1.6410002
0.87239957 -0.025912859 1.649
0.87946671 -0.026698098 1.649
-0.88417816 -0.020416193 1.649
-0.86533242 -0.018845715 1.649
-0.85905051 -0.018060476 1.649
-0.85119814 -0.018845715 1.649
-0.84397399 -0.019159811 1.6489999
-0.81978863 -0.017275238 1.649
-0.81298321 -0.018322224 1.649
-0.80565435 -0.018531619 1.6489999
-0.79309052 -0.020416193 1.649
-0.78157371 -0.019369207 1.649
-0.72189564 -0.018322224 1.649
-0.71770769 -0.018845715 1.649
-0.49155912 -0.018845716 1.649
-0.48423019 -0.018322224 1.649
-0.47585431 -0.018845716 1.649
-0.46800196 -0.018845715 1.649
-0.46172005 -0.018845715 1.649
-0.4570086 -0.020416193 1.649
-0.27483335 -0.018845715 1.649
-0.24970573 -0.017275238 1.649
-0.24342382 -0.017275238 1.649
-0.23400097 -0.017275238 1.649
-0.2120143 -0.020416193 1.649
-0.20651762 -0.019630954 1.649
-0.19788003 -0.018845715 1.649
-0.19316858 -0.018845715 1.649
-0.18165176 -0.018322224 1.649
-0.17641683 -0.018322224 1.649
-0.17118192 -0.018845715 1.649
-0.1649 -0.017275238 1.649
-0.13663144 -0.017275238 1.649
-0.13192001 -0.018845715 1.649
-0.12406763 -0.018845716 1.649
-0.11621524 -0.017275238 1.649
-0.11150382 -0.018845715 1.649
-0.078523815 -0.018845715 1.649
-0.070671439 -0.018845715 1.649
-0.062819049 -0.018845715 1.649
-0.056537148 -0.018845715 1.649
-0.048684765 -0.018845715 1.649
-0.040832385 -0.018845715 1.649
-0.034550481 -0.018845715 1.649
-0.026698098 -0.018845715 1.649
-0.018845715 -0.018845715 1.649
-0.012563811 -0.018845715 1.649
0.012563811 -0.018845715 1.649
0.018845715 -0.018845715 1.649
0.027483337 -0.018060476 1.649
0.058107622 -0.017275238 1.649
0.064389527 -0.017275238 1.649
0.067530483 -0.017275238 1.649
0.84648675 -0.018845715 1.649
0.85016388 -0.018824764 1.6470001
0.85852575 -0.018800002 1.645
0.86636674 -0.018796191 1.645
0.87161434 -0.020416193 1.649
0.87946671 -0.018845715 1.649
-0.887182 -0.0088561913 1.6410002
-0.86533242 -0.010993334 1.649
-0.85949916 -0.010544627 1.649
-0.85137939 -0.012017461 1.6463333
-0.82921147 -0.0094228573 1.649
-0.82135916 -0.010993334 1.649
-0.81350678 -0.010993334 1.649
-0.80565429 -0.010993334 1.649
-0.79832548 -0.012040318 1.649
-0.76796293 -0.010993334 1.649
-0.76482195 -0.0078523811 1.649
-0.73027146 -0.014134287 1.649
-0.72241908 -0.012563811 1.649
-0.71645129 -0.010365144 1.6489999
-0.49030271 -0.012249715 1.6489999
-0.48370671 -0.010993334 1.649
-0.47624695 -0.011385953 1.649
-0.46864527 -0.010175716 1.6429999
-0.46312669 -0.013023811 1.6410002
-0.28111526 -0.0078523811 1.649
-0.24970573 -0.010993334 1.649
-0.24252641 -0.011442042 1.649
-0.23400097 -0.010993334 1.649
-0.23086001 -0.0094228573 1.649
-0.22457811 -0.010993334 1.649
-0.18060477 -0.014134287 1.649
-0.17746381 -0.014134287 1.649
-0.16804096 -0.014134287 1.649
-0.1649 -0.014134287 1.649
-0.13663144 -0.0094228573 1.649
-0.13223411 -0.011621526 1.6489999
-0.12642333 -0.010993334 1.649
-0.078523815 -0.010993334 1.649
-0.070671439 -0.010993335 1.649
-0.062819049 -0.010993334 1.649
-0.056537148 -0.010993334 1.649
-0.048684765 -0.010993334 1.649
-0.040832385 -0.010993334 1.649
-0.034550477 -0.010993334 1.649
-0.026698098 -0.010993334 1.649
-0.018845715 -0.010993334 1.649
-0.01256381 -0.010993334 1.649
0.014134287 -0.014134287 1.649
0.019369207 -0.013087302 1.649
0.02732629 -0.012877906 1.6489999
0.04711429 -0.0078523811 1.649
0.05653714 -0.010993334 1.649
0.064389527 -0.010993334 1.649
0.067530483 -0.0078523811 1.649
0.84570152 -0.010208095 1.649
0.85119814 -0.010993334 1.649
0.85925895 -0.011300572 1.6482
0.86721706 -0.010365143 1.6489999
0.87475532 -0.014134287 1.649
0.87946671 -0.010993334 1.649
-0.89046007 -0.0015704763 1.649
-0.86637944 -0.0026174604 1.649
-0.85905051 -0.0031409524 1.649
-0.85119814 -0.0031409524 1.649
-0.82921147 -0.0047114287 1.649
-0.82057393 -0.0039261905 1.649
-0.81350672 -0.0031409524 1.649
-0.80565435 -0.0031409524 1.649
-0.79780197 -0.0031409524 1.649
-0.79152006 -0.0047114287 1.649
-0.78157371 -0.0036644444 1.649
-0.77738577 -0.0031409524 1.649
-0.7695334 -0.0031409524 1.649
-0.76482195 -0.0031409524 1.649
-0.72084862 -0.0015704763 1.649
-0.48841813 -0.0031409524 1.649
-0.48370671 -0.0031409524 1.649
-0.4774248 -0.0031409524 1.649
-0.46837205 -0.0028146668 1.6425998
-0.27954477 -0.0031409524 1.649
-0.27483335 -0.0047114287 1.649
-0.24970573 -0.0047114287 1.649
-0.24263859 -0.0039261905 1.649
-0.23557144 -0.0031409524 1.649
-0.13977239 -0.0015704763 1.649
-0.079047307 -0.0036644444 1.649
-0.0698862 -0.0039261905 1.649
-0.062819049 -0.0031409524 1.649
-0.056537148 -0.0031409524 1.649
-0.048684765 -0.0031409524 1.649
-0.040832385 -0.0031409524 1.649
-0.034550481 -0.0031409524 1.649
-0.026698098 -0.0031409524 1.649
-0.018845715 -0.0031409524 1.649
-0.012563811 -0.0031409524 1.649
0.048056573 -0.0034550477 1.6489999
0.056013655 -0.0036644444 1.649
0.070671439 -0.0031409524 1.649
0.84543973 -0.0026174604 1.649
0.85119814 -0.0031409524 1.649
0.85905045 -0.0031409524 1.649
0.8674264 -0.0036644444 1.649
-0.87161434 0.0015704763 1.649
-0.86637944 0.0026174604 1.649
-0.85905057 0.0031409524 1.649
-0.85119814 0.0031409524 1.649
-0.83392292 0.0047114287 1.649
-0.82057393 0.0039261905 1.649
-0.81298321 0.0036644444 1.649
-0.80628252 0.0028268571 1.6489999
-0.79780197 0.0015704763 1.649
-0.7899496 0.0015704763 1.649
-0.7805267 0.0031409524 1.649
-0.77581525 0.0031409524 1.649
-0.7695334 0.0031409524 1.649
-0.76325148 0.0031409524 1.649
-0.72084862 0.0015704763 1.649
-0.71456671 0.0031409524 1.649
-0.48841813 0.0031409524 1.649
-0.48370671 0.0031409524 1.649
-0.47648248 0.0034550477 1.6489999
-0.46833622 0.0026047621 1.6410002
-0.46416861 0.0046885717 1.641
-0.27954477 0.0031409524 1.649
-0.27483335 0.0015704763 1.649
-0.26750445 0.0026174604 1.649
-0.23557144 0.0031409524 1.649
-0.23086001 0.0015704763 1.649
-0.22300763 0.0015704763 1.649
-0.067530483 0.0031409524 1.649
-0.062819049 0.0031409524 1.649
-0.056537148 0.0031409524 1.649
-0.048684761 0.0031409524 1.649
-0.040832385 0.0031409524 1.649
-0.034550481 0.0031409524 1.649
-0.026698098 0.0031409524 1.649
-0.018845715 0.0031409524 1.649
-0.012563811 0.0031409524 1.649
0.073812388 0.0031409524 1.649
0.84543973 0.0036644444 1.649
0.85070223 0.0033533336 1.6432856
0.86114448 0.0026174604 1.649
0.86584955 0.0031352383 1.6470001
0.87370831 0.0036644444 1.649
0.87789625 0.0047114287 1.649
-0.893601 0.0078523811 1.649
-0.89046007 0.012563811 1.649
-0.86533242 0.0094228573 1.649
-0.85905057 0.010993334 1.649
-0.85119814 0.010993334 1.649
-0.84648675 0.012563811 1.649
-0.82764101 0.0078523811 1.649
-0.82135916 0.0078523811 1.649
-0.81350672 0.0078523811 1.649
-0.80565435 0.0078523811 1.649
-0.79623151 0.0078523811 1.649
-0.7899496 0.0078523811 1.649
-0.7805267 0.010993334 1.649
-0.77612936 0.011621526 1.6489999
-0.7695334 0.010993334 1.649
-0.7635656 0.011621526 1.6489999
-0.50412291 0.014134287 1.649
-0.48370671 0.010993334 1.649
-0.47585434 0.010993335 1.649
-0.46878719 0.011778573 1.649
-0.46260574 0.01094 1.641
-0.28739718 0.012563811 1.649
-0.2795448 0.010993334 1.649
-0.27326286 0.010993334 1.649
-0.26855144 0.010993334 1.649
-0.23400097 0.010993334 1.649
-0.18060477 0.014134287 1.649
-0.17536986 0.013087302 1.649
-0.17118192 0.014134287 1.649
-0.062819049 0.0078523811 1.649
-0.05706064 0.0088993656 1.649
-0.049077384 0.010993334 1.649
-0.040832385 0.010993334 1.649
-0.034550477 0.010993334 1.649
-0.026698098 0.010993334 1.649
-0.018845715 0.010993334 1.649
-0.01256381 0.010993334 1.649
0.07224191 0.010993334 1.649
0.078523815 0.010993334 1.649
0.083235241 0.012563811 1.649
0.84648675 0.0078523811 1.649
0.85127795 0.010539184 1.6478571
0.85963106 0.010989101 1.6481112
0.86513853 0.012002223 1.6436666
0.87349892 0.010365143 1.6489999
0.8791526 0.010993334 1.6489999
-0.88830006 0.018803813 1.645
-0.86533242 0.017275238 1.649
-0.85905051 0.017275238 1.649
-0.8527686 0.017275238 1.649
-0.77424479 0.017275238 1.649
-0.7695334 0.018845715 1.649
-0.76325148 0.018845715 1.649
-0.51145178 0.018322222 1.649
-0.50569338 0.018845715 1.649
-0.48527718 0.017275238 1.649
-0.47794828 0.019369207 1.649
-0.46800193 0.018845715 1.649
-0.46149433 0.019341273 1.6463333
-0.27954477 0.017275238 1.649
-0.2716924 0.017275238 1.649
-0.26855144 0.017275238 1.649
-0.23400097 0.018845715 1.649
-0.23086001 0.020416193 1.649
-0.18060477 0.017275238 1.649
-0.17589334 0.017275238 1.649
-0.17118192 0.017275238 1.649
-0.049731746 0.018322224 1.649
-0.040308893 0.018322224 1.649
-0.034550481 0.018845715 1.649
-0.026698098 0.018845715 1.649
-0.018845715 0.018845715 1.649
-0.012563811 0.018845715 1.649
0.010993334 0.019630954 1.649
0.017275238 0.020416193 1.649
0.04240286 0.020416193 1.649
0.051825717 0.020416193 1.649
0.05496667 0.020416193 1.649
0.48213622 0.020416193 1.649
0.49312955 0.020416193 1.649
0.56694192 0.020416193 1.649
0.57339239 0.020366669 1.6450001
0.58279622 0.020366669 1.645
0.5904991 0.020416193 1.649
0.59678102 0.020416193 1.649
0.84020483 0.020416193 1.649
0.85122478 0.018777143 1.643
0.86183912 0.018294288 1.6463333
0.86530954 0.018779051 1.6430001
0.8731848 0.018845715 1.649
0.8789432 0.018322224 1.649
-0.88967478 0.027483337 1.649
-0.87789625 0.02983905 1.649
-0.8731848 0.028268574 1.649
-0.77738577 0.026698098 1.649
-0.7700569 0.025651112 1.649
-0.7635656 0.026069906 1.6489999
-0.73655337 0.02983905 1.649
-0.50726384 0.02983905 1.649
-0.49312955 0.02983905 1.649
-0.46172002 0.026698098 1.649
-0.28739718 0.02983905 1.649
-0.23400097 0.026698098 1.649
-0.23086001 0.026698098 1.649
-0.08637619 0.02983905 1.649
-0.048684765 0.023557145 1.649
-0.039261907 0.025127621 1.649
-0.034550477 0.026698098 1.649
-0.026698098 0.026698099 1.649
-0.018845715 0.026698098 1.649
-0.01256381 0.026698098 1.649
0.011890749 0.02624939 1.649
0.017275238 0.026698098 1.649
0.023557145 0.02983905 1.649
0.036120955 0.028268574 1.649
0.04114648 0.02732629 1.6489999
0.049077384 0.026305478 1.649
0.05496667 0.025127621 1.649
0.46329051 0.02983905 1.649
0.46899909 0.02901762 1.6470001
0.47675574 0.02739667 1.6439999
0.4844864 0.026154695 1.6432858
0.49073717 0.026568575 1.6409999
0.49876642 0.02698786 1.6429999
0.50578421 0.026614288 1.6442
0.51339096 0.02703643 1.6459999
0.52192163 0.027745083 1.649
0.52884859 0.028524766 1.6458
0.53571337 0.028743813 1.6463333
0.54302698 0.028743813 1.6463333
0.55258077 0.029181909 1.6474001
0.55871284 0.026603403 1.6432858
0.56536371 0.024716001 1.6425998
0.57200575 0.023442859 1.641
0.58919716 0.024224287 1.641
0.59649056 0.025526667 1.6410002
0.60316288 0.025062859 1.645
0.6094296 0.025062859 1.645
0.61882961 0.028196193 1.645
0.62665433 0.026643241 1.6458
0.63398069 0.028695559 1.6436666
0.64127785 0.027745083 1.649
0.85172158 0.025651112 1.649
0.85800356 0.02722159 1.649
0.86663485 0.027447145 1.6470001
-0.893601 0.032980002 1.649
-0.88888955 0.034550481 1.649
-0.87955111 0.034829527 1.6474001
-0.87370831 0.034026988 1.649
-0.7695334 0.034550481 1.649
-0.76482195 0.034550481 1.649
-0.75330514 0.034026988 1.649
-0.7491172 0.032980002 1.649
-0.73812389 0.034550481 1.649
-0.73184198 0.034550477 1.649
-0.72556007 0.036120955 1.649
-0.51982766 0.036120955 1.649
-0.50098193 0.032980002 1.649
-0.49260607 0.034026984 1.649
-0.46119654 0.034026984 1.649
-0.2882629 0.034466669 1.645
-0.28425622 0.036120955 1.649
-0.26226953 0.036120955 1.649
-0.092658103 0.036120955 1.649
-0.08637619 0.034550481 1.649
-0.073812388 0.034550481 1.649
-0.061248574 0.036120955 1.649
-0.034550481 0.034550481 1.649
-0.026698098 0.034550477 1.649
-0.018845715 0.034550477 1.649
-0.012563811 0.034550481 1.649
0.02983905 0.036120955 1.649
0.03507397 0.03507397 1.649
0.040832385 0.034550481 1.649
0.048056573 0.034864575 1.6489999
0.19316858 0.036120955 1.649
0.45465291 0.03533572 1.649
0.46131372 0.034759432 1.6442001
0.46837202 0.034102283 1.6426001
0.47667146 0.034382861 1.6409999
0.48448575 0.034382857 1.641
0.49073717 0.034382857 1.641
0.49855146 0.034382857 1.6409999
0.50636578 0.034382857 1.641
0.51355487 0.034070287 1.641
0.52147335 0.033861905 1.6410002
0.5277248 0.033861905 1.6410002
0.53606004 0.033601429 1.641
0.54387432 0.032820001 1.641
0.55168861 0.032820001 1.6410002
0.84020483 0.034550481 1.649
0.85243148 0.033973653 1.6463333
0.85967875 0.034864575 1.6489999
0.86479622 0.034466669 1.645
0.87161434 0.034550481 1.649
-0.88797307 0.040240321 1.6463333
-0.88103724 0.039261907 1.649
-0.87475532 0.039261907 1.649
-0.7805267 0.040832385 1.649
-0.77581525 0.040832385 1.649
-0.7700569 0.040308893 1.649
-0.76098824 0.040968575 1.6455716
-0.75382864 0.040832385 1.649
-0.74676144 0.041617621 1.649
-0.73812389 0.040832385 1.649
-0.73184192 0.040832385 1.649
-0.72398955 0.040832385 1.649
-0.52862233 0.04114648 1.6489999
-0.52192163 0.041355878 1.649
-0.51668668 0.04240286 1.649
-0.50516987 0.041355878 1.649
-0.50098193 0.040832385 1.649
-0.49155909 0.040047146 1.649
-0.48370671 0.04240286 1.649
-0.47899526 0.04240286 1.649
-0.46172005 0.039261907 1.649
-0.4570086 0.039261907 1.649
-0.28962496 0.040480193 1.6474001
-0.28425622 0.039261907 1.649
-0.26226953 0.039261907 1.649
-0.24970573 0.04240286 1.649
-0.24342382 0.04240286 1.649
-0.23400097 0.04240286 1.649
-0.14919525 0.04240286 1.649
-0.093705088 0.041355878 1.649
-0.087423176 0.040308893 1.649
-0.073812388 0.04240286 1.649
-0.062295556 0.041355878 1.649
-0.05496667 0.04240286 1.649
-0.048684765 0.039261907 1.649
-0.040308893 0.040308893 1.649
-0.034550477 0.040832385 1.649
-0.026698098 0.040832385 1.649
-0.018845715 0.040832385 1.649
-0.012563811 0.040832385 1.649
0.034550481 0.040832385 1.649
0.040832385 0.040832385 1.649
0.048056573 0.040518291 1.6489999
0.11778572 0.04240286 1.649
0.18688668 0.039261907 1.649
0.19159809 0.040832385 1.649
0.44649622 0.041514765 1.645
0.45316857 0.040397905 1.6442001
0.46104288 0.040634286 1.6409999
0.46885717 0.040634289 1.641
0.47667146 0.040634286 1.6409999
0.48448575 0.040634289 1.641
0.49073717 0.040634286 1.641
0.49855146 0.040634286 1.6409999
0.50636578 0.040634286 1.641
0.51355487 0.04094686 1.641
0.84020483 0.039261907 1.649
0.8593483 0.041027348 1.6478573
0.86461753 0.040176827 1.6436666
0.87266129 0.041355874 1.649
0.87999016 0.041355878 1.649
-0.77517724 0.045322862 1.641
-0.76892573 0.048448578 1.6409999
-0.76085436 0.04878629 1.6417999
-0.75317031 0.048177864 1.645
-0.74597633 0.048684768 1.649
-0.73843801 0.049312957 1.6489999
-0.73200446 0.048204489 1.6478573
-0.72320729 0.048628893 1.6472223
-0.71561366 0.050778732 1.649
-0.70828485 0.048684768 1.649
-0.70043248 0.048684765 1.649
-0.69415051 0.048684765 1.649
-0.68629813 0.051040478 1.649
-0.67844576 0.051825717 1.649
-0.67216384 0.051825717 1.649
-0.6649397 0.050569337 1.6489999
-0.65645909 0.050255239 1.649
-0.64939195 0.051040478 1.649
-0.64232481 0.051825717 1.649
-0.62347907 0.051825717 1.649
-0.61824417 0.050778732 1.649
-0.61196226 0.050778732 1.649
-0.60306287 0.050255239 1.649
-0.59625751 0.050778732 1.649
-0.58955681 0.050569333 1.6489999
-0.58107626 0.051825717 1.649
-0.57322383 0.051825717 1.649
-0.56537145 0.051825717 1.649
-0.56066006 0.050255239 1.649
-0.55060899 0.049941145 1.6489999
-0.54338479 0.050255239 1.649
-0.53678882 0.049312957 1.6489999
-0.52932221 0.048653342 1.648
-0.52159685 0.048080001 1.6463333
-0.51392174 0.048973721 1.6482
-0.50569338 0.048684765 1.649
-0.49941143 0.048684765 1.649
-0.49102741 0.048628893 1.6472223
-0.48354998 0.048012383 1.6474001
-0.47638321 0.049326882 1.6472222
-0.46800196 0.050255239 1.649
-0.46172005 0.050255243 1.649
-0.4570086 0.050255239 1.649
-0.28739718 0.04711429 1.649
-0.28216228 0.04973175 1.649
-0.27483335 0.050255239 1.649
-0.26017556 0.050778732 1.649
-0.25049096 0.049470004 1.649
-0.24387252 0.049582183 1.649
-0.23525734 0.049312957 1.6489999
-0.22876604 0.050778732 1.649
-0.2182962 0.051825717 1.649
-0.19945049 0.051825717 1.649
-0.17536986 0.050778732 1.649
-0.16961144 0.051825717 1.649
-0.16175906 0.051825717 1.649
-0.15547715 0.050255239 1.649
-0.14919525 0.048684765 1.649
-0.13034953 0.051825717 1.649
-0.12406763 0.051825717 1.649
-0.11778572 0.051825717 1.649
-0.1064783 0.048684765 1.6489999
-0.10051049 0.048684765 1.649
-0.094228588 0.048684765 1.649
-0.08637619 0.048684761 1.649
-0.078523815 0.048684765 1.649
-0.070671432 0.048684768 1.649
-0.062819049 0.048684765 1.649
-0.056537148 0.048684765 1.649
-0.048684761 0.048684765 1.649
-0.040832385 0.048684765 1.649
-0.034550477 0.048684765 1.649
-0.026698098 0.048684768 1.649
-0.018845715 0.048684765 1.649
-0.01256381 0.048684765 1.649
0.026174605 0.049208257 1.649
0.034550477 0.048684765 1.649
0.040832385 0.048684765 1.649
0.04778735 0.049133472 1.649
0.10208096 0.050255239 1.649
0.10993335 0.048684765 1.649
0.11621525 0.048684765 1.649
0.12092668 0.048684765 1.649
0.13977239 0.051825717 1.649
0.1460543 0.050569333 1.6489999
0.15390667 0.050255239 1.649
0.35963908 0.051825717 1.649
0.36592099 0.051825717 1.649
0.37691432 0.051825717 1.649
0.39733049 0.051825717 1.649
0.40204191 0.050255239 1.649
0.40889499 0.050132066 1.645
0.41624096 0.049490482 1.6410002
0.42332211 0.048492767 1.6425998
0.43124589 0.049165145 1.6442
0.43917546 0.048202284 1.6434
0.44697717 0.048448578 1.6409999
0.45322859 0.048448574 1.6409999
0.46104288 0.048448574 1.6409999
0.46885714 0.048448578 1.6409999
0.47667143 0.048448574 1.6409999
0.48448575 0.048448578 1.6409999
0.48995572 0.047667149 1.641
0.49855143 0.048448578 1.6409999
0.50636578 0.048448578 1.6409999
0.51292974 0.048448578 1.641
0.86079216 0.048606038 1.6463333
0.86582291 0.049230006 1.641
0.87390357 0.048009336 1.6474001
0.87946671 0.04947 1.649
-0.76840478 0.055741906 1.6410002
-0.76074421 0.056077693 1.6421429
-0.75356293 0.056396194 1.645
-0.74633271 0.056443173 1.6463333
-0.73879343 0.056466669 1.6470001
-0.73326832 0.056966674 1.6463333
-0.72335523 0.056364764 1.6439999
-0.71613717 0.056537148 1.649
-0.70828485 0.056537148 1.649
-0.70043242 0.056537144 1.649
-0.69234574 0.056262858 1.641
-0.68567473 0.056526396 1.6421429
-0.67872518 0.056169711 1.6474001
-0.67216384 0.056537144 1.649
-0.66431147 0.05653714 1.649
-0.6569826 0.056013655 1.649
-0.64859855 0.056680955 1.6467143
-0.64127785 0.05706064 1.649
-0.63290197 0.058107622 1.649
-0.62662005 0.056851245 1.6489999
-0.61929113 0.056013655 1.649
-0.61091524 0.05653714 1.649
-0.60306287 0.056537144 1.649
-0.59678102 0.056537144 1.649
-0.58892864 0.05653714 1.649
-0.58159977 0.05706064 1.649
-0.57322383 0.056537148 1.649
-0.56537145 0.056537144 1.649
-0.55908954 0.056537144 1.649
-0.55079257 0.056110285 1.6458
-0.54362953 0.056396194 1.6450001
-0.5354349 0.056575429 1.641
-0.52824575 0.056262858 1.641
-0.52199435 0.056262862 1.641
-0.51501048 0.056354295 1.6436666
-0.50640941 0.056056958 1.6442
-0.49938154 0.056741528 1.6458
-0.4903616 0.056398731 1.645
-0.48311812 0.056466673 1.6470001
-0.475467 0.056490157 1.6476668
-0.46800196 0.056537148 1.649
-0.4605962 0.056400001 1.645
-0.45596161 0.056013655 1.649
-0.28033 0.057322383 1.649
-0.27326286 0.058107622 1.649
-0.26698095 0.058107622 1.649
-0.25912857 0.05653714 1.649
-0.2512762 0.056537144 1.649
-0.24333735 0.056056954 1.6442
-0.23605354 0.056738477 1.6458
-0.22928953 0.056537144 1.649
-0.22143716 0.056537148 1.649
-0.21410827 0.05706064 1.649
-0.2046854 0.05706064 1.649
-0.19788001 0.056537148 1.649
-0.19159809 0.056537144 1.649
-0.18374573 0.05653714 1.649
-0.17536986 0.05706064 1.649
-0.16961145 0.056537148 1.649
-0.16175906 0.05653714 1.649
-0.15390667 0.056537144 1.649
-0.1460543 0.056851238 1.6489999
-0.13820192 0.056537148 1.649
-0.13192001 0.056537144 1.649
-0.12406763 0.05653714 1.649
-0.11464477 0.056537144 1.649
-0.10836286 0.05653714 1.649
-0.10051048 0.056537144 1.649
-0.094228581 0.056537144 1.649
-0.08637619 0.056537148 1.649
-0.078523815 0.056537144 1.649
-0.070671439 0.056537148 1.649
-0.062819049 0.056537144 1.649
-0.056537144 0.056537148 1.649
-0.048684765 0.05653714 1.649
-0.040832385 0.056537144 1.649
-0.034550481 0.056537148 1.649
-0.026698098 0.05653714 1.649
-0.018845715 0.056537148 1.649
-0.010993334 0.05653714 1.649
-0.0031409524 0.056537144 1.649
