# .PCD v0.7 - Point Cloud Data file format
VERSION 0.7
FIELDS x y z rgb
SIZE 4 4 4 4
TYPE F F F F
COUNT 1 1 1 1
WIDTH 1033
HEIGHT 1
VIEWPOINT 0 0 0 1 0 0 0
POINTS 1033
DATA ascii
-0.4999505 -0.15529525 1.052 4.3321324e-39
-0.49794671 -0.15529525 1.052 4.0555455e-39
-0.49594289 -0.15529525 1.052 3.871513e-39
-0.49393907 -0.15529525 1.052 3.6867616e-39
-0.49193528 -0.15529525 1.052 3.4108936e-39
-0.48993146 -0.15529525 1.052 3.1339494e-39
-0.48931909 -0.1557381 1.0550001 3.041395e-39
-0.48730955 -0.1557381 1.0550001 2.8573625e-39
-0.48530003 -0.1557381 1.0550001 3.0399545e-39
-0.4846648 -0.15618096 1.0580001 3.132506e-39
-0.48401812 -0.15662383 1.0610001 2.7658801e-39
-0.48336002 -0.15706667 1.064 2.3974605e-39
-0.48133337 -0.15706667 1.064 2.2134308e-39
-0.48110861 -0.15765715 1.0680001 1.938283e-39
-0.48042002 -0.15810001 1.0710001 2.0297598e-39
-0.47972003 -0.15854287 1.074 2.0301129e-39
-0.47945336 -0.15913334 1.0780001 2.7651514e-39
-0.47740003 -0.15913334 1.0780001 3.4069293e-39
-0.48107907 -0.16105239 1.0910001 2.9463239e-39
-0.47900099 -0.16105239 1.0910001 2.3963857e-39
-0.4769229 -0.16105239 1.0910001 2.3971018e-39
-0.47658575 -0.16164286 1.095 2.3967473e-39
-0.47450003 -0.16164286 1.095 2.3967515e-39
-0.4737086 -0.16208573 1.098 2.3967473e-39
-0.47161716 -0.16208573 1.098 2.3971018e-39
-0.47123623 -0.1626762 1.102 2.3967459e-39
-0.47041431 -0.16311906 1.105 2.0297654e-39
-0.46830955 -0.16311906 1.105 1.5695103e-39
-0.46789241 -0.16370954 1.1090001 1.9364908e-39
-0.46746004 -0.16430001 1.113 2.3038286e-39
-0.46659431 -0.16474287 1.1160001 2.1201548e-39
-0.4609648 -0.16577621 1.123 1.569139e-39
-0.46046004 -0.16636668 1.1270001 2.0275962e-39
-0.45994002 -0.16695715 1.131 1.6598927e-39
-0.45900002 -0.16740002 1.1340001 1.292908e-39
-0.45563146 -0.16695715 1.131 1.476579e-39
-0.45468003 -0.16740002 1.1340001 1.6591682e-39
-0.45252004 -0.16740002 1.1340001 1.841756e-39
-0.45194861 -0.16799049 1.138 1.93323e-39
-0.45294288 -0.16917144 1.146 1.6570032e-39
-0.45233336 -0.16976191 1.1500001 1.2893039e-39
-0.45288289 -0.17079525 1.1570001 1.1049154e-39
-0.45067906 -0.17079525 1.1570001 8.2868868e-40
-0.44203144 -0.1743381 1.1810001 1.858402e-40
-0.43978193 -0.1743381 1.1810001 2.776785e-40
-0.4375324 -0.1743381 1.1810001 3.6988254e-40
-0.43528289 -0.1743381 1.1810001 8.2835236e-40
-0.43303335 -0.1743381 1.1810001 1.290764e-39
-0.43078384 -0.1743381 1.1810001 2.2127119e-39
-0.4285343 -0.1743381 1.1810001 3.1342997e-39
-0.42628479 -0.1743381 1.1810001 2.9535042e-39
-0.42403525 -0.1743381 1.1810001 2.7680381e-39
-0.42178574 -0.1743381 1.1810001 2.6758425e-39
-0.4195362 -0.1743381 1.1810001 2.5829238e-39
-0.41870004 -0.17492858 1.1850001 2.3059754e-39
-0.41644287 -0.17492858 1.1850001 1.9379187e-39
-0.41418573 -0.17492858 1.1850001 2.2127119e-39
-0.41331908 -0.17551906 1.189 2.4885758e-39
-0.41243717 -0.17610954 1.1930001 2.4889331e-39
-0.41154003 -0.17670001 1.197 2.3981724e-39
-0.40926003 -0.17670001 1.197 2.7669479e-39
-0.40698004 -0.17670001 1.197 3.0403062e-39
-0.40470004 -0.17670001 1.197 3.1314284e-39
-0.40410098 -0.17743811 1.202 3.1317872e-39
-0.40181145 -0.17743811 1.202 2.8562807e-39
-0.39952192 -0.17743811 1.202 2.5811371e-39
-0.39723241 -0.17743811 1.202 2.6726181e-39
-0.39757144 -0.17861906 1.21 2.7648081e-39
-0.39526668 -0.17861906 1.21 2.5822077e-39
-0.39296192 -0.17861906 1.21 2.3056278e-39
-0.39065716 -0.17861906 1.21 2.213435e-39
-0.38617146 -0.18304764 1.24 2.4907436e-39
-0.38535717 -0.18378572 1.245 2.4907408e-39
-0.38298574 -0.18378572 1.245 2.4910981e-39
-0.38061431 -0.18378572 1.245 2.4907366e-39
-0.37824288 -0.18378572 1.245 2.5825706e-39
-0.37707907 -0.18437621 1.2490001 2.6747607e-39
-0.37470001 -0.18437621 1.2490001 2.5836384e-39
-0.37232098 -0.18437621 1.2490001 2.4903736e-39
-0.37142289 -0.18511429 1.2540001 2.9481232e-39
-0.36903432 -0.18511429 1.2540001 3.3158239e-39
-0.37073907 -0.18718097 1.268 3.0399587e-39
-0.36948574 -0.18777144 1.2720001 2.7662444e-39
-0.36706287 -0.18777144 1.2720001 3.5938387e-39
-0.36464003 -0.18777144 1.2720001 4.3281667e-39
-0.36221716 -0.18777144 1.2720001 3.9608276e-39
-0.35979432 -0.18777144 1.2720001 3.5023661e-39
-0.35877621 -0.18850954 1.2770001 3.0446236e-39
-0.3333686 -0.19352858 1.3110001 3.7775223e-39
-0.33213335 -0.19426668 1.3160001 4.0540994e-39
-0.32962668 -0.19426668 1.3160001 3.7775125e-39
-0.32712004 -0.19426668 1.3160001 3.5030864e-39
-0.3258467 -0.19500478 1.3210001 3.4119726e-39
-0.32455429 -0.19574288 1.3260001 3.3201357e-39
-0.32202861 -0.19574288 1.3260001 3.8718633e-39
-0.32191241 -0.19721906 1.3360001 4.3303219e-39
-0.32080191 -0.19810477 1.342 3.7793076e-39
-0.31824574 -0.19810477 1.342 3.2286561e-39
-0.31686574 -0.19884287 1.3470001 3.3208546e-39
-0.31430003 -0.19884287 1.3470001 3.4123313e-39
-0.31173432 -0.19884287 1.3470001 3.7803908e-39
-0.30916858 -0.19884287 1.3470001 4.0555413e-39
-0.30660287 -0.19884287 1.3470001 4.0559043e-39
-0.30516574 -0.19958097 1.3520001 4.056263e-39
-0.30259049 -0.19958097 1.3520001 3.9655051e-39
-0.30001527 -0.19958097 1.3520001 3.8736696e-39
-0.29876003 -0.20046668 1.358 4.0569819e-39
-0.29617336 -0.20046668 1.358 4.2413731e-39
-0.29574859 -0.20194288 1.368 3.7829159e-39
-0.29314288 -0.20194288 1.368 3.231547e-39
-0.29181144 -0.20282859 1.3740001 4.3350107e-39
-0.28919432 -0.20282859 1.3740001 5.4417254e-39
-0.28762001 -0.20356669 1.3790001 6.3629754e-39
-0.27938575 -0.21124287 1.4310001 9.0387927e-39
-0.27666003 -0.21124287 1.4310001 9.5015645e-39
-0.2739343 -0.21124287 1.4310001 9.9593098e-39
-0.27234572 -0.21212858 1.437 1.0236253e-38
-0.26960859 -0.21212858 1.437 1.0415969e-38
-0.26798573 -0.2130143 1.4430001 1.0323768e-38
-0.26523715 -0.2130143 1.4430001 1.0137598e-38
-0.26248857 -0.2130143 1.4430001 9.1256283e-39
-0.26082003 -0.21390001 1.4490001 8.0271883e-39
-0.2591286 -0.21478572 1.455 8.3884304e-39
-0.25741431 -0.21567145 1.4610001 8.7683421e-39
-0.25463146 -0.21567145 1.4610001 1.0243105e-38
-0.25081429 -0.21478572 1.455 1.1624958e-38
-0.24906573 -0.21567145 1.4610001 1.3562129e-38
-0.24628288 -0.21567145 1.4610001 1.5398123e-38
-0.24350001 -0.21567145 1.4610001 1.5493549e-38
-0.24170573 -0.21655716 1.4670001 1.5491397e-38
-0.23891145 -0.21655716 1.4670001 1.5398125e-38
-0.23708287 -0.21744287 1.473 1.5214092e-38
-0.23539048 -0.21847621 1.48 1.5030417e-38
-0.23351429 -0.21936192 1.4860001 1.4754192e-38
-0.23068382 -0.21936192 1.4860001 1.4661996e-38
-0.22785334 -0.21936192 1.4860001 1.456944e-38
-0.22593145 -0.22024763 1.4920001 1.4476168e-38
-0.22308953 -0.22024763 1.4920001 1.4292856e-38
-0.4999505 -0.15329143 1.052 4.1480985e-39
-0.49794671 -0.15329143 1.052 3.9633485e-39
-0.49594289 -0.15329143 1.052 3.6874805e-39
-0.49393907 -0.15329143 1.052 3.4112523e-39
-0.49193528 -0.15329143 1.052 3.3190525e-39
-0.48993146 -0.15329143 1.052 3.133948e-39
-0.48792765 -0.15329143 1.052 3.041395e-39
-0.48730955 -0.15372857 1.0550001 2.8584401e-39
-0.48530003 -0.15372857 1.0550001 2.8573611e-39
-0.4846648 -0.15416573 1.0580001 2.7655256e-39
-0.48264956 -0.15416573 1.0580001 2.4896604e-39
-0.48336002 -0.15504001 1.064 2.3049118e-39
-0.48133337 -0.15504001 1.064 2.1215981e-39
-0.48110861 -0.15562287 1.0680001 1.9379271e-39
-0.48042002 -0.15606001 1.0710001 1.9379271e-39
-0.47972003 -0.15649715 1.074 1.9375684e-39
-0.47945336 -0.15708001 1.0780001 2.3967459e-39
-0.48050004 -0.15810001 1.085 2.9466826e-39
-0.47975624 -0.15853715 1.0880001 2.5796994e-39
-0.47768384 -0.15853715 1.0880001 2.304553e-39
-0.4769229 -0.15897429 1.0910001 2.3049132e-39
-0.47658575 -0.15955715 1.095 2.3974703e-39
-0.47450003 -0.15955715 1.095 2.3971144e-39
-0.47241431 -0.15955715 1.095 2.397106e-39
-0.47161716 -0.15999429 1.098 2.3970976e-39
-0.47251907 -0.1610143 1.105 2.4885814e-39
-0.47041431 -0.1610143 1.105 2.1208862e-39
-0.46830955 -0.1610143 1.105 1.7531897e-39
-0.46475336 -0.16422001 1.1270001 1.3868931e-39
-0.46046004 -0.16422001 1.1270001 1.9357579e-39
-0.45831338 -0.16422001 1.1270001 1.5680558e-39
-0.45900002 -0.16524 1.1340001 1.2925493e-39
-0.45563146 -0.16480286 1.131 1.4762203e-39
-0.45468003 -0.16524 1.1340001 1.6595241e-39
-0.45411623 -0.16582286 1.138 1.6587969e-39
-0.4567143 -0.16757144 1.1500001 1.6580794e-39
-0.45452383 -0.16757144 1.1500001 1.3814967e-39
-0.45351335 -0.16800858 1.153 1.1971097e-39
-0.45288289 -0.16859144 1.1570001 9.2124444e-40
-0.45067906 -0.16859144 1.1570001 7.3685318e-40
-0.44203144 -0.17208858 1.1810001 4.6242289e-40
-0.43978193 -0.17208858 1.1810001 5.5426119e-40
-0.4375324 -0.17208858 1.1810001 7.3829932e-40
-0.43528289 -0.17208858 1.1810001 1.105291e-39
-0.43303335 -0.17208858 1.1810001 1.5648314e-39
-0.43078384 -0.17208858 1.1810001 2.4871366e-39
-0.4285343 -0.17208858 1.1810001 3.4087258e-39
-0.42628479 -0.17208858 1.1810001 2.9509888e-39
-0.42403525 -0.17208858 1.1810001 2.4918114e-39
-0.42178574 -0.17208858 1.1810001 2.4910939e-39
-0.4195362 -0.17208858 1.1810001 2.490368e-39
-0.41870004 -0.17267144 1.1850001 2.2141343e-39
-0.41644287 -0.17267144 1.1850001 1.9382732e-39
-0.41418573 -0.17267144 1.1850001 2.1212296e-39
-0.41331908 -0.1732543 1.189 2.304902e-39
-0.41243717 -0.17383716 1.1930001 2.3056208e-39
-0.4101648 -0.17383716 1.1930001 2.3066942e-39
-0.40926003 -0.17442001 1.197 2.6736747e-39
-0.40698004 -0.17442001 1.197 2.9484679e-39
-0.40470004 -0.17442001 1.197 2.8562779e-39
-0.40242001 -0.17442001 1.197 2.7644424e-39
-0.40014002 -0.17442001 1.197 2.6729642e-39
-0.39952192 -0.17514858 1.202 2.5822133e-39
-0.39723241 -0.17514858 1.202 2.4893086e-39
-0.39494288 -0.17514858 1.202 2.488587e-39
-0.39526668 -0.17631429 1.21 2.3056292e-39
-0.39296192 -0.17631429 1.21 2.2134392e-39
-0.38380954 -0.18068573 1.24 2.6736943e-39
-0.38298574 -0.18141429 1.245 2.6736901e-39
-0.38061431 -0.18141429 1.245 2.6726097e-39
-0.37824288 -0.18141429 1.245 2.6733229e-39
-0.37707907 -0.18199715 1.2490001 2.765157e-39
-0.37470001 -0.18199715 1.2490001 2.765513e-39
-0.37232098 -0.18199715 1.2490001 2.764085e-39
-0.37142289 -0.18272573 1.2540001 2.9484805e-39
-0.36903432 -0.18272573 1.2540001 3.2232695e-39
-0.37073907 -0.18476573 1.268 3.1325088e-39
-0.36948574 -0.18534859 1.2720001 2.9502714e-39
-0.36706287 -0.18534859 1.2720001 3.1335822e-39
-0.36464003 -0.18534859 1.2720001 3.4083755e-39
-0.36221716 -0.18534859 1.2720001 3.4101719e-39
-0.36120859 -0.18607715 1.2770001 3.5034423e-39
-0.3370724 -0.19030286 1.3060001 3.2275813e-39
-0.33458477 -0.19030286 1.3060001 3.5020172e-39
-0.3333686 -0.19103144 1.3110001 3.6864113e-39
-0.33087146 -0.19103144 1.3110001 3.8715074e-39
-0.3283743 -0.19103144 1.3110001 3.6867504e-39
-0.32712004 -0.19176002 1.3160001 3.5023675e-39
-0.32461336 -0.19176002 1.3160001 3.3194196e-39
-0.32333049 -0.19248858 1.3210001 3.2275827e-39
-0.32202861 -0.19321716 1.3260001 3.4116111e-39
-0.32070765 -0.19394572 1.3310001 3.6860413e-39
-0.31936765 -0.1946743 1.3360001 3.3197756e-39
-0.31824574 -0.19554858 1.342 3.0442691e-39
-0.31568953 -0.19554858 1.342 3.1361046e-39
-0.31313336 -0.19554858 1.342 3.3201357e-39
-0.31173432 -0.19627716 1.3470001 3.5960023e-39
-0.30916858 -0.19627716 1.3470001 3.8707941e-39
-0.30660287 -0.19627716 1.3470001 3.8715144e-39
-0.30403715 -0.19627716 1.3470001 3.7803964e-39
-0.30259049 -0.19700573 1.3520001 3.6892783e-39
-0.30001527 -0.19700573 1.3520001 3.6892755e-39
-0.29744002 -0.19700573 1.3520001 3.8733025e-39
-0.29617336 -0.19788001 1.358 4.1491719e-39
-0.29466763 -0.19860858 1.363 3.8733109e-39
-0.29314288 -0.19933715 1.368 3.6892896e-39
-0.29181144 -0.20021144 1.3740001 4.4261343e-39
-0.2902467 -0.20094001 1.3790001 5.2555363e-39
-0.28762001 -0.20094001 1.3790001 5.9938202e-39
-0.28499335 -0.20094001 1.3790001 6.7295859e-39
-0.2893286 -0.20589431 1.4130001 7.0990859e-39
-0.28663716 -0.20589431 1.4130001 7.5589879e-39
-0.28394574 -0.20589431 1.4130001 7.6515478e-39
-0.28125429 -0.20589431 1.4130001 7.7423141e-39
-0.28092858 -0.20764287 1.4250001 8.1139679e-39
-0.27821431 -0.20764287 1.4250001 8.3919939e-39
-0.27666003 -0.20851716 1.4310001 8.853691e-39
-0.2739343 -0.20851716 1.4310001 9.4068661e-39
-0.27234572 -0.20939144 1.437 9.682381e-39
-0.26960859 -0.20939144 1.437 9.9596756e-39
-0.26798573 -0.21026573 1.4430001 9.9593098e-39
-0.26523715 -0.21026573 1.4430001 1.0052575e-38
-0.26358002 -0.21114001 1.4490001 9.8653107e-39
-0.26082003 -0.21114001 1.4490001 9.6798293e-39
-0.2591286 -0.2120143 1.455 9.5872581e-39
-0.25741431 -0.21288858 1.4610001 9.5854813e-39
-0.25463146 -0.21288858 1.4610001 9.958221e-39
-0.25081429 -0.2120143 1.455 1.0414199e-38
-0.24906573 -0.21288858 1.4610001 1.1433388e-38
-0.24628288 -0.21288858 1.4610001 1.2543321e-38
-0.24350001 -0.21288858 1.4610001 1.2454371e-38
-0.24170573 -0.21376286 1.4670001 1.2461903e-38
-0.23891145 -0.21376286 1.4670001 1.3561057e-38
-0.23708287 -0.21463716 1.473 1.4755273e-38
-0.23634478 -0.21653144 1.4860001 1.4847105e-38
-0.23351429 -0.21653144 1.4860001 1.4937863e-38
-0.23068382 -0.21653144 1.4860001 1.4845667e-38
-0.22785334 -0.21653144 1.4860001 1.4753111e-38
-0.22502287 -0.21653144 1.4860001 1.4569077e-38
-0.22308953 -0.21740572 1.4920001 1.4385046e-38
-0.22024763 -0.21740572 1.4920001 1.4385045e-38
-0.21740572 -0.21740572 1.4920001 1.4384686e-38
-0.4999505 -0.15128763 1.052 4.0566217e-39
-0.49794671 -0.15128763 1.052 3.7796761e-39
-0.49594289 -0.15128763 1.052 3.5034493e-39
-0.49393907 -0.15128763 1.052 3.136099e-39
-0.49193528 -0.15128763 1.052 3.1360905e-39
-0.48993146 -0.15128763 1.052 3.1339424e-39
-0.48792765 -0.15128763 1.052 3.0403174e-39
-0.48730955 -0.15171906 1.0550001 2.8570051e-39
-0.48530003 -0.15171906 1.0550001 2.6733356e-39
-0.4846648 -0.15215048 1.0580001 2.3978263e-39
-0.48264956 -0.15215048 1.0580001 2.3059894e-39
-0.48336002 -0.15301335 1.064 2.1215995e-39
-0.48133337 -0.15301335 1.064 2.0297626e-39
-0.48110861 -0.15358858 1.0680001 1.9375684e-39
-0.48042002 -0.15402001 1.0710001 1.9375684e-39
-0.47972003 -0.15445144 1.074 1.8457329e-39
-0.47945336 -0.15502667 1.0780001 2.1212394e-39
-0.47872859 -0.15545811 1.0810001 2.3963871e-39
-0.47975624 -0.15646477 1.0880001 2.3052705e-39
-0.47768384 -0.15646477 1.0880001 2.120882e-39
-0.4769229 -0.1568962 1.0910001 2.2120001e-39
-0.47658575 -0.15747143 1.095 2.3045544e-39
-0.47450003 -0.15747143 1.095 2.3963913e-39
-0.47241431 -0.15747143 1.095 2.3967431e-39
-0.47161716 -0.15790287 1.098 2.4889303e-39
-0.47251907 -0.15890953 1.105 2.4882184e-39
-0.46913716 -0.15847811 1.102 2.2123602e-39
-0.46703812 -0.15847811 1.102 1.9372153e-39
-0.46578002 -0.15948477 1.1090001 2.3041929e-39
-0.45882574 -0.1614981 1.123 1.7520869e-39
-0.45831338 -0.16207334 1.1270001 1.5673397e-39
-0.45900002 -0.16308001 1.1340001 1.2925479e-39
-0.45684004 -0.16308001 1.1340001 1.4754986e-39
-0.45468003 -0.16308001 1.1340001 1.5676886e-39
-0.45571241 -0.16423048 1.1420001 1.4762077e-39
-0.4567143 -0.16538097 1.1500001 1.2907388e-39
-0.45452383 -0.16538097 1.1500001 1.1978243e-39
-0.45351335 -0.16581239 1.153 1.013796e-39
-0.45288289 -0.16638763 1.1570001 8.3012641e-40
-0.45067906 -0.16638763 1.1570001 6.4537642e-40
-0.44847527 -0.16638763 1.1570001 4.6098516e-40
-0.44203144 -0.16983905 1.1810001 6.4681135e-40
-0.43978193 -0.16983905 1.1810001 8.3048514e-40
-0.4375324 -0.16983905 1.1810001 1.0141645e-39
-0.43528289 -0.16983905 1.1810001 1.3818737e-39
-0.43303335 -0.16983905 1.1810001 1.7502946e-39
-0.4322429 -0.1704143 1.1850001 2.6700887e-39
-0.42998573 -0.1704143 1.1850001 3.5909576e-39
-0.42628479 -0.16983905 1.1810001 2.9495483e-39
-0.42403525 -0.16983905 1.1810001 2.2148671e-39
-0.42178574 -0.16983905 1.1810001 2.3067054e-39
-0.4195362 -0.16983905 1.1810001 2.3063397e-39
-0.41870004 -0.1704143 1.1850001 2.1219456e-39
-0.41644287 -0.1704143 1.1850001 1.9379173e-39
-0.41418573 -0.1704143 1.1850001 2.0290367e-39
-0.41331908 -0.17098953 1.189 2.0301143e-39
-0.41243717 -0.17156477 1.1930001 2.1223086e-39
-0.41154003 -0.17214002 1.197 2.2141455e-39
-0.40926003 -0.17214002 1.197 2.5811301e-39
-0.40698004 -0.17214002 1.197 2.8562793e-39
-0.40470004 -0.17214002 1.197 2.5800567e-39
-0.40242001 -0.17214002 1.197 2.304909e-39
-0.40014002 -0.17214002 1.197 2.48858e-39
-0.39786002 -0.17214002 1.197 2.5811357e-39
-0.39723241 -0.17285906 1.202 2.3971088e-39
-0.39494288 -0.17285906 1.202 2.1219596e-39
-0.39526668 -0.17400953 1.21 2.1223184e-39
-0.39296192 -0.17400953 1.21 2.1223184e-39
-0.38617146 -0.17832382 1.24 2.5811427e-39
-0.38535717 -0.17904288 1.245 2.7648109e-39
-0.38298574 -0.17904288 1.245 2.7648095e-39
-0.38061431 -0.17904288 1.245 2.7648067e-39
-0.37824288 -0.17904288 1.245 2.7648053e-39
-0.37587145 -0.17904288 1.245 2.7651598e-39
-0.37470001 -0.17961811 1.2490001 2.8573513e-39
-0.37232098 -0.17961811 1.2490001 2.949191e-39
-0.37142289 -0.18033716 1.2540001 3.0421083e-39
-0.37050575 -0.1810562 1.2590001 3.1332263e-39
-0.36927718 -0.18163145 1.263 3.1332263e-39
-0.36832383 -0.18235049 1.268 3.1335836e-39
-0.36590859 -0.18235049 1.268 2.7651654e-39
-0.36464003 -0.18292573 1.2720001 2.3996227e-39
-0.36221716 -0.18292573 1.2720001 2.9520776e-39
-0.36120859 -0.18364477 1.2770001 3.4108908e-39
-0.35877621 -0.18364477 1.2770001 3.3186924e-39
-0.35773906 -0.18436383 1.2820001 3.1353773e-39
-0.35529718 -0.18436383 1.2820001 2.8591505e-39
-0.35285527 -0.18436383 1.2820001 2.5836454e-39
-0.3370724 -0.18781525 1.3060001 3.1361032e-39
-0.33458477 -0.18781525 1.3060001 3.5027305e-39
-0.33209717 -0.18781525 1.3060001 3.5945688e-39
-0.32960954 -0.18781525 1.3060001 3.5949233e-39
-0.3283743 -0.1885343 1.3110001 3.5030836e-39
-0.32587716 -0.1885343 1.3110001 3.4105306e-39
-0.32461336 -0.18925335 1.3160001 3.3186966e-39
-0.32333049 -0.1899724 1.3210001 3.1357444e-39
-0.32202861 -0.19069144 1.3260001 3.0442691e-39
-0.32070765 -0.19141048 1.3310001 2.952079e-39
-0.31936765 -0.19212954 1.3360001 2.8606065e-39
-0.31682289 -0.19212954 1.3360001 2.7684038e-39
-0.31568953 -0.19299239 1.342 3.0428257e-39
-0.31313336 -0.19299239 1.342 3.2275771e-39
-0.31057715 -0.19299239 1.342 3.5038053e-39
-0.30916858 -0.19371144 1.3470001 3.6874777e-39
-0.30660287 -0.19371144 1.3470001 3.595645e-39
-0.30403715 -0.19371144 1.3470001 3.5045255e-39
-0.30147144 -0.19371144 1.3470001 3.5048843e-39
-0.30001527 -0.19443049 1.3520001 3.4134033e-39
-0.29744002 -0.19443049 1.3520001 3.7810998e-39
-0.29617336 -0.19529335 1.358 4.0562546e-39
-0.29466763 -0.19601239 1.363 4.0559029e-39
-0.29314288 -0.19673145 1.368 4.05627e-39
-0.29181144 -0.1975943 1.3740001 4.5161734e-39
-0.29150954 -0.19917621 1.3850001 4.9785892e-39
-0.28887144 -0.19917621 1.3850001 5.534993e-39
-0.2893286 -0.20320287 1.4130001 6.6395455e-39
-0.28663716 -0.20320287 1.4130001 7.1905641e-39
-0.28394574 -0.20320287 1.4130001 7.2824052e-39
-0.28125429 -0.20320287 1.4130001 7.2827681e-39
-0.28211144 -0.20579144 1.4310001 7.5586375e-39
-0.27938575 -0.20579144 1.4310001 7.7455413e-39
-0.27666003 -0.20579144 1.4310001 8.2976361e-39
-0.2739343 -0.20579144 1.4310001 8.7589772e-39
-0.27234572 -0.2066543 1.437 9.1263318e-39
-0.26960859 -0.2066543 1.437 9.4050669e-39
-0.26798573 -0.20751716 1.4430001 9.6848782e-39
-0.26523715 -0.20751716 1.4430001 9.9593056e-39
-0.26358002 -0.20838001 1.4490001 1.0603588e-38
-0.26190001 -0.20924287 1.455 1.1244638e-38
-0.2591286 -0.20924287 1.455 1.087837e-38
-0.25741431 -0.21010573 1.4610001 1.0416325e-38
-0.25463146 -0.21010573 1.4610001 9.7741983e-39
-0.25184858 -0.21010573 1.4610001 9.1284912e-39
-0.24906573 -0.21010573 1.4610001 9.3968328e-39
-0.24628288 -0.21010573 1.4610001 9.5912714e-39
-0.24350001 -0.21010573 1.4610001 9.5023128e-39
-0.24170573 -0.21096858 1.4670001 9.4165884e-39
-0.23891145 -0.21096858 1.4670001 1.1812217e-38
-0.23611715 -0.21096858 1.4670001 1.4200666e-38
-0.23539048 -0.21283811 1.48 1.4665234e-38
-0.23257144 -0.21283811 1.48 1.5122617e-38
-0.23068382 -0.21370097 1.4860001 1.5030062e-38
-0.22785334 -0.21370097 1.4860001 1.4937504e-38
-0.22502287 -0.21370097 1.4860001 1.4661632e-38
-0.22308953 -0.21456382 1.4920001 1.4385406e-38
-0.22024763 -0.21456382 1.4920001 1.4476882e-38
-0.21740572 -0.21456382 1.4920001 1.4476522e-38
-0.4999505 -0.14928383 1.052 3.9640674e-39
-0.49794671 -0.14928383 1.052 3.6871217e-39
-0.49594289 -0.14928383 1.052 3.4116111e-39
-0.49393907 -0.14928383 1.052 3.1357346e-39
-0.49193528 -0.14928383 1.052 3.1353633e-39
-0.48993146 -0.14928383 1.052 3.133578e-39
-0.48792765 -0.14928383 1.052 2.9488392e-39
-0.48730955 -0.14970954 1.0550001 2.8555716e-39
-0.48530003 -0.14970954 1.0550001 2.6726209e-39
-0.4846648 -0.15013525 1.0580001 2.5807812e-39
-0.48401812 -0.15056096 1.0610001 2.764448e-39
-0.48336002 -0.15098667 1.064 2.9470428e-39
-0.48133337 -0.15098667 1.064 2.5796994e-39
-0.48110861 -0.1515543 1.0680001 2.2116399e-39
-0.48042002 -0.15198001 1.0710001 2.1205205e-39
-0.47838002 -0.15198001 1.0710001 2.1215981e-39
-0.47767431 -0.15240572 1.074 2.3049104e-39
-0.47872859 -0.15339907 1.0810001 2.3960298e-39
-0.47975624 -0.15439239 1.0880001 2.3967473e-39
-0.47768384 -0.15439239 1.0880001 2.3049118e-39
-0.4769229 -0.1548181 1.0910001 2.3041929e-39
-0.47484478 -0.1548181 1.0910001 2.3953109e-39
-0.47450003 -0.15538572 1.095 2.396027e-39
-0.47241431 -0.15538572 1.095 2.3960214e-39
-0.47333527 -0.15637906 1.102 2.3963731e-39
-0.47251907 -0.15680477 1.105 2.4878569e-39
-0.46913716 -0.15637906 1.102 2.0290437e-39
-0.46830955 -0.15680477 1.105 1.5695103e-39
-0.46789241 -0.15737239 1.1090001 1.9364964e-39
-0.46578002 -0.15737239 1.1090001 2.3027566e-39
-0.45994002 -0.1604943 1.131 1.5684159e-39
-0.45900002 -0.16092001 1.1340001 1.3850995e-39
-0.45684004 -0.16092001 1.1340001 1.3843764e-39
-0.45628384 -0.16148762 1.138 1.4751357e-39
-0.45571241 -0.16205525 1.1420001 1.291106e-39
-0.4567143 -0.16319048 1.1500001 1.1978299e-39
-0.45452383 -0.16319048 1.1500001 9.2231643e-40
-0.45351335 -0.1636162 1.153 6.4609528e-40
-0.45288289 -0.16418383 1.1570001 8.2976768e-40
-0.45067906 -0.16418383 1.1570001 1.0123597e-39
-0.44847527 -0.16418383 1.1570001 7.3649164e-40
-0.44781432 -0.16475144 1.161 4.6026769e-40
-0.44428098 -0.16758953 1.1810001 6.4609108e-40
-0.44203144 -0.16758953 1.1810001 6.4681135e-40
-0.43978193 -0.16758953 1.1810001 8.3084387e-40
-0.4375324 -0.16758953 1.1810001 1.0145233e-39
-0.43528289 -0.16758953 1.1810001 1.3825911e-39
-0.43303335 -0.16758953 1.1810001 1.7513708e-39
-0.43078384 -0.16758953 1.1810001 2.3949382e-39
-0.4285343 -0.16758953 1.1810001 3.1310585e-39
-0.42628479 -0.16758953 1.1810001 2.6729586e-39
-0.42403525 -0.16758953 1.1810001 2.3052635e-39
-0.42178574 -0.16758953 1.1810001 2.3056278e-39
-0.42095718 -0.16815716 1.1850001 2.3978193e-39
-0.41870004 -0.16815716 1.1850001 2.2134266e-39
-0.41644287 -0.16815716 1.1850001 2.1215911e-39
-0.41418573 -0.16815716 1.1850001 2.1215911e-39
-0.41331908 -0.16872478 1.189 2.1226673e-39
-0.41243717 -0.16929239 1.1930001 2.2137853e-39
-0.41154003 -0.16986001 1.197 2.304909e-39
-0.40926003 -0.16986001 1.197 2.6722552e-39
-0.40698004 -0.16986001 1.197 3.039237e-39
-0.40470004 -0.16986001 1.197 2.4878639e-39
-0.40242001 -0.16986001 1.197 2.0286878e-39
-0.40014002 -0.16986001 1.197 2.5804183e-39
-0.39786002 -0.16986001 1.197 3.1314298e-39
-0.39723241 -0.17056954 1.202 2.8566394e-39
-0.39494288 -0.17056954 1.202 2.5822119e-39
-0.39526668 -0.17170477 1.21 2.3059894e-39
-0.39426097 -0.1722724 1.2140001 2.1230316e-39
-0.39356288 -0.17298192 1.2190001 2.2145042e-39
-0.39147145 -0.17411715 1.2270001 2.2137853e-39
-0.39072004 -0.17482668 1.2320001 2.2137909e-39
-0.38617146 -0.17596191 1.24 2.7644508e-39
-0.38380954 -0.17596191 1.24 2.947763e-39
-0.38298574 -0.17667145 1.245 2.8562863e-39
-0.38061431 -0.17667145 1.245 2.7648109e-39
-0.37824288 -0.17667145 1.245 2.9484819e-39
-0.37587145 -0.17667145 1.245 3.1321473e-39
-0.37350002 -0.17667145 1.245 3.0410237e-39
-0.37232098 -0.17723906 1.2490001 2.9495497e-39
-0.37142289 -0.17794858 1.2540001 3.0417467e-39
-0.36903432 -0.17794858 1.2540001 3.1335836e-39
-0.36927718 -0.17922573 1.263 3.2254191e-39
-0.36687145 -0.17922573 1.263 3.4094502e-39
-0.36590859 -0.17993525 1.268 3.1343025e-39
-0.36464003 -0.18050286 1.2720001 2.7684038e-39
-0.36221716 -0.18050286 1.2720001 3.1350368e-39
-0.35979432 -0.18050286 1.2720001 3.4094587e-39
-0.35877621 -0.1812124 1.2770001 3.2261366e-39
-0.35773906 -0.18192191 1.2820001 2.9502672e-39
-0.35391146 -0.1812124 1.2770001 2.767308e-39
-0.35285527 -0.18192191 1.2820001 2.5840014e-39
-0.35041335 -0.18192191 1.2820001 2.8587946e-39
-0.34932861 -0.18263145 1.2870001 3.133585e-39
-0.34795526 -0.18319906 1.291 3.1339438e-39
-0.34549621 -0.18319906 1.291 3.1343067e-39
-0.34189716 -0.18390858 1.296 3.6849651e-39
-0.34073812 -0.1846181 1.3010001 3.1346682e-39
-0.33956003 -0.18532763 1.3060001 2.5836553e-39
-0.3370724 -0.18532763 1.3060001 2.9513546e-39
-0.33330384 -0.1846181 1.3010001 3.2265023e-39
-0.33082575 -0.1846181 1.3010001 3.3186952e-39
-0.32960954 -0.18532763 1.3060001 3.4098146e-39
-0.32712191 -0.18532763 1.3060001 3.3183392e-39
-0.32587716 -0.18603715 1.3110001 3.317619e-39
-0.32461336 -0.18674667 1.3160001 3.13502e-39
-0.32333049 -0.18745621 1.3210001 3.0442649e-39
-0.32202861 -0.18816572 1.3260001 3.0442691e-39
-0.31950289 -0.18816572 1.3260001 2.952442e-39
-0.3181724 -0.18887524 1.3310001 2.952449e-39
-0.31682289 -0.18958478 1.3360001 2.9524322e-39
-0.31427813 -0.18958478 1.3360001 3.0431747e-39
-0.31313336 -0.1904362 1.342 3.2264939e-39
-0.31057715 -0.1904362 1.342 3.5945604e-39
-0.30916858 -0.19114573 1.3470001 3.96298e-39
-0.30660287 -0.19114573 1.3470001 3.6878336e-39
-0.30403715 -0.19114573 1.3470001 3.4130446e-39
-0.30147144 -0.19114573 1.3470001 3.3208489e-39
-0.30001527 -0.19185525 1.3520001 3.3204846e-39
-0.29744002 -0.19185525 1.3520001 3.5045087e-39
-0.29617336 -0.19270667 1.358 3.6878308e-39
-0.29466763 -0.19341621 1.363 3.6881979e-39
-0.29314288 -0.19412573 1.368 3.7793244e-39
-0.29181144 -0.19497715 1.3740001 4.2392277e-39
-0.29150954 -0.19653811 1.3850001 4.6991311e-39
-0.28887144 -0.19653811 1.3850001 5.439203e-39
-0.29078001 -0.19966002 1.4070001 6.0856487e-39
-0.2893286 -0.20051144 1.4130001 6.545552e-39
-0.28663716 -0.20051144 1.4130001 6.9132569e-39
-0.28515145 -0.20136286 1.419 7.0061728e-39
-0.28244859 -0.20136286 1.419 7.0072504e-39
-0.28211144 -0.20306572 1.4310001 7.1912816e-39
-0.27938575 -0.20306572 1.4310001 7.4678656e-39
-0.27666003 -0.20306572 1.4310001 7.7448085e-39
-0.2739343 -0.20306572 1.4310001 8.1128833e-39
-0.27234572 -0.20391716 1.437 8.3898388e-39
-0.26960859 -0.20391716 1.437 8.7571877e-39
-0.26798573 -0.20476858 1.4430001 9.0355697e-39
-0.26523715 -0.20476858 1.4430001 9.4036319e-39
-0.26248857 -0.20476858 1.4430001 9.9571575e-39
-0.26082003 -0.20562002 1.4490001 1.0418856e-38
-0.2591286 -0.20647144 1.455 1.0326313e-38
-0.25741431 -0.20732287 1.4610001 1.0233751e-38
-0.25463146 -0.20732287 1.4610001 9.9585938e-39
-0.25184858 -0.20732287 1.4610001 9.7752731e-39
-0.24906573 -0.20732287 1.4610001 9.8627954e-39
-0.24628288 -0.20732287 1.4610001 9.9531932e-39
-0.24450001 -0.2081743 1.4670001 9.7720291e-39
-0.24071716 -0.20732287 1.4610001 9.5833639e-39
-0.23891145 -0.2081743 1.4670001 1.0696539e-38
-0.23611715 -0.2081743 1.4670001 1.1712134e-38
-0.23427716 -0.20902573 1.473 1.1992326e-38
-0.23257144 -0.21001907 1.48 1.2183888e-38
-0.23068382 -0.21087049 1.4860001 1.3743655e-38
-0.22785334 -0.21087049 1.4860001 1.5304491e-38
-0.22502287 -0.21087049 1.4860001 1.4845304e-38
-0.22308953 -0.21172191 1.4920001 1.4385766e-38
-0.22024763 -0.21172191 1.4920001 1.4569076e-38
-0.21842574 -0.21271525 1.4990001 1.4660193e-38
-0.4999505 -0.14728001 1.052 3.8722263e-39
-0.49794671 -0.14728001 1.052 3.5963596e-39
-0.49594289 -0.14728001 1.052 3.4123285e-39
-0.49393907 -0.14728001 1.052 3.1357374e-39
-0.49193528 -0.14728001 1.052 3.1357304e-39
-0.4913286 -0.14770001 1.0550001 3.1335822e-39
-0.48931909 -0.14770001 1.0550001 2.949198e-39
-0.48730955 -0.14770001 1.0550001 2.764455e-39
-0.48530003 -0.14770001 1.0550001 2.7644578e-39
-0.4846648 -0.14812002 1.0580001 2.6726097e-39
-0.48401812 -0.14854001 1.0610001 3.2232513e-39
-0.48336002 -0.14896001 1.064 3.7739084e-39
-0.48133337 -0.14896001 1.064 3.1307054e-39
-0.48110861 -0.14952001 1.0680001 2.3963829e-39
-0.48042002 -0.14994001 1.0710001 2.3953109e-39
-0.47972003 -0.15036 1.074 2.3963885e-39
-0.47767431 -0.15036 1.074 2.3967501e-39
-0.47872859 -0.15134001 1.0810001 2.3963899e-39
-0.47843337 -0.15190001 1.085 2.488224e-39
-0.47768384 -0.15232001 1.0880001 2.4885814e-39
-0.47561145 -0.15232001 1.0880001 2.4882226e-39
-0.47484478 -0.15274002 1.0910001 2.3960256e-39
-0.4727667 -0.15274002 1.0910001 2.3963815e-39
-0.47241431 -0.15330002 1.095 2.3963787e-39
-0.47161716 -0.15372001 1.098 2.3963759e-39
-0.47251907 -0.15470001 1.105 2.3963801e-39
-0.46913716 -0.15428001 1.102 1.8457315e-39
-0.46703812 -0.15428001 1.102 1.2021683e-39
-0.46789241 -0.15526001 1.1090001 1.7524667e-39
-0.46578002 -0.15526001 1.1090001 2.3031167e-39
-0.46534002 -0.15582001 1.113 2.30383e-39
-0.45831338 -0.15778001 1.1270001 1.5694921e-39
-0.45900002 -0.15876001 1.1340001 1.4765748e-39
-0.45684004 -0.15876001 1.1340001 1.3847351e-39
-0.45788765 -0.15988001 1.1420001 1.2921822e-39
-0.45730859 -0.16044001 1.146 1.1989117e-39
-0.4567143 -0.16100001 1.1500001 1.0145191e-39
-0.45452383 -0.16100001 1.1500001 6.4681415e-40
-0.45351335 -0.16142002 1.153 2.7947076e-40
-0.45288289 -0.16198002 1.1570001 8.3012361e-40
-0.45067906 -0.16198002 1.1570001 1.2882235e-39
-0.45002574 -0.16254 1.161 9.2016264e-40
-0.44935718 -0.1631 1.1650001 5.5245912e-40
-0.44428098 -0.16534001 1.1810001 6.4537501e-40
-0.44203144 -0.16534001 1.1810001 6.4645261e-40
-0.43978193 -0.16534001 1.1810001 8.3084387e-40
-0.4375324 -0.16534001 1.1810001 9.2304511e-40
-0.43528289 -0.16534001 1.1810001 1.2903941e-39
-0.43303335 -0.16534001 1.1810001 1.659178e-39
-0.43078384 -0.16534001 1.1810001 2.1183639e-39
-0.4285343 -0.16534001 1.1810001 2.5796924e-39
-0.42628479 -0.16534001 1.1810001 2.4889317e-39
-0.42403525 -0.16534001 1.1810001 2.3967389e-39
-0.42178574 -0.16534001 1.1810001 2.3960242e-39
-0.42095718 -0.16590001 1.1850001 2.3967389e-39
-0.41870004 -0.16590001 1.1850001 2.39602e-39
-0.41644287 -0.16590001 1.1850001 2.3049062e-39
-0.41418573 -0.16590001 1.1850001 2.2134336e-39
-0.41331908 -0.16646001 1.189 2.1219526e-39
-0.41243717 -0.16702001 1.1930001 2.3052607e-39
-0.4101648 -0.16702001 1.1930001 2.3963829e-39
-0.40789241 -0.16702001 1.1930001 2.7630116e-39
-0.40562004 -0.16702001 1.1930001 3.1303522e-39
-0.40470004 -0.16758001 1.197 2.3953095e-39
-0.40242001 -0.16758001 1.197 1.6617004e-39
-0.40014002 -0.16758001 1.197 2.6726083e-39
-0.39952192 -0.16828001 1.202 3.5909618e-39
-0.39723241 -0.16828001 1.202 3.3150966e-39
-0.39625716 -0.16884001 1.2060001 2.9484735e-39
-0.39526668 -0.16940001 1.21 2.5804141e-39
-0.39426097 -0.16996001 1.2140001 2.1223086e-39
-0.39194861 -0.16996001 1.2140001 2.1230218e-39
-0.39124098 -0.17066 1.2190001 2.0304703e-39
-0.39019525 -0.17122 1.223 2.0304731e-39
-0.38786575 -0.17122 1.223 1.938283e-39
-0.38617146 -0.17360002 1.24 2.9484763e-39
-0.38380954 -0.17360002 1.24 3.13179e-39
-0.38298574 -0.17430001 1.245 2.9481218e-39
-0.38061431 -0.17430001 1.245 2.7648081e-39
-0.37672383 -0.17360002 1.24 3.1321501e-39
-0.37587145 -0.17430001 1.245 3.4080055e-39
-0.37350002 -0.17430001 1.245 3.2246848e-39
-0.37232098 -0.17486002 1.2490001 2.9495441e-39
-0.37142289 -0.17556001 1.2540001 3.0413852e-39
-0.36903432 -0.17556001 1.2540001 3.0417467e-39
-0.36927718 -0.17682001 1.263 3.4090929e-39
-0.36687145 -0.17682001 1.263 3.6845994e-39
-0.36590859 -0.17752001 1.268 3.4098118e-39
-0.36349335 -0.17752001 1.268 3.1346682e-39
-0.36221716 -0.17808001 1.2720001 3.3183434e-39
-0.35979432 -0.17808001 1.2720001 3.4098118e-39
-0.35877621 -0.17878 1.2770001 3.1342969e-39
-0.35634384 -0.17878 1.2770001 2.7673094e-39
-0.35391146 -0.17878 1.2770001 2.6761872e-39
-0.35285527 -0.17948002 1.2820001 2.5836398e-39
-0.35041335 -0.17948002 1.2820001 2.8591519e-39
-0.34932861 -0.18018001 1.2870001 3.133941e-39
-0.34795526 -0.18074001 1.291 3.1339424e-39
-0.34549621 -0.18074001 1.291 3.1339466e-39
-0.34436575 -0.18144001 1.296 3.500934e-39
-0.34189716 -0.18144001 1.296 3.8689921e-39
-0.34073812 -0.18214001 1.3010001 3.1343067e-39
-0.33826002 -0.18214001 1.3010001 2.3999801e-39
-0.33578193 -0.18214001 1.3010001 2.6754865e-39
-0.33330384 -0.18214001 1.3010001 2.9513518e-39
-0.33209717 -0.18284 1.3060001 3.1357402e-39
-0.32960954 -0.18284 1.3060001 3.2264995e-39
-0.32712191 -0.18284 1.3060001 3.2257835e-39
-0.32587716 -0.18354002 1.3110001 3.1343039e-39
-0.32461336 -0.18424001 1.3160001 3.0435432e-39
-0.32333049 -0.18494001 1.3210001 2.952428e-39
-0.32202861 -0.18564001 1.3260001 2.9524308e-39
-0.31950289 -0.18564001 1.3260001 2.9520748e-39
-0.3181724 -0.18634002 1.3310001 3.0442733e-39
-0.31563717 -0.18634002 1.3310001 3.0439061e-39
-0.31427813 -0.18704002 1.3360001 3.1350158e-39
-0.31173337 -0.18704002 1.3360001 3.1343025e-39
-0.31057715 -0.18788001 1.342 3.6846036e-39
-0.30802098 -0.18788001 1.342 4.1455734e-39
-0.30546477 -0.18788001 1.342 3.6878294e-39
-0.3029086 -0.18788001 1.342 3.2282946e-39
-0.30147144 -0.18858001 1.3470001 3.2286561e-39
-0.30001527 -0.18928002 1.3520001 3.1364577e-39
-0.29744002 -0.18928002 1.3520001 3.2279317e-39
-0.29617336 -0.19012001 1.358 3.228296e-39
-0.29466763 -0.19082001 1.363 3.3208546e-39
-0.29314288 -0.19152001 1.368 3.4119782e-39
-0.29181144 -0.19236001 1.3740001 3.962638e-39
-0.29150954 -0.19390002 1.3850001 4.423619e-39
-0.28887144 -0.19390002 1.3850001 5.2526594e-39
-0.29078001 -0.19698001 1.4070001 6.0827746e-39
-0.2881 -0.19698001 1.4070001 6.3600846e-39
-0.28663716 -0.19782001 1.4130001 6.6366714e-39
-0.28515145 -0.19866002 1.419 6.7299447e-39
-0.28244859 -0.19866002 1.419 6.7303048e-39
-0.28092858 -0.19950001 1.4250001 6.9143359e-39
-0.27938575 -0.20034002 1.4310001 7.0990845e-39
-0.27666003 -0.20034002 1.4310001 7.2845506e-39
-0.27508289 -0.20118001 1.437 7.4689488e-39
-0.27234572 -0.20118001 1.437 7.7462602e-39
-0.26960859 -0.20118001 1.437 8.0214136e-39
-0.26798573 -0.20202002 1.4430001 8.4798792e-39
-0.26523715 -0.20202002 1.4430001 8.8497365e-39
-0.26248857 -0.20202002 1.4430001 9.2181589e-39
-0.26082003 -0.20286001 1.4490001 9.5883805e-39
-0.2591286 -0.20370001 1.455 9.7742137e-39
-0.25741431 -0.20454001 1.4610001 9.9578819e-39
-0.25463146 -0.20454001 1.4610001 1.0142269e-38
-0.25184858 -0.20454001 1.4610001 1.0325578e-38
-0.24906573 -0.20454001 1.4610001 1.0326295e-38
-0.24628288 -0.20454001 1.4610001 1.0233376e-38
-0.24350001 -0.20454001 1.4610001 1.0049339e-38
-0.24170573 -0.20538001 1.4670001 9.7713327e-39
-0.23891145 -0.20538001 1.4670001 9.4940437e-39
-0.23611715 -0.20538001 1.4670001 9.2235693e-39
-0.23539048 -0.20720002 1.48 9.2242966e-39
-0.23257144 -0.20720002 1.48 9.2325642e-39
-0.23068382 -0.20804001 1.4860001 1.2455433e-38
-0.22785334 -0.20804001 1.4860001 1.5578917e-38
-0.22593145 -0.20888001 1.4920001 1.5029701e-38
-0.22308953 -0.20888001 1.4920001 1.4386129e-38
-0.22128096 -0.20986001 1.4990001 1.4660913e-38
-0.21842574 -0.20986001 1.4990001 1.4843864e-38
-0.4999505 -0.1452762 1.052 3.8725794e-39
-0.49794671 -0.1452762 1.052 3.5967156e-39
-0.49594289 -0.1452762 1.052 3.3201343e-39
-0.49393907 -0.1452762 1.052 3.1346654e-39
-0.49193528 -0.1452762 1.052 3.042467e-39
-0.48993146 -0.1452762 1.052 2.9488392e-39
-0.48792765 -0.1452762 1.052 2.856645e-39
-0.48730955 -0.14569049 1.0550001 2.7640963e-39
-0.48530003 -0.14569049 1.0550001 2.5807882e-39
-0.48329049 -0.14569049 1.0550001 2.3970962e-39
-0.48264956 -0.14610477 1.0580001 2.7636983e-39
-0.48199716 -0.14651905 1.0610001 3.1310487e-39
-0.48133337 -0.14693335 1.064 2.7644312e-39
-0.48110861 -0.14748572 1.0680001 2.4900093e-39
-0.47907433 -0.14748572 1.0680001 2.3967473e-39
-0.47972003 -0.1483143 1.074 2.3963913e-39
-0.47945336 -0.14886668 1.0780001 2.3963941e-39
-0.47872859 -0.14928097 1.0810001 2.3963913e-39
-0.47843337 -0.14983334 1.085 2.3967459e-39
-0.47768384 -0.15024763 1.0880001 2.3971046e-39
-0.47561145 -0.15024763 1.0880001 2.3967459e-39
-0.47484478 -0.15066192 1.0910001 2.3963815e-39
-0.4727667 -0.15066192 1.0910001 2.3963759e-39
-0.47241431 -0.1512143 1.095 2.3967361e-39
-0.47333527 -0.15218097 1.102 2.3963773e-39
-0.47251907 -0.15259525 1.105 2.3963815e-39
-0.46913716 -0.15218097 1.102 1.9372082e-39
-0.46830955 -0.15259525 1.105 1.5695103e-39
-0.46789241 -0.15314762 1.1090001 1.8443022e-39
-0.46578002 -0.15314762 1.1090001 2.2109239e-39
-0.46366766 -0.15314762 1.1090001 2.2119973e-39
-0.46155527 -0.15314762 1.1090001 2.2130679e-39
-0.45596576 -0.15411429 1.1160001 1.752447e-39
-0.46441337 -0.15770477 1.1420001 1.7520855e-39
-0.46223813 -0.15770477 1.1420001 1.7510051e-39
-0.4616743 -0.15825716 1.146 1.4762105e-39
-0.45949146 -0.15825716 1.146 1.2932584e-39
-0.45730859 -0.15825716 1.146 1.1996292e-39
-0.4567143 -0.15880953 1.1500001 1.1063574e-39
-0.45570955 -0.15922382 1.153 8.3120681e-40
-0.45508671 -0.1597762 1.1570001 5.5605345e-40
-0.45288289 -0.1597762 1.1570001 8.301194e-40
-0.45067906 -0.1597762 1.1570001 1.1045497e-39
-0.44847527 -0.1597762 1.1570001 8.2832574e-40
-0.44781432 -0.16032858 1.161 6.4357435e-40
-0.44653049 -0.16309048 1.1810001 5.5245912e-40
-0.44428098 -0.16309048 1.1810001 6.4501628e-40
-0.44203144 -0.16309048 1.1810001 6.4609388e-40
-0.43978193 -0.16309048 1.1810001 1.0141547e-39
-0.4375324 -0.16309048 1.1810001 1.290743e-39
-0.43380859 -0.16253811 1.177 1.6591668e-39
-0.43303335 -0.16309048 1.1810001 2.0272403e-39
-0.43078384 -0.16309048 1.1810001 2.3953137e-39
-0.4285343 -0.16309048 1.1810001 2.6715335e-39
-0.42628479 -0.16309048 1.1810001 2.7644396e-39
-0.42403525 -0.16309048 1.1810001 2.9481092e-39
-0.42178574 -0.16309048 1.1810001 2.6722425e-39
-0.42095718 -0.16364287 1.1850001 2.3963773e-39
-0.41870004 -0.16364287 1.1850001 2.3045418e-39
-0.41644287 -0.16364287 1.1850001 2.121238e-39
-0.41418573 -0.16364287 1.1850001 2.2134406e-39
-0.41331908 -0.16419525 1.189 2.304909e-39
-0.41243717 -0.16474763 1.1930001 2.3967361e-39
-0.4101648 -0.16474763 1.1930001 2.4878569e-39
-0.40789241 -0.16474763 1.1930001 2.6711719e-39
-0.40562004 -0.16474763 1.1930001 2.945961e-39
-0.40470004 -0.16530001 1.197 2.3956655e-39
-0.40242001 -0.16530001 1.197 1.9379215e-39
-0.40181145 -0.16599049 1.202 2.3974549e-39
-0.39952192 -0.16599049 1.202 2.8562751e-39
-0.39855433 -0.16654287 1.2060001 2.8569925e-39
-0.39625716 -0.16654287 1.2060001 2.8566338e-39
-0.39526668 -0.16709524 1.21 2.5811259e-39
-0.39426097 -0.16764763 1.2140001 2.3052565e-39
-0.39356288 -0.16833811 1.2190001 2.3056096e-39
-0.39124098 -0.16833811 1.2190001 2.213421e-39
-0.39019525 -0.16889049 1.223 2.3974563e-39
-0.38786575 -0.16889049 1.223 2.5811315e-39
-0.38897431 -0.17248097 1.2490001 2.948112e-39
-0.38659525 -0.17248097 1.2490001 3.3158169e-39
-0.38421622 -0.17248097 1.2490001 2.9484791e-39
-0.38061431 -0.17192858 1.245 2.6726125e-39
-0.37945813 -0.17248097 1.2490001 2.8569981e-39
-0.37587145 -0.17192858 1.245 3.1328521e-39
-0.37350002 -0.17192858 1.245 2.8576918e-39
-0.37232098 -0.17248097 1.2490001 2.6740306e-39
-0.37142289 -0.17317145 1.2540001 2.6736817e-39
-0.36903432 -0.17317145 1.2540001 2.674046e-39
-0.36927718 -0.17441429 1.263 2.9495581e-39
-0.36687145 -0.17441429 1.263 3.3158253e-39
-0.36590859 -0.17510477 1.268 3.1332305e-39
-0.36464003 -0.17565715 1.2720001 3.041395e-39
-0.36221716 -0.17565715 1.2720001 3.133948e-39
-0.35979432 -0.17565715 1.2720001 3.2261352e-39
-0.35737145 -0.17565715 1.2720001 2.9506217e-39
-0.35634384 -0.17634763 1.2770001 2.7669465e-39
-0.35391146 -0.17634763 1.2770001 2.5832713e-39
-0.35285527 -0.1770381 1.2820001 2.4903666e-39
-0.35041335 -0.1770381 1.2820001 2.6747621e-39
-0.34932861 -0.17772858 1.2870001 2.8577156e-39
-0.34795526 -0.17828096 1.291 2.7662388e-39
-0.3468343 -0.17897144 1.296 2.7662444e-39
-0.34436575 -0.17897144 1.296 3.1339494e-39
-0.34321621 -0.17966191 1.3010001 3.502006e-39
-0.34073812 -0.17966191 1.3010001 3.0428257e-39
-0.33826002 -0.17966191 1.3010001 2.4921715e-39
-0.3370724 -0.18035239 1.3060001 2.6754837e-39
-0.33330384 -0.17966191 1.3010001 2.8587974e-39
-0.33209717 -0.18035239 1.3060001 2.9513504e-39
-0.32960954 -0.18035239 1.3060001 3.0424684e-39
-0.3283743 -0.18104286 1.3110001 3.042467e-39
-0.32712004 -0.18173334 1.3160001 3.1339438e-39
-0.3258467 -0.18242382 1.3210001 3.13502e-39
-0.32333049 -0.18242382 1.3210001 3.0442621e-39
-0.32202861 -0.18311431 1.3260001 2.9517091e-39
-0.31950289 -0.18311431 1.3260001 2.8595149e-39
-0.3181724 -0.18380478 1.3310001 2.8598722e-39
-0.31563717 -0.18380478 1.3310001 2.9517091e-39
-0.31310192 -0.18380478 1.3310001 2.9513504e-39
-0.31056669 -0.18380478 1.3310001 3.0421125e-39
-0.3091886 -0.18449526 1.3360001 3.3176204e-39
-0.30802098 -0.18532382 1.342 3.5934814e-39
-0.30546477 -0.18532382 1.342 3.4105236e-39
-0.3029086 -0.18532382 1.342 3.2264995e-39
-0.30147144 -0.18601429 1.3470001 3.3190567e-39
-0.29890573 -0.18601429 1.3470001 3.4112495e-39
-0.29744002 -0.18670477 1.3520001 3.4112481e-39
-0.29617336 -0.18753335 1.358 3.4105335e-39
-0.29466763 -0.18822382 1.363 3.4112523e-39
-0.29314288 -0.1889143 1.368 3.3190609e-39
-0.29181144 -0.18974286 1.3740001 3.7785999e-39
-0.29150954 -0.19126192 1.3850001 4.1473894e-39
-0.28991431 -0.19195239 1.3900001 4.8849545e-39
-0.28974667 -0.19360954 1.4020001 5.6221594e-39
-0.2881 -0.19430001 1.4070001 5.8994693e-39
-0.28663716 -0.19512859 1.4130001 6.2675316e-39
-0.28515145 -0.19595715 1.419 6.2689693e-39
-0.28244859 -0.19595715 1.419 6.361165e-39
-0.28092858 -0.19678573 1.4250001 6.5455534e-39
-0.27938575 -0.1976143 1.4310001 6.7295859e-39
-0.27666003 -0.1976143 1.4310001 6.8228578e-39
-0.2739343 -0.1976143 1.4310001 6.9150576e-39
-0.27234572 -0.19844288 1.437 7.1920046e-39
-0.26960859 -0.19844288 1.437 7.5607871e-39
-0.26687145 -0.19844288 1.437 7.8370167e-39
-0.26523715 -0.19927144 1.4430001 8.1132477e-39
-0.26248857 -0.19927144 1.4430001 8.3901947e-39
-0.26298001 -0.20175716 1.4610001 8.7586227e-39
-0.26019716 -0.20175716 1.4610001 8.9444559e-39
-0.25741431 -0.20175716 1.4610001 9.1302835e-39
-0.25463146 -0.20175716 1.4610001 9.3135999e-39
-0.25184858 -0.20175716 1.4610001 9.4972751e-39
-0.24906573 -0.20175716 1.4610001 9.4987143e-39
-0.24628288 -0.20175716 1.4610001 9.501933e-39
-0.24350001 -0.20175716 1.4610001 9.4994107e-39
-0.24071716 -0.20175716 1.4610001 9.5908819e-39
-0.23891145 -0.20258573 1.4670001 9.4043354e-39
-0.23708287 -0.20341431 1.473 9.309986e-39
-0.23539048 -0.20438096 1.48 9.3124929e-39
-0.23257144 -0.20438096 1.48 9.3110944e-39
-0.23068382 -0.20520954 1.4860001 1.0331364e-38
-0.22785334 -0.20520954 1.4860001 1.1444882e-38
-0.22593145 -0.2060381 1.4920001 1.3190846e-38
-0.22308953 -0.2060381 1.4920001 1.4937147e-38
-0.22128096 -0.20700477 1.4990001 1.4753107e-38
-0.21842574 -0.20700477 1.4990001 1.4567998e-38
-0.49804956 -0.14272763 1.0480001 3.7807425e-39
-0.49794671 -0.14327239 1.052 3.5048759e-39
-0.49594289 -0.14327239 1.052 3.3201287e-39
-0.49393907 -0.14327239 1.052 3.1353801e-39
-0.49193528 -0.14327239 1.052 2.9506315e-39
-0.4913286 -0.14368096 1.0550001 2.7655242e-39
-0.48931909 -0.14368096 1.0550001 2.7644452e-39
-0.48730955 -0.14368096 1.0550001 2.6726139e-39
-0.48530003 -0.14368096 1.0550001 2.3974703e-39
-0.4846648 -0.14408953 1.0580001 2.1212324e-39
-0.48264956 -0.14408953 1.0580001 2.3038131e-39
-0.48199716 -0.14449811 1.0610001 2.3967304e-39
-0.48133337 -0.14490667 1.064 2.4889289e-39
-0.48110861 -0.14545144 1.0680001 2.4892918e-39
-0.48176575 -0.14626858 1.074 2.3971018e-39
-0.48150671 -0.14681335 1.0780001 2.3045516e-39
-0.48078766 -0.14722191 1.0810001 2.3963913e-39
-0.48050004 -0.14776668 1.085 2.3967487e-39
-0.47975624 -0.14817525 1.0880001 2.3967459e-39
-0.47768384 -0.14817525 1.0880001 2.3049076e-39
-0.47561145 -0.14817525 1.0880001 2.3963829e-39
-0.47484478 -0.14858381 1.0910001 2.3963745e-39
-0.4727667 -0.14858381 1.0910001 2.3960074e-39
-0.47241431 -0.14912859 1.095 2.3963745e-39
-0.47333527 -0.15008192 1.102 2.3960228e-39
-0.47123623 -0.15008192 1.102 2.3041873e-39
-0.46913716 -0.15008192 1.102 2.1201576e-39
-0.46703812 -0.15008192 1.102 1.8446539e-39
-0.46789241 -0.15103525 1.1090001 2.0276102e-39
-0.46578002 -0.15103525 1.1090001 2.1198016e-39
-0.46366766 -0.15103525 1.1090001 2.1194387e-39
-0.46155527 -0.15103525 1.1090001 2.0279605e-39
-0.45944288 -0.15103525 1.1090001 2.0276004e-39
-0.46021718 -0.15198858 1.1160001 2.0272417e-39
-0.45809147 -0.15198858 1.1160001 2.0268829e-39
-0.46223813 -0.15552953 1.1420001 1.9350362e-39
-0.46006289 -0.15552953 1.1420001 1.6598871e-39
-0.45949146 -0.1560743 1.146 1.2921836e-39
-0.45730859 -0.1560743 1.146 1.291106e-39
-0.4567143 -0.15661906 1.1500001 1.1989089e-39
-0.45570955 -0.15702763 1.153 1.0152365e-39
-0.45351335 -0.15702763 1.153 8.3084247e-40
-0.45131716 -0.15702763 1.153 9.219563e-40
-0.44912097 -0.15702763 1.153 9.2123883e-40
-0.44847527 -0.15757239 1.1570001 8.2796841e-40
-0.44627145 -0.15757239 1.1570001 6.4393448e-40
-0.44653049 -0.16084096 1.1810001 4.6062222e-40
-0.44428098 -0.16084096 1.1810001 5.5245772e-40
-0.44352859 -0.16138573 1.1850001 6.4537501e-40
-0.43978193 -0.16084096 1.1810001 1.1974712e-39
-0.4375324 -0.16084096 1.1810001 1.6584465e-39
-0.43528289 -0.16084096 1.1810001 2.0279465e-39
-0.43303335 -0.16084096 1.1810001 2.3956627e-39
-0.4322429 -0.16138573 1.1850001 2.580784e-39
-0.42998573 -0.16138573 1.1850001 2.7655256e-39
-0.42628479 -0.16084096 1.1810001 3.1325032e-39
-0.42403525 -0.16084096 1.1810001 3.4076468e-39
-0.42178574 -0.16084096 1.1810001 2.9481064e-39
-0.42095718 -0.16138573 1.1850001 2.397092e-39
-0.41870004 -0.16138573 1.1850001 2.2130609e-39
-0.41644287 -0.16138573 1.1850001 1.9379187e-39
-0.41418573 -0.16138573 1.1850001 2.2134322e-39
-0.41331908 -0.16193049 1.189 2.3967403e-39
-0.41243717 -0.16247524 1.1930001 2.4885729e-39
-0.4101648 -0.16247524 1.1930001 2.4878583e-39
-0.40789241 -0.16247524 1.1930001 2.670816e-39
-0.40562004 -0.16247524 1.1930001 2.7622914e-39
-0.40470004 -0.16302001 1.197 2.4871422e-39
-0.40242001 -0.16302001 1.197 2.1215897e-39
-0.40181145 -0.16370097 1.202 2.1226617e-39
-0.39952192 -0.16370097 1.202 2.1223044e-39
-0.39723241 -0.16370097 1.202 2.3992472e-39
-0.39888573 -0.16533525 1.2140001 2.6736761e-39
-0.39657336 -0.16533525 1.2140001 2.5818392e-39
-0.39588478 -0.16601621 1.2190001 2.4896421e-39
-0.39356288 -0.16601621 1.2190001 2.489282e-39
-0.39252478 -0.16656096 1.223 2.397092e-39
-0.39147145 -0.16710572 1.2270001 2.7640808e-39
-0.38913432 -0.16710572 1.2270001 3.131783e-39
-0.38837335 -0.16778667 1.2320001 2.856638e-39
-0.38602668 -0.16778667 1.2320001 2.4889359e-39
-0.3877286 -0.16955715 1.245 2.948112e-39
-0.38535717 -0.16955715 1.245 3.4072894e-39
-0.38298574 -0.16955715 1.245 3.0403062e-39
-0.38061431 -0.16955715 1.245 2.5811301e-39
-0.37824288 -0.16955715 1.245 2.6733257e-39
-0.37587145 -0.16955715 1.245 2.7655172e-39
-0.37470001 -0.17010191 1.2490001 2.5822007e-39
-0.37232098 -0.17010191 1.2490001 2.3063383e-39
-0.37142289 -0.17078286 1.2540001 2.3052649e-39
-0.36903432 -0.17078286 1.2540001 2.2145084e-39
-0.36810765 -0.17146382 1.2590001 2.5822133e-39
-0.36570954 -0.17146382 1.2590001 2.8573625e-39
-0.36446574 -0.17200859 1.263 2.9495595e-39
-0.36349335 -0.17268954 1.268 2.9499168e-39
-0.36364096 -0.17391525 1.2770001 3.0413922e-39
-0.36120859 -0.17391525 1.2770001 3.0421041e-39
-0.35877621 -0.17391525 1.2770001 2.8591449e-39
-0.35773906 -0.17459621 1.2820001 2.6747551e-39
-0.35529718 -0.17459621 1.2820001 2.5825594e-39
-0.35423145 -0.17527716 1.2870001 2.3988927e-39
-0.35178003 -0.17527716 1.2870001 2.4914498e-39
-0.35041431 -0.17582192 1.291 2.4910939e-39
-0.34795526 -0.17582192 1.291 2.4907366e-39
-0.3468343 -0.17650287 1.296 2.3989067e-39
-0.34436575 -0.17650287 1.296 2.7658955e-39
-0.34189716 -0.17650287 1.296 3.1339508e-39
-0.34073812 -0.17718382 1.3010001 2.8591575e-39
-0.33826002 -0.17718382 1.3010001 2.5836496e-39
-0.3370724 -0.17786478 1.3060001 2.6754837e-39
-0.33330384 -0.17718382 1.3010001 2.7673192e-39
-0.33209717 -0.17786478 1.3060001 2.767678e-39
-0.33087146 -0.17854573 1.3110001 2.7673206e-39
-0.32962668 -0.17922668 1.3160001 2.950993e-39
-0.32712004 -0.17922668 1.3160001 3.1343053e-39
-0.3258467 -0.17990763 1.3210001 3.1343053e-39
-0.32455429 -0.18058859 1.3260001 3.1346626e-39
