# .PCD v0.7 - Point Cloud Data file format
VERSION 0.7
FIELDS x y z
SIZE 4 4 4
TYPE F F F
COUNT 1 1 1
WIDTH 1515
HEIGHT 1
VIEWPOINT 0 0 0 1 0 0 0
POINTS 1515
DATA ascii
-0.39355811 -0.34770668 1.003
-0.38476193 -0.34666669 1
-0.40884194 -0.17958477 1.003
-0.36952382 -0.17904763 1
-0.40120003 -0.17194287 1.003
-0.39238098 -0.17142858 1
-0.38476193 -0.17142858 1
-0.37714288 -0.17142858 1
-0.37063241 -0.17194287 1.003
-0.33142859 -0.17142858 1
-0.45469338 -0.10316572 1.003
-0.43809527 -0.095238104 1
-0.43047622 -0.087619051 1
-0.42412573 -0.087881908 1.003
-0.43047622 -0.080000006 1
-0.4609524 -0.064761907 1
-0.45469338 -0.064956196 1.003
-0.46997717 -0.049672384 1.003
-0.47761908 -0.04203048 1.003
-0.47619051 -0.034285717 1
-0.46857145 -0.034285717 1
-0.44072384 -0.36407623 1.006
-0.43305907 -0.36407623 1.006
-0.42624003 -0.36480004 1.008
-0.41088003 -0.36480004 1.008
-0.44160002 -0.35712004 1.008
-0.43392003 -0.35712004 1.008
-0.42624003 -0.35712004 1.008
-0.41856003 -0.35712004 1.008
-0.41088003 -0.35712004 1.008
-0.44838861 -0.35641146 1.006
-0.39473528 -0.35641146 1.006
-0.46464002 -0.34944001 1.008
-0.45605338 -0.34874669 1.006
-0.44928002 -0.34944001 1.008
-0.41856003 -0.34944001 1.008
-0.41088003 -0.34944001 1.008
-0.40240002 -0.34874669 1.006
-0.44928002 -0.34176001 1.008
-0.41088003 -0.34176001 1.008
-0.40320003 -0.34176001 1.008
-0.39552003 -0.34176001 1.008
-0.39552003 -0.24960002 1.008
-0.39552003 -0.24192001 1.008
-0.36407623 -0.18012191 1.006
-0.35712004 -0.18048002 1.008
-0.41088003 -0.1728 1.008
-0.36480004 -0.1728 1.008
-0.39552003 -0.16512001 1.008
-0.38784003 -0.16512001 1.008
-0.38016003 -0.16512001 1.008
-0.45605338 -0.11880381 1.006
-0.44838861 -0.11880381 1.006
-0.43392003 -0.11136001 1.008
-0.42624003 -0.11136001 1.008
-0.44928002 -0.10368001 1.008
-0.43392003 -0.10368001 1.008
-0.42624003 -0.096000008 1.008
-0.43305907 -0.095809527 1.006
-0.41856003 -0.088320009 1.008
-0.42624003 -0.080640003 1.008
-0.44072384 -0.072815239 1.006
-0.46371812 -0.057485718 1.006
-0.45696002 -0.057600003 1.008
-0.42750859 -0.37358859 1.011
-0.41980574 -0.36588573 1.011
-0.43650287 -0.35152003 1.0140001
-0.44291431 -0.35048002 1.011
-0.42750859 -0.35048002 1.011
-0.47513145 -0.34379432 1.0140001
-0.44422859 -0.34379432 1.0140001
-0.43650287 -0.34379432 1.0140001
-0.42877716 -0.34379432 1.0140001
-0.41980574 -0.34277716 1.011
-0.35818288 -0.18872002 1.011
-0.35152003 -0.1815543 1.0140001
-0.35924575 -0.17382859 1.0140001
-0.34277716 -0.1733143 1.011
-0.41332573 -0.16610287 1.0140001
-0.40440002 -0.16561145 1.011
-0.37358859 -0.16561145 1.011
-0.39787433 -0.15837716 1.0140001
-0.39014861 -0.15837716 1.0140001
-0.44422859 -0.11974858 1.0140001
-0.43521145 -0.11939429 1.011
-0.45832002 -0.11169144 1.011
-0.45061716 -0.11169144 1.011
-0.44291431 -0.11169144 1.011
-0.44291431 -0.10398858 1.011
-0.42750859 -0.10398858 1.011
-0.41210288 -0.10398858 1.011
-0.41980574 -0.096285723 1.011
-0.41210288 -0.096285723 1.011
-0.40560004 -0.096571438 1.0140001
-0.41980574 -0.080880009 1.011
-0.43650287 -0.073394291 1.0140001
-0.45061716 -0.065474287 1.011
-0.45195431 -0.05794286 1.0140001
-0.46602288 -0.050068576 1.011
-0.47513145 -0.042491432 1.0140001
-0.42229718 -0.37580574 1.0170001
-0.42229718 -0.20533715 1.0170001
-0.35256001 -0.17434287 1.0170001
-0.36805716 -0.1665943 1.0170001
-0.38355431 -0.15884572 1.0170001
-0.42229718 -0.10460572 1.0170001
-0.41454861 -0.089108579 1.0170001
-0.46878859 -0.042617146 1.0170001
-0.40140575 -0.22993144 1.023
-0.40800002 -0.22148573 1.0200001
-0.41577145 -0.2137143 1.0200001
-0.40920001 -0.21434288 1.023
-0.41577145 -0.20594287 1.0200001
-0.34684575 -0.1987543 1.023
-0.3624343 -0.16757715 1.023
-0.35360003 -0.16708572 1.0200001
-0.58846861 -0.15978287 1.023
-0.40800002 -0.15931429 1.0200001
-0.37691432 -0.15931429 1.0200001
-0.37022859 -0.15978287 1.023
-0.58674288 -0.15154287 1.0200001
-0.58067435 -0.15198858 1.023
-0.39245716 -0.15154287 1.0200001
-0.38581717 -0.15198858 1.023
-0.42478859 -0.11301715 1.023
-0.41577145 -0.11268573 1.0200001
-0.40920001 -0.089634292 1.023
-0.4169943 -0.081840008 1.023
-0.43131432 -0.073828578 1.0200001
-0.44685718 -0.066057146 1.0200001
-0.44037718 -0.066251434 1.023
-0.44817147 -0.058457147 1.023
-0.46240002 -0.050514288 1.0200001
-0.45462859 -0.050514288 1.0200001
-0.46376002 -0.042868573 1.023
-0.45462859 -0.04274286 1.0200001
-0.44817147 -0.042868573 1.023
-0.40258288 -0.15243429 1.026
-0.37913147 -0.15243429 1.026
-0.39476573 -0.14461716 1.026
-0.39476573 -0.09771429 1.026
-0.39476573 -0.089897148 1.026
-0.44948575 -0.050811432 1.026
-0.39745906 -0.23217906 1.033
-0.40415239 -0.22365716 1.0300001
-0.40532956 -0.21643811 1.033
-0.41200003 -0.20796192 1.0300001
-0.35706669 -0.19226667 1.0300001
-0.34921908 -0.19226667 1.0300001
-0.59249526 -0.16872382 1.0300001
-0.5863505 -0.16921525 1.033
-0.58464766 -0.1608762 1.0300001
-0.57848006 -0.16134477 1.033
-0.57060957 -0.16134477 1.033
-0.56273907 -0.16134477 1.033
-0.55486858 -0.16134477 1.033
-0.36597717 -0.16134477 1.033
-0.56273907 -0.1534743 1.033
-0.55325717 -0.15302858 1.0300001
-0.41320002 -0.1534743 1.033
-0.37384763 -0.1534743 1.033
-0.40532956 -0.14560382 1.033
-0.38845718 -0.14518096 1.0300001
-0.38171813 -0.14560382 1.033
-0.43681145 -0.12199239 1.033
-0.41320002 -0.10625143 1.033
-0.40415239 -0.10594287 1.0300001
-0.39630479 -0.10594287 1.0300001
-0.40415239 -0.098095246 1.0300001
-0.38958859 -0.098380961 1.033
-0.40532956 -0.09051048 1.033
-0.41320002 -0.082640007 1.033
-0.42769527 -0.074552387 1.0300001
-0.43554288 -0.066704765 1.0300001
-0.44468194 -0.059028577 1.033
-0.44468194 -0.0511581 1.033
-0.60034287 0.46693337 1.0300001
-0.39072004 -0.23285335 1.036
-0.39185145 -0.22561145 1.039
-0.39861336 -0.22496001 1.036
-0.39976764 -0.21769525 1.039
-0.39185145 -0.21769525 1.039
-0.40650669 -0.20917335 1.036
-0.41440004 -0.20128001 1.036
-0.40768385 -0.20186287 1.039
-0.58016002 -0.16970667 1.036
-0.57392383 -0.17019811 1.039
-0.56600767 -0.17019811 1.039
-0.55648005 -0.16970667 1.036
-0.36810288 -0.15436572 1.039
-0.41560003 -0.14644954 1.039
-0.37601906 -0.14644954 1.039
-0.46965337 -0.13813335 1.036
-0.40650669 -0.13813335 1.036
-0.39861336 -0.13813335 1.036
-0.39072004 -0.13813335 1.036
-0.46965337 -0.13024001 1.036
-0.46176004 -0.13024001 1.036
-0.45386669 -0.13024001 1.036
-0.44726479 -0.13061716 1.039
-0.43018669 -0.12234668 1.036
-0.41440004 -0.11445334 1.036
-0.39072004 -0.10656001 1.036
-0.39185145 -0.091036193 1.039
-0.42229337 -0.074986674 1.036
-0.43018669 -0.067093335 1.036
-0.43808004 -0.059200004 1.036
-0.44597337 -0.043413337 1.036
-0.43018669 -0.043413337 1.036
-0.5976724 0.47101337 1.039
-0.38504383 -0.21832383 1.0420001
-0.40092194 -0.21038477 1.0420001
-0.36916575 -0.21038477 1.0420001
-0.36122668 -0.21038477 1.0420001
-0.36122668 -0.20244573 1.0420001
-0.59939814 -0.17862858 1.0420001
-0.5914591 -0.17862858 1.0420001
-0.55176383 -0.16275048 1.0420001
-0.38504383 -0.13893335 1.0420001
-0.42473906 -0.12305525 1.0420001
-0.40886098 -0.1151162 1.0420001
-0.38504383 -0.10717715 1.0420001
-0.38504383 -0.099238105 1.0420001
-0.44061717 -0.051603813 1.0420001
-0.55176383 0.36122668 1.0420001
-0.55970287 0.36916575 1.0420001
-0.55176383 0.36916575 1.0420001
-0.60733718 0.46443433 1.0420001
-0.37129146 -0.21958096 1.0480001
-0.37819049 -0.2189524 1.0450001
-0.39411432 -0.21099049 1.0450001
-0.38615242 -0.21099049 1.0450001
-0.37819049 -0.21099049 1.0450001
-0.40207621 -0.20302859 1.0450001
-0.39524573 -0.20361145 1.0480001
-0.37927622 -0.20361145 1.0480001
-0.37022859 -0.20302859 1.0450001
-0.58520001 -0.17914286 1.0450001
-0.57723814 -0.17914286 1.0450001
-0.57091051 -0.17965716 1.0480001
-0.55335242 -0.17118096 1.0450001
-0.54695624 -0.17167239 1.0480001
-0.53897148 -0.17167239 1.0480001
-0.54695624 -0.16368763 1.0480001
-0.53897148 -0.16368763 1.0480001
-0.53098673 -0.16368763 1.0480001
-0.52300197 -0.16368763 1.0480001
-0.52946669 -0.15525715 1.0450001
-0.48169526 -0.14729525 1.0450001
-0.47373337 -0.14729525 1.0450001
-0.37129146 -0.1477181 1.0480001
-0.48169526 -0.13933334 1.0450001
-0.46577147 -0.13933334 1.0450001
-0.45912385 -0.13973334 1.0480001
-0.41920003 -0.13973334 1.0480001
-0.44188574 -0.13137144 1.0450001
-0.43516955 -0.13174859 1.0480001
-0.41003811 -0.13137144 1.0450001
-0.40207621 -0.13137144 1.0450001
-0.39524573 -0.13174859 1.0480001
-0.41920003 -0.12376381 1.0480001
-0.41121528 -0.12376381 1.0480001
-0.40323049 -0.12376381 1.0480001
-0.40207621 -0.11544763 1.0450001
-0.39411432 -0.11544763 1.0450001
-0.38726097 -0.11577906 1.0480001
-0.37819049 -0.10748572 1.0450001
-0.37129146 -0.10779429 1.0480001
-0.37819049 -0.099523813 1.0450001
-0.37129146 -0.099809527 1.0480001
-0.38726097 -0.09182477 1.0480001
-0.41003811 -0.083600007 1.0450001
-0.41800001 -0.075638101 1.0450001
-0.41121528 -0.07585524 1.0480001
-0.42596194 -0.067676194 1.0450001
-0.41920003 -0.067870483 1.0480001
-0.43392384 -0.059714291 1.0450001
-0.42718479 -0.059885718 1.0480001
-0.43516955 -0.051900957 1.0480001
-0.54695624 0.33136764 1.0480001
-0.54539049 0.33838096 1.0450001
-0.554941 0.3393524 1.0480001
-0.53897148 0.3393524 1.0480001
-0.554941 0.34733716 1.0480001
-0.54539049 0.34634289 1.0450001
-0.53897148 0.34733716 1.0480001
-0.55335242 0.35430479 1.0450001
-0.54539049 0.35430479 1.0450001
-0.56292576 0.3633067 1.0480001
-0.54695624 0.3633067 1.0480001
-0.56927621 0.37819049 1.0450001
-0.56131434 0.37819049 1.0450001
-0.55335242 0.37819049 1.0450001
-0.56927621 0.38615242 1.0450001
-0.56292576 0.38726097 1.0480001
-0.56292576 0.39524573 1.0480001
-0.6108343 0.45912385 1.0480001
-0.60284954 0.46710861 1.0480001
-0.38873908 -0.20438859 1.052
-0.40476954 -0.19637334 1.052
-0.60515052 -0.18835811 1.052
-0.59713531 -0.18835811 1.052
-0.56507432 -0.18034287 1.052
-0.53301334 -0.17232764 1.052
-0.49293718 -0.15629715 1.052
-0.48492193 -0.15629715 1.052
-0.49293718 -0.14828192 1.052
-0.46889147 -0.14828192 1.052
-0.38072383 -0.14026667 1.052
-0.42881528 -0.13225144 1.052
-0.42080003 -0.13225144 1.052
-0.38873908 -0.13225144 1.052
-0.39675432 -0.1242362 1.052
-0.38072383 -0.11622096 1.052
-0.36469334 -0.10820572 1.052
-0.38072383 -0.092175245 1.052
-0.42080003 -0.060114291 1.052
-0.55705911 0.33263239 1.052
-0.54102862 0.33263239 1.052
-0.54102862 0.35667813 1.052
-0.57308954 0.37270859 1.052
-0.54904383 0.37270859 1.052
-0.55705911 0.38873908 1.052
-0.57308954 0.39675432 1.052
-0.59248006 -0.1894324 1.0580001
-0.58441907 -0.1894324 1.0580001
-0.55864763 -0.18085715 1.0550001
-0.55217528 -0.18137144 1.0580001
-0.54411429 -0.18137144 1.0580001
-0.49574861 -0.17331049 1.0580001
-0.51993144 -0.16524954 1.0580001
-0.5118705 -0.16524954 1.0580001
-0.50380957 -0.16524954 1.0580001
-0.49434289 -0.16478096 1.0550001
-0.46350479 -0.15718858 1.0580001
-0.36677337 -0.15718858 1.0580001
-0.46350479 -0.14912763 1.0580001
-0.45415241 -0.14066668 1.0550001
-0.4461143 -0.14066668 1.0550001
-0.43807623 -0.14066668 1.0550001
-0.38289526 -0.13300572 1.0580001
-0.38984764 -0.12459049 1.0550001
-0.38289526 -0.12494477 1.0580001
-0.3748343 -0.11688381 1.0580001
-0.3587124 -0.10882287 1.0580001
-0.36573336 -0.1004762 1.0550001
-0.3587124 -0.10076191 1.0580001
-0.3748343 -0.092700958 1.0580001
-0.39095622 -0.084640004 1.0580001
-0.40592384 -0.07636191 1.0550001
-0.41396192 -0.068323813 1.0550001
-0.43003812 -0.052247621 1.0550001
-0.41513908 -0.052396193 1.0580001
-0.40592384 -0.052247621 1.0550001
-0.56023622 0.32646859 1.0580001
-0.55060959 0.32554287 1.0550001
-0.54411429 0.32646859 1.0580001
-0.53605336 0.33452955 1.0580001
-0.52799243 0.33452955 1.0580001
-0.53453338 0.34161907 1.0550001
-0.56829721 0.34259051 1.0580001
-0.52799243 0.34259051 1.0580001
-0.56829721 0.35065144 1.0580001
-0.53453338 0.34965718 1.0550001
-0.52799243 0.35065144 1.0580001
-0.56668574 0.35769525 1.0550001
-0.53453338 0.35769525 1.0550001
-0.54257149 0.36573336 1.0550001
-0.57635814 0.36677337 1.0580001
-0.53605336 0.36677337 1.0580001
-0.54411429 0.3748343 1.0580001
-0.55060959 0.38180956 1.0550001
-0.54411429 0.38289526 1.0580001
-0.55060959 0.38984764 1.0550001
-0.58441907 0.39095622 1.0580001
-0.55864763 0.39788574 1.0550001
-0.55217528 0.39901716 1.0580001
-0.56829721 0.40707812 1.0580001
-0.55864763 0.40592384 1.0550001
-0.56023622 0.41513908 1.0580001
-0.61666292 0.4473829 1.0580001
-0.61666292 0.45544383 1.0580001
-0.60860193 0.45544383 1.0580001
-0.60687625 0.46219051 1.0550001
-0.600541 0.47156575 1.0580001
-0.59883815 0.47826669 1.0550001
-0.59080005 0.47826669 1.0550001
-0.58276194 0.47826669 1.0550001
-0.61205339 -0.19861335 1.064
-0.60394669 -0.19861335 1.064
-0.59584004 -0.19861335 1.064
-0.4001486 -0.19805335 1.0610001
-0.39206478 -0.19805335 1.0610001
-0.38398099 -0.19805335 1.0610001
-0.57799244 -0.18996954 1.0610001
-0.56990862 -0.18996954 1.0610001
-0.50666672 -0.18240002 1.064
-0.52948958 -0.17380191 1.0610001
-0.52140576 -0.17380191 1.0610001
-0.51332194 -0.17380191 1.0610001
-0.50523812 -0.17380191 1.0610001
-0.36781335 -0.16571811 1.0610001
-0.45802671 -0.15808001 1.064
-0.44992003 -0.15808001 1.064
-0.45673525 -0.14955048 1.0610001
-0.44865146 -0.14955048 1.0610001
-0.44181335 -0.14997335 1.064
-0.4337067 -0.14997335 1.064
-0.43248385 -0.14146668 1.0610001
-0.37696004 -0.14186667 1.064
-0.36781335 -0.11721525 1.0610001
-0.35164574 -0.10913143 1.0610001
-0.35264003 -0.10133334 1.064
-0.36781335 -0.092963815 1.0610001
-0.39317337 -0.077013336 1.064
-0.40823242 -0.068712384 1.0610001
-0.4001486 -0.068712384 1.0610001
-0.41631621 -0.060628574 1.0610001
-0.40823242 -0.060628574 1.0610001
-0.42440003 -0.052544765 1.0610001
-0.40938669 -0.04458667 1.064
-0.56341338 0.32021335 1.064
-0.55374098 0.31931049 1.0610001
-0.54565716 0.31931049 1.0610001
-0.5375734 0.32739431 1.0610001
-0.53098673 0.32832003 1.064
-0.56990862 0.33547813 1.0610001
-0.57799244 0.34356192 1.0610001
-0.57799244 0.35164574 1.0610001
-0.57799244 0.35972956 1.0610001
-0.52948958 0.35972956 1.0610001
-0.58773339 0.36885336 1.064
-0.58773339 0.37696004 1.064
-0.5375734 0.37589717 1.0610001
-0.5375734 0.38398099 1.0610001
-0.54565716 0.39206478 1.0610001
-0.5375734 0.39206478 1.0610001
-0.54565716 0.4001486 1.0610001
-0.55374098 0.40823242 1.0610001
-0.55530673 0.41749337 1.064
-0.5618248 0.42440003 1.0610001
-0.55530673 0.42560002 1.064
-0.61032766 0.44865146 1.0610001
-0.60394669 0.44992003 1.064
-0.60224384 0.45673525 1.0610001
-0.60394669 0.46613336 1.064
-0.59584004 0.46613336 1.064
-0.59416002 0.47290289 1.0610001
-0.58773339 0.47424003 1.064
-0.57799244 0.48098668 1.0610001
-0.57152003 0.48234668 1.064
-0.37024003 -0.22377144 1.0680001
-0.36210287 -0.2156343 1.0680001
-0.58994287 -0.19936001 1.0680001
-0.5736686 -0.19936001 1.0680001
-0.56553149 -0.19122288 1.0680001
-0.55739433 -0.19122288 1.0680001
-0.54925716 -0.19122288 1.0680001
-0.54112005 -0.18308572 1.0680001
-0.51670861 -0.18308572 1.0680001
-0.45161146 -0.16681144 1.0680001
-0.36210287 -0.1586743 1.0680001
-0.37837717 -0.12612572 1.0680001
-0.36210287 -0.11798858 1.0680001
-0.38651431 -0.085440002 1.0680001
-0.40278861 -0.061028574 1.0680001
-0.55739433 0.31328002 1.0680001
-0.54925716 0.31328002 1.0680001
-0.54112005 0.32141715 1.0680001
-0.52484572 0.33769146 1.0680001
-0.52484572 0.34582859 1.0680001
-0.53298289 0.37024003 1.0680001
-0.53298289 0.37837717 1.0680001
-0.53298289 0.39465144 1.0680001
-0.54112005 0.40278861 1.0680001
-0.54925716 0.41092575 1.0680001
-0.54112005 0.41092575 1.0680001
-0.5736686 0.4760229 1.0680001
-0.39576003 -0.23256001 1.0710001
-0.38760003 -0.23256001 1.0710001
-0.37944004 -0.23256001 1.0710001
-0.37232003 -0.23321144 1.074
-0.36312002 -0.22440001 1.0710001
-0.61608005 -0.20808001 1.0710001
-0.60792005 -0.20808001 1.0710001
-0.60144001 -0.20866287 1.074
-0.58344007 -0.19992001 1.0710001
-0.56712002 -0.19992001 1.0710001
-0.54416001 -0.19229716 1.074
-0.53448004 -0.18360001 1.0710001
-0.52632004 -0.18360001 1.0710001
-0.46104002 -0.16728002 1.0710001
-0.36413717 -0.16774859 1.074
-0.44472003 -0.15912001 1.0710001
-0.43656003 -0.15912001 1.0710001
-0.35595432 -0.15956573 1.074
-0.37128001 -0.15096001 1.0710001
-0.37944004 -0.13464001 1.0710001
-0.37128001 -0.12648001 1.0710001
-0.35496002 -0.11832001 1.0710001
-0.34680003 -0.11832001 1.0710001
-0.33958858 -0.11865143 1.074
-0.34680003 -0.11016001 1.0710001
-0.33864003 -0.11016001 1.0710001
-0.34777147 -0.10228572 1.074
-0.33958858 -0.10228572 1.074
-0.36413717 -0.094102867 1.074
-0.37944004 -0.085680008 1.0710001
-0.38868573 -0.077737145 1.074
-0.37944004 -0.061200004 1.0710001
-0.42840004 -0.044880003 1.0710001
-0.56052577 0.30685717 1.074
-0.55234289 0.30685717 1.074
-0.56712002 0.31416002 1.0710001
-0.54416001 0.31504002 1.074
-0.57689148 0.32322288 1.074
-0.53597718 0.32322288 1.074
-0.57528001 0.33048001 1.0710001
-0.52632004 0.33048001 1.0710001
-0.58344007 0.33864003 1.0710001
-0.59325719 0.33958858 1.074
-0.51961148 0.33958858 1.074
-0.51961148 0.34777147 1.074
-0.52632004 0.35496002 1.0710001
-0.51961148 0.35595432 1.074
-0.59160006 0.36312002 1.0710001
-0.59976006 0.37128001 1.0710001
-0.5277943 0.38050288 1.074
-0.53448004 0.38760003 1.0710001
-0.53597718 0.40505147 1.074
-0.53597718 0.41323432 1.074
-0.61780578 0.42141718 1.074
-0.55080003 0.42024001 1.0710001
-0.54264003 0.42024001 1.0710001
-0.53597718 0.42141718 1.074
-0.55080003 0.42840004 1.0710001
-0.61780578 0.42960003 1.074
-0.54416001 0.42960003 1.074
-0.61780578 0.43778288 1.074
-0.6096229 0.43778288 1.074
-0.56052577 0.43778288 1.074
-0.55234289 0.43778288 1.074
-0.61608005 0.44472003 1.0710001
-0.60792005 0.44472003 1.0710001
-0.60144001 0.45414859 1.074
-0.59976006 0.46104002 1.0710001
-0.58507431 0.46233147 1.074
-0.59160006 0.46920004 1.0710001
-0.58344007 0.46920004 1.0710001
-0.57689148 0.47051433 1.074
-0.58344007 0.47736004 1.0710001
-0.56712002 0.47736004 1.0710001
-0.56712002 0.48552004 1.0710001
-0.56052577 0.48688003 1.074
-0.39834669 -0.24229334 1.0780001
-0.35728002 -0.21765335 1.0780001
-0.57904005 -0.20944001 1.0780001
-0.56261337 -0.20122668 1.0780001
-0.54618669 -0.20122668 1.0780001
-0.53797334 -0.19301334 1.0780001
-0.36549336 -0.15194668 1.0780001
-0.3737067 -0.14373334 1.0780001
-0.3737067 -0.13552001 1.0780001
-0.36549336 -0.12730667 1.0780001
-0.35728002 -0.12730667 1.0780001
-0.34906667 -0.12730667 1.0780001
-0.38192004 -0.078026675 1.0780001
-0.39834669 -0.069813341 1.0780001
-0.54618669 0.30800003 1.0780001
-0.52976006 0.32442668 1.0780001
-0.58725339 0.33264002 1.0780001
-0.59546673 0.34906667 1.0780001
-0.59546673 0.35728002 1.0780001
-0.52976006 0.36549336 1.0780001
-0.52976006 0.3737067 1.0780001
-0.52976006 0.39013335 1.0780001
-0.53797334 0.43120003 1.0780001
-0.54618669 0.43941337 1.0780001
-0.59546673 0.46405336 1.0780001
-0.57904005 0.46405336 1.0780001
-0.57082671 0.4722667 1.0780001
-0.56261337 0.48048005 1.0780001
-0.62183243 -0.21825907 1.0810001
-0.61359626 -0.21825907 1.0810001
-0.59712386 -0.21002287 1.0810001
-0.58888763 -0.21002287 1.0810001
-0.55594289 -0.20178668 1.0810001
-0.33356574 -0.11942477 1.0810001
-0.33356574 -0.11118858 1.0810001
-0.37474668 -0.086480007 1.0810001
-0.39121908 -0.070007622 1.0810001
-0.38298288 -0.070007622 1.0810001
-0.58065146 0.31709334 1.0810001
-0.53947049 0.31709334 1.0810001
-0.59712386 0.33356574 1.0810001
-0.52299815 0.33356574 1.0810001
-0.60536003 0.34180194 1.0810001
-0.60536003 0.35827431 1.0810001
-0.61359626 0.42416385 1.0810001
-0.53123432 0.42416385 1.0810001
-0.61359626 0.43240002 1.0810001
-0.53123432 0.43240002 1.0810001
-0.60536003 0.44063622 1.0810001
-0.53947049 0.44063622 1.0810001
-0.60536003 0.44887242 1.0810001
-0.59712386 0.45710859 1.0810001
-0.58888763 0.45710859 1.0810001
-0.56417906 0.47358099 1.0810001
-0.43400002 -0.3926667 1.085
-0.43400002 -0.26866668 1.085
-0.50980574 -0.26112002 1.0880001
-0.43400002 -0.26040003 1.085
-0.4174667 -0.26040003 1.085
-0.42573336 -0.25213334 1.085
-0.4174667 -0.25213334 1.085
-0.40920001 -0.25213334 1.085
-0.40093336 -0.25213334 1.085
-0.3926667 -0.24386668 1.085
-0.38440004 -0.24386668 1.085
-0.35960004 -0.22733335 1.085
-0.35230479 -0.22796191 1.0880001
-0.60928005 -0.2196724 1.0880001
-0.60099053 -0.2196724 1.0880001
-0.59270102 -0.2196724 1.0880001
-0.35133335 -0.21906668 1.085
-0.33572572 -0.2196724 1.0880001
-0.57453334 -0.21080001 1.085
-0.56783241 -0.21138287 1.0880001
-0.55954289 -0.21138287 1.0880001
-0.47533336 -0.21080001 1.085
-0.54146671 -0.20253335 1.085
-0.53320003 -0.19426668 1.085
-0.36786669 -0.17773335 1.085
-0.3605943 -0.17822477 1.0880001
-0.35230479 -0.17822477 1.0880001
-0.35960004 -0.16946667 1.085
-0.35133335 -0.16946667 1.085
-0.34306669 -0.16946667 1.085
-0.35230479 -0.16164573 1.0880001
-0.34401527 -0.16164573 1.0880001
-0.33572572 -0.16164573 1.0880001
-0.35960004 -0.15293334 1.085
-0.36786669 -0.14466667 1.085
-0.36786669 -0.13640001 1.085
-0.3605943 -0.13677715 1.0880001
-0.34306669 -0.12813334 1.085
-0.33572572 -0.12848763 1.0880001
-0.32743621 -0.1201981 1.0880001
-0.32743621 -0.11190858 1.0880001
-0.33480003 -0.10333334 1.085
-0.35960004 -0.095066674 1.085
-0.34401527 -0.095329531 1.0880001
-0.36786669 -0.086800009 1.085
-0.37613335 -0.078533337 1.085
-0.37717336 -0.07046096 1.0880001
-0.56783241 0.30256763 1.0880001
-0.55954289 0.30256763 1.0880001
-0.55125338 0.30256763 1.0880001
-0.57453334 0.31000003 1.085
-0.54146671 0.31000003 1.085
-0.53467435 0.31085718 1.0880001
-0.59270102 0.31914669 1.0880001
-0.53467435 0.31914669 1.0880001
-0.59106672 0.32653335 1.085
-0.60099053 0.32743621 1.0880001
-0.60760003 0.33480003 1.085
-0.51666671 0.34306669 1.085
-0.60760003 0.35133335 1.085
-0.51666671 0.35133335 1.085
-0.51809525 0.3605943 1.0880001
-0.50980574 0.3605943 1.0880001
-0.60760003 0.36786669 1.085
-0.52493334 0.36786669 1.085
-0.51809525 0.36888385 1.0880001
-0.52638477 0.37717336 1.0880001
-0.53320003 0.40093336 1.085
-0.62585908 0.41033146 1.0880001
-0.59933335 0.40920001 1.085
-0.53467435 0.41033146 1.0880001
-0.62413335 0.4174667 1.085
-0.61756957 0.41862097 1.0880001
-0.59270102 0.41862097 1.0880001
-0.53467435 0.41862097 1.0880001
-0.58280003 0.42573336 1.085
-0.60928005 0.42691049 1.0880001
-0.60760003 0.43400002 1.085
-0.59933335 0.4422667 1.085
-0.53320003 0.4422667 1.085
-0.59933335 0.45053336 1.085
-0.59270102 0.45177907 1.0880001
-0.55125338 0.45177907 1.0880001
-0.54296386 0.45177907 1.0880001
-0.53467435 0.45177907 1.0880001
-0.58280003 0.45880002 1.085
-0.57612193 0.46006861 1.0880001
-0.57453334 0.46706671 1.085
-0.56626672 0.46706671 1.085
-0.55800003 0.46706671 1.085
-0.55800003 0.47533336 1.085
-0.63589716 -0.4031505 1.0910001
-0.63589716 -0.39483812 1.0910001
-0.41146287 -0.26184002 1.0910001
-0.4031505 -0.26184002 1.0910001
-0.39483812 -0.25352764 1.0910001
-0.62758482 -0.22859049 1.0910001
-0.61927241 -0.22859049 1.0910001
-0.58602291 -0.22027811 1.0910001
-0.3615886 -0.14546667 1.0910001
-0.35327622 -0.1371543 1.0910001
-0.3200267 -0.12052953 1.0910001
-0.3615886 -0.087280005 1.0910001
-0.36990097 -0.078967623 1.0910001
-0.33665144 -0.070655242 1.0910001
-0.56108576 0.29508954 1.0910001
-0.55277336 0.29508954 1.0910001
-0.54446101 0.30340192 1.0910001
-0.58602291 0.31171429 1.0910001
-0.61096007 0.32833907 1.0910001
-0.5278362 0.32833907 1.0910001
-0.51121145 0.36990097 1.0910001
-0.5278362 0.39483812 1.0910001
-0.5278362 0.4031505 1.0910001
-0.61096007 0.41977528 1.0910001
-0.60264766 0.41977528 1.0910001
-0.60264766 0.42808765 1.0910001
-0.5278362 0.42808765 1.0910001
-0.60264766 0.43640003 1.0910001
-0.5278362 0.43640003 1.0910001
-0.59433526 0.4447124 1.0910001
-0.5278362 0.4447124 1.0910001
-0.58602291 0.4530248 1.0910001
-0.57771051 0.4530248 1.0910001
-0.56939811 0.46133718 1.0910001
-0.55277336 0.46133718 1.0910001
-0.54446101 0.46133718 1.0910001
-0.53614861 0.46133718 1.0910001
-0.41410288 -0.40573716 1.098
-0.40573716 -0.40573716 1.098
-0.4213143 -0.4046286 1.095
-0.43083432 -0.39737144 1.098
-0.4224686 -0.39737144 1.098
-0.63997716 -0.38900575 1.098
-0.4224686 -0.38900575 1.098
-0.63997716 -0.38064003 1.098
-0.41410288 -0.27188572 1.098
-0.40573716 -0.27188572 1.098
-0.39628574 -0.26280001 1.095
-0.38900575 -0.25515431 1.098
-0.37227431 -0.23842287 1.098
-0.61320007 -0.22942859 1.095
-0.3462286 -0.22942859 1.095
-0.5814172 -0.22169144 1.098
-0.57305145 -0.22169144 1.098
-0.3462286 -0.22108573 1.095
-0.55632001 -0.21332572 1.098
-0.53958863 -0.20496002 1.098
-0.52977145 -0.19605716 1.095
-0.35554287 -0.15476573 1.098
-0.34717718 -0.15476573 1.098
-0.35554287 -0.1464 1.098
-0.34717718 -0.1464 1.098
-0.3462286 -0.13765715 1.095
-0.32954288 -0.12931429 1.095
-0.32208002 -0.12966858 1.098
-0.3137143 -0.12130287 1.098
-0.32120001 -0.11262858 1.095
-0.35457146 -0.095942862 1.095
-0.34717718 -0.087840006 1.098
-0.36390859 -0.079474293 1.098
-0.37227431 -0.07110858 1.098
-0.57305145 0.29698288 1.098
-0.54795432 0.29698288 1.098
-0.57982862 0.30451432 1.095
-0.61488003 0.32208002 1.098
-0.60485721 0.32120001 1.095
-0.52142859 0.33788574 1.095
-0.51308572 0.35457146 1.095
-0.52142859 0.37960002 1.095
-0.51449144 0.38064003 1.098
-0.52977145 0.38794288 1.095
-0.52285719 0.38900575 1.098
-0.63161147 0.40573716 1.098
-0.52977145 0.41297147 1.095
-0.62324578 0.41410288 1.098
-0.61488003 0.41410288 1.098
-0.53122288 0.4224686 1.098
-0.59651434 0.42965716 1.095
-0.59651434 0.43800002 1.095
-0.58978289 0.43920004 1.098
-0.58817148 0.44634289 1.095
-0.5814172 0.44756573 1.098
-0.57148576 0.45468575 1.095
-0.5631429 0.45468575 1.095
-0.52977145 0.45468575 1.095
-0.5631429 0.46302861 1.095
-0.55632001 0.4726629 1.098
-0.63391244 -0.39881906 1.102
-0.41561145 -0.39881906 1.102
-0.41561145 -0.39042288 1.102
-0.40721527 -0.28127241 1.102
-0.51636577 -0.2728762 1.102
-0.42400765 -0.2728762 1.102
-0.3820267 -0.24768764 1.102
-0.63391244 -0.23929144 1.102
-0.62551624 -0.23929144 1.102
-0.36523432 -0.23929144 1.102
-0.60872388 -0.23089525 1.102
-0.60032767 -0.23089525 1.102
-0.34004575 -0.23089525 1.102
-0.5667429 -0.22249906 1.102
-0.54155433 -0.22249906 1.102
-0.48278099 -0.22249906 1.102
-0.54995054 -0.21410286 1.102
-0.54155433 -0.21410286 1.102
-0.53315812 -0.21410286 1.102
-0.28966859 -0.18051811 1.102
-0.32325336 -0.17212191 1.102
-0.34004575 -0.13853715 1.102
-0.31485716 -0.13014096 1.102
-0.30646098 -0.12174477 1.102
-0.31485716 -0.11334858 1.102
-0.35683811 -0.088160008 1.102
-0.36523432 -0.071367621 1.102
-0.60032767 0.31485716 1.102
-0.53315812 0.32325336 1.102
-0.52476192 0.33164954 1.102
-0.51636577 0.34844193 1.102
-0.50796956 0.37363049 1.102
-0.50796956 0.3820267 1.102
-0.51636577 0.39042288 1.102
-0.52476192 0.39881906 1.102
-0.53315812 0.46598861 1.102
-0.55834669 0.48278099 1.102
-0.63563812 -0.40832382 1.105
-0.40980193 -0.40135241 1.1090001
-0.41674289 -0.38306668 1.105
-0.64405721 -0.37464765 1.105
-0.42516193 -0.28203812 1.105
-0.41674289 -0.28203812 1.105
-0.40135241 -0.27460954 1.1090001
-0.39290288 -0.26616001 1.1090001
-0.38445336 -0.25771049 1.1090001
-0.36755431 -0.24926096 1.1090001
-0.37464765 -0.24836192 1.105
-0.35910478 -0.24081144 1.1090001
-0.61880004 -0.23994288 1.105
-0.59569144 -0.23236191 1.1090001
-0.58724195 -0.23236191 1.1090001
-0.46049908 -0.23236191 1.1090001
-0.33375621 -0.23236191 1.1090001
-0.55986673 -0.22310477 1.105
-0.55344385 -0.2239124 1.1090001
-0.36622861 -0.21468572 1.105
-0.53460956 -0.20626669 1.105
-0.32413337 -0.18100953 1.105
-0.28203812 -0.18100953 1.105
-0.27361906 -0.18100953 1.105
-0.26520002 -0.18100953 1.105
-0.2988762 -0.17259049 1.105
-0.29045716 -0.17259049 1.105
-0.27460954 -0.17321526 1.1090001
-0.26520002 -0.17259049 1.105
-0.25678098 -0.17259049 1.105
-0.2988762 -0.16417144 1.105
-0.34220573 -0.15631621 1.1090001
-0.34220573 -0.14786668 1.1090001
-0.33375621 -0.13941716 1.1090001
-0.30729526 -0.13049525 1.105
-0.29995811 -0.1225181 1.1090001
-0.30840763 -0.11406858 1.1090001
-0.33375621 -0.10561906 1.1090001
-0.34220573 -0.088720009 1.1090001
-0.35780954 -0.079980955 1.105
-0.35065526 -0.080270484 1.1090001
-0.34220573 -0.080270484 1.1090001
-0.35780954 -0.07156191 1.105
-0.5703429 0.29150859 1.1090001
-0.56189334 0.29150859 1.1090001
-0.55344385 0.29150859 1.1090001
-0.58724195 0.29995811 1.1090001
-0.54499429 0.29995811 1.1090001
-0.59354287 0.30729526 1.105
-0.54499429 0.30840763 1.1090001
-0.62721908 0.3157143 1.105
-0.5365448 0.31685716 1.1090001
-0.52619052 0.32413337 1.105
-0.5111962 0.36755431 1.1090001
-0.5111962 0.39290288 1.1090001
-0.63563812 0.39990479 1.105
-0.61259049 0.40135241 1.1090001
-0.51964575 0.40135241 1.1090001
-0.52809525 0.40980193 1.1090001
-0.52619052 0.45041907 1.105
-0.52619052 0.45883814 1.105
-0.5365448 0.47739813 1.1090001
-0.63176006 -0.41128004 1.113
-0.64024001 -0.39432001 1.113
-0.41128004 -0.39432001 1.113
-0.45368004 -0.28408003 1.113
-0.61480004 -0.24168001 1.113
-0.60632002 -0.24168001 1.113
-0.59784001 -0.24168001 1.113
-0.58088005 -0.23320001 1.113
-0.57240003 -0.23320001 1.113
-0.47912005 -0.23320001 1.113
-0.47912005 -0.22472002 1.113
-0.28408003 -0.17384002 1.113
-0.33496001 -0.16536 1.113
-0.32648003 -0.13992001 1.113
-0.31800002 -0.13992001 1.113
-0.32648003 -0.10600001 1.113
-0.35192001 -0.072080001 1.113
-0.64024001 0.097520009 1.113
-0.61480004 0.31800002 1.113
-0.52152002 0.34344003 1.113
-0.50456005 0.37736002 1.113
-0.50456005 0.38584003 1.113
-0.64024001 0.39432001 1.113
-0.63176006 0.39432001 1.113
-0.62328005 0.40280002 1.113
-0.51304001 0.40280002 1.113
-0.63176006 0.41128004 1.113
-0.62328005 0.41128004 1.113
-0.52152002 0.41128004 1.113
-0.53000003 0.48760003 1.113
-0.30952001 0.50456005 1.113
-0.40388575 -0.41238859 1.1160001
-0.63346291 -0.40388575 1.1160001
-0.62496006 -0.39538288 1.1160001
-0.41238859 -0.38688004 1.1160001
-0.42089146 -0.37837717 1.1160001
-0.53142864 -0.28484574 1.1160001
-0.40388575 -0.28484574 1.1160001
-0.45490289 -0.27634287 1.1160001
-0.38688004 -0.26784003 1.1160001
-0.64196575 -0.25933716 1.1160001
-0.37837717 -0.25933716 1.1160001
-0.64196575 -0.25083432 1.1160001
-0.63346291 -0.25083432 1.1160001
-0.35286859 -0.24233145 1.1160001
-0.34436575 -0.24233145 1.1160001
-0.4719086 -0.23382859 1.1160001
-0.36137146 -0.21682288 1.1160001
-0.35286859 -0.21682288 1.1160001
-0.53142864 -0.20832001 1.1160001
-0.31035429 -0.17430858 1.1160001
-0.33586287 -0.15730287 1.1160001
-0.30185145 -0.13179429 1.1160001
-0.29334858 -0.13179429 1.1160001
-0.29334858 -0.12329144 1.1160001
-0.34436575 -0.097782865 1.1160001
-0.58244574 0.29334858 1.1160001
-0.54843432 0.29334858 1.1160001
-0.53993148 0.30185145 1.1160001
-0.60795432 0.31035429 1.1160001
-0.53993148 0.31035429 1.1160001
-0.53142864 0.31885716 1.1160001
-0.52292573 0.33586287 1.1160001
-0.49741718 0.38688004 1.1160001
-0.50592005 0.39538288 1.1160001
-0.63346291 0.40388575 1.1160001
-0.53142864 0.42089146 1.1160001
-0.53142864 0.44640002 1.1160001
-0.53142864 0.4719086 1.1160001
-0.53142864 0.48041147 1.1160001
-0.53993148 0.48891431 1.1160001
-0.31035429 0.49741718 1.1160001
-0.34436575 0.50592005 1.1160001
-0.32736003 0.50592005 1.1160001
-0.31885716 0.50592005 1.1160001
-0.30185145 0.50592005 1.1160001
-0.62888002 -0.40641907 1.123
-0.40533337 -0.40533337 1.12
-0.40533337 -0.39680001 1.12
-0.64426672 -0.38826668 1.12
-0.62888002 -0.38930669 1.123
-0.64426672 -0.37973335 1.12
-0.41497526 -0.38075051 1.123
-0.6459924 -0.37219432 1.123
-0.42240003 -0.37120003 1.12
-0.4650667 -0.28586668 1.12
-0.39680001 -0.27733335 1.12
-0.38930669 -0.2780762 1.123
-0.37219432 -0.26096383 1.123
-0.60321146 -0.25240764 1.123
-0.35508192 -0.25240764 1.123
-0.34652573 -0.25240764 1.123
-0.62720007 -0.25173336 1.12
-0.61866671 -0.25173336 1.12
-0.61013335 -0.25173336 1.12
-0.3626667 -0.25173336 1.12
-0.59306669 -0.24320002 1.12
-0.58453339 -0.24320002 1.12
-0.5775429 -0.24385144 1.123
-0.47360003 -0.24320002 1.12
-0.33706668 -0.24320002 1.12
-0.56746668 -0.23466668 1.12
-0.56043053 -0.23529525 1.123
-0.55187434 -0.23529525 1.123
-0.49198097 -0.23529525 1.123
-0.32853335 -0.23466668 1.12
-0.30293337 -0.18346667 1.12
-0.32853335 -0.16640002 1.12
-0.32853335 -0.15786667 1.12
-0.32000002 -0.15786667 1.12
-0.33706668 -0.14933334 1.12
-0.32853335 -0.14933334 1.12
-0.32000002 -0.14933334 1.12
-0.31146669 -0.14080001 1.12
-0.28586668 -0.13226667 1.12
-0.28663239 -0.12406477 1.123
-0.30293337 -0.11520001 1.12
-0.32085717 -0.10695239 1.123
-0.33706668 -0.09813334 1.12
-0.32941335 -0.098396197 1.123
-0.33706668 -0.089600004 1.12
-0.64426672 0.10666668 1.12
-0.56898671 0.28663239 1.123
-0.56043053 0.28663239 1.123
-0.59465528 0.29518858 1.123
-0.60160005 0.30293337 1.12
-0.51764953 0.34652573 1.123
-0.5162667 0.3626667 1.12
-0.50773335 0.37120003 1.12
-0.50053716 0.38075051 1.123
-0.49920005 0.39680001 1.12
-0.50909334 0.40641907 1.123
-0.5162667 0.4138667 1.12
-0.52620578 0.42353144 1.123
-0.53476197 0.43208766 1.123
-0.53476197 0.44064385 1.123
-0.55893338 0.48213336 1.12
-0.55040002 0.48213336 1.12
-0.56043053 0.49198097 1.123
-0.53476197 0.50053716 1.123
-0.32853335 0.49920005 1.12
-0.32000002 0.49920005 1.12
-0.30293337 0.49920005 1.12
-0.36363813 0.50909334 1.123
-0.35413337 0.50773335 1.12
-0.33706668 0.50773335 1.12
-0.29518858 0.50909334 1.123
-0.39928001 -0.41645336 1.1270001
-0.39928001 -0.40786669 1.1270001
-0.63970673 -0.39928001 1.1270001
-0.39928001 -0.39928001 1.1270001
-0.63970673 -0.39069337 1.1270001
-0.40786669 -0.39069337 1.1270001
-0.39928001 -0.39069337 1.1270001
-0.63112003 -0.38210669 1.1270001
-0.63112003 -0.37352002 1.1270001
-0.41645336 -0.37352002 1.1270001
-0.64829338 -0.36493337 1.1270001
-0.42504004 -0.36493337 1.1270001
-0.41645336 -0.36493337 1.1270001
-0.43362668 -0.33917335 1.1270001
-0.46797335 -0.27906668 1.1270001
-0.38210669 -0.27048001 1.1270001
-0.63970673 -0.26189336 1.1270001
-0.47656003 -0.26189336 1.1270001
-0.36493337 -0.26189336 1.1270001
-0.59677339 -0.25330669 1.1270001
-0.58818668 -0.25330669 1.1270001
-0.57101339 -0.24472001 1.1270001
-0.56242669 -0.24472001 1.1270001
-0.55384004 -0.24472001 1.1270001
-0.4851467 -0.24472001 1.1270001
-0.36493337 -0.21037334 1.1270001
-0.32200003 -0.18461335 1.1270001
-0.32200003 -0.16744001 1.1270001
-0.31341335 -0.15026668 1.1270001
-0.30482668 -0.14168 1.1270001
-0.29624003 -0.14168 1.1270001
-0.28765336 -0.14168 1.1270001
-0.27906668 -0.13309334 1.1270001
-0.29624003 -0.11592001 1.1270001
-0.33917335 -0.081573337 1.1270001
-0.62253338 0.098746672 1.1270001
-0.63970673 0.10733334 1.1270001
-0.63112003 0.10733334 1.1270001
-0.62253338 0.10733334 1.1270001
-0.57960004 0.28765336 1.1270001
-0.61394674 0.30482668 1.1270001
-0.53666669 0.31341335 1.1270001
-0.52808005 0.3305867 1.1270001
-0.51949334 0.33917335 1.1270001
-0.51949334 0.3563467 1.1270001
-0.5109067 0.36493337 1.1270001
-0.52808005 0.43362668 1.1270001
-0.52808005 0.44221336 1.1270001
-0.52808005 0.45080003 1.1270001
-0.52808005 0.45938671 1.1270001
-0.52808005 0.47656003 1.1270001
-0.52808005 0.4851467 1.1270001
-0.31341335 0.49373338 1.1270001
-0.30482668 0.49373338 1.1270001
-0.5452534 0.50232005 1.1270001
-0.29624003 0.50232005 1.1270001
-0.37352002 0.5109067 1.1270001
-0.64197719 -0.38346288 1.131
-0.4093143 -0.38346288 1.131
-0.41040003 -0.37584004 1.1340001
-0.64197719 -0.37484574 1.131
-0.4265486 -0.35761145 1.131
-0.42768002 -0.34992003 1.1340001
-0.43516573 -0.33176002 1.131
-0.42768002 -0.33264002 1.1340001
-0.4093143 -0.29729146 1.131
-0.40176001 -0.29808003 1.1340001
-0.47825146 -0.28867429 1.131
-0.40069717 -0.28867429 1.131
-0.39208004 -0.28867429 1.131
-0.48686859 -0.28005716 1.131
-0.47825146 -0.28005716 1.131
-0.38346288 -0.28005716 1.131
-0.48686859 -0.27144003 1.131
-0.47825146 -0.27144003 1.131
-0.46963432 -0.27144003 1.131
-0.46101716 -0.27144003 1.131
-0.37484574 -0.27144003 1.131
-0.63336003 -0.26282287 1.131
-0.62640005 -0.26352003 1.1340001
-0.46963432 -0.26282287 1.131
-0.46101716 -0.26282287 1.131
-0.35856003 -0.26352003 1.1340001
-0.58320004 -0.25488001 1.1340001
-0.55728006 -0.25488001 1.1340001
-0.32400003 -0.24624002 1.1340001
-0.31536001 -0.24624002 1.1340001
-0.46963432 -0.24558859 1.131
-0.33176002 -0.24558859 1.131
-0.32314289 -0.23697144 1.131
-0.31452572 -0.23697144 1.131
-0.34128001 -0.22896002 1.1340001
-0.34899431 -0.21973716 1.131
-0.35761145 -0.21112001 1.131
-0.35856003 -0.20304002 1.1340001
-0.34992003 -0.20304002 1.1340001
-0.34899431 -0.19388573 1.131
-0.34128001 -0.19440001 1.1340001
-0.31452572 -0.18526858 1.131
-0.30590859 -0.1508 1.131
-0.29808003 -0.15120001 1.1340001
-0.28080001 -0.14256001 1.1340001
-0.27216002 -0.13392001 1.1340001
-0.28005716 -0.12494858 1.131
-0.31452572 -0.1077143 1.131
-0.30590859 -0.1077143 1.131
-0.32314289 -0.099097148 1.131
-0.31536001 -0.099360004 1.1340001
-0.33176002 -0.090480007 1.131
-0.33176002 -0.081862859 1.131
-0.62640005 0.090720005 1.1340001
-0.61612576 0.090480007 1.131
-0.64197719 0.099097148 1.131
-0.63336003 0.099097148 1.131
-0.57304001 0.28005716 1.131
-0.56592005 0.28080001 1.1340001
-0.60048002 0.28944001 1.1340001
-0.59027433 0.28867429 1.131
-0.61776006 0.29808003 1.1340001
-0.6075086 0.29729146 1.131
-0.63336003 0.31452572 1.131
-0.62474293 0.31452572 1.131
-0.51408005 0.35856003 1.1340001
-0.50544006 0.37584004 1.1340001
-0.49548575 0.38346288 1.131
-0.49548575 0.39208004 1.131
-0.48816004 0.39312002 1.1340001
-0.49548575 0.40069717 1.131
-0.50410289 0.4093143 1.131
-0.51272005 0.41793147 1.131
-0.52133715 0.4265486 1.131
-0.52272004 0.43632004 1.1340001
-0.53136003 0.47088003 1.1340001
-0.52272004 0.47952002 1.1340001
-0.31536001 0.47952002 1.1340001
-0.30672002 0.47952002 1.1340001
-0.32400003 0.48816004 1.1340001
-0.31452572 0.48686859 1.131
-0.30590859 0.48686859 1.131
-0.29808003 0.48816004 1.1340001
-0.52995431 0.49548575 1.131
-0.33264002 0.49680004 1.1340001
-0.32314289 0.49548575 1.131
-0.29808003 0.49680004 1.1340001
-0.28944001 0.49680004 1.1340001
-0.53136003 0.50544006 1.1340001
-0.34899431 0.50410289 1.131
-0.34037715 0.50410289 1.131
-0.28944001 0.50544006 1.1340001
-0.28867429 0.51272005 1.131
-0.28005716 0.51272005 1.131
-0.54000002 0.51408005 1.1340001
-0.39312002 0.51408005 1.1340001
-0.38448003 0.51408005 1.1340001
-0.27216002 0.51408005 1.1340001
-0.40317717 -0.37716573 1.138
-0.65462101 -0.35982478 1.138
-0.42051813 -0.35982478 1.138
-0.42918861 -0.34248382 1.138
-0.49855241 -0.28179049 1.138
-0.65462101 -0.27312002 1.138
-0.6459505 -0.27312002 1.138
-0.49855241 -0.27312002 1.138
-0.34248382 -0.25577906 1.138
-0.30780193 -0.23843811 1.138
-0.29913145 -0.23843811 1.138
-0.3511543 -0.21242668 1.138
-0.31647241 -0.19508573 1.138
-0.30780193 -0.19508573 1.138
-0.26444954 -0.1343924 1.138
-0.27312002 -0.12572192 1.138
-0.29046097 -0.11705144 1.138
-0.29913145 -0.10838096 1.138
-0.32514289 -0.091040008 1.138
-0.32514289 -0.082369529 1.138
-0.63728005 0.091040008 1.138
-0.57658672 0.27312002 1.138
-0.56791621 0.27312002 1.138
-0.58525717 0.28179049 1.138
-0.55057526 0.29913145 1.138
-0.48988193 0.38583621 1.138
-0.48988193 0.40317717 1.138
-0.52456385 0.4638705 1.138
-0.52456385 0.47254097 1.138
-0.30780193 0.47254097 1.138
-0.32514289 0.48121145 1.138
-0.29913145 0.48121145 1.138
-0.52456385 0.48988193 1.138
-0.52456385 0.49855241 1.138
-0.3511543 0.49855241 1.138
-0.34248382 0.49855241 1.138
-0.28179049 0.49855241 1.138
-0.36849526 0.50722289 1.138
-0.35982478 0.50722289 1.138
-0.28179049 0.50722289 1.138
-0.40317717 0.51589334 1.138
-0.26444954 0.51589334 1.138
-0.64822102 -0.36979049 1.1420001
-0.65692192 -0.35238859 1.1420001
-0.42199621 -0.35238859 1.1420001
-0.65692192 -0.34368765 1.1420001
-0.62211812 -0.29148191 1.1420001
-0.3871924 -0.29148191 1.1420001
-0.5525105 -0.28278098 1.1420001
-0.52640766 -0.28278098 1.1420001
-0.50900573 -0.28278098 1.1420001
-0.63952005 -0.27408001 1.1420001
-0.50900573 -0.27408001 1.1420001
-0.36979049 -0.27408001 1.1420001
-0.62211812 -0.26537907 1.1420001
-0.61341721 -0.26537907 1.1420001
-0.60471624 -0.26537907 1.1420001
-0.59601527 -0.26537907 1.1420001
-0.35238859 -0.26537907 1.1420001
-0.5786134 -0.2566781 1.1420001
-0.56991243 -0.2566781 1.1420001
-0.49160385 -0.2566781 1.1420001
-0.33498669 -0.2566781 1.1420001
-0.32628575 -0.2566781 1.1420001
-0.30888382 -0.24797715 1.1420001
-0.33498669 -0.23057525 1.1420001
-0.34368765 -0.20447239 1.1420001
-0.29148191 -0.15226668 1.1420001
-0.27408001 -0.14356573 1.1420001
-0.26537907 -0.14356573 1.1420001
-0.30888382 -0.10006096 1.1420001
-0.31758478 -0.091360003 1.1420001
-0.63081908 0.056556195 1.1420001
-0.63081908 0.065257147 1.1420001
-0.63081908 0.082659051 1.1420001
-0.62211812 0.082659051 1.1420001
-0.59601527 0.28278098 1.1420001
-0.63081908 0.30888382 1.1420001
-0.53510863 0.32628575 1.1420001
-0.52640766 0.33498669 1.1420001
-0.51770669 0.35238859 1.1420001
-0.50900573 0.36979049 1.1420001
-0.50030482 0.37849146 1.1420001
-0.48290288 0.39589337 1.1420001
-0.50900573 0.42199621 1.1420001
-0.51770669 0.43069717 1.1420001
-0.52640766 0.44809908 1.1420001
-0.52640766 0.45680004 1.1420001
-0.31758478 0.47420195 1.1420001
-0.35238859 0.49160385 1.1420001
-0.34368765 0.49160385 1.1420001
-0.33498669 0.49160385 1.1420001
-0.29148191 0.49160385 1.1420001
-0.52640766 0.50900573 1.1420001
-0.37849146 0.50900573 1.1420001
-0.27408001 0.50900573 1.1420001
-0.26537907 0.50900573 1.1420001
-0.53510863 0.51770669 1.1420001
-0.42199621 0.51770669 1.1420001
-0.41329527 0.51770669 1.1420001
-0.39728004 -0.3012343 1.146
-0.61556578 -0.29250288 1.146
-0.6592229 -0.28377146 1.146
-0.65049148 -0.28377146 1.146
-0.6242972 -0.28377146 1.146
-0.51952004 -0.28377146 1.146
-0.37981716 -0.28377146 1.146
-0.63302863 -0.27504003 1.146
-0.51952004 -0.27504003 1.146
-0.36235431 -0.27504003 1.146
-0.51078862 -0.26630858 1.146
-0.50205719 -0.26630858 1.146
-0.49332574 -0.26630858 1.146
-0.51078862 -0.25757715 1.146
-0.50205719 -0.24884573 1.146
-0.3012343 -0.24884573 1.146
-0.29250288 -0.2401143 1.146
-0.28377146 -0.2401143 1.146
-0.34489146 -0.22265144 1.146
-0.33616003 -0.20518859 1.146
-0.32742858 -0.19645716 1.146
-0.30996573 -0.16153143 1.146
-0.3012343 -0.16153143 1.146
-0.28377146 -0.15280001 1.146
-0.25757715 -0.14406858 1.146
-0.25757715 -0.13533716 1.146
-0.63302863 0.074217148 1.146
-0.6242972 0.074217148 1.146
-0.61556578 0.29250288 1.146
-0.56317717 0.29250288 1.146
-0.54571432 0.30996573 1.146
-0.53698289 0.31869715 1.146
-0.51952004 0.34489146 1.146
-0.51078862 0.36235431 1.146
-0.48459432 0.38854858 1.146
-0.50205719 0.41474289 1.146
-0.51952004 0.44966859 1.146
-0.51952004 0.45840004 1.146
-0.31869715 0.46713147 1.146
-0.30996573 0.46713147 1.146
-0.33616003 0.47586289 1.146
-0.32742858 0.47586289 1.146
-0.3012343 0.47586289 1.146
-0.33616003 0.48459432 1.146
-0.29250288 0.48459432 1.146
-0.28377146 0.49332574 1.146
-0.51952004 0.50205719 1.146
-0.36235431 0.50205719 1.146
-0.27504003 0.50205719 1.146
-0.51952004 0.51078862 1.146
-0.41474289 0.51078862 1.146
-0.40601146 0.51078862 1.146
-0.39728004 0.51078862 1.146
-0.38854858 0.51078862 1.146
-0.52825147 0.51952004 1.146
-0.51952004 0.51952004 1.146
-0.25757715 0.51952004 1.146
-0.64400005 -0.37238097 1.1500001
-0.41619051 -0.37238097 1.1500001
-0.40849146 -0.37335241 1.153
-0.65276194 -0.36361906 1.1500001
-0.4172762 -0.36456764 1.153
-0.65276194 -0.35485718 1.1500001
-0.4172762 -0.35578287 1.153
-0.42495242 -0.34609526 1.1500001
-0.39092192 -0.3030743 1.153
-0.66324955 -0.29428953 1.153
-0.38213718 -0.29428953 1.153
-0.63523811 -0.29352382 1.1500001
-0.61932576 -0.28550479 1.153
-0.37335241 -0.28550479 1.153
-0.64400005 -0.28476194 1.1500001
-0.63523811 -0.28476194 1.1500001
-0.62647623 -0.27600002 1.1500001
-0.61771435 -0.27600002 1.1500001
-0.61054099 -0.27672002 1.153
-0.59142864 -0.26723811 1.1500001
-0.5826667 -0.26723811 1.1500001
-0.34609526 -0.26723811 1.1500001
-0.55783242 -0.25915051 1.153
-0.53009528 -0.2584762 1.1500001
-0.5226934 -0.25915051 1.153
-0.50512385 -0.25915051 1.153
-0.48628575 -0.2584762 1.1500001
-0.32064384 -0.25915051 1.153
-0.2584762 -0.2584762 1.1500001
-0.2497143 -0.2584762 1.1500001
-0.29352382 -0.2497143 1.1500001
-0.32942858 -0.23279621 1.153
-0.34609526 -0.21466668 1.1500001
-0.32857144 -0.20590478 1.1500001
-0.32064384 -0.20644192 1.153
-0.31185907 -0.20644192 1.153
-0.3030743 -0.20644192 1.153
-0.33733335 -0.19714287 1.1500001
-0.29428953 -0.1625181 1.153
-0.28550479 -0.1625181 1.153
-0.27600002 -0.15333334 1.1500001
-0.26723811 -0.15333334 1.1500001
-0.25036573 -0.14494859 1.153
-0.2497143 -0.13580953 1.1500001
-0.26723811 -0.12704763 1.1500001
-0.25915051 -0.12737906 1.153
-0.28476194 -0.11828572 1.1500001
-0.27672002 -0.1185943 1.153
-0.29428953 -0.10980953 1.153
-0.30228573 -0.10076191 1.1500001
-0.31104764 -0.092000008 1.1500001
-0.3030743 -0.092240006 1.153
-0.32064384 -0.083455242 1.153
-0.62647623 0.056952383 1.1500001
-0.62811053 0.065885715 1.153
-0.59297144 0.27672002 1.153
-0.6089524 0.28476194 1.1500001
-0.56661719 0.28550479 1.153
-0.53009528 0.32857144 1.1500001
-0.5213334 0.33733335 1.1500001
-0.51257145 0.34609526 1.1500001
-0.51257145 0.35485718 1.1500001
-0.50512385 0.37335241 1.153
-0.49633908 0.38213718 1.153
-0.48628575 0.40742859 1.1500001
-0.49633908 0.4172762 1.153
-0.5213334 0.44247621 1.1500001
-0.51390862 0.46120003 1.153
-0.32857144 0.46000004 1.1500001
-0.31980956 0.46000004 1.1500001
-0.31104764 0.46000004 1.1500001
-0.3030743 0.46120003 1.153
-0.5213334 0.46876192 1.1500001
-0.51390862 0.4699848 1.153
-0.33733335 0.46876192 1.1500001
-0.32857144 0.46876192 1.1500001
-0.30228573 0.46876192 1.1500001
-0.5213334 0.47752383 1.1500001
-0.51390862 0.47876954 1.153
-0.34699813 0.47876954 1.153
-0.29352382 0.47752383 1.1500001
-0.28550479 0.47876954 1.153
-0.5213334 0.48628575 1.1500001
-0.51390862 0.48755431 1.153
-0.35485718 0.48628575 1.1500001
-0.34609526 0.48628575 1.1500001
-0.28476194 0.48628575 1.1500001
-0.5213334 0.49504766 1.1500001
-0.36456764 0.49633908 1.153
-0.27600002 0.49504766 1.1500001
-0.39866668 0.50380957 1.1500001
-0.26723811 0.50380957 1.1500001
-0.51390862 0.50512385 1.153
-0.4172762 0.50512385 1.153
-0.40849146 0.50512385 1.153
-0.39092192 0.50512385 1.153
-0.38213718 0.50512385 1.153
-0.37335241 0.50512385 1.153
-0.25915051 0.50512385 1.153
-0.42495242 0.51257145 1.1500001
-0.2584762 0.51257145 1.1500001
-0.51390862 0.51390862 1.153
-0.4337143 0.5213334 1.1500001
-0.51390862 0.5226934 1.153
-0.44363052 0.5226934 1.153
-0.25036573 0.5226934 1.153
-0.64792007 -0.36583242 1.1570001
-0.64792007 -0.35701716 1.1570001
-0.63910478 -0.35701716 1.1570001
-0.40990859 -0.35701716 1.1570001
-0.6567353 -0.34820193 1.1570001
-0.41872385 -0.34820193 1.1570001
-0.66555053 -0.3393867 1.1570001
-0.42753908 -0.3393867 1.1570001
-0.43635431 -0.33057144 1.1570001
-0.64792007 -0.2953105 1.1570001
-0.54213721 -0.2953105 1.1570001
-0.36583242 -0.28649527 1.1570001
-0.60384387 -0.27768001 1.1570001
-0.53332192 -0.27768001 1.1570001
-0.35701716 -0.27768001 1.1570001
-0.57739812 -0.26886478 1.1570001
-0.53332192 -0.26886478 1.1570001
-0.52450669 -0.26886478 1.1570001
-0.3393867 -0.26886478 1.1570001
-0.48043051 -0.26004955 1.1570001
-0.31294098 -0.26004955 1.1570001
-0.30412573 -0.26004955 1.1570001
-0.2953105 -0.26004955 1.1570001
-0.28649527 -0.25123429 1.1570001
-0.3393867 -0.22478859 1.1570001
-0.3393867 -0.21597335 1.1570001
-0.33057144 -0.21597335 1.1570001
-0.28649527 -0.19834287 1.1570001
-0.30412573 -0.17189716 1.1570001
-0.27768001 -0.16308191 1.1570001
-0.24241906 -0.14545144 1.1570001
-0.24241906 -0.1366362 1.1570001
-0.28649527 -0.11019048 1.1570001
-0.2953105 -0.10137524 1.1570001
-0.62147433 0.030853335 1.1570001
-0.62147433 0.039668575 1.1570001
-0.63028955 0.048483811 1.1570001
-0.62147433 0.048483811 1.1570001
-0.62147433 0.057299051 1.1570001
-0.62147433 0.066114292 1.1570001
-0.60384387 0.27768001 1.1570001
-0.56858289 0.27768001 1.1570001
-0.63028955 0.2953105 1.1570001
-0.55976766 0.2953105 1.1570001
-0.55095243 0.30412573 1.1570001
-0.50687623 0.36583242 1.1570001
-0.48043051 0.39227813 1.1570001
-0.48043051 0.40109336 1.1570001
-0.50687623 0.42753908 1.1570001
-0.51569146 0.43635431 1.1570001
-0.32175621 0.4539848 1.1570001
-0.31294098 0.4539848 1.1570001
-0.30412573 0.4539848 1.1570001
-0.3393867 0.46280003 1.1570001
-0.50687623 0.47161525 1.1570001
