# .PCD v0.7 - Point Cloud Data file format
VERSION 0.7
FIELDS x y z
SIZE 4 4 4
TYPE F F F
COUNT 1 1 1
WIDTH 1488
HEIGHT 1
VIEWPOINT 0 0 0 1 0 0 0
POINTS 1488
DATA ascii
-0.32853335 -0.15786667 1.12
-0.33706668 -0.14933334 1.12
-0.32853335 -0.14933334 1.12
-0.64426672 0.10666668 1.12
-0.56898671 0.28663239 1.123
-0.56043053 0.28663239 1.123
-0.59465528 0.29518858 1.123
-0.60160005 0.30293337 1.12
-0.39928001 -0.41645336 1.1270001
-0.39928001 -0.40786669 1.1270001
-0.63970673 -0.39928001 1.1270001
-0.39928001 -0.39928001 1.1270001
-0.63970673 -0.39069337 1.1270001
-0.40786669 -0.39069337 1.1270001
-0.39928001 -0.39069337 1.1270001
-0.63112003 -0.38210669 1.1270001
-0.63112003 -0.37352002 1.1270001
-0.41645336 -0.37352002 1.1270001
-0.64829338 -0.36493337 1.1270001
-0.42504004 -0.36493337 1.1270001
-0.41645336 -0.36493337 1.1270001
-0.43362668 -0.33917335 1.1270001
-0.46797335 -0.27906668 1.1270001
-0.38210669 -0.27048001 1.1270001
-0.63970673 -0.26189336 1.1270001
-0.47656003 -0.26189336 1.1270001
-0.36493337 -0.26189336 1.1270001
-0.59677339 -0.25330669 1.1270001
-0.58818668 -0.25330669 1.1270001
-0.57101339 -0.24472001 1.1270001
-0.56242669 -0.24472001 1.1270001
-0.55384004 -0.24472001 1.1270001
-0.4851467 -0.24472001 1.1270001
-0.36493337 -0.21037334 1.1270001
-0.32200003 -0.18461335 1.1270001
-0.32200003 -0.16744001 1.1270001
-0.62253338 0.098746672 1.1270001
-0.63970673 0.10733334 1.1270001
-0.63112003 0.10733334 1.1270001
-0.62253338 0.10733334 1.1270001
-0.57960004 0.28765336 1.1270001
-0.61394674 0.30482668 1.1270001
-0.53666669 0.31341335 1.1270001
-0.64197719 -0.38346288 1.131
-0.4093143 -0.38346288 1.131
-0.41040003 -0.37584004 1.1340001
-0.64197719 -0.37484574 1.131
-0.4265486 -0.35761145 1.131
-0.42768002 -0.34992003 1.1340001
-0.43516573 -0.33176002 1.131
-0.42768002 -0.33264002 1.1340001
-0.4093143 -0.29729146 1.131
-0.40176001 -0.29808003 1.1340001
-0.47825146 -0.28867429 1.131
-0.40069717 -0.28867429 1.131
-0.39208004 -0.28867429 1.131
-0.48686859 -0.28005716 1.131
-0.47825146 -0.28005716 1.131
-0.38346288 -0.28005716 1.131
-0.48686859 -0.27144003 1.131
-0.47825146 -0.27144003 1.131
-0.46963432 -0.27144003 1.131
-0.46101716 -0.27144003 1.131
-0.37484574 -0.27144003 1.131
-0.63336003 -0.26282287 1.131
-0.62640005 -0.26352003 1.1340001
-0.46963432 -0.26282287 1.131
-0.46101716 -0.26282287 1.131
-0.35856003 -0.26352003 1.1340001
-0.58320004 -0.25488001 1.1340001
-0.55728006 -0.25488001 1.1340001
-0.32400003 -0.24624002 1.1340001
-0.31536001 -0.24624002 1.1340001
-0.46963432 -0.24558859 1.131
-0.33176002 -0.24558859 1.131
-0.32314289 -0.23697144 1.131
-0.31452572 -0.23697144 1.131
-0.34128001 -0.22896002 1.1340001
-0.34899431 -0.21973716 1.131
-0.35761145 -0.21112001 1.131
-0.35856003 -0.20304002 1.1340001
-0.34992003 -0.20304002 1.1340001
-0.34899431 -0.19388573 1.131
-0.34128001 -0.19440001 1.1340001
-0.31452572 -0.18526858 1.131
-0.62640005 0.090720005 1.1340001
-0.61612576 0.090480007 1.131
-0.64197719 0.099097148 1.131
-0.63336003 0.099097148 1.131
-0.57304001 0.28005716 1.131
-0.56592005 0.28080001 1.1340001
-0.60048002 0.28944001 1.1340001
-0.59027433 0.28867429 1.131
-0.61776006 0.29808003 1.1340001
-0.6075086 0.29729146 1.131
-0.63336003 0.31452572 1.131
-0.62474293 0.31452572 1.131
-0.40317717 -0.37716573 1.138
-0.65462101 -0.35982478 1.138
-0.42051813 -0.35982478 1.138
-0.42918861 -0.34248382 1.138
-0.49855241 -0.28179049 1.138
-0.65462101 -0.27312002 1.138
-0.6459505 -0.27312002 1.138
-0.49855241 -0.27312002 1.138
-0.34248382 -0.25577906 1.138
-0.30780193 -0.23843811 1.138
-0.29913145 -0.23843811 1.138
-0.3511543 -0.21242668 1.138
-0.31647241 -0.19508573 1.138
-0.30780193 -0.19508573 1.138
-0.63728005 0.091040008 1.138
-0.57658672 0.27312002 1.138
-0.56791621 0.27312002 1.138
-0.58525717 0.28179049 1.138
-0.55057526 0.29913145 1.138
-0.64822102 -0.36979049 1.1420001
-0.65692192 -0.35238859 1.1420001
-0.42199621 -0.35238859 1.1420001
-0.65692192 -0.34368765 1.1420001
-0.62211812 -0.29148191 1.1420001
-0.3871924 -0.29148191 1.1420001
-0.5525105 -0.28278098 1.1420001
-0.52640766 -0.28278098 1.1420001
-0.50900573 -0.28278098 1.1420001
-0.63952005 -0.27408001 1.1420001
-0.50900573 -0.27408001 1.1420001
-0.36979049 -0.27408001 1.1420001
-0.62211812 -0.26537907 1.1420001
-0.61341721 -0.26537907 1.1420001
-0.60471624 -0.26537907 1.1420001
-0.59601527 -0.26537907 1.1420001
-0.35238859 -0.26537907 1.1420001
-0.5786134 -0.2566781 1.1420001
-0.56991243 -0.2566781 1.1420001
-0.49160385 -0.2566781 1.1420001
-0.33498669 -0.2566781 1.1420001
-0.32628575 -0.2566781 1.1420001
-0.30888382 -0.24797715 1.1420001
-0.33498669 -0.23057525 1.1420001
-0.34368765 -0.20447239 1.1420001
-0.63081908 0.056556195 1.1420001
-0.63081908 0.065257147 1.1420001
-0.63081908 0.082659051 1.1420001
-0.62211812 0.082659051 1.1420001
-0.59601527 0.28278098 1.1420001
-0.63081908 0.30888382 1.1420001
-0.53510863 0.32628575 1.1420001
-0.52640766 0.33498669 1.1420001
-0.39728004 -0.3012343 1.146
-0.61556578 -0.29250288 1.146
-0.6592229 -0.28377146 1.146
-0.65049148 -0.28377146 1.146
-0.6242972 -0.28377146 1.146
-0.51952004 -0.28377146 1.146
-0.37981716 -0.28377146 1.146
-0.63302863 -0.27504003 1.146
-0.51952004 -0.27504003 1.146
-0.36235431 -0.27504003 1.146
-0.51078862 -0.26630858 1.146
-0.50205719 -0.26630858 1.146
-0.49332574 -0.26630858 1.146
-0.51078862 -0.25757715 1.146
-0.50205719 -0.24884573 1.146
-0.3012343 -0.24884573 1.146
-0.29250288 -0.2401143 1.146
-0.28377146 -0.2401143 1.146
-0.34489146 -0.22265144 1.146
-0.33616003 -0.20518859 1.146
-0.32742858 -0.19645716 1.146
-0.30996573 -0.16153143 1.146
-0.3012343 -0.16153143 1.146
-0.63302863 0.074217148 1.146
-0.6242972 0.074217148 1.146
-0.61556578 0.29250288 1.146
-0.56317717 0.29250288 1.146
-0.54571432 0.30996573 1.146
-0.53698289 0.31869715 1.146
-0.64400005 -0.37238097 1.1500001
-0.41619051 -0.37238097 1.1500001
-0.40849146 -0.37335241 1.153
-0.65276194 -0.36361906 1.1500001
-0.4172762 -0.36456764 1.153
-0.65276194 -0.35485718 1.1500001
-0.4172762 -0.35578287 1.153
-0.42495242 -0.34609526 1.1500001
-0.39092192 -0.3030743 1.153
-0.66324955 -0.29428953 1.153
-0.38213718 -0.29428953 1.153
-0.63523811 -0.29352382 1.1500001
-0.61932576 -0.28550479 1.153
-0.37335241 -0.28550479 1.153
-0.64400005 -0.28476194 1.1500001
-0.63523811 -0.28476194 1.1500001
-0.62647623 -0.27600002 1.1500001
-0.61771435 -0.27600002 1.1500001
-0.61054099 -0.27672002 1.153
-0.59142864 -0.26723811 1.1500001
-0.5826667 -0.26723811 1.1500001
-0.34609526 -0.26723811 1.1500001
-0.55783242 -0.25915051 1.153
-0.53009528 -0.2584762 1.1500001
-0.5226934 -0.25915051 1.153
-0.50512385 -0.25915051 1.153
-0.48628575 -0.2584762 1.1500001
-0.32064384 -0.25915051 1.153
-0.2584762 -0.2584762 1.1500001
-0.29352382 -0.2497143 1.1500001
-0.32942858 -0.23279621 1.153
-0.34609526 -0.21466668 1.1500001
-0.32857144 -0.20590478 1.1500001
-0.32064384 -0.20644192 1.153
-0.31185907 -0.20644192 1.153
-0.3030743 -0.20644192 1.153
-0.33733335 -0.19714287 1.1500001
-0.29428953 -0.1625181 1.153
-0.62647623 0.056952383 1.1500001
-0.62811053 0.065885715 1.153
-0.59297144 0.27672002 1.153
-0.6089524 0.28476194 1.1500001
-0.56661719 0.28550479 1.153
-0.53009528 0.32857144 1.1500001
-0.5213334 0.33733335 1.1500001
-0.64792007 -0.36583242 1.1570001
-0.64792007 -0.35701716 1.1570001
-0.63910478 -0.35701716 1.1570001
-0.40990859 -0.35701716 1.1570001
-0.6567353 -0.34820193 1.1570001
-0.41872385 -0.34820193 1.1570001
-0.66555053 -0.3393867 1.1570001
-0.42753908 -0.3393867 1.1570001
-0.43635431 -0.33057144 1.1570001
-0.64792007 -0.2953105 1.1570001
-0.54213721 -0.2953105 1.1570001
-0.36583242 -0.28649527 1.1570001
-0.60384387 -0.27768001 1.1570001
-0.53332192 -0.27768001 1.1570001
-0.35701716 -0.27768001 1.1570001
-0.57739812 -0.26886478 1.1570001
-0.53332192 -0.26886478 1.1570001
-0.52450669 -0.26886478 1.1570001
-0.3393867 -0.26886478 1.1570001
-0.48043051 -0.26004955 1.1570001
-0.31294098 -0.26004955 1.1570001
-0.30412573 -0.26004955 1.1570001
-0.2953105 -0.26004955 1.1570001
-0.28649527 -0.25123429 1.1570001
-0.3393867 -0.22478859 1.1570001
-0.3393867 -0.21597335 1.1570001
-0.33057144 -0.21597335 1.1570001
-0.28649527 -0.19834287 1.1570001
-0.30412573 -0.17189716 1.1570001
-0.62147433 0.030853335 1.1570001
-0.62147433 0.039668575 1.1570001
-0.63028955 0.048483811 1.1570001
-0.62147433 0.048483811 1.1570001
-0.62147433 0.057299051 1.1570001
-0.62147433 0.066114292 1.1570001
-0.60384387 0.27768001 1.1570001
-0.56858289 0.27768001 1.1570001
-0.63028955 0.2953105 1.1570001
-0.55976766 0.2953105 1.1570001
-0.55095243 0.30412573 1.1570001
-0.41132575 -0.36709717 1.161
-0.66785145 -0.3317143 1.161
-0.42901716 -0.3317143 1.161
-0.66785145 -0.32286859 1.161
-0.43786287 -0.32286859 1.161
-0.39363432 -0.31402287 1.161
-0.3847886 -0.31402287 1.161
-0.66785145 -0.30517715 1.161
-0.3847886 -0.30517715 1.161
-0.65900576 -0.29633144 1.161
-0.37594289 -0.29633144 1.161
-0.59708577 -0.27864003 1.161
-0.56170291 -0.27864003 1.161
-0.34940574 -0.27864003 1.161
-0.57054859 -0.26979432 1.161
-0.3317143 -0.26979432 1.161
-0.28748572 -0.2609486 1.161
-0.2609486 -0.25210288 1.161
-0.27864003 -0.19902858 1.161
-0.29633144 -0.17249145 1.161
-0.61477721 0.013268572 1.161
-0.61477721 0.022114288 1.161
-0.63246864 0.039805718 1.161
-0.58824003 0.26979432 1.161
-0.57939434 0.26979432 1.161
-0.54401147 0.31402287 1.161
-0.52632004 0.3317143 1.161
-0.39634669 -0.36072004 1.169
-0.65240002 -0.35060954 1.1650001
-0.42306671 -0.34290668 1.169
-0.66127622 -0.34173337 1.1650001
-0.66354668 -0.33400002 1.169
-0.67015243 -0.31510478 1.1650001
-0.63682669 -0.30728003 1.169
-0.37853336 -0.30728003 1.169
-0.61689526 -0.2884762 1.1650001
-0.61010671 -0.28946668 1.169
-0.35948575 -0.2884762 1.1650001
-0.5902667 -0.27960002 1.1650001
-0.58338672 -0.28056002 1.169
-0.5725143 -0.27960002 1.1650001
-0.54776001 -0.27165335 1.169
-0.32398099 -0.27072382 1.1650001
-0.31510478 -0.27072382 1.1650001
-0.30622858 -0.27072382 1.1650001
-0.29837334 -0.27165335 1.169
-0.33400002 -0.22712001 1.169
-0.28056002 -0.22712001 1.169
-0.27072382 -0.22634287 1.1650001
-0.26184765 -0.22634287 1.1650001
-0.32398099 -0.21746668 1.1650001
-0.31510478 -0.21746668 1.1650001
-0.28056002 -0.21821335 1.169
-0.27072382 -0.21746668 1.1650001
-0.28056002 -0.20930669 1.169
-0.28946668 -0.17368001 1.169
-0.60120004 -0.022266667 1.169
-0.61010671 -0.0044533336 1.169
-0.62792003 0.0044533336 1.169
-0.61689526 0.0044380957 1.1650001
-0.62577146 0.013314286 1.1650001
-0.63682669 0.022266667 1.169
-0.62577146 0.022190478 1.1650001
-0.61901337 0.031173335 1.169
-0.61689526 0.27960002 1.1650001
-0.56363815 0.27960002 1.1650001
-0.63682669 0.28946668 1.169
-0.62792003 0.28946668 1.169
-0.56557339 0.28946668 1.169
-0.55666673 0.29837334 1.169
-0.65688002 -0.34408003 1.1730001
-0.42451432 -0.33514288 1.1730001
-0.41557717 -0.33514288 1.1730001
-0.6658172 -0.32620573 1.1730001
-0.43345144 -0.32620573 1.1730001
-0.6479429 -0.30833146 1.1730001
-0.62113148 -0.29939431 1.1730001
-0.37089145 -0.29939431 1.1730001
-0.58538288 -0.29045716 1.1730001
-0.34408003 -0.28152001 1.1730001
-0.27258289 -0.24577144 1.1730001
-0.27258289 -0.2368343 1.1730001
-0.26364574 -0.2368343 1.1730001
-0.30833146 -0.21896002 1.1730001
-0.29045716 -0.21896002 1.1730001
-0.27258289 -0.20108573 1.1730001
-0.27258289 -0.19214858 1.1730001
-0.28152001 -0.1742743 1.1730001
-0.62113148 -0.013405715 1.1730001
-0.62113148 -0.0044685719 1.1730001
-0.62113148 0.26364574 1.1730001
-0.60325718 0.27258289 1.1730001
-0.55857146 0.28152001 1.1730001
-0.55857146 0.29045716 1.1730001
-0.54963434 0.29939431 1.1730001
-0.54963434 0.30833146 1.1730001
-0.38112384 -0.31835049 1.177
-0.66808766 -0.30938289 1.177
-0.3721562 -0.30938289 1.177
-0.36318859 -0.30041525 1.177
-0.59634668 -0.29144764 1.177
-0.35422099 -0.29144764 1.177
-0.33628574 -0.28248003 1.177
-0.3273181 -0.28248003 1.177
-0.31835049 -0.28248003 1.177
-0.27351239 -0.25557715 1.177
-0.26454479 -0.24660954 1.177
-0.3273181 -0.23764192 1.177
-0.30041525 -0.21970668 1.177
-0.27351239 -0.21073906 1.177
-0.62324959 -0.022419048 1.177
-0.61428195 -0.022419048 1.177
-0.63221717 -0.013451429 1.177
-0.61428195 -0.013451429 1.177
-0.63221717 -0.0044838097 1.177
-0.60531431 0.25557715 1.177
-0.60531431 0.26454479 1.177
-0.64118481 0.28248003 1.177
-0.63221717 0.28248003 1.177
-0.55150861 0.29144764 1.177
-0.50667053 0.3721562 1.177
-0.66136003 -0.3374286 1.1810001
-0.43640766 -0.31943241 1.1810001
-0.37342098 -0.31943241 1.1810001
-0.66136003 -0.31043431 1.1810001
-0.63436574 -0.31043431 1.1810001
-0.61636955 -0.30143622 1.1810001
-0.60737145 -0.29243812 1.1810001
-0.3464267 -0.29243812 1.1810001
-0.28344002 -0.25644574 1.1810001
-0.3284305 -0.22945145 1.1810001
-0.31943241 -0.22945145 1.1810001
-0.31043431 -0.22945145 1.1810001
-0.30143622 -0.22945145 1.1810001
-0.29243812 -0.22945145 1.1810001
-0.26544383 -0.20245716 1.1810001
-0.27444193 -0.17546287 1.1810001
-0.26544383 -0.17546287 1.1810001
-0.60737145 -0.013497144 1.1810001
-0.59837335 0.25644574 1.1810001
-0.61636955 0.27444193 1.1810001
-0.54438478 0.30143622 1.1810001
-0.54438478 0.31043431 1.1810001
-0.66584003 -0.33065525 1.189
-0.63866287 -0.33065525 1.189
-0.42885718 -0.32954288 1.1850001
-0.41982859 -0.32954288 1.1850001
-0.66584003 -0.32159621 1.189
-0.65678102 -0.32159621 1.189
-0.63866287 -0.32159621 1.189
-0.4303048 -0.32159621 1.189
-0.67262864 -0.32051432 1.1850001
-0.36565718 -0.32051432 1.1850001
-0.62960386 -0.31253716 1.189
-0.58430862 -0.31253716 1.189
-0.36565718 -0.31148574 1.1850001
-0.59336764 -0.30347812 1.189
-0.60942858 -0.30245715 1.1850001
-0.60040003 -0.30245715 1.1850001
-0.3566286 -0.30245715 1.1850001
-0.34760001 -0.30245715 1.1850001
-0.33857146 -0.2934286 1.1850001
-0.32159621 -0.24006478 1.189
-0.25731429 -0.17605716 1.1850001
-0.61148578 -0.0045295241 1.189
-0.63651431 0.26634288 1.1850001
-0.6184572 0.26634288 1.1850001
-0.60040003 0.26634288 1.1850001
-0.58234292 0.27537143 1.1850001
-0.63866287 0.27630097 1.189
-0.62960386 0.27630097 1.189
-0.53901339 0.30347812 1.189
-0.52995431 0.30347812 1.189
-0.53901339 0.31253716 1.189
-0.54622859 0.32051432 1.1850001
-0.53901339 0.32159621 1.189
-0.54622859 0.32954288 1.1850001
-0.53901339 0.33065525 1.189
-0.52995431 0.34877336 1.189
-0.51011431 0.36565718 1.1850001
-0.64990097 -0.32267812 1.1930001
-0.63172197 -0.32267812 1.1930001
-0.62263244 -0.31358859 1.1930001
-0.35903621 -0.31358859 1.1930001
-0.31358859 -0.2408724 1.1930001
-0.24996193 -0.17724572 1.1930001
-0.60445338 -0.022723811 1.1930001
-0.59536386 -0.022723811 1.1930001
-0.60445338 -0.013634287 1.1930001
-0.59536386 -0.013634287 1.1930001
-0.53173715 0.31358859 1.1930001
-0.53173715 0.32267812 1.1930001
-0.52264768 0.32267812 1.1930001
-0.53173715 0.33176765 1.1930001
-0.50446862 0.37721527 1.1930001
-0.64296007 -0.34200001 1.197
-0.65208006 -0.33288002 1.197
-0.35112002 -0.33288002 1.197
-0.36024001 -0.32376003 1.197
-0.60648006 -0.31464002 1.197
-0.59736001 -0.31464002 1.197
-0.33288002 -0.29640001 1.197
-0.29640001 -0.28728002 1.197
-0.29640001 -0.27816001 1.197
-0.28728002 -0.27816001 1.197
-0.27816001 -0.26904002 1.197
-0.59736001 0.26904002 1.197
-0.52440006 0.31464002 1.197
-0.53352004 0.34200001 1.197
-0.5998553 -0.35258669 1.202
-0.36174479 -0.33427051 1.202
-0.61817145 -0.3159543 1.202
-0.35258669 -0.3159543 1.202
-0.34342858 -0.30679622 1.202
-0.28848001 -0.28848001 1.202
-0.27932191 -0.27932191 1.202
-0.30679622 -0.24268954 1.202
-0.24268954 -0.18774097 1.202
-0.59069717 -0.022895239 1.202
-0.5998553 0.26100573 1.202
-0.51743239 0.3251124 1.202
-0.52659053 0.33427051 1.202
-0.52659053 0.35258669 1.202
-0.52659053 0.36174479 1.202
-0.49911621 0.38921908 1.202
-0.62941718 -0.32619432 1.2060001
-0.34457144 -0.31700572 1.2060001
-0.33538288 -0.30781716 1.2060001
-0.2986286 -0.2986286 1.2060001
-0.28944001 -0.27106288 1.2060001
-0.2986286 -0.24349716 1.2060001
-0.55590862 -0.041348573 1.2060001
-0.59266287 -0.013782858 1.2060001
-0.59266287 0.26187429 1.2060001
-0.59266287 0.27106288 1.2060001
-0.58347434 0.28025144 1.2060001
-0.55590862 0.2986286 1.2060001
-0.51915431 0.33538288 1.2060001
-0.50996578 0.33538288 1.2060001
-0.5283429 0.34457144 1.2060001
-0.63359243 -0.3561067 1.2140001
-0.64072382 -0.33649525 1.21
-0.62228578 -0.3272762 1.21
-0.60384768 -0.3272762 1.21
-0.35493335 -0.3272762 1.21
-0.3457143 -0.3272762 1.21
-0.33760765 -0.32835811 1.2140001
-0.33649525 -0.31805715 1.21
-0.32835811 -0.31910861 1.2140001
-0.31805715 -0.31805715 1.21
-0.32835811 -0.30985907 1.2140001
-0.31910861 -0.30985907 1.2140001
-0.30985907 -0.30985907 1.2140001
-0.32835811 -0.30060953 1.2140001
-0.31910861 -0.30060953 1.2140001
-0.30985907 -0.30060953 1.2140001
-0.31805715 -0.29040003 1.21
-0.30883813 -0.29040003 1.21
-0.28118098 -0.29040003 1.21
-0.22661334 -0.18961525 1.2140001
-0.23508573 -0.18899049 1.21
-0.57619053 -0.032266669 1.21
-0.58540958 -0.02304762 1.21
-0.57619053 -0.02304762 1.21
-0.58540958 0.27196193 1.21
-0.57619053 0.28118098 1.21
-0.56884575 0.29136002 1.2140001
-0.52087623 0.31805715 1.21
-0.51165718 0.3272762 1.21
-0.50409907 0.33760765 1.2140001
-0.52087623 0.3457143 1.21
-0.51165718 0.3457143 1.21
-0.50409907 0.34685716 1.2140001
-0.52087623 0.35493335 1.21
-0.51334858 0.3561067 1.2140001
-0.52087623 0.3641524 1.21
-0.49321908 0.39180955 1.21
-0.48400003 0.39180955 1.21
-0.63620192 -0.33899811 1.2190001
-0.62691432 -0.33899811 1.2190001
-0.61762673 -0.32971048 1.2190001
-0.57118863 -0.023219049 1.2190001
-0.58976382 0.26469716 1.2190001
-0.58047622 0.27398479 1.2190001
-0.55261338 0.30184764 1.2190001
-0.48760003 0.34828573 1.2190001
-0.50617528 0.35757336 1.2190001
-0.51546288 0.36686099 1.2190001
-0.51546288 0.37614858 1.2190001
-0.50617528 0.38543621 1.2190001
-0.49688765 0.38543621 1.2190001
-0.48760003 0.38543621 1.2190001
-0.4783124 0.38543621 1.2190001
-0.62897146 -0.34942859 1.223
-0.6196534 -0.34942859 1.223
-0.21897525 -0.19102097 1.223
-0.56374478 -0.032613337 1.223
-0.59169906 -0.013977144 1.223
-0.58238101 0.26556572 1.223
-0.5730629 0.26556572 1.223
-0.5730629 0.28420192 1.223
-0.56374478 0.29352003 1.223
-0.50783622 0.3307924 1.223
-0.49851814 0.34011051 1.223
-0.49851814 0.34942859 1.223
-0.50783622 0.36806479 1.223
-0.50783622 0.37738287 1.223
-0.49851814 0.37738287 1.223
-0.48920003 0.37738287 1.223
-0.47988194 0.37738287 1.223
-0.47056383 0.37738287 1.223
-0.62168002 -0.35992002 1.2270001
-0.62168002 -0.34122288 1.2270001
-0.61233145 -0.34122288 1.2270001
-0.55624002 -0.042068575 1.2270001
-0.57493716 -0.032720003 1.2270001
-0.55624002 -0.032720003 1.2270001
-0.56558859 -0.02337143 1.2270001
-0.57493716 0.27578288 1.2270001
-0.56558859 0.28513145 1.2270001
-0.55624002 0.29448003 1.2270001
-0.48145145 0.35057145 1.2270001
-0.50014859 0.35992002 1.2270001
-0.49080002 0.35992002 1.2270001
-0.50014859 0.3692686 1.2270001
-0.21120001 -0.19242668 1.2320001
-0.55850673 -0.023466669 1.2320001
-0.53973335 -0.023466669 1.2320001
-0.56789339 0.26752001 1.2320001
-0.70869339 0.2769067 1.2320001
-0.56789339 0.2769067 1.2320001
-0.48341337 0.36138669 1.2320001
-0.49280003 0.37077335 1.2320001
-0.5509029 -0.023542859 1.2360001
-0.54148573 0.2683886 1.2360001
-0.56032002 0.28722286 1.2360001
-0.5509029 0.29664001 1.2360001
-0.5509029 0.30605716 1.2360001
-0.54148573 0.3154743 1.2360001
-0.52265143 0.32489145 1.2360001
-0.48498288 0.37197718 1.2360001
-0.47556573 0.37197718 1.2360001
-0.22201906 -0.20312382 1.24
-0.21257144 -0.20312382 1.24
-0.55268574 -0.042514287 1.24
-0.56213337 0.26925716 1.24
-0.55268574 0.26925716 1.24
-0.56213337 0.27870479 1.24
-0.5432381 0.30704764 1.24
-0.53379053 0.31649527 1.24
-0.22363049 -0.21411429 1.2490001
-0.18556572 -0.20459811 1.2490001
-0.20394287 -0.20394287 1.245
-0.19445716 -0.20394287 1.245
-0.54542863 -0.042685717 1.245
-0.53766477 -0.04282286 1.2490001
-0.5549143 -0.033200003 1.245
-0.54718101 -0.033306669 1.2490001
-0.53594291 -0.033200003 1.245
-0.53766477 -0.023790477 1.2490001
-0.5549143 0.27982858 1.245
-0.54542863 0.27982858 1.245
-0.7161715 0.2893143 1.245
-0.70895624 0.29024383 1.2490001
-0.5549143 0.2893143 1.245
-0.54542863 0.2893143 1.245
-0.53766477 0.29024383 1.2490001
-0.54542863 0.29880002 1.245
-0.53594291 0.29880002 1.245
-0.53594291 0.30828574 1.245
-0.52814859 0.30927622 1.2490001
-0.52645719 0.31777143 1.245
-0.51863241 0.32830858 1.2490001
-0.50911623 0.33782479 1.2490001
-0.47902861 0.36520001 1.245
-0.46954289 0.37468573 1.245
-0.21497144 -0.21497144 1.2540001
-0.53026289 -0.033440001 1.2540001
-0.53981715 0.28185144 1.2540001
-0.72134864 0.30096003 1.2540001
-0.52070862 0.3200686 1.2540001
-0.51115429 0.32962286 1.2540001
-0.50160003 0.34873146 1.2540001
-0.52278477 -0.033573337 1.2590001
-0.52278477 0.28297526 1.2590001
-0.53237718 0.29256764 1.2590001
-0.71463245 0.30216002 1.2590001
-0.53237718 0.30216002 1.2590001
-0.52278477 0.30216002 1.2590001
-0.52278477 0.31175241 1.2590001
-0.51319242 0.32134479 1.2590001
-0.50360006 0.32134479 1.2590001
-0.50360006 0.33093718 1.2590001
-0.50360006 0.34052956 1.2590001
-0.49400765 0.34052956 1.2590001
-0.49400765 0.35012192 1.2590001
-0.23576002 -0.22613716 1.263
-0.22613716 -0.22613716 1.263
-0.20689145 -0.2165143 1.263
-0.19726859 -0.2165143 1.263
-0.17802286 -0.20689145 1.263
-0.53406858 0.2838743 1.263
-0.5148229 0.2838743 1.263
-0.52444577 0.29349717 1.263
-0.5148229 0.30312002 1.263
-0.5148229 0.31274289 1.263
-0.49557719 0.3319886 1.263
-0.48595431 0.35123432 1.263
-0.48595431 0.36085716 1.263
-0.2463543 -0.23669335 1.268
-0.2463543 -0.22703239 1.268
-0.16906668 -0.21737145 1.268
-0.16906668 -0.20771049 1.268
-0.52652192 -0.043474287 1.268
-0.51686096 0.29465908 1.268
-0.71974099 0.31398097 1.268
-0.50720006 0.31398097 1.268
-0.49753907 0.32364193 1.268
-0.48787811 0.34296384 1.268
-0.23744002 -0.23744002 1.2720001
-0.21805716 -0.22774859 1.2720001
-0.18898287 -0.21805716 1.2720001
-0.17929144 -0.21805716 1.2720001
-0.53787434 -0.04361143 1.2720001
-0.51849145 -0.04361143 1.2720001
-0.51849145 -0.033920001 1.2720001
-0.50880003 0.29558858 1.2720001
-0.50880003 0.30528003 1.2720001
-0.73170292 0.31497145 1.2720001
-0.49910861 0.31497145 1.2720001
-0.72201145 0.32466286 1.2720001
-0.48941717 0.33435431 1.2720001
-0.47972575 0.35373718 1.2720001
-0.44096002 0.39250287 1.2720001
-0.22864382 -0.23837335 1.2770001
-0.20918478 -0.22864382 1.2770001
-0.19945525 -0.22864382 1.2770001
-0.17999621 -0.22864382 1.2770001
-0.48161146 -0.04378286 1.2770001
-0.5010705 0.30648002 1.2770001
-0.49134099 0.31620955 1.2770001
-0.73457909 0.32593906 1.2770001
-0.49134099 0.32593906 1.2770001
-0.73457909 0.33566859 1.2770001
-0.48161146 0.33566859 1.2770001
-0.48161146 0.34539813 1.2770001
-0.47188193 0.34539813 1.2770001
-0.46215242 0.38431621 1.2770001
-0.43296385 0.38431621 1.2770001
-0.42323431 0.38431621 1.2770001
-0.43296385 0.39404574 1.2770001
-0.42323431 0.39404574 1.2770001
-0.2490743 -0.2490743 1.2820001
-0.25884193 -0.23930669 1.2820001
-0.21977144 -0.23930669 1.2820001
-0.19046858 -0.22953907 1.2820001
-0.54210287 -0.053721908 1.2820001
-0.51280004 -0.04395429 1.2820001
-0.54210287 0.27837718 1.2820001
-0.50303239 0.29791239 1.2820001
-0.49326479 0.30768001 1.2820001
-0.48349717 0.30768001 1.2820001
-0.47372955 0.30768001 1.2820001
-0.48349717 0.31744763 1.2820001
-0.47372955 0.31744763 1.2820001
-0.48349717 0.32721525 1.2820001
-0.47372955 0.32721525 1.2820001
-0.72768766 0.33698288 1.2820001
-0.47372955 0.33698288 1.2820001
-0.41512385 0.38582098 1.2820001
-0.25985146 -0.25004572 1.2870001
-0.24024002 -0.25004572 1.2870001
-0.21082287 -0.24024002 1.2870001
-0.20101716 -0.24024002 1.2870001
-0.50499433 -0.053931434 1.2870001
-0.46577147 0.30888003 1.2870001
-0.46577147 0.32849145 1.2870001
-0.46577147 0.33829716 1.2870001
-0.45596576 0.33829716 1.2870001
-0.50656384 -0.04426286 1.291
-0.49672765 -0.04426286 1.291
-0.49672765 0.30000383 1.291
-0.46721908 0.31967622 1.291
-0.45738289 0.31967622 1.291
-0.45738289 0.32951242 1.291
-0.74263245 0.35902098 1.291
-0.41803813 0.36885718 1.291
-0.41803813 0.37869337 1.291
-0.27154288 -0.26166859 1.296
-0.26166859 -0.26166859 1.296
-0.25179431 -0.26166859 1.296
-0.24192001 -0.26166859 1.296
-0.23204572 -0.25179431 1.296
-0.44928002 0.3209143 1.296
-0.43940574 0.3209143 1.296
-0.41965717 0.36041147 1.296
-0.40978289 0.38016003 1.296
-0.10408001 -0.34197718 1.3010001
-0.10408001 -0.33206478 1.3010001
-0.22302859 -0.25276574 1.3010001
-0.7384724 0.36180192 1.3010001
-0.41136384 0.36180192 1.3010001
-0.40145147 0.36180192 1.3010001
-0.74838483 0.37171432 1.3010001
-0.41136384 0.37171432 1.3010001
-0.40145147 0.37171432 1.3010001
-0.39153907 0.37171432 1.3010001
-0.40145147 0.3816267 1.3010001
-0.10448001 -0.35324192 1.3060001
-0.094529532 -0.35324192 1.3060001
-0.094529532 -0.34329146 1.3060001
-0.094529532 -0.33334097 1.3060001
-0.084579051 -0.33334097 1.3060001
-0.074628577 -0.33334097 1.3060001
-0.10448001 -0.32339048 1.3060001
-0.094529532 -0.32339048 1.3060001
-0.10448001 -0.31344002 1.3060001
-0.094529532 -0.31344002 1.3060001
-0.2736381 -0.2736381 1.3060001
-0.26368764 -0.2736381 1.3060001
-0.2338362 -0.26368764 1.3060001
-0.21393526 -0.25373715 1.3060001
-0.41294479 0.35324192 1.3060001
-0.39304385 0.38309336 1.3060001
-0.08490286 -0.32462859 1.3110001
-0.074914292 -0.32462859 1.3110001
-0.08490286 -0.31464002 1.3110001
-0.08490286 -0.30465144 1.3110001
-0.28467432 -0.27468574 1.3110001
-0.44449145 -0.074914292 1.3110001
-0.40453717 0.34460574 1.3110001
-0.39454859 0.34460574 1.3110001
-0.40453717 0.35459432 1.3110001
-0.39454859 0.36458287 1.3110001
-0.38456002 0.37457144 1.3110001
-0.74414861 0.38456002 1.3110001
-0.08522667 -0.35594669 1.3160001
-0.075200006 -0.35594669 1.3160001
-0.08522667 -0.34592003 1.3160001
-0.075200006 -0.34592003 1.3160001
-0.065173335 -0.33589336 1.3160001
-0.26570669 -0.28576002 1.3160001
-0.25568002 -0.27573335 1.3160001
-0.24565335 -0.27573335 1.3160001
-0.43616003 -0.075200006 1.3160001
-0.4161067 0.34592003 1.3160001
-0.39605337 0.35594669 1.3160001
-0.38602668 0.36597335 1.3160001
-0.75701338 0.38602668 1.3160001
-0.38602668 0.38602668 1.3160001
-0.38602668 0.39605337 1.3160001
-0.065420955 -0.34723431 1.3210001
-0.28684574 -0.28684574 1.3210001
-0.27678096 -0.28684574 1.3210001
-0.095615245 -0.25665143 1.3210001
-0.42775241 -0.075485721 1.3210001
-0.45794669 -0.065420955 1.3210001
-0.45794669 -0.055356193 1.3210001
-0.73976004 0.37742859 1.3210001
-0.37742859 0.37742859 1.3210001
-0.7598896 0.39755812 1.3210001
-0.065668575 -0.35865146 1.3260001
-0.2778286 -0.29803431 1.3260001
-0.085874289 -0.26772574 1.3260001
-0.44957718 -0.065668575 1.3260001
-0.7526629 0.39906287 1.3260001
-0.76276577 0.40916574 1.3260001
-0.76276577 0.41926861 1.3260001
-0.44113144 -0.065916196 1.3310001
-0.43099052 -0.065916196 1.3310001
-0.3904267 0.36000383 1.3310001
-0.75550097 0.41070861 1.3310001
-0.75550097 0.42084956 1.3310001
-0.76564193 0.43099052 1.3310001
-0.055984765 -0.36135623 1.3360001
-0.055984765 -0.35117716 1.3360001
-0.42243052 -0.066163816 1.3360001
-0.41225144 -0.066163816 1.3360001
-0.45296764 -0.055984765 1.3360001
-0.4427886 -0.055984765 1.3360001
-0.38171431 0.37153527 1.3360001
-0.37153527 0.38171431 1.3360001
-0.076685719 -0.26073146 1.342
-0.04618286 -0.35406861 1.3470001
-0.11802287 -0.28222859 1.3470001
-0.11802287 -0.27196574 1.3470001
-0.3745943 0.3745943 1.3470001
-0.36433145 0.38485718 1.3470001
-0.46869338 -0.38628575 1.3520001
-0.42748955 -0.38628575 1.3520001
-0.10816 -0.2832762 1.3520001
-0.036213335 -0.34661335 1.358
-0.077600002 -0.27418667 1.358
-0.067253336 -0.27418667 1.358
-0.41904002 -0.077600002 1.358
-0.40869337 -0.077600002 1.358
-0.40869337 -0.067253336 1.358
-0.66736007 0.16037335 1.358
-0.65701336 0.16037335 1.358
-0.66736007 0.60528004 1.358
-0.68805337 0.61562669 1.358
-0.65701336 0.61562669 1.358
-0.4413524 -0.38942859 1.363
-0.03634667 -0.35827431 1.363
-0.025961906 -0.34788954 1.363
-0.025961906 -0.33750477 1.363
-0.098655246 -0.28558096 1.363
-0.68020195 0.16096382 1.363
-0.68020195 0.6075086 1.363
-0.68020195 0.6178934 1.363
-0.078171432 -0.2866286 1.368
-0.40128002 -0.078171432 1.368
-0.39085716 -0.078171432 1.368
-0.40128002 -0.067748576 1.368
-0.68269718 0.14070858 1.368
-0.69312006 0.15113144 1.368
-0.68269718 0.15113144 1.368
-0.66185147 0.15113144 1.368
-0.67227435 0.62016004 1.368
-0.44491431 -0.40304002 1.3740001
-0.015702859 -0.34022859 1.3740001
-0.38210288 -0.078514293 1.3740001
-0.45704004 -0.40450668 1.3790001
-0.45704004 -0.39400002 1.3790001
-0.089306675 -0.28893337 1.3790001
-0.69869339 0.14184001 1.3790001
-0.67768002 0.14184001 1.3790001
-0.67768002 0.15234667 1.3790001
-0.43792385 -0.40626669 1.3850001
-0.67007625 0.13190477 1.3850001
-0.40773335 -0.39714289 1.3900001
-0.0052952385 -0.33360001 1.3900001
-0.0052952385 -0.32300955 1.3900001
-0.026476191 -0.29123813 1.3900001
-0.015885714 -0.29123813 1.3900001
-0.14297144 -0.15356192 1.3900001
-0.15356192 -0.14297144 1.3900001
-0.14297144 -0.14297144 1.3900001
-0.43076575 -0.39885718 1.396
-0.42012954 -0.39885718 1.396
-0.43261716 -0.41125336 1.4020001
-0.42193526 -0.41125336 1.4020001
-0.0053409529 -0.3044343 1.4020001
-0.037386671 -0.2830705 1.4020001
-0.016022857 -0.2830705 1.4020001
-0.13352382 -0.14420572 1.4020001
-0.15488763 -0.13352382 1.4020001
-0.14420572 -0.13352382 1.4020001
-0.13352382 -0.13352382 1.4020001
-0.13352382 -0.12284191 1.4020001
-0.36852574 -0.090796195 1.4020001
-0.66761911 0.12284191 1.4020001
-0.72102863 0.25102478 1.4020001
-0.7103467 0.25102478 1.4020001
0.0053600003 -0.32696003 1.4070001
0.0053600003 -0.31624001 1.4070001
-0.048240002 -0.29480001 1.4070001
-0.037520003 -0.29480001 1.4070001
-0.0053600003 -0.29480001 1.4070001
-0.026800001 -0.28408003 1.4070001
-0.16616002 -0.14472 1.4070001
-0.17688002 -0.134 1.4070001
-0.16616002 -0.134 1.4070001
-0.15544002 -0.12328001 1.4070001
-0.35912001 -0.091120005 1.4070001
-0.63784003 0.091120005 1.4070001
-0.70216006 0.25192001 1.4070001
-0.26264003 0.29480001 1.4070001
0.0053828573 -0.33912003 1.4130001
0.016148573 -0.3283543 1.4130001
-0.037680004 -0.30682287 1.4130001
0.0053828573 -0.30682287 1.4130001
-0.0053828573 -0.27452573 1.4130001
-0.1776343 -0.14533715 1.4130001
-0.1776343 -0.12380572 1.4130001
-0.16686858 -0.12380572 1.4130001
-0.14533715 -0.12380572 1.4130001
-0.16686858 -0.11304001 1.4130001
-0.13457143 -0.11304001 1.4130001
-0.34988573 -0.091508575 1.4130001
-0.65132576 0.10227429 1.4130001
-0.71592003 0.26376003 1.4130001
-0.70515436 0.26376003 1.4130001
-0.2529943 0.28529143 1.4130001
0.027028574 -0.3297486 1.419
0.016217144 -0.31893715 1.419
-0.048651431 -0.30812573 1.419
0.016217144 -0.30812573 1.419
0.0054057147 -0.29731432 1.419
-0.15676573 -0.11352 1.419
-0.1459543 -0.11352 1.419
-0.16757715 -0.10270858 1.419
-0.69733721 0.26488003 1.419
-0.7081486 0.27569145 1.419
-0.72977149 0.64328003 1.419
0.0054285717 -0.2877143 1.4250001
-0.17914286 -0.11400001 1.4250001
-0.15742858 -0.10314287 1.4250001
-0.70028573 0.27685717 1.4250001
-0.7111429 0.2877143 1.4250001
0.027257144 -0.32163429 1.4310001
0.027257144 -0.31073144 1.4310001
0.016354287 -0.29982859 1.4310001
-0.36524573 -0.10357715 1.4310001
-0.35434288 -0.10357715 1.4310001
-0.33253717 -0.10357715 1.4310001
-0.32163429 -0.10357715 1.4310001
-0.17989716 -0.10357715 1.4310001
-0.14718857 -0.10357715 1.4310001
-0.34344003 -0.092674293 1.4310001
-0.16899429 -0.092674293 1.4310001
-0.37614858 -0.081771433 1.4310001
-0.36524573 -0.081771433 1.4310001
-0.69233149 0.26712 1.4310001
-0.69233149 0.27802289 1.4310001
-0.25621715 0.27802289 1.4310001
-0.70323431 0.28892574 1.4310001
-0.7141372 0.29982859 1.4310001
-0.27802289 0.35434288 1.4310001
-0.72504002 0.6378172 1.4310001
0.027371431 -0.30108574 1.437
-0.34488001 -0.10401144 1.437
-0.31203431 -0.10401144 1.437
-0.30108574 -0.10401144 1.437
-0.33393145 -0.093062863 1.437
-0.32298288 -0.093062863 1.437
-0.18065144 -0.093062863 1.437
-0.15875429 -0.093062863 1.437
-0.35582858 -0.082114294 1.437
-0.16970287 -0.082114294 1.437
-0.36677718 -0.071165718 1.437
-0.35582858 -0.071165718 1.437
-0.34488001 -0.060217146 1.437
-0.68428576 0.26824 1.437
-0.7061829 0.30108574 1.437
0.038480002 -0.30234289 1.4430001
0.01649143 -0.29134858 1.4430001
0.027485715 -0.29134858 1.4430001
-0.32433146 -0.11544001 1.4430001
-0.31333718 -0.11544001 1.4430001
-0.31333718 -0.093451433 1.4430001
-0.30234289 -0.093451433 1.4430001
-0.14842287 -0.093451433 1.4430001
-0.34632003 -0.082457148 1.4430001
-0.18140572 -0.082457148 1.4430001
-0.15941715 -0.082457148 1.4430001
-0.37930289 -0.071462862 1.4430001
-0.34632003 -0.071462862 1.4430001
-0.3683086 -0.060468577 1.4430001
-0.35731432 -0.060468577 1.4430001
-0.33532575 -0.060468577 1.4430001
-0.68714291 0.28035429 1.4430001
-0.69813716 0.29134858 1.4430001
-0.69813716 0.30234289 1.4430001
-0.26936001 0.39029717 1.4430001
0.038640004 -0.32568002 1.4490001
0.038640004 -0.31464002 1.4490001
0.038640004 -0.29256001 1.4490001
-0.39192003 -0.093840003 1.4490001
-0.33672002 -0.082800008 1.4490001
-0.19320001 -0.082800008 1.4490001
-0.33672002 -0.071760006 1.4490001
-0.27048001 -0.071760006 1.4490001
-0.17112002 -0.071760006 1.4490001
-0.38088003 -0.060720004 1.4490001
-0.35880002 -0.049680002 1.4490001
-0.34776002 -0.049680002 1.4490001
-0.33672002 -0.049680002 1.4490001
-0.67896003 0.25944 1.4490001
-0.67896003 0.27048001 1.4490001
-0.69000006 0.29256001 1.4490001
0.049885716 -0.30485716 1.455
-0.4046286 -0.094228581 1.455
-0.29377145 -0.094228581 1.455
-0.3270286 -0.083142862 1.455
-0.31594288 -0.083142862 1.455
-0.29377145 -0.083142862 1.455
-0.28268573 -0.083142862 1.455
-0.39354289 -0.07205715 1.455
-0.3270286 -0.07205715 1.455
-0.1829143 -0.07205715 1.455
-0.16074286 -0.07205715 1.455
-0.3270286 -0.060971431 1.455
-0.1829143 -0.060971431 1.455
-0.38245717 -0.049885716 1.455
-0.37137145 -0.049885716 1.455
-0.67068577 0.24942859 1.455
-0.65960002 0.24942859 1.455
-0.67068577 0.26051429 1.455
-0.68177146 0.28268573 1.455
-0.69285721 0.30485716 1.455
-0.68177146 0.30485716 1.455
0.050091431 -0.31724572 1.4610001
0.016697144 -0.28385144 1.4610001
0.027828574 -0.28385144 1.4610001
0.038960002 -0.28385144 1.4610001
-0.30611432 -0.11688001 1.4610001
-0.39516574 -0.10574858 1.4610001
-0.29498288 -0.10574858 1.4610001
-0.30611432 -0.083485723 1.4610001
-0.15027429 -0.083485723 1.4610001
-0.31724572 -0.072354287 1.4610001
-0.28385144 -0.072354287 1.4610001
-0.19480002 -0.072354287 1.4610001
-0.39516574 -0.061222862 1.4610001
-0.17253715 -0.061222862 1.4610001
-0.32837716 -0.050091431 1.4610001
-0.18366858 -0.050091431 1.4610001
-0.37290287 -0.038960002 1.4610001
-0.36177146 -0.038960002 1.4610001
-0.35064003 -0.038960002 1.4610001
-0.68458289 0.29498288 1.4610001
-0.27272001 0.40629718 1.4610001
-0.27272001 0.41742861 1.4610001
0.027942859 -0.27384001 1.4670001
-0.30737144 -0.072651431 1.4670001
-0.15089144 -0.072651431 1.4670001
-0.31854859 -0.06147429 1.4670001
-0.19560002 -0.06147429 1.4670001
-0.16206858 -0.06147429 1.4670001
-0.3967886 -0.050297145 1.4670001
-0.17324573 -0.050297145 1.4670001
-0.38561144 -0.039120004 1.4670001
-0.34090286 -0.039120004 1.4670001
-0.6762172 0.27384001 1.4670001
-0.66504002 0.27384001 1.4670001
-0.31854859 0.48620576 1.4670001
0.039280001 -0.27496001 1.473
-0.29740572 -0.11784001 1.473
-0.28618288 -0.10661715 1.473
-0.28618288 -0.095394291 1.473
-0.40963432 -0.072948575 1.473
-0.30862859 -0.061725717 1.473
-0.27496001 -0.061725717 1.473
-0.31985146 -0.050502859 1.473
-0.16273144 -0.050502859 1.473
-0.3310743 -0.039280001 1.473
-0.36474288 -0.028057145 1.473
-0.35352004 -0.028057145 1.473
-0.34229717 -0.028057145 1.473
-0.66776001 0.28618288 1.473
0.050742861 -0.27626669 1.48
-0.28754288 -0.11840001 1.48
-0.27626669 -0.10712381 1.48
-0.27626669 -0.084571436 1.48
-0.42285717 -0.073295243 1.48
-0.29881907 -0.073295243 1.48
-0.41158098 -0.06201905 1.48
-0.20860954 -0.06201905 1.48
-0.31009525 -0.050742861 1.48
-0.40030479 -0.039466668 1.48
-0.19733335 -0.039466668 1.48
-0.18605715 -0.039466668 1.48
-0.16350478 -0.039466668 1.48
-0.37775239 -0.028190479 1.48
-0.33264765 -0.028190479 1.48
-0.21988572 -0.028190479 1.48
-0.16350478 -0.028190479 1.48
-0.28754288 0.42285717 1.48
-0.28754288 0.43413335 1.48
-0.27626669 0.43413335 1.48
-0.32137144 0.47923812 1.48
-0.31009525 0.49051431 1.48
0.073592387 -0.3000305 1.4860001
0.039626669 -0.26606479 1.4860001
0.050948575 -0.26606479 1.4860001
0.062270481 -0.26606479 1.4860001
-0.2887086 -0.13020191 1.4860001
-0.2773867 -0.13020191 1.4860001
-0.2773867 -0.11888001 1.4860001
-0.2773867 -0.096236199 1.4860001
-0.3000305 -0.062270481 1.4860001
-0.3000305 -0.050948575 1.4860001
-0.19813335 -0.050948575 1.4860001
-0.3226743 -0.039626669 1.4860001
-0.20945525 -0.039626669 1.4860001
-0.17548953 -0.039626669 1.4860001
-0.40192765 -0.028304763 1.4860001
-0.39060575 -0.028304763 1.4860001
-0.3226743 -0.028304763 1.4860001
-0.20945525 -0.028304763 1.4860001
-0.19813335 -0.028304763 1.4860001
-0.18681145 -0.028304763 1.4860001
-0.37928385 -0.016982859 1.4860001
-0.36796194 -0.016982859 1.4860001
-0.35664001 -0.016982859 1.4860001
-0.34531811 -0.016982859 1.4860001
-0.33399621 -0.016982859 1.4860001
-0.2887086 0.40192765 1.4860001
-0.2887086 0.41324955 1.4860001
-0.26606479 0.46985906 1.4860001
-0.3000305 0.4925029 1.4860001
-0.26713908 -0.13072763 1.4920001
-0.26713908 -0.11936001 1.4920001
-0.26713908 -0.10799239 1.4920001
-0.26713908 -0.096624769 1.4920001
-0.26713908 -0.08525715 1.4920001
-0.26713908 -0.073889531 1.4920001
-0.28987432 -0.062521912 1.4920001
-0.17619811 -0.028419049 1.4920001
-0.32397717 -0.01705143 1.4920001
-0.36944765 -0.00568381 1.4920001
0.051394287 -0.25697145 1.4990001
0.062815242 -0.25697145 1.4990001
-0.31407622 -0.039973337 1.4990001
-0.40544385 -0.017131429 1.4990001
-0.39402288 -0.017131429 1.4990001
-0.22270858 -0.017131429 1.4990001
-0.19986668 -0.017131429 1.4990001
-0.18844573 -0.017131429 1.4990001
-0.17702477 -0.017131429 1.4990001
-0.16560382 -0.017131429 1.4990001
-0.35976002 -0.0057104765 1.4990001
-0.34833908 -0.0057104765 1.4990001
-0.27981335 0.45112765 1.4990001
-0.26839238 0.48539051 1.4990001
0.086057149 -0.29259431 1.506
0.040160004 -0.25817144 1.506
0.07458286 -0.25817144 1.506
-0.25817144 -0.1319543 1.506
-0.25817144 -0.12048001 1.506
-0.25817144 -0.10900572 1.506
-0.25817144 -0.097531438 1.506
-0.25817144 -0.086057149 1.506
-0.29259431 -0.051634289 1.506
-0.28112003 -0.051634289 1.506
-0.2122743 -0.051634289 1.506
-0.3040686 -0.040160004 1.506
-0.29259431 -0.040160004 1.506
-0.31554288 -0.028685717 1.506
-0.31554288 -0.01721143 1.506
-0.2122743 -0.01721143 1.506
-0.3843886 -0.0057371431 1.506
-0.33849144 -0.0057371431 1.506
-0.32701716 -0.0057371431 1.506
-0.20080002 -0.0057371431 1.506
-0.18932572 -0.0057371431 1.506
-0.29259431 0.45323431 1.506
-0.34996575 0.47618288 1.506
-0.26964572 0.49913147 1.506
0.063360006 -0.24768002 1.5120001
-0.24768002 -0.13248001 1.5120001
-0.23616001 -0.13248001 1.5120001
-0.24768002 -0.12096 1.5120001
-0.23616001 -0.12096 1.5120001
-0.24768002 -0.10944001 1.5120001
-0.23616001 -0.10944001 1.5120001
-0.24768002 -0.097920008 1.5120001
-0.25920001 -0.074880004 1.5120001
-0.25920001 -0.063360006 1.5120001
-0.28224003 -0.040320002 1.5120001
-0.17856002 -0.0057600006 1.5120001
-0.37440002 0.0057600006 1.5120001
-0.36288002 0.0057600006 1.5120001
-0.35136002 0.0057600006 1.5120001
-0.33984002 0.0057600006 1.5120001
-0.32832003 0.0057600006 1.5120001
-0.20160002 0.0057600006 1.5120001
-0.19008002 0.0057600006 1.5120001
-0.28224003 0.46656004 1.5120001
-0.28224003 0.51264006 1.5120001
-0.27072001 0.51264006 1.5120001
0.052080002 -0.24882668 1.5190001
0.075226672 -0.24882668 1.5190001
-0.24882668 -0.14466667 1.5190001
-0.23725335 -0.14466667 1.5190001
-0.22568001 -0.14466667 1.5190001
-0.23725335 -0.098373339 1.5190001
-0.24882668 -0.086800009 1.5190001
-0.22568001 -0.0057866671 1.5190001
-0.21410668 -0.0057866671 1.5190001
-0.17938668 0.0057866671 1.5190001
-0.20253335 0.017360002 1.5190001
-0.28354669 0.48029336 1.5190001
0.18009526 -0.4589524 1.5250001
-0.22657144 -0.13361906 1.5250001
-0.22657144 -0.12200001 1.5250001
-0.22657144 -0.11038096 1.5250001
-0.22657144 -0.098761909 1.5250001
-0.23819049 -0.087142862 1.5250001
-0.24980953 -0.075523816 1.5250001
-0.30790478 -0.029047621 1.5250001
-0.40085718 -0.0058095241 1.5250001
-0.31952384 -0.0058095241 1.5250001
-0.38923812 0.0058095241 1.5250001
-0.21495239 0.0058095241 1.5250001
-0.35438097 0.017428573 1.5250001
-0.34276193 0.017428573 1.5250001
-0.21495239 0.017428573 1.5250001
-0.1917143 0.017428573 1.5250001
-0.21495239 0.029047621 1.5250001
-0.29628575 0.47057146 1.5250001
-0.28466669 0.49380955 1.5250001
-0.28466669 0.50542861 1.5250001
0.16924953 -0.55443811 1.5320001
0.21593906 -0.51942098 1.5320001
0.1925943 -0.5077486 1.5320001
0.20426668 -0.5077486 1.5320001
0.18092191 -0.49607623 1.5320001
0.1925943 -0.49607623 1.5320001
0.20426668 -0.49607623 1.5320001
0.16924953 -0.48440385 1.5320001
0.18092191 -0.48440385 1.5320001
0.1925943 -0.48440385 1.5320001
0.14590476 -0.47273147 1.5320001
0.15757716 -0.47273147 1.5320001
0.18092191 -0.47273147 1.5320001
0.14590476 -0.46105906 1.5320001
0.16924953 -0.43771431 1.5320001
0.15757716 -0.42604193 1.5320001
0.040853336 -0.25095621 1.5320001
0.052525718 -0.23928383 1.5320001
0.064198099 -0.23928383 1.5320001
0.075870484 -0.23928383 1.5320001
0.087542862 -0.23928383 1.5320001
0.075870484 -0.22761144 1.5320001
-0.21593906 -0.14590476 1.5320001
-0.21593906 -0.13423239 1.5320001
-0.20426668 -0.099215247 1.5320001
-0.22761144 -0.087542862 1.5320001
-0.30931813 -0.017508572 1.5320001
-0.3209905 0.0058361907 1.5320001
-0.22761144 0.0058361907 1.5320001
-0.37935242 0.017508572 1.5320001
-0.36768001 0.017508572 1.5320001
-0.33266288 0.017508572 1.5320001
-0.35600764 0.029180955 1.5320001
-0.20426668 0.029180955 1.5320001
-0.21593906 0.040853336 1.5320001
-0.30931813 0.46105906 1.5320001
-0.29764575 0.5077486 1.5320001
0.12312001 -0.55697149 1.539
0.13484572 -0.55697149 1.539
0.14657144 -0.55697149 1.539
0.15829715 -0.55697149 1.539
0.18174858 -0.55697149 1.539
0.19347429 -0.55697149 1.539
0.20520002 -0.55697149 1.539
0.21692573 -0.55697149 1.539
0.099668577 -0.54524577 1.539
0.11139429 -0.54524577 1.539
0.12312001 -0.54524577 1.539
0.13484572 -0.54524577 1.539
0.14657144 -0.54524577 1.539
0.15829715 -0.54524577 1.539
0.17002288 -0.54524577 1.539
0.18174858 -0.54524577 1.539
0.19347429 -0.54524577 1.539
0.20520002 -0.54524577 1.539
0.21692573 -0.54524577 1.539
0.22865145 -0.54524577 1.539
0.14657144 -0.53352004 1.539
0.18174858 -0.53352004 1.539
0.19347429 -0.53352004 1.539
0.21692573 -0.53352004 1.539
0.22865145 -0.53352004 1.539
0.18174858 -0.52179432 1.539
0.19347429 -0.52179432 1.539
0.20520002 -0.52179432 1.539
0.15829715 -0.5100686 1.539
0.17002288 -0.5100686 1.539
0.18174858 -0.5100686 1.539
0.13484572 -0.4983429 1.539
0.14657144 -0.4983429 1.539
0.15829715 -0.4983429 1.539
0.17002288 -0.4983429 1.539
0.13484572 -0.48661718 1.539
0.14657144 -0.48661718 1.539
0.15829715 -0.48661718 1.539
0.13484572 -0.47489145 1.539
0.17002288 -0.47489145 1.539
0.13484572 -0.46316573 1.539
0.15829715 -0.46316573 1.539
0.17002288 -0.46316573 1.539
0.12312001 -0.45144004 1.539
0.13484572 -0.45144004 1.539
0.14657144 -0.45144004 1.539
0.15829715 -0.45144004 1.539
0.17002288 -0.45144004 1.539
0.14657144 -0.43971431 1.539
0.15829715 -0.43971431 1.539
0.15829715 -0.41626289 1.539
0.17002288 -0.40453717 1.539
0.15829715 -0.38108575 1.539
0.14657144 -0.35763431 1.539
0.14657144 -0.34590858 1.539
-0.20520002 -0.14657144 1.539
-0.20520002 -0.13484572 1.539
-0.21692573 -0.12312001 1.539
-0.21692573 -0.11139429 1.539
-0.21692573 -0.099668577 1.539
-0.21692573 -0.087942861 1.539
-0.24037716 -0.076217145 1.539
-0.29900575 -0.029314287 1.539
-0.31073144 -0.0058628577 1.539
-0.40453717 0.0058628577 1.539
-0.39281145 0.017588573 1.539
-0.22865145 0.017588573 1.539
-0.39281145 0.029314287 1.539
-0.38108575 0.029314287 1.539
-0.34590858 0.029314287 1.539
-0.19347429 0.029314287 1.539
-0.20520002 0.041040003 1.539
-0.29900575 0.48661718 1.539
-0.29900575 0.4983429 1.539
0.11190096 -0.55950481 1.5460001
0.22969145 -0.55950481 1.5460001
0.24147049 -0.55950481 1.5460001
0.08834286 -0.54772574 1.5460001
0.24147049 -0.54772574 1.5460001
0.076563813 -0.53594673 1.5460001
0.08834286 -0.53594673 1.5460001
0.10012191 -0.53594673 1.5460001
0.11190096 -0.53594673 1.5460001
0.12368001 -0.53594673 1.5460001
0.13545905 -0.53594673 1.5460001
0.15901716 -0.53594673 1.5460001
0.1707962 -0.53594673 1.5460001
0.20613335 -0.53594673 1.5460001
0.08834286 -0.52416766 1.5460001
0.10012191 -0.52416766 1.5460001
0.13545905 -0.52416766 1.5460001
0.14723811 -0.52416766 1.5460001
0.15901716 -0.52416766 1.5460001
0.1707962 -0.52416766 1.5460001
0.11190096 -0.51238859 1.5460001
0.12368001 -0.51238859 1.5460001
0.13545905 -0.51238859 1.5460001
0.14723811 -0.51238859 1.5460001
0.11190096 -0.50060958 1.5460001
0.12368001 -0.50060958 1.5460001
0.064784765 -0.48883051 1.5460001
0.076563813 -0.48883051 1.5460001
0.08834286 -0.48883051 1.5460001
0.10012191 -0.48883051 1.5460001
0.11190096 -0.48883051 1.5460001
0.12368001 -0.48883051 1.5460001
0.064784765 -0.47705147 1.5460001
0.076563813 -0.47705147 1.5460001
0.08834286 -0.47705147 1.5460001
0.10012191 -0.47705147 1.5460001
0.11190096 -0.47705147 1.5460001
0.12368001 -0.47705147 1.5460001
0.11190096 -0.4652724 1.5460001
0.12368001 -0.4652724 1.5460001
0.11190096 -0.45349336 1.5460001
0.11190096 -0.44171432 1.5460001
0.12368001 -0.44171432 1.5460001
0.13545905 -0.44171432 1.5460001
0.11190096 -0.42993528 1.5460001
0.12368001 -0.42993528 1.5460001
0.14723811 -0.42993528 1.5460001
0.15901716 -0.40637717 1.5460001
0.14723811 -0.39459813 1.5460001
0.15901716 -0.39459813 1.5460001
0.14723811 -0.38281909 1.5460001
0.13545905 -0.37104002 1.5460001
0.14723811 -0.37104002 1.5460001
0.13545905 -0.35926098 1.5460001
0.14723811 -0.33570287 1.5460001
0.08834286 -0.22969145 1.5460001
0.10012191 -0.22969145 1.5460001
-0.20613335 -0.12368001 1.5460001
-0.20613335 -0.11190096 1.5460001
-0.31214479 0.0058895242 1.5460001
-0.32392383 0.017668573 1.5460001
-0.37104002 0.029447621 1.5460001
-0.33570287 0.029447621 1.5460001
-0.22969145 0.029447621 1.5460001
0.10057525 -0.56203812 1.5530001
0.2543962 -0.56203812 1.5530001
0.076910481 -0.55020577 1.5530001
0.076910481 -0.52654099 1.5530001
0.11240762 -0.52654099 1.5530001
0.12424001 -0.52654099 1.5530001
0.076910481 -0.50287622 1.5530001
0.08874286 -0.50287622 1.5530001
0.10057525 -0.50287622 1.5530001
0.05324572 -0.47921145 1.5530001
0.065078102 -0.46737909 1.5530001
0.076910481 -0.46737909 1.5530001
0.08874286 -0.46737909 1.5530001
0.10057525 -0.46737909 1.5530001
0.10057525 -0.45554671 1.5530001
0.10057525 -0.44371432 1.5530001
0.10057525 -0.43188193 1.5530001
0.1360724 -0.43188193 1.5530001
0.10057525 -0.42004955 1.5530001
0.11240762 -0.42004955 1.5530001
0.1360724 -0.38455242 1.5530001
0.1360724 -0.34905526 1.5530001
0.1360724 -0.33722287 1.5530001
0.14790477 -0.32539049 1.5530001
-0.23073144 -0.076910481 1.5530001
-0.2543962 -0.065078102 1.5530001
-0.30172575 -0.017748572 1.5530001
-0.28989336 -0.017748572 1.5530001
0.089142866 -0.56457144 1.5600001
0.065371431 -0.54080003 1.5600001
0.053485718 -0.52891433 1.5600001
0.065371431 -0.52891433 1.5600001
0.077257149 -0.51702863 1.5600001
0.089142866 -0.51702863 1.5600001
0.10102858 -0.51702863 1.5600001
0.065371431 -0.50514287 1.5600001
0.053485718 -0.49325716 1.5600001
0.053485718 -0.46948576 1.5600001
0.077257149 -0.45760003 1.5600001
0.089142866 -0.45760003 1.5600001
0.089142866 -0.44571432 1.5600001
0.089142866 -0.43382859 1.5600001
0.12480001 -0.42194289 1.5600001
0.13668573 -0.42194289 1.5600001
0.14857143 -0.42194289 1.5600001
0.10102858 -0.41005716 1.5600001
0.14857143 -0.41005716 1.5600001
0.12480001 -0.38628575 1.5600001
0.12480001 -0.37440002 1.5600001
0.12480001 -0.36251432 1.5600001
0.13668573 -0.32685715 1.5600001
0.089142866 -0.21988572 1.5600001
-0.21988572 -0.077257149 1.5600001
-0.24365716 -0.065371431 1.5600001
-0.25554287 -0.053485718 1.5600001
-0.24365716 0.053485718 1.5600001
