# .PCD v0.7 - Point Cloud Data file format
VERSION 0.7
FIELDS x y z rgb
SIZE 4 4 4 4
TYPE F F F F
COUNT 1 1 1 1
WIDTH 1045
HEIGHT 1
VIEWPOINT 0 0 0 1 0 0 0
POINTS 1045
DATA ascii
-0.43904763 0.054285716 1 5.7132648e-39
-0.43714288 0.054285716 1 5.4359632e-39
-0.44544002 0.046080004 1.008 5.3462787e-39
-0.44516957 0.049533974 1.0066667 5.7136221e-39
-0.44261336 0.050172701 1.0066667 5.4373954e-39
-0.43968004 0.049920004 1.008 4.3335702e-39
-0.43680003 0.048960004 1.008 4.4253888e-39
-0.43488002 0.049920004 1.008 4.6087137e-39
-0.43872002 0.052800003 1.008 4.5176041e-39
-0.43488002 0.052800003 1.008 4.4246868e-39
-0.44229716 0.041525718 1.0140001 4.7005422e-39
-0.43940002 0.041525718 1.0140001 4.5158006e-39
-0.44164145 0.043392859 1.0125 4.4253986e-39
-0.43940002 0.043457147 1.0140001 4.3324855e-39
-0.43746859 0.043457147 1.0140001 4.3324883e-39
-0.44291431 0.046217147 1.011 4.8860195e-39
-0.43906289 0.046217147 1.011 4.4250371e-39
-0.43682146 0.046284288 1.0125 4.7923819e-39
-0.43553716 0.049251433 1.0140001 4.4250553e-39
-0.43810004 0.05199429 1.011 4.3339247e-39
-0.4342486 0.05199429 1.011 4.1491803e-39
-0.43553716 0.055045716 1.0140001 3.5985246e-39
-0.49300289 0.022277145 1.0170001 1.2903843e-39
-0.49106574 0.022277145 1.0170001 1.750282e-39
-0.48719147 0.030025717 1.0170001 1.5684215e-39
-0.48719147 0.033900004 1.0170001 1.2911186e-39
-0.48525432 0.037774287 1.0170001 1.4744294e-39
-0.44263718 0.037774287 1.0170001 4.6083564e-39
-0.44070002 0.037774287 1.0170001 4.4243323e-39
-0.43973145 0.040680002 1.0170001 4.5154447e-39
-0.43682575 0.046491433 1.0170001 4.5168824e-39
-0.49298859 -0.0068200002 1.023 3.5949261e-39
-0.49396288 0.0087685715 1.023 1.9382858e-39
-0.49298859 0.010717143 1.023 2.397106e-39
-0.49331337 0.013964764 1.023 2.3038258e-39
-0.49006575 0.014614287 1.023 3.1335906e-39
-0.49396288 0.016562859 1.023 2.1190786e-39
-0.49057147 0.016514286 1.0200001 2.2127119e-39
-0.4886286 0.016514286 1.0200001 2.9495539e-39
-0.49980861 0.020460002 1.023 1.0145205e-39
-0.49786004 0.020460002 1.023 1.1992677e-39
-0.49348575 0.019428574 1.0200001 1.7495786e-39
-0.49057147 0.019428574 1.0200001 2.5789721e-39
-0.4886286 0.018457144 1.0200001 2.9499042e-39
-0.49640003 0.022342859 1.0200001 1.198546e-39
-0.4886286 0.032057144 1.0200001 1.3829555e-39
-0.43811432 0.043714289 1.0200001 4.2410158e-39
-0.43745431 0.04384286 1.023 4.057342e-39
-0.43583861 0.049615718 1.0215001 4.149539e-39
-0.43355718 0.053585719 1.023 4.3332002e-39
-0.49932003 -0.034200002 1.026 3.1335948e-39
-0.49932003 -0.032245718 1.026 3.2257835e-39
-0.49932003 -0.014657144 1.026 2.4889317e-39
-0.49736574 -0.014657144 1.026 2.9506315e-39
-0.49541146 -0.010748572 1.026 3.4101775e-39
-0.49345717 -0.010748572 1.026 4.0541106e-39
-0.49541146 -0.0087942863 1.026 3.3186966e-39
-0.49345717 -0.0087942863 1.026 4.0551882e-39
-0.49541146 -0.0019542859 1.026 3.3165372e-39
-0.49345717 -0.0029314288 1.026 3.9622681e-39
-0.49932003 0.00097714295 1.026 2.0254452e-39
-0.49638861 0.0019542859 1.026 2.5796952e-39
-0.49345717 0.0029314288 1.026 3.5924122e-39
-0.49638861 0.0048857145 1.026 2.671888e-39
-0.49345717 0.0048857145 1.026 3.4094559e-39
-0.49932003 0.0068400004 1.026 1.7510093e-39
-0.49671432 0.0074914293 1.026 1.7528142e-39
-0.49345717 0.0078171436 1.026 2.9502756e-39
-0.49932003 0.010748572 1.026 1.4747854e-39
-0.49736574 0.010748572 1.026 1.5677069e-39
-0.49932003 0.014657144 1.026 1.6580724e-39
-0.49736574 0.013680001 1.026 1.9335985e-39
-0.49345717 0.012702858 1.026 2.6733299e-39
-0.49150288 0.012702858 1.026 3.4101733e-39
-0.49932003 0.016611429 1.026 1.6580822e-39
-0.49736574 0.016611429 1.026 1.9336013e-39
-0.49932003 0.018565716 1.026 1.3822254e-39
-0.43971431 0.028337145 1.026 3.3222937e-39
-0.43482861 0.043971431 1.026 3.8733137e-39
-0.43385145 0.046902858 1.026 3.9655079e-39
-0.43092003 0.046902858 1.026 4.0559113e-39
-0.42896575 0.047880001 1.026 4.1484572e-39
-0.43385148 0.049834289 1.026 4.2410102e-39
-0.42701146 0.049834289 1.026 3.8718605e-39
-0.43352577 0.052440003 1.026 4.2406486e-39
-0.42701146 0.05276572 1.026 3.6885567e-39
-0.42408001 0.05276572 1.026 3.5970827e-39
-0.42798859 0.055697147 1.026 3.8718703e-39
-0.43092003 0.059605718 1.026 4.3310492e-39
-0.42766291 0.058302861 1.026 3.8722277e-39
-0.42440575 0.058302861 1.026 3.6878476e-39
-0.42701146 0.061560005 1.026 3.7807649e-39
-0.4993048 -0.028447621 1.0300001 3.7757258e-39
-0.4993048 -0.025504764 1.0300001 3.5016501e-39
-0.49636191 -0.025504764 1.0300001 4.3303318e-39
-0.4993048 -0.022561906 1.0300001 3.133948e-39
-0.49636194 -0.022561906 1.0300001 4.0551812e-39
-0.4993048 -0.01961905 1.0300001 3.2250646e-39
-0.49636191 -0.01961905 1.0300001 3.8704312e-39
-0.49341908 -0.018638097 1.0300001 4.517953e-39
-0.4993048 -0.016676191 1.0300001 3.1335836e-39
-0.49636194 -0.016676191 1.0300001 3.6871203e-39
-0.49341908 -0.016676191 1.0300001 4.4250427e-39
-0.49145716 -0.016676191 1.0300001 4.9785752e-39
-0.49636191 -0.013733335 1.0300001 3.5949289e-39
-0.49341908 -0.013733335 1.0300001 4.4236092e-39
-0.49145716 -0.013733335 1.0300001 4.9771417e-39
-0.43456194 0.028447621 1.0300001 3.5963624e-39
-0.43421099 0.037330478 1.0315001 3.9629898e-39
-0.4318924 0.040336192 1.033 4.2388536e-39
-0.43081844 0.042916831 1.0320001 3.8700823e-39
-0.42831671 0.044207148 1.0315001 3.8715172e-39
-0.42438716 0.043224767 1.0315001 3.6885581e-39
-0.42144147 0.043223336 1.0315001 3.4134061e-39
-0.43063813 0.046104766 1.0300001 3.964087e-39
-0.42769527 0.046104766 1.0300001 3.9640716e-39
-0.42475241 0.046104766 1.0300001 3.9644233e-39
-0.42180955 0.046104766 1.0300001 3.6881951e-39
-0.43063813 0.050028574 1.0300001 4.0562448e-39
-0.42736828 0.048720639 1.0300001 3.963703e-39
-0.42475241 0.049047619 1.0300001 3.9640604e-39
-0.42180955 0.049047623 1.0300001 3.7800292e-39
-0.43063813 0.05297143 1.0300001 3.9644233e-39
-0.42254514 0.052694928 1.0310001 3.5967268e-39
-0.4267143 0.05591429 1.0300001 3.6892797e-39
-0.42438716 0.055995718 1.0315001 3.3205056e-39
-0.42205432 0.056077145 1.033 2.7694884e-39
-0.42475241 0.059838098 1.0300001 3.7796845e-39
-0.42242241 0.05796048 1.0315001 3.4123369e-39
-0.4267143 0.061800003 1.0300001 3.87189e-39
-0.4267143 0.063761912 1.0300001 3.8718787e-39
-0.42747432 0.040570479 1.039 3.5045283e-39
-0.42450574 0.040570479 1.039 3.5970757e-39
-0.42252669 0.046507623 1.039 3.3212091e-39
-0.42153716 0.049476195 1.039 3.6881881e-39
-0.42092717 0.052369051 1.0375 3.8715032e-39
-0.42328003 0.054266669 1.036 3.3201441e-39
-0.42123216 0.055372622 1.03825 3.3204958e-39
-0.41856861 0.055413336 1.039 3.411974e-39
-0.41658956 0.054423813 1.039 3.5963596e-39
-0.4213067 0.058213338 1.036 3.5045283e-39
-0.41895097 0.058297623 1.0375 3.595645e-39
-0.41658956 0.058381908 1.039 3.3201315e-39
-0.41895097 0.060273811 1.0375 3.7786055e-39
-0.41560003 0.062340003 1.039 3.4119684e-39
-0.42771623 0.03870286 1.0420001 3.5048857e-39
-0.42573145 0.03870286 1.0420001 3.5055975e-39
-0.42374671 0.040687621 1.0420001 3.8722193e-39
-0.42374671 0.043664765 1.0420001 3.2290149e-39
-0.42176193 0.046641909 1.0420001 3.1375381e-39
-0.41977718 0.049619049 1.0420001 3.7796677e-39
-0.4187848 0.052596193 1.0420001 3.7789516e-39
-0.41580763 0.052596193 1.0420001 3.5037997e-39
-0.41779241 0.056565717 1.0420001 3.3204916e-39
-0.41580763 0.055573337 1.0420001 3.4123243e-39
-0.41580763 0.058550481 1.0420001 3.41196e-39
-0.41382289 0.058550481 1.0420001 3.5956254e-39
-0.41779241 0.060535241 1.0420001 3.319777e-39
-0.41580763 0.060535241 1.0420001 3.5034367e-39
-0.41283047 0.061527625 1.0420001 3.7792851e-39
-0.41382289 0.064504765 1.0420001 4.7894868e-39
-0.41382289 0.067481905 1.0420001 4.0544539e-39
-0.41382289 0.070459053 1.0420001 3.7789572e-39
-0.42457861 0.037871905 1.0465001 3.6881867e-39
-0.42297623 0.038814288 1.0450001 3.9636932e-39
-0.42297623 0.040804766 1.0450001 4.147367e-39
-0.4227156 0.044165086 1.0460001 3.044625e-39
-0.42098573 0.046776194 1.0450001 3.411967e-39
-0.4183318 0.050093658 1.0450001 3.7793048e-39
-0.41620573 0.050902862 1.0480001 3.3211881e-39
-0.41501433 0.052747622 1.0450001 3.136808e-39
-0.41202861 0.064690478 1.0450001 3.8711262e-39
-0.41420954 0.068868577 1.0480001 3.5956408e-39
-0.41248354 0.067473978 1.0470002 3.5037969e-39
-0.41021717 0.066872388 1.0480001 3.2282876e-39
-0.41420954 0.070864767 1.0480001 3.5038151e-39
-0.41221336 0.070864767 1.0480001 3.3201385e-39
-0.41021717 0.072860956 1.0480001 3.1357444e-39
-0.41879624 0.049093336 1.052 3.5952708e-39
-0.41178289 0.065123811 1.052 3.2275673e-39
-0.40977907 0.065123811 1.052 2.7687458e-39
-0.40977907 0.067127623 1.052 2.9527783e-39
-0.41178289 0.070133343 1.052 3.1368164e-39
-0.40977907 0.070133343 1.052 3.0442607e-39
-0.40977907 0.073139049 1.052 2.9527881e-39
-0.40777525 0.073139049 1.052 2.4943253e-39
-0.40893811 0.065309525 1.0550001 2.7687444e-39
-0.40649956 0.064394765 1.0565001 2.5836356e-39
-0.40391433 0.065309525 1.0550001 2.3996059e-39
-0.40893811 0.06731905 1.0550001 2.9520566e-39
-0.40649956 0.067414761 1.0565001 2.8595037e-39
-0.40405527 0.067510478 1.0580001 2.9499014e-39
-0.40893811 0.070333339 1.0550001 2.8595107e-39
-0.40664256 0.070735887 1.0560001 2.7673122e-39
-0.4039613 0.070066035 1.0560001 3.4097978e-39
-0.40090004 0.069328576 1.0550001 3.2250478e-39
-0.40649956 0.073451906 1.0565001 2.216658e-39
-0.40432003 0.067893341 1.064 2.7662276e-39
-0.40432003 0.071946673 1.064 2.9499e-39
-0.40380573 0.07018286 1.0680001 2.7655046e-39
-0.40177146 0.072217144 1.0680001 2.3059613e-39
-0.48381147 -0.25878286 1.074 2.1111717e-38
-0.48450002 -0.25602001 1.0710001 2.157198e-38
-0.48415574 -0.25331289 1.0725 1.9638053e-38
-0.47588384 -0.26495716 1.0910001 1.9081987e-38
-0.47588384 -0.26287907 1.0910001 1.9173824e-38
-0.4727667 -0.26287907 1.0910001 1.8897594e-38
-0.45760003 -0.086400002 1.12 2.1197946e-39
-0.45411623 -0.11596762 1.138 1.3847463e-39
-0.46332574 -0.15770477 1.1420001 1.7513652e-39
-0.46223813 -0.15444192 1.1420001 1.7513666e-39
-0.46021909 -0.15752955 1.1460001 1.2925409e-39
-0.45949146 -0.15389144 1.146 1.4747812e-39
-0.45508671 -0.1597762 1.1570001 5.5605345e-40
-0.45178097 -0.14434953 1.1570001 7.3864124e-40
-0.45223716 -0.14263715 1.161 7.3864264e-40
-0.45090002 -0.15030001 1.169 3.6950559e-40
-0.44867337 -0.15030001 1.169 4.6062642e-40
-0.45157623 -0.14534763 1.1650001 5.5424998e-40
-0.45157623 -0.14312857 1.1650001 6.4608687e-40
-0.42161906 0.032176193 1.1650001 4.8874558e-39
-0.45398575 -0.14908667 1.177 4.6026349e-40
-0.45174384 -0.14908667 1.177 4.6062502e-40
-0.45398575 -0.14572382 1.177 4.6097955e-40
-0.45398575 -0.14011906 1.177 4.6098235e-40
-0.44950193 -0.11097429 1.177 4.6062782e-40
-0.42403525 -0.27781621 1.1810001 1.4105937e-38
-0.42178574 -0.27781621 1.1810001 1.4198487e-38
-0.41841143 -0.27781621 1.1810001 1.4289598e-38
-0.41503718 -0.27781621 1.1810001 1.4382157e-38
-0.42403525 -0.27444193 1.1810001 1.3922269e-38
-0.42178574 -0.27444193 1.1810001 1.419813e-38
-0.41841143 -0.27444193 1.1810001 1.4473991e-38
-0.41503718 -0.27444193 1.1810001 1.4383236e-38
-0.42403525 -0.27106765 1.1810001 1.3831509e-38
-0.42178574 -0.27106765 1.1810001 1.3737876e-38
-0.41841143 -0.27106765 1.1810001 1.3830806e-38
-0.41503718 -0.27106765 1.1810001 1.4109178e-38
-0.42178574 -0.26544383 1.1810001 1.1248978e-38
-0.4195362 -0.2665686 1.1810001 1.1527353e-38
-0.42178574 -0.26206955 1.1810001 1.0419578e-38
-0.4195362 -0.25532097 1.1810001 8.8497323e-39
-0.4195362 -0.25307146 1.1810001 8.4816644e-39
-0.41841143 -0.25082192 1.1810001 7.9288494e-39
-0.41503718 -0.24744764 1.1810001 7.4678712e-39
-0.41503718 -0.24407335 1.1810001 7.2824024e-39
-0.41278765 -0.24407335 1.1810001 7.4667936e-39
-0.41503718 -0.24182382 1.1810001 7.0987258e-39
-0.41278765 -0.24182382 1.1810001 7.2827583e-39
-0.41053814 -0.24182382 1.1810001 7.3749539e-39
-0.41503718 -0.23732477 1.1810001 6.6384637e-39
-0.41278765 -0.23844954 1.1810001 6.8221375e-39
-0.41278765 -0.23507525 1.1810001 6.0863717e-39
-0.41278765 -0.22832668 1.1810001 5.1626204e-39
-0.45102954 -0.19683334 1.1810001 4.6242289e-40
-0.45102954 -0.19345906 1.1810001 2.776771e-40
-0.44878003 -0.19233429 1.1810001 2.7731977e-40
-0.44878003 -0.19008477 1.1810001 3.6914966e-40
-0.44428098 -0.16646478 1.1810001 6.4573235e-40
-0.44203144 -0.16646478 1.1810001 6.4645261e-40
-0.44540572 -0.16309048 1.1810001 5.5281925e-40
-0.44203144 -0.16309048 1.1810001 6.4609388e-40
-0.44540572 -0.16084096 1.1810001 4.6062222e-40
-0.45327908 -0.15634191 1.1810001 3.6878812e-40
-0.45102954 -0.15746668 1.1810001 5.5282205e-40
-0.44878003 -0.15634191 1.1810001 5.5355353e-40
-0.44540572 -0.15634191 1.1810001 5.5353812e-40
-0.43978193 -0.15634191 1.1810001 5.5390666e-40
-0.45327908 -0.15409239 1.1810001 3.6915106e-40
-0.45102954 -0.15409239 1.1810001 4.613593e-40
-0.44878003 -0.15409239 1.1810001 7.3723854e-40
-0.44540572 -0.15409239 1.1810001 7.3793358e-40
-0.43978193 -0.15409239 1.1810001 7.3829231e-40
-0.45102954 -0.15184286 1.1810001 4.6099216e-40
-0.44878003 -0.15184286 1.1810001 8.2906002e-40
-0.43978193 -0.15184286 1.1810001 8.3048514e-40
-0.45327908 -0.14734381 1.1810001 4.6062222e-40
-0.45327908 -0.14509429 1.1810001 3.6914125e-40
-0.45552859 -0.14284477 1.1810001 4.6133968e-40
-0.45327908 -0.13834572 1.1810001 3.6843079e-40
-0.45327908 -0.13609619 1.1810001 3.6878953e-40
-0.45327908 -0.11585049 1.1810001 3.6878532e-40
-0.45102954 -0.11585049 1.1810001 2.776729e-40
-0.45102954 -0.11360096 1.1810001 3.6914966e-40
-0.42464289 -0.29215431 1.189 1.2532856e-38
-0.42237812 -0.29328668 1.189 1.1797089e-38
-0.42124575 -0.28875718 1.189 1.3827533e-38
-0.41784859 -0.28875718 1.189 1.3458038e-38
-0.42434287 -0.28665718 1.1850001 1.364351e-38
-0.42237812 -0.28649241 1.189 1.4013364e-38
-0.41827431 -0.2860105 1.187 1.3737143e-38
-0.42434287 -0.28327146 1.1850001 1.4013015e-38
-0.42095718 -0.28327146 1.1850001 1.3922253e-38
-0.41870004 -0.28327146 1.1850001 1.3922252e-38
-0.41644287 -0.28327146 1.1850001 1.3921899e-38
-0.42434287 -0.28101429 1.1850001 1.4105575e-38
-0.42095718 -0.28101429 1.1850001 1.4106649e-38
-0.41870004 -0.28101429 1.1850001 1.4106289e-38
-0.41601336 -0.2814886 1.187 1.4106652e-38
-0.41256416 -0.28045306 1.189 1.4290688e-38
-0.41418573 -0.2776286 1.1850001 1.4382881e-38
-0.41192859 -0.27650002 1.1850001 1.4474362e-38
-0.41418573 -0.27424288 1.1850001 1.4477228e-38
-0.41192859 -0.27424288 1.1850001 1.4475796e-38
-0.41488481 -0.27131242 1.187 1.4105938e-38
-0.41262382 -0.27131242 1.187 1.429069e-38
-0.42095718 -0.2697286 1.1850001 1.2815574e-38
-0.41841623 -0.26852477 1.1863334 1.2260966e-38
-0.41601336 -0.26905143 1.187 1.2906339e-38
-0.41827431 -0.26566193 1.187 9.9586022e-39
-0.41558385 -0.26610956 1.189 1.0142282e-38
-0.41558385 -0.26271242 1.189 9.4958178e-39
-0.41558385 -0.25931525 1.189 8.9430041e-39
-0.41558385 -0.25705048 1.189 8.5749363e-39
-0.41531432 -0.25054288 1.1850001 7.8362936e-39
-0.41418573 -0.24715716 1.1850001 7.6511849e-39
-0.41331908 -0.24799144 1.189 7.9270487e-39
-0.41134572 -0.24469623 1.1876668 7.5597039e-39
-0.41149145 -0.24079144 1.187 7.0976524e-39
-0.41149145 -0.23853049 1.187 6.8214214e-39
-0.40878955 -0.23666763 1.189 6.269684e-39
-0.45030004 -0.19975716 1.1850001 9.2159757e-40
-0.45030004 -0.19524287 1.1850001 3.6987693e-40
-0.4480429 -0.19637144 1.1850001 5.5390386e-40
-0.4480429 -0.19298573 1.1850001 2.7803583e-40
-0.4480429 -0.19072859 1.1850001 3.6950839e-40
-0.45030004 -0.15912858 1.1850001 6.4465755e-40
-0.4480429 -0.15912858 1.1850001 5.5281645e-40
-0.44578573 -0.15912858 1.1850001 4.6097395e-40
-0.4427762 -0.15988097 1.1850002 6.4537782e-40
-0.44352859 -0.15687144 1.1850001 1.8655627e-40
-0.44352859 -0.1546143 1.1850001 4.6350049e-40
-0.45142859 -0.15010001 1.1850001 5.5282065e-40
-0.4480429 -0.15122858 1.1850001 1.0127184e-39
-0.44578573 -0.15122858 1.1850001 8.2976207e-40
-0.4427762 -0.15085238 1.1850002 8.3012361e-40
-0.43901432 -0.15010001 1.1850001 1.1981943e-39
-0.45142859 -0.14784287 1.1850001 4.6097955e-40
-0.4480429 -0.14784287 1.1850001 5.5317518e-40
-0.44578573 -0.14784287 1.1850001 7.3792517e-40
-0.44240004 -0.14784287 1.1850001 1.0141519e-39
-0.43901432 -0.14784287 1.1850001 1.2903829e-39
-0.43675718 -0.14784287 1.1850001 1.7499261e-39
-0.45142859 -0.14558573 1.1850001 4.6097395e-40
-0.4480429 -0.14558573 1.1850001 7.3612591e-40
-0.44578573 -0.14558573 1.1850001 6.4536941e-40
-0.44240004 -0.14558573 1.1850001 7.3792657e-40
-0.43901432 -0.14558573 1.1850001 1.1070664e-39
-0.43450004 -0.14558573 1.1850001 1.9361124e-39
-0.45481431 -0.14220001 1.1850001 3.6914546e-40
-0.45142859 -0.14220001 1.1850001 3.6914826e-40
-0.44880038 -0.14230256 1.189 7.3648744e-40
-0.44578573 -0.14332858 1.1850001 6.4465054e-40
-0.44240001 -0.14220001 1.1850001 4.6170542e-40
-0.43901432 -0.14220001 1.1850001 8.3013061e-40
-0.43675718 -0.14220001 1.1850001 1.1074336e-39
-0.43374771 -0.14182383 1.1850002 1.7531645e-39
-0.45142859 -0.1388143 1.1850001 3.6914826e-40
-0.44955528 -0.13928287 1.189 8.290404e-40
-0.44578573 -0.1388143 1.1850001 6.4608267e-40
-0.44240004 -0.1388143 1.1850001 5.5425558e-40
-0.43901432 -0.1388143 1.1850001 7.3865385e-40
-0.43675718 -0.1388143 1.1850001 1.1070776e-39
-0.43337148 -0.1388143 1.1850001 1.6609689e-39
-0.45142859 -0.13655715 1.1850001 4.6098095e-40
-0.4480429 -0.13655715 1.1850001 7.3756084e-40
-0.44578573 -0.13655715 1.1850001 5.5388704e-40
-0.44240004 -0.13655715 1.1850001 5.5425278e-40
-0.43901432 -0.13655715 1.1850001 8.2976908e-40
-0.43675718 -0.13655715 1.1850001 1.1063588e-39
-0.43337148 -0.13655715 1.1850001 1.5676942e-39
-0.45481431 -0.13430001 1.1850001 4.6098516e-40
-0.45142859 -0.13317144 1.1850001 5.5282486e-40
-0.4480429 -0.13317144 1.1850001 6.4465335e-40
-0.44578573 -0.13317144 1.1850001 5.5280944e-40
-0.44240001 -0.13317144 1.1850001 5.5353531e-40
-0.43901432 -0.13317144 1.1850001 8.2976627e-40
-0.43675718 -0.13317144 1.1850001 1.0138002e-39
-0.43337148 -0.13317144 1.1850001 1.3829401e-39
-0.45481431 -0.12978572 1.1850001 7.3577138e-40
-0.45142859 -0.12978572 1.1850001 9.1980811e-40
-0.4480429 -0.12978572 1.1850001 1.0119981e-39
-0.44578573 -0.12978572 1.1850001 7.3648464e-40
-0.44240004 -0.12978572 1.1850001 4.6098235e-40
-0.43901432 -0.12978572 1.1850001 5.5389825e-40
-0.43675718 -0.12978572 1.1850001 7.3792938e-40
-0.43337148 -0.12978572 1.1850001 1.0155939e-39
-0.42998573 -0.12978572 1.1850001 1.4751399e-39
-0.45481431 -0.12752858 1.1850001 6.4464914e-40
-0.45142859 -0.12752858 1.1850001 7.3649024e-40
-0.4480429 -0.12752858 1.1850001 8.290432e-40
-0.44578573 -0.12752858 1.1850001 5.5389265e-40
-0.44240004 -0.12752858 1.1850001 3.7058179e-40
-0.43901432 -0.12752858 1.1850001 5.5389545e-40
-0.43675718 -0.12752858 1.1850001 7.3828391e-40
-0.43337148 -0.12752858 1.1850001 1.0148764e-39
-0.42998573 -0.12752858 1.1850001 1.3818681e-39
-0.45481431 -0.12414287 1.1850001 4.6097815e-40
-0.45142859 -0.12414287 1.1850001 5.5246052e-40
-0.4480429 -0.12414287 1.1850001 6.4429742e-40
-0.44578573 -0.12414287 1.1850001 4.6170122e-40
-0.44240001 -0.12414287 1.1850001 2.787519e-40
-0.43924734 -0.12404351 1.1876668 6.4645121e-40
-0.43675718 -0.12527144 1.1850001 7.3828531e-40
-0.43337148 -0.12414287 1.1850001 1.0141575e-39
-0.43019843 -0.12404351 1.1876668 1.5662579e-39
-0.45481431 -0.12075715 1.1850001 5.5281645e-40
-0.45218861 -0.12096096 1.187 6.4429601e-40
-0.4480429 -0.12075715 1.1850001 8.2832854e-40
-0.44540572 -0.12096096 1.187 5.5282345e-40
-0.44276097 -0.12116477 1.189 6.4537782e-40
-0.43936384 -0.12116477 1.189 8.2976768e-40
-0.43410099 -0.12096096 1.187 1.1989117e-39
-0.43030477 -0.12116477 1.189 1.8424847e-39
-0.42690766 -0.12116477 1.189 1.7510023e-39
-0.45481431 -0.11850001 1.1850001 4.6062502e-40
-0.45218861 -0.11870001 1.187 4.6098375e-40
-0.44955528 -0.11890001 1.189 6.4537642e-40
-0.44540572 -0.11870001 1.187 6.4537782e-40
-0.44276097 -0.11890001 1.189 6.4537642e-40
-0.43823147 -0.11890001 1.189 8.3013061e-40
-0.43410099 -0.11870001 1.187 1.1992761e-39
-0.43030477 -0.11890001 1.189 1.9353978e-39
-0.42690766 -0.11890001 1.189 2.1186988e-39
-0.45030004 -0.11624286 1.1850001 3.7058879e-40
-0.4476667 -0.11643906 1.187 5.5425979e-40
-0.44502574 -0.11550286 1.189 8.3012641e-40
-0.4359667 -0.11550286 1.189 1.1074392e-39
-0.43370193 -0.11550286 1.189 1.4755028e-39
-0.43030477 -0.11663525 1.189 2.0286724e-39
-0.42690766 -0.11663525 1.189 2.3952913e-39
-0.42464289 -0.11550286 1.189 2.4860478e-39
-0.45030004 -0.11285715 1.1850001 5.5283046e-40
-0.44829625 -0.1127324 1.1876668 7.3793218e-40
-0.44578573 -0.11398572 1.1850001 7.3828811e-40
-0.4359667 -0.11210572 1.189 1.290027e-39
-0.43370193 -0.11210572 1.189 1.4744238e-39
-0.43030477 -0.11210572 1.189 2.2123574e-39
-0.42464289 -0.11210572 1.189 3.4951705e-39
-0.44955528 -0.10984096 1.189 6.4538202e-40
-0.4359667 -0.10984096 1.189 1.4733322e-39
-0.43370193 -0.10984096 1.189 1.3818667e-39
-0.43143716 -0.10984096 1.189 1.3840415e-39
-0.4359667 -0.10644382 1.189 2.300223e-39
-0.43370193 -0.10644382 1.189 1.8396092e-39
-0.4303048 -0.10644382 1.189 1.2904011e-39
-0.42464289 -0.1075762 1.189 1.8464377e-39
-0.43370193 -0.10304667 1.189 3.402972e-39
-0.48060861 -0.31472477 1.1930001 1.4013014e-38
-0.47833622 -0.31472477 1.1930001 1.3737143e-38
-0.47606385 -0.31472477 1.1930001 1.355203e-38
-0.4215267 -0.29427335 1.1930001 1.1427953e-38
-0.4192543 -0.29427335 1.1930001 1.0969132e-38
-0.41470954 -0.29427335 1.1930001 9.3160942e-39
-0.4215267 -0.29200098 1.1930001 1.2536088e-38
-0.41584575 -0.28972858 1.1930001 1.3273646e-38
-0.41584575 -0.28632003 1.1930001 1.3553123e-38
-0.41243717 -0.28632003 1.1930001 1.3554191e-38
-0.41243717 -0.27154955 1.1930001 1.4660191e-38
-0.41470954 -0.26814097 1.1930001 1.1249349e-38
-0.41243717 -0.26814097 1.1930001 1.1708534e-38
-0.41470954 -0.26473239 1.1930001 9.8667583e-39
-0.41243717 -0.26473239 1.1930001 9.9578833e-39
-0.41470954 -0.26246002 1.1930001 9.404341e-39
-0.44425049 -0.11702763 1.1930001 6.4430442e-40
-0.44197813 -0.11816382 1.1930001 5.5390526e-40
-0.43970573 -0.11702763 1.1930001 7.3793919e-40
-0.44425049 -0.11475524 1.1930001 5.5462412e-40
-0.44197813 -0.11475524 1.1930001 2.7912044e-40
-0.43970573 -0.11475524 1.1930001 7.3865945e-40
-0.4328886 -0.11475524 1.1930001 1.7531687e-39
-0.43061623 -0.11475524 1.1930001 2.5800525e-39
-0.42834383 -0.11475524 1.1930001 3.3136547e-39
-0.42379907 -0.11475524 1.1930001 2.300586e-39
-0.4215267 -0.11475524 1.1930001 2.0250767e-39
-0.44538671 -0.11248287 1.1930001 6.4753722e-40
-0.43970573 -0.11248287 1.1930001 7.3757205e-40
-0.42834383 -0.11248287 1.1930001 4.2323754e-39
-0.42379907 -0.11248287 1.1930001 2.6690027e-39
-0.4215267 -0.11248287 1.1930001 2.3009377e-39
-0.44425049 -0.11021049 1.1930001 8.3229001e-40
-0.43061623 -0.11021049 1.1930001 2.1201814e-39
-0.42720765 -0.11021049 1.1930001 2.7637249e-39
-0.42379907 -0.11021049 1.1930001 2.3952899e-39
-0.42758641 -0.10642318 1.1930001 1.3847491e-39
-0.42379907 -0.10680191 1.1930001 2.3952955e-39
-0.4328886 -0.10339334 1.1930001 2.1169178e-39
-0.43516099 -0.10112096 1.1930001 2.762283e-39
-0.31926954 0.1079381 1.1930001 3.5988792e-39
-0.47538003 -0.31578001 1.197 1.3366927e-38
-0.47310004 -0.31578001 1.197 1.3183618e-38
-0.47538003 -0.31350002 1.197 1.3550958e-38
-0.47310004 -0.31350002 1.197 1.3552036e-38
-0.47082004 -0.31122002 1.197 1.2265623e-38
-0.42180002 -0.30210003 1.197 1.2171995e-38
-0.41838002 -0.30210003 1.197 1.2449295e-38
-0.41838002 -0.29754001 1.197 1.1063834e-38
-0.41838002 -0.29526001 1.197 1.0140817e-38
-0.41382003 -0.29526001 1.197 9.1295576e-39
-0.41838002 -0.29298002 1.197 1.1706325e-38
-0.41610003 -0.29298002 1.197 1.1243556e-38
-0.41382003 -0.29298002 1.197 1.0877285e-38
-0.41382003 -0.29070002 1.197 1.2723342e-38
-0.41382003 -0.28386003 1.197 1.4199212e-38
-0.41382003 -0.2793 1.197 1.4566917e-38
-0.41382003 -0.27702001 1.197 1.4659468e-38
-0.41382003 -0.27474001 1.197 1.4659825e-38
-0.40470004 -0.23370002 1.197 5.6239572e-39
-0.42066002 -0.11514001 1.197 1.8406924e-39
-0.44346002 -0.11286001 1.197 9.5803973e-41
-0.42066002 -0.11286001 1.197 1.8414071e-39
-0.44232002 -0.10944001 1.197 1.1070664e-39
-0.42180002 -0.10944001 1.197 1.9343146e-39
-0.44118002 -0.10602 1.197 2.3031027e-39
-0.42294002 -0.10602 1.197 2.2105511e-39
-0.43890002 -0.10374001 1.197 4.599346e-39
-0.43206003 -0.10374001 1.197 1.1056525e-39
-0.42978004 -0.10374001 1.197 9.6535451e-41
-0.43890002 -0.10146001 1.197 3.3154469e-39
-0.43662003 -0.099180005 1.197 2.2130791e-39
-0.43434003 -0.10032001 1.197 2.3023908e-39
-0.41325909 -0.29420382 1.202 1.0504898e-38
-0.41325909 -0.29191431 1.202 1.2168013e-38
-0.41325909 -0.28962478 1.202 1.3185048e-38
-0.41325909 -0.28619051 1.202 1.4290676e-38
-0.41325909 -0.28275621 1.202 1.4475075e-38
-0.41325909 -0.28046668 1.202 1.4659112e-38
-0.41096956 -0.2713086 1.202 1.3463826e-38
-0.40982479 -0.26901907 1.202 1.1896148e-38
-0.40982479 -0.2655848 1.202 9.4047222e-39
-0.42012766 -0.11104191 1.202 1.4740693e-39
-0.41783813 -0.11104191 1.202 1.10637e-39
-0.41554859 -0.11218667 1.202 1.2903983e-39
-0.42012766 -0.10875238 1.202 1.4740679e-39
-0.41783813 -0.10875238 1.202 9.2341365e-40
-0.41554859 -0.10875238 1.202 1.291113e-39
-0.4212724 -0.10646287 1.202 1.6584564e-39
-0.42928573 -0.10417334 1.202 1.6584549e-39
-0.42699623 -0.10417334 1.202 3.1281872e-39
-0.4338648 -0.10188381 1.202 1.4744308e-39
-0.4304305 -0.10188381 1.202 1.0141687e-39
-0.31252003 0.10417334 1.202 3.7821886e-39
-0.41463432 -0.29748002 1.2060001 8.8551147e-39
-0.41233718 -0.28944004 1.2060001 1.3645305e-38
-0.41004002 -0.29058859 1.2060001 1.290738e-38
-0.41233718 -0.28599429 1.2060001 1.4475061e-38
-0.41233718 -0.28369716 1.2060001 1.4567267e-38
-0.41004002 -0.28140002 1.2060001 1.5119729e-38
-0.41004002 -0.2745086 1.2060001 1.5305198e-38
-0.40774289 -0.26876575 1.2060001 1.152988e-38
-0.40774289 -0.26532 1.2060001 8.4827701e-39
-0.41463432 -0.10911429 1.2060001 1.5666181e-39
-0.41233718 -0.10911429 1.2060001 1.659171e-39
-0.41922861 -0.10681715 1.2060001 1.291829e-39
-0.41578287 -0.10681715 1.2060001 1.474421e-39
-0.42726862 -0.10337144 1.2060001 2.3009531e-39
-0.42382288 -0.10452001 1.2060001 1.7506562e-39
-0.43071431 -0.099925719 1.2060001 1.1971223e-39
-0.42841718 -0.099925719 1.2060001 1.2900368e-39
-0.41044766 -0.29714099 1.2140001 9.3117012e-39
-0.41140002 -0.28924763 1.21 1.4381064e-38
-0.40929145 -0.29020384 1.2140001 1.4195954e-38
-0.40877527 -0.28341275 1.2113335 1.4752744e-38
-0.40582287 -0.28326669 1.2140001 1.4661626e-38
-0.40582287 -0.2809543 1.2140001 1.4937494e-38
-0.40351051 -0.27401716 1.2140001 1.5673267e-38
-0.40119812 -0.27401716 1.2140001 1.5858371e-38
-0.40351051 -0.27170479 1.2140001 1.6039533e-38
-0.40383559 -0.26832575 1.2126667 1.0974929e-38
-0.4173848 -0.10521334 1.2140001 1.4747784e-39
-0.41507241 -0.10521334 1.2140001 1.4751343e-39
-0.41262162 -0.10651874 1.2113335 1.4744196e-39
-0.40929148 -0.10636953 1.2140001 1.5666124e-39
-0.45749527 -0.10256191 1.21 4.6134109e-40
-0.42753336 -0.10256191 1.21 1.8425001e-39
-0.42477524 -0.10273144 1.2120001 1.4755098e-39
-0.4218508 -0.10421144 1.2113335 1.5662621e-39
-0.41846544 -0.1035562 1.2126667 1.3825855e-39
-0.41507241 -0.10290096 1.2140001 1.2911004e-39
-0.40813527 -0.10290096 1.2140001 1.4751329e-39
-0.42753336 -0.10025715 1.21 1.1996404e-39
-0.42477524 -0.10042286 1.2120001 1.1996376e-39
-0.42200956 -0.10058858 1.2140001 1.4747812e-39
-0.41854098 -0.10058858 1.2140001 1.1070748e-39
-0.42477524 -0.098114297 1.2120001 9.2340524e-40
-0.42200956 -0.098276198 1.2140001 1.7499233e-39
-0.41854098 -0.098276198 1.2140001 1.2903843e-39
-0.40582287 -0.098276198 1.2140001 1.2911074e-39
-0.41854098 -0.095963813 1.2140001 1.4740595e-39
-0.43819621 -0.070527621 1.2140001 7.3685458e-40
-0.40749431 -0.29836479 1.2190001 8.5763095e-39
-0.40749431 -0.29604289 1.2190001 1.0966223e-38
-0.40672034 -0.29217303 1.2190001 1.3458747e-38
-0.40285051 -0.28675526 1.2190001 1.4569428e-38
-0.40285051 -0.28211144 1.2190001 1.5212653e-38
-0.40052861 -0.28443336 1.2190001 1.5122253e-38
-0.40285051 -0.27978954 1.2190001 1.5397042e-38
-0.40052861 -0.27514574 1.2190001 1.6043479e-38
-0.40052861 -0.27166289 1.2190001 1.4204984e-38
-0.40517241 -0.10680763 1.2190001 1.1074378e-39
-0.41446003 -0.10332477 1.2190001 1.3832946e-39
-0.41213813 -0.10332477 1.2190001 1.4751287e-39
-0.40633336 -0.10332477 1.2190001 1.1992719e-39
-0.41562098 -0.10100286 1.2190001 1.1985488e-39
-0.41213813 -0.10100286 1.2190001 1.382933e-39
-0.40981621 -0.10100286 1.2190001 1.3829373e-39
-0.40633336 -0.10100286 1.2190001 1.1074364e-39
-0.40285051 -0.10100286 1.2190001 1.5666167e-39
-0.41562098 -0.097520001 1.2190001 1.1981929e-39
-0.41213813 -0.097520009 1.2190001 1.4736909e-39
-0.40981621 -0.097520009 1.2190001 1.7499191e-39
-0.40594637 -0.097133026 1.2190001 1.107435e-39
-0.40285051 -0.097520009 1.2190001 1.1074378e-39
-0.41562098 -0.094037145 1.2190001 1.1989173e-39
-0.41213813 -0.094037145 1.2190001 1.3829344e-39
-0.40981621 -0.094037145 1.2190001 1.4758475e-39
-0.40633336 -0.094037145 1.2190001 1.0155953e-39
-0.40285051 -0.094037145 1.2190001 9.2412551e-40
-0.41446003 -0.091715246 1.2190001 1.1989103e-39
-0.41213813 -0.091715246 1.2190001 1.1992635e-39
-0.40981621 -0.091715246 1.2190001 1.1077867e-39
-0.40633336 -0.091715246 1.2190001 9.241185e-40
-0.40285051 -0.091715246 1.2190001 9.2412551e-40
-0.41213813 -0.08939334 1.2190001 1.1992635e-39
-0.40981621 -0.08939334 1.2190001 1.1996222e-39
-0.40672034 -0.088619374 1.2190001 1.7499191e-39
-0.40285051 -0.08939334 1.2190001 1.4747784e-39
-0.40417242 -0.29468477 1.223 1.2168704e-38
-0.40067813 -0.29468477 1.223 1.1796694e-38
-0.40417242 -0.29235527 1.223 1.3553804e-38
-0.40184289 -0.29235527 1.223 1.3089958e-38
-0.40417242 -0.10832287 1.223 1.4758531e-39
-0.40184289 -0.10599334 1.223 1.5669782e-39
-0.40067813 -0.096675247 1.223 1.0159652e-39
-0.40067813 -0.094345719 1.223 1.0159694e-39
-0.40184289 -0.092016198 1.223 1.0156051e-39
-0.40315717 -0.30266002 1.2270001 1.2352761e-38
-0.40082002 -0.30032289 1.2270001 1.1525568e-38
-0.40315717 -0.29798573 1.2270001 1.0694325e-38
-0.40082002 -0.29798573 1.2270001 1.0417047e-38
-0.40082002 -0.29331145 1.2270001 1.2997042e-38
-0.40082002 -0.28980574 1.2270001 1.4383586e-38
-0.39848289 -0.28863716 1.2270001 1.4936407e-38
-0.40082002 -0.11101429 1.2270001 1.8439126e-39
-0.40082002 -0.10867715 1.2270001 1.7513666e-39
-0.40082002 -0.10634001 1.2270001 1.5666237e-39
-0.30266002 0.085305721 1.2270001 4.2402801e-39
-0.30266002 0.088811435 1.2270001 4.5150775e-39
-0.30149144 0.092317149 1.2270001 4.2388606e-39
-0.39776003 -0.29216 1.2320001 1.3645664e-38
-0.38837335 -0.25344002 1.2320001 8.2057852e-39
-0.38602668 -0.25344002 1.2320001 8.2979794e-39
-0.39776003 -0.11146668 1.2320001 1.7510065e-39
-0.4001067 -0.10677334 1.2320001 1.5669796e-39
-0.39776003 -0.10208001 1.2320001 1.1999907e-39
-0.39776003 -0.099733338 1.2320001 1.1074364e-39
-0.4001067 -0.095040008 1.2320001 1.0159666e-39
-0.29920003 0.095040008 1.2320001 3.9622723e-39
-0.38492575 -0.24837716 1.2360001 8.2072384e-39
-0.39905146 -0.10947429 1.2360001 1.5673369e-39
-0.39669716 -0.10947429 1.2360001 1.4755042e-39
-0.39905146 -0.10712001 1.2360001 1.4755e-39
-0.39669716 -0.10712001 1.2360001 1.3829485e-39
-0.39905146 -0.10476572 1.2360001 1.3833044e-39
-0.39669716 -0.10358858 1.2360001 1.0152421e-39
-0.39434287 -0.10241143 1.2360001 1.0155967e-39
-0.39669716 -0.10005715 1.2360001 9.2376117e-40
-0.39434287 -0.10005715 1.2360001 1.1077853e-39
-0.39905146 -0.097702861 1.2360001 1.0152421e-39
-0.39669716 -0.097702861 1.2360001 9.241199e-40
-0.39483178 -0.10589208 1.24 1.3829443e-39
-0.39089528 -0.10274287 1.24 1.1992663e-39
-0.39089528 -0.10038096 1.24 1.384012e-39
-0.39443812 -0.098019056 1.24 1.2003411e-39
-0.39089528 -0.098019056 1.24 1.6602374e-39
-0.39798099 -0.095657147 1.24 1.1077923e-39
-0.39561906 -0.095657147 1.24 1.1999837e-39
-0.2704381 0.13344763 1.24 3.5952792e-39
-0.26807621 0.14053334 1.24 3.7789502e-39
0.18540953 0.25626668 1.24 4.5168866e-39
-0.3937324 -0.31284478 1.2490001 1.4292122e-38
-0.39010003 -0.10552858 1.245 1.4754958e-39
-0.38835144 -0.10688382 1.247 1.5673369e-39
-0.38659525 -0.10348858 1.2490001 1.6591724e-39
-0.3877286 -0.10078572 1.245 1.6591738e-39
-0.39484289 -0.096042864 1.245 1.3843722e-39
-0.39128575 -0.096042864 1.245 1.3829358e-39
-0.3877286 -0.097228579 1.245 1.6580864e-39
-0.38538954 -0.097832076 1.2476667 1.5669684e-39
-0.39128575 -0.093671434 1.245 9.241143e-40
-0.38897431 -0.093972385 1.2490001 1.1081482e-39
-0.38659525 -0.093972385 1.2490001 1.383296e-39
-0.38897431 -0.09159334 1.2490001 1.3840148e-39
0.18675525 0.23671526 1.2490001 5.4395604e-39
0.19072035 0.23592225 1.2490001 6.0831389e-39
0.19389239 0.23552573 1.2490001 7.0058113e-39
0.19627143 0.23671526 1.2490001 5.9959824e-39
0.19865049 0.23671526 1.2490001 5.531721e-39
0.18199715 0.2390943 1.2490001 5.0718527e-39
0.18437621 0.2390943 1.2490001 4.9800172e-39
0.18675525 0.2390943 1.2490001 5.1636882e-39
0.19032383 0.2390943 1.2490001 5.1636896e-39
0.19389239 0.2390943 1.2490001 5.0743736e-39
0.19627143 0.2390943 1.2490001 5.1694447e-39
0.19865049 0.2390943 1.2490001 5.1593483e-39
0.18199715 0.24147335 1.2490001 5.2551621e-39
0.18437621 0.24147335 1.2490001 4.9792955e-39
0.19032383 0.24147335 1.2490001 5.4388261e-39
0.19389239 0.24147335 1.2490001 4.9796528e-39
0.19627143 0.24147335 1.2490001 4.704868e-39
0.19865049 0.24147335 1.2490001 4.5175676e-39
0.20102954 0.24147335 1.2490001 2.5778595e-39
0.18199715 0.24385239 1.2490001 5.346999e-39
0.18437621 0.24385239 1.2490001 4.8871013e-39
0.18675525 0.24385239 1.2490001 5.4388289e-39
0.19032383 0.24385239 1.2490001 5.6217782e-39
0.19389239 0.24385239 1.2490001 4.8874516e-39
0.19627143 0.24385239 1.2490001 4.3364372e-39
0.19865049 0.24385239 1.2490001 3.7810914e-39
0.20102954 0.24385239 1.2490001 2.5775162e-39
0.18199715 0.24742097 1.2490001 4.7945511e-39
0.18437621 0.24742097 1.2490001 3.8754745e-39
0.18675525 0.24742097 1.2490001 4.334289e-39
0.19032381 0.24742097 1.2490001 4.7941812e-39
0.19389239 0.24742097 1.2490001 4.6108619e-39
0.19595715 0.24702287 1.247 4.3349897e-39
0.19865049 0.24742097 1.2490001 4.1516648e-39
0.20182256 0.24781749 1.2490001 3.3190301e-39
0.18437621 0.25098953 1.2490001 4.3353652e-39
0.18675525 0.25098953 1.2490001 4.4268364e-39
0.19032383 0.25098953 1.2490001 4.5183131e-39
0.19389239 0.25098953 1.2490001 4.6094298e-39
0.19627143 0.25098953 1.2490001 4.3342792e-39
0.19865049 0.25098953 1.2490001 4.1502369e-39
0.20221907 0.25098953 1.2490001 3.4144557e-39
0.20578763 0.25098953 1.2490001 3.8664361e-39
0.20816667 0.25098953 1.2490001 4.5003093e-39
0.18408096 0.2541486 1.247 4.8867355e-39
0.18675525 0.25336859 1.2490001 4.7030631e-39
0.19389239 0.25336859 1.2490001 4.609427e-39
0.19627143 0.25336859 1.2490001 4.3342792e-39
0.19951811 0.25296289 1.247 3.8743646e-39
0.20340858 0.25336859 1.2490001 3.2311686e-39
0.20512858 0.25255716 1.245 6.0813144e-39
0.20750001 0.25255716 1.245 8.9325252e-39
0.21054573 0.25336859 1.2490001 8.7531646e-39
0.18378572 0.25730002 1.245 4.6119437e-39
0.18675525 0.25574765 1.2490001 4.6097955e-39
0.19389239 0.25574765 1.2490001 4.3332002e-39
0.19595715 0.25652385 1.247 4.1498936e-39
0.19951811 0.25652385 1.247 3.6899818e-39
0.20239842 0.2562651 1.2476667 2.9542384e-39
0.2054581 0.25652385 1.247 5.2559174e-39
0.20783335 0.25652385 1.247 7.7566704e-39
0.21054573 0.25574765 1.2490001 9.4111709e-39
0.19032383 0.25812668 1.2490001 4.333203e-39
0.19389239 0.25812668 1.2490001 4.0576979e-39
0.19865049 0.25812668 1.2490001 4.0573336e-39
-0.38575432 -0.10629144 1.2540001 1.6595311e-39
-0.38575432 -0.10390286 1.2540001 1.6595297e-39
-0.38336575 -0.10390286 1.2540001 1.659171e-39
-0.38336575 -0.10032001 1.2540001 1.4744182e-39
-0.38575432 -0.096737146 1.2540001 1.5666054e-39
-0.38336575 -0.096737146 1.2540001 1.5666082e-39
-0.38575432 -0.09434858 1.2540001 1.474414e-39
-0.38336575 -0.09434858 1.2540001 1.567683e-39
-0.38575432 -0.091960005 1.2540001 1.7517156e-39
0.18989144 0.21377715 1.2540001 3.4256717e-39
0.18989144 0.22930287 1.2540001 5.1694755e-39
0.19347429 0.22930287 1.2540001 4.6184723e-39
0.19705716 0.22930287 1.2540001 4.0681866e-39
0.18989144 0.23288573 1.2540001 5.626488e-39
0.19347429 0.23288573 1.2540001 5.9952775e-39
0.19705716 0.23288573 1.2540001 5.5375504e-39
0.18272573 0.2352743 1.2540001 5.8090562e-39
0.18511429 0.2352743 1.2540001 5.7165074e-39
0.18750288 0.2352743 1.2540001 5.8087058e-39
0.18989144 0.2352743 1.2540001 5.8087128e-39
0.19705716 0.2352743 1.2540001 6.8282556e-39
0.19944572 0.2352743 1.2540001 5.896926e-39
0.18272573 0.23766287 1.2540001 5.4402722e-39
0.18511429 0.23766287 1.2540001 5.3473633e-39
0.20183431 0.23766287 1.2540001 2.8526457e-39
0.18750288 0.24244002 1.2540001 5.2551579e-39
0.20183431 0.24005145 1.2540001 2.6635951e-39
0.20422287 0.24482858 1.2540001 1.2889438e-39
0.20541716 0.24721716 1.2540001 1.7470464e-39
0.20661144 0.24960573 1.2540001 1.6534145e-39
0.20900001 0.24960573 1.2540001 9.2564171e-41
0.21138859 0.25199431 1.2540001 4.41564e-39
0.18989144 0.25438288 1.2540001 4.4264762e-39
0.19228001 0.25438288 1.2540001 4.5179488e-39
0.18989144 0.25677145 1.2540001 4.4250399e-39
0.19228001 0.25677145 1.2540001 4.4253902e-39
-0.38249621 -0.10671525 1.2590001 1.7510093e-39
-0.38249621 -0.10431715 1.2590001 1.659171e-39
-0.38009813 -0.10072 1.2590001 1.6588165e-39
-0.38009813 -0.092326671 1.2590001 1.4762049e-39
0.18825048 0.2086343 1.2590001 6.1836232e-39
0.19064859 0.20983335 1.2590001 3.5171653e-39
0.19304667 0.20983335 1.2590001 4.6199087e-39
0.18825048 0.21223144 1.2590001 6.0899913e-39
0.19064859 0.21223144 1.2590001 3.1501736e-39
0.19304667 0.21223144 1.2590001 4.0674454e-39
0.18465334 0.21462953 1.2590001 9.0330193e-39
0.18825048 0.21462953 1.2590001 6.1832603e-39
0.19304667 0.21462953 1.2590001 3.9752357e-39
0.19664383 0.21462953 1.2590001 4.8010559e-39
0.18825048 0.21702763 1.2590001 6.2765363e-39
0.19064859 0.21702763 1.2590001 3.7019026e-39
0.19304667 0.21702763 1.2590001 3.8834114e-39
0.19664383 0.21702763 1.2590001 4.1589305e-39
0.19064859 0.22062477 1.2590001 4.0688929e-39
0.19304667 0.22062477 1.2590001 3.7008278e-39
0.19664381 0.22062477 1.2590001 3.1483883e-39
0.20024097 0.21942572 1.2590001 3.3338656e-39
0.19064859 0.22422192 1.2590001 4.5273529e-39
0.19304667 0.22422192 1.2590001 3.9759812e-39
0.19664383 0.22422192 1.2590001 3.2405882e-39
0.20024097 0.22422192 1.2590001 2.6910312e-39
0.18825048 0.22662002 1.2590001 5.5382552e-39
0.19064859 0.22662002 1.2590001 4.7113798e-39
0.19304667 0.22662002 1.2590001 4.3436833e-39
0.19664383 0.22662002 1.2590001 3.7008433e-39
0.18465334 0.22901811 1.2590001 6.454441e-39
0.18825048 0.22901811 1.2590001 5.6290103e-39
0.20024097 0.22901811 1.2590001 3.518624e-39
0.1810562 0.2338143 1.2590001 6.3593545e-39
0.18465336 0.23261526 1.2590001 6.1767695e-39
0.18825048 0.23261526 1.2590001 5.8105135e-39
0.20024097 0.23261526 1.2590001 4.3397036e-39
0.1810562 0.2362124 1.2590001 5.8083359e-39
0.20743525 0.24580477 1.2590001 8.2868307e-40
0.20983335 0.24820288 1.2590001 2.7767009e-40
0.21462953 0.25299907 1.2590001 4.3169886e-39
0.21462953 0.25539717 1.2590001 8.5691321e-39
-0.35965431 -0.21290573 1.263 4.5168866e-39
-0.37649432 -0.09021429 1.263 1.292178e-39
-0.26222289 0.11427144 1.263 3.2254205e-39
-0.2586143 0.11427144 1.263 3.1335962e-39
0.17682001 0.20568858 1.263 3.6932552e-39
0.17922573 0.20568858 1.263 6.9219142e-39
0.18163145 0.20568858 1.263 1.0228333e-38
0.18403715 0.20568858 1.263 9.5854658e-39
0.18764573 0.20568858 1.263 7.5633067e-39
0.1912543 0.20568858 1.263 3.5182513e-39
0.17922573 0.2080943 1.263 6.8336604e-39
0.18163145 0.2080943 1.263 9.4025249e-39
0.18403715 0.2080943 1.263 9.0337298e-39
0.18644287 0.2080943 1.263 8.6664004e-39
0.1912543 0.2080943 1.263 3.8863051e-39
0.19366001 0.2080943 1.263 5.0805295e-39
0.17682001 0.21170288 1.263 3.8837393e-39
0.17922573 0.21290573 1.263 7.2020729e-39
0.18163145 0.21170288 1.263 1.0320516e-38
0.18403715 0.21170288 1.263 9.5843798e-39
0.18644287 0.21170288 1.263 8.941544e-39
0.19606572 0.21170288 1.263 5.2623998e-39
0.19847144 0.21290573 1.263 5.908121e-39
0.17682001 0.21531144 1.263 5.6293186e-39
0.17922573 0.21531144 1.263 7.5640339e-39
0.18163145 0.21531144 1.263 9.4025235e-39
0.20087716 0.21531144 1.263 5.6297474e-39
0.17682001 0.21771716 1.263 7.4674845e-39
0.18163145 0.21771716 1.263 8.2061439e-39
0.18403715 0.21771716 1.263 8.5724055e-39
0.18644287 0.21771716 1.263 8.8482791e-39
0.20087716 0.21771716 1.263 4.5273655e-39
0.17682001 0.22012287 1.263 7.4692992e-39
0.18163145 0.22012287 1.263 7.9284794e-39
0.18403715 0.22012287 1.263 7.928841e-39
0.18764573 0.22012287 1.263 6.8264717e-39
0.18764573 0.22373144 1.263 6.0899885e-39
0.20087716 0.22252859 1.263 2.1392937e-39
0.18163145 0.22734001 1.263 7.2813164e-39
0.18403715 0.22734001 1.263 6.8225032e-39
0.18644287 0.22734001 1.263 6.2722147e-39
0.20087716 0.22734001 1.263 3.150566e-39
0.17682001 0.22974573 1.263 6.9125283e-39
0.18163145 0.22974573 1.263 7.0962049e-39
0.17682001 0.23215145 1.263 6.6366574e-39
0.18163145 0.23215145 1.263 6.8196152e-39
0.17922573 0.23455715 1.263 6.4515431e-39
0.20328288 0.23576 1.263 2.943789e-39
0.20568858 0.24418001 1.263 7.3576857e-40
0.21290573 0.25139716 1.263 9.2199834e-41
-0.35624763 -0.21616383 1.268 4.5176041e-39
-0.35624763 -0.21374859 1.268 4.3335688e-39
-0.25722286 0.11713906 1.268 3.0421083e-39
0.17510477 0.18959621 1.268 5.0819364e-39
0.17752001 0.18959621 1.268 5.8177106e-39
0.17510477 0.19201145 1.268 4.1513733e-39
0.17752001 0.19321907 1.268 3.7840383e-39
0.17510477 0.19684191 1.268 3.2218374e-39
0.17872763 0.19684191 1.268 4.790996e-39
0.18235049 0.19684191 1.268 9.4032354e-39
0.18476573 0.19684191 1.268 8.9422586e-39
0.17510477 0.19925715 1.268 3.3111478e-39
0.17872763 0.19925715 1.268 4.9900911e-39
0.18235049 0.19925715 1.268 9.7730899e-39
0.18476573 0.19925715 1.268 9.3088846e-39
0.1702743 0.20167239 1.268 2.8573597e-39
0.17510477 0.20167239 1.268 3.2246778e-39
0.17872763 0.20167239 1.268 4.9857849e-39
0.18235049 0.20167239 1.268 1.0417017e-38
0.18476573 0.20167239 1.268 9.6783803e-39
0.18718097 0.20167239 1.268 8.9419097e-39
0.18959621 0.20167239 1.268 6.0899941e-39
0.19201145 0.20167239 1.268 3.1491114e-39
0.1702743 0.20408763 1.268 2.7644452e-39
0.17268954 0.20529525 1.268 3.0406593e-39
0.17510477 0.20529525 1.268 3.2232457e-39
0.17872763 0.20408763 1.268 5.084086e-39
0.18235049 0.20408763 1.268 1.1058794e-38
0.18476573 0.20408763 1.268 1.0137198e-38
0.18718097 0.20408763 1.268 9.1248632e-39
0.18959621 0.20408763 1.268 6.1811149e-39
0.19362161 0.20489272 1.268 3.7919669e-39
0.17510477 0.20891811 1.268 3.6774107e-39
0.17752001 0.20891811 1.268 4.2471381e-39
0.19684191 0.20891811 1.268 6.2747623e-39
0.17510477 0.21133335 1.268 3.4994879e-39
0.17993525 0.21133335 1.268 7.0148132e-39
0.19925715 0.21133335 1.268 7.1941878e-39
0.20167239 0.21133335 1.268 8.6667928e-39
0.20167239 0.21374859 1.268 6.7342929e-39
0.20408763 0.21374859 1.268 5.813438e-39
0.17993525 0.21857907 1.268 7.8388076e-39
0.20408763 0.21857907 1.268 4.5273781e-39
0.17993525 0.22099429 1.268 7.745163e-39
0.20408763 0.22099429 1.268 3.793413e-39
0.17872763 0.22340953 1.268 7.4682188e-39
0.18235049 0.22340953 1.268 7.6518954e-39
0.18476573 0.22340953 1.268 7.2856338e-39
0.20408763 0.22340953 1.268 2.9669048e-39
0.17872763 0.22582477 1.268 7.3742267e-39
0.18235049 0.22582477 1.268 7.4664293e-39
0.18476573 0.22582477 1.268 7.0079749e-39
0.20408763 0.22582477 1.268 3.1505856e-39
0.17913017 0.22904509 1.268 7.0969195e-39
0.20408763 0.22944763 1.268 3.1495024e-39
0.17993525 0.23307049 1.268 6.7274153e-39
0.20408763 0.23307049 1.268 2.9539175e-39
0.20650287 0.24152383 1.268 9.2205439e-41
0.20891811 0.24514668 1.268 5.5245631e-40
0.21133335 0.24756192 1.268 3.6914686e-40
0.21374859 0.24997716 1.268 5.5245631e-40
0.21616383 0.25239241 1.268 9.2558566e-41
0.17565715 0.17565715 1.2720001 6.365481e-39
0.17081144 0.17808001 1.2720001 4.4351573e-39
0.1732343 0.17808001 1.2720001 5.0794351e-39
0.17565715 0.17808001 1.2720001 6.2747259e-39
0.17808001 0.17808001 1.2720001 7.5629395e-39
0.16960001 0.1817143 1.2720001 4.0667391e-39
0.1732343 0.1817143 1.2720001 4.8021377e-39
0.17565715 0.1817143 1.2720001 6.182896e-39
0.17808001 0.1817143 1.2720001 7.5640171e-39
0.1813105 0.1821181 1.2720001 8.3952001e-39
0.16960001 0.18534859 1.2720001 3.7915857e-39
0.1732343 0.18534859 1.2720001 4.5266298e-39
0.17565715 0.18534859 1.2720001 5.9063147e-39
0.17808001 0.18534859 1.2720001 7.2881575e-39
0.18050286 0.18534859 1.2720001 8.2108243e-39
0.17081144 0.18777144 1.2720001 3.7926577e-39
0.1732343 0.18777144 1.2720001 4.4344328e-39
0.17565715 0.18777144 1.2720001 5.5400475e-39
0.17808001 0.18777144 1.2720001 6.5538379e-39
0.1817143 0.18777144 1.2720001 9.2224539e-39
0.16960001 0.19019429 1.2720001 3.0572409e-39
0.1732343 0.19019429 1.2720001 4.3407924e-39
0.1817143 0.19019429 1.2720001 9.7741787e-39
0.18534859 0.19019429 1.2720001 9.7680662e-39
0.16960001 0.19261715 1.2720001 2.6798418e-39
0.1732343 0.19261715 1.2720001 3.7775714e-39
0.1817143 0.19261715 1.2720001 8.6678424e-39
0.18534859 0.19261715 1.2720001 9.2184868e-39
0.18777144 0.19261715 1.2720001 8.3901807e-39
0.16960001 0.19625145 1.2720001 2.3996423e-39
0.1732343 0.19625145 1.2720001 3.1343263e-39
0.17565715 0.19504002 1.2720001 3.1300327e-39
0.1817143 0.19504002 1.2720001 7.466086e-39
0.18534859 0.19504002 1.2720001 8.574202e-39
0.18777144 0.19625145 1.2720001 8.2979836e-39
0.19019429 0.19746287 1.2720001 5.7226521e-39
0.16596572 0.19988573 1.2720001 2.6740446e-39
0.16960001 0.19988573 1.2720001 2.8584415e-39
0.1732343 0.19988573 1.2720001 3.2247017e-39
0.18777144 0.19988573 1.2720001 8.7560863e-39
0.19019429 0.19988573 1.2720001 5.9956475e-39
0.19261715 0.19988573 1.2720001 3.1498275e-39
0.16838858 0.20230858 1.2720001 2.5807686e-39
0.1732343 0.20230858 1.2720001 3.1332137e-39
0.19504002 0.20230858 1.2720001 3.5168177e-39
0.19746287 0.2071543 1.2720001 5.4500505e-39
0.19988573 0.20957716 1.2720001 8.4791869e-39
0.20230858 0.20957716 1.2720001 1.0591761e-38
0.20473143 0.21200001 1.2720001 6.274056e-39
0.2071543 0.22169144 1.2720001 4.1614781e-39
0.2071543 0.2241143 1.2720001 3.793783e-39
0.2071543 0.22653715 1.2720001 3.6101176e-39
0.2071543 0.22896002 1.2720001 3.3353286e-39
0.2071543 0.23259431 1.2720001 2.3182816e-39
0.2071543 0.23622859 1.2720001 1.1024197e-39
0.2071543 0.23865144 1.2720001 1.8405355e-40
0.20957716 0.24107431 1.2720001 2.7624217e-40
0.20957716 0.24349716 1.2720001 2.765967e-40
0.21684574 0.25076574 1.2720001 8.2832294e-40
0.17269906 0.17391525 1.2770001 4.5251921e-39
0.17634763 0.17391525 1.2770001 5.9970586e-39
0.17878 0.17269906 1.2770001 7.0104874e-39
0.1812124 0.17391525 1.2770001 7.6547736e-39
0.16661811 0.17634763 1.2770001 3.792676e-39
0.16905048 0.17634763 1.2770001 3.8841485e-39
0.17269906 0.17634763 1.2770001 4.8017762e-39
0.17878 0.17634763 1.2770001 7.4703824e-39
0.1812124 0.17634763 1.2770001 8.1161063e-39
0.16661811 0.17878 1.2770001 3.7008363e-39
0.16905048 0.17878 1.2770001 3.8845058e-39
0.1812124 0.17878 1.2770001 8.1171853e-39
0.16418572 0.1812124 1.2770001 3.5168037e-39
0.16661811 0.1812124 1.2770001 3.7004747e-39
0.16418572 0.18364477 1.2770001 3.6072001e-39
0.16661811 0.18364477 1.2770001 3.6997544e-39
0.16175334 0.18850954 1.2770001 3.1465849e-39
0.16418572 0.18729335 1.2770001 3.3331229e-39
0.16661811 0.18729335 1.2770001 3.3331187e-39
0.16905048 0.18850954 1.2770001 3.1512414e-39
0.18364477 0.18607715 1.2770001 9.1288135e-39
0.18729335 0.18850954 1.2770001 9.0341053e-39
0.16418572 0.19094191 1.2770001 2.6823459e-39
0.16661811 0.19094191 1.2770001 2.6873794e-39
0.18850954 0.19094191 1.2770001 8.480584e-39
0.16418572 0.19337429 1.2770001 2.8577324e-39
0.16661811 0.19337429 1.2770001 2.5876335e-39
0.19094191 0.19337429 1.2770001 5.7226521e-39
0.16661811 0.19580668 1.2770001 2.5854671e-39
0.19094191 0.19580668 1.2770001 5.5382636e-39
0.16661811 0.19823906 1.2770001 2.5836595e-39
0.19337429 0.19823906 1.2770001 2.9665138e-39
0.19580668 0.20067143 1.2770001 3.1509079e-39
0.19945525 0.20310383 1.2770001 3.9770812e-39
0.20310383 0.20310383 1.2770001 4.1607592e-39
0.19945525 0.2055362 1.2770001 4.5295403e-39
0.20067143 0.20796858 1.2770001 6.459183e-39
0.2055362 0.21040097 1.2770001 6.7314413e-39
