# .PCD v0.7 - Point Cloud Data file format
VERSION 0.7
FIELDS x y z rgb
SIZE 4 4 4 4
TYPE F F F F
COUNT 1 1 1 1
WIDTH 294
HEIGHT 1
VIEWPOINT 0 0 0 1 0 0 0
POINTS 294
DATA ascii
0.27634287 0.23712002 0.62400001 1.1064078e-39
0.28614509 0.23502636 0.62900007 1.1067792e-39
0.27797621 0.23750001 0.625 9.2345989e-40
0.28020954 0.23788002 0.62600005 8.3198873e-40
0.28354639 0.23811463 0.62766671 8.3127547e-40
0.28921527 0.23444194 0.63200003 9.2348512e-40
0.28695476 0.23827763 0.63100004 7.387155e-40
0.30021146 0.23295431 0.64200002 7.4233085e-40
0.30114669 0.23490669 0.64400005 6.5049115e-40
0.30284289 0.23220001 0.64500004 1.5699335e-39
0.3045429 0.23256096 0.64600003 1.2958662e-39
0.30733716 0.23266287 0.648 1.6639228e-39
0.3091886 0.23142859 0.648 2.030148e-39
0.30434987 0.23530099 0.64733338 6.5085409e-40
0.31128764 0.23238033 0.65066671 2.0283347e-39
0.30849212 0.23544447 0.65000004 8.3740195e-40
0.31071526 0.2351521 0.6503334 1.0210771e-39
0.30473334 0.23943335 0.65300006 6.4974286e-40
0.30768514 0.23848256 0.65266675 7.4089032e-40
0.30953655 0.23799621 0.65133339 9.2780252e-40
0.30535525 0.24192096 0.65300006 6.4722052e-40
0.30659908 0.24129906 0.65300006 7.4050356e-40
0.30286765 0.24316478 0.65300006 1.1089456e-39
0.30473337 0.24440861 0.65300012 6.4723314e-40
0.30659908 0.24503049 0.65300006 2.8024568e-40
0.31601655 0.22988701 0.6553334 1.1946252e-39
0.31873098 0.22918525 0.65750003 1.1024197e-39
0.31646669 0.23374668 0.65800005 1.1038364e-39
0.31897336 0.23124002 0.65800005 9.2054799e-40
0.31377622 0.23517621 0.65500003 1.941911e-39
0.31646669 0.23625335 0.65800005 5.0783056e-39
0.31377622 0.23767145 0.65500003 4.7079705e-40
0.30441904 0.24141431 0.65500003 7.4155454e-40
0.30816191 0.24141431 0.65500003 7.4050917e-40
0.31102353 0.24112129 0.6553334 1.5688461e-39
0.31348288 0.24152669 0.65700006 1.2933452e-39
0.30488384 0.2430324 0.65600002 7.3906303e-40
0.30836987 0.2443254 0.65500009 3.735105e-40
0.31019112 0.24403302 0.6553334 1.1078469e-39
0.31270668 0.24377336 0.65800005 2.4864612e-39
0.32243884 0.22923359 0.66125005 3.5088401e-39
0.32518575 0.22984001 0.66300005 3.9662366e-39
0.33192098 0.22962955 0.66300005 3.6792324e-39
0.33465716 0.22920859 0.66300005 1.3782877e-39
0.33655146 0.22984001 0.66300005 3.9622275e-39
0.31955668 0.23337668 0.66050005 3.6809308e-40
0.32280478 0.23201525 0.66200006 7.3505391e-40
0.31790954 0.23607144 0.66100001 3.0402585e-39
0.32007179 0.23558795 0.66200006 1.37898e-39
0.32287049 0.23552287 0.66300011 4.0612222e-39
0.31939209 0.2386505 0.66233337 7.2938748e-39
0.32139716 0.23804858 0.66300005 1.1991396e-38
0.31665051 0.24173811 0.66100001 7.4127428e-40
0.31887144 0.24120572 0.66300005 3.8744585e-39
0.31702861 0.24508129 0.66266674 1.569202e-39
0.31437004 0.24696049 0.66150004 1.2904305e-39
0.31634572 0.24752003 0.66300005 1.2907837e-39
0.31318861 0.24941429 0.66300005 1.8733539e-40
0.31508288 0.24941429 0.66300005 5.5432705e-40
0.31003144 0.25699145 0.66300005 3.7065185e-40
0.32996669 0.22736669 0.66500002 1.3271736e-38
0.33186668 0.22736669 0.66500002 1.2445178e-38
0.32895336 0.22939335 0.66500002 9.6783341e-39
0.33123335 0.22926667 0.66500002 9.951677e-39
0.32616669 0.23306668 0.66500002 1.8403253e-40
0.32870004 0.23243338 0.66500002 9.292991e-41
0.33174002 0.23268668 0.66500002 9.3638967e-41
0.33440006 0.23243335 0.66500002 1.4740581e-39
0.33738574 0.23279527 0.66500008 9.4063449e-39
0.32616669 0.23560002 0.66500002 9.6642707e-39
0.32886416 0.23571812 0.66533339 1.08689e-38
0.33186668 0.23560002 0.66500002 9.9422869e-39
0.33440006 0.23560002 0.66500002 1.0875065e-38
0.33731338 0.23547335 0.66500002 1.3648755e-38
0.33934289 0.23658858 0.66600001 1.3830615e-38
0.32363334 0.23876669 0.66500002 1.5760604e-38
0.325656 0.23822311 0.66525 1.5675594e-38
0.32886416 0.23825273 0.66533339 1.5116353e-38
0.33182162 0.23804192 0.66533339 1.2447719e-38
0.3343212 0.23847544 0.6656 1.327605e-38
0.33718669 0.23831287 0.66550004 1.4655722e-38
0.33934289 0.23849145 0.66600001 1.4747189e-38
0.34214574 0.23892859 0.66900003 1.5208168e-38
0.32215559 0.24130002 0.66500002 1.1355083e-38
0.32548612 0.24177632 0.66587496 1.4190107e-38
0.32881781 0.24111971 0.6656667 6.6254933e-39
0.3312217 0.24175358 0.66624999 2.388488e-39
0.33448967 0.24154967 0.666125 3.9701714e-39
0.33769336 0.24121001 0.66650003 1.1806317e-38
0.34010717 0.24157287 0.66750002 1.2266185e-38
0.34214577 0.24147718 0.66900003 1.3645863e-38
0.31983337 0.24446669 0.66500002 8.3491605e-40
0.32209644 0.24474263 0.66575003 2.6002284e-39
0.32524192 0.24520192 0.66700006 6.7155197e-39
0.32832289 0.24438763 0.66766679 2.9405422e-39
0.33128861 0.24438763 0.66766679 2.2066065e-39
0.33395335 0.24471335 0.66740006 1.2893235e-39
0.33705735 0.24431257 0.66700006 2.4839094e-39
0.34044671 0.24487525 0.66900003 2.1187198e-39
0.34214574 0.24466288 0.66900003 3.1346528e-39
0.31920004 0.24763334 0.66500002 1.3851765e-39
0.32197574 0.24718574 0.66550004 1.8483141e-39
0.3257305 0.24747811 0.66800004 2.8649477e-39
0.32876575 0.24721144 0.66900003 3.2200059e-39
0.3313143 0.24721144 0.66900003 1.0134373e-39
0.33416542 0.24738859 0.66833341 7.3937131e-40
0.33718193 0.24747716 0.66800004 1.0152351e-39
0.34023431 0.24721144 0.66900003 1.1967327e-39
0.34214574 0.24721144 0.66900003 9.2230242e-40
0.31413335 0.25143334 0.66500002 9.5128548e-41
0.31719527 0.2512632 0.6656667 4.6320621e-40
0.31956026 0.25044882 0.66575003 1.0156821e-39
0.32245955 0.2500962 0.66649997 1.2000902e-39
0.32621717 0.25039715 0.66900009 2.8675065e-39
0.32876575 0.25039715 0.66900009 9.0430498e-39
0.3315267 0.24954763 0.66900003 8.0169883e-39
0.33450004 0.25039715 0.66900009 6.1702324e-39
0.33781314 0.25065205 0.66900009 2.5821797e-39
0.34023437 0.25039715 0.66900009 2.3927466e-39
0.34214577 0.25039715 0.66900003 1.838505e-39
0.31444287 0.25473049 0.66700006 3.7207137e-40
0.31640255 0.25375685 0.66666669 4.6389705e-40
0.31977889 0.25346002 0.66700006 5.5648505e-40
0.32206574 0.25282478 0.66700006 9.2453889e-40
0.32558003 0.25358289 0.66900009 3.7603984e-40
0.32876575 0.25358286 0.66900003 2.500498e-39
0.33450001 0.25294572 0.66900003 1.2257937e-38
0.33704859 0.25294572 0.66900003 1.1428894e-38
0.31357288 0.25644335 0.66650003 3.7136371e-40
0.31708479 0.25634384 0.66900003 6.4650306e-40
0.31920859 0.25613144 0.66900003 5.5647804e-40
0.32239431 0.2554943 0.66900003 7.4195671e-40
0.32430574 0.2554943 0.66900003 8.3593899e-40
0.31293762 0.25898334 0.66650003 1.8662353e-40
0.31538576 0.25931716 0.66900003 1.8803884e-40
0.31411144 0.26186574 0.66900003 3.7138333e-40
0.33117145 0.25077143 0.67000002 1.1796662e-38
0.33180955 0.25332385 0.67000002 1.0691076e-38
0.33404285 0.25364286 0.67000002 1.1520766e-38
0.3375524 0.25408953 0.67000002 1.1522914e-38
0.34074289 0.25396192 0.67000002 1.2627933e-38
0.3432537 0.25430131 0.67033339 1.0600037e-38
0.32096192 0.25715241 0.67000002 3.7353853e-40
0.32287621 0.25715241 0.67000002 7.4376719e-40
0.32564133 0.25672704 0.67000002 7.4664826e-40
0.32836384 0.25638673 0.67000002 7.4773286e-40
0.33192134 0.25702497 0.671 3.8815547e-39
0.33436191 0.25651431 0.67000002 1.0142094e-38
0.33741719 0.25689715 0.671 1.1885909e-38
0.34052747 0.2568332 0.67083335 1.1337822e-38
0.3440643 0.2570886 0.67149997 1.4283061e-38
0.31713337 0.25970477 0.67000002 4.6352711e-40
0.31947303 0.25927937 0.67000002 5.5539344e-40
0.32259881 0.25935692 0.67075002 6.4940795e-40
0.32562748 0.25965869 0.67119998 8.3631454e-40
0.32859266 0.25955027 0.67124999 8.3704322e-40
0.33152002 0.25984001 0.67200005 7.459378e-40
0.33370066 0.25949812 0.67166674 1.0330538e-38
0.33728004 0.25920004 0.67200011 1.3177357e-38
0.33984002 0.25920001 0.67200005 7.3823752e-39
0.34213525 0.25997144 0.67400002 8.4689813e-39
0.31458098 0.26353335 0.67000002 4.628671e-40
0.31684977 0.26318979 0.67075002 4.6284888e-40
0.31931084 0.26222256 0.671 5.5359977e-40
0.32232001 0.26220524 0.67150003 6.4544088e-40
0.32512003 0.26240003 0.67200005 9.2418436e-40
0.32832003 0.26240003 0.67200005 6.4832895e-40
0.33163494 0.26244766 0.67266673 3.7248615e-40
0.33452892 0.26270735 0.67333335 6.4602115e-39
0.33764195 0.26253909 0.67400002 1.6688714e-38
0.33956763 0.26189715 0.67400002 1.7972516e-38
0.3158074 0.26594311 0.67124999 6.4722753e-40
0.31936002 0.26560003 0.67200005 8.2944257e-40
0.32266605 0.26501018 0.67266673 4.6175026e-40
0.32570252 0.26587698 0.67400002 4.6465095e-40
0.32844129 0.26553464 0.67400002 3.731826e-40
0.33122289 0.26574859 0.67400002 1.2915432e-39
0.33443242 0.2656202 0.67400002 6.5124365e-40
0.33785591 0.26553464 0.67400002 1.3194322e-38
0.33956763 0.26574859 0.67400002 1.6232014e-38
0.31441051 0.26776096 0.671 4.6134529e-40
0.31637335 0.26901338 0.67200011 2.7912604e-40
0.31872001 0.26880002 0.67200005 6.4647503e-40
0.32223621 0.26831621 0.67400002 8.2977748e-40
0.32544574 0.2676743 0.67400002 7.3942456e-40
0.32801336 0.2676743 0.67400002 6.4724014e-40
0.31627569 0.27189255 0.67400008 5.5322843e-40
0.31945464 0.27195367 0.67400002 5.528739e-40
0.32223621 0.27024192 0.67400002 6.4576037e-40
0.33571622 0.27152574 0.67400002 1.3837598e-39
0.31645909 0.27409336 0.67400002 6.4542546e-40
0.34392861 0.26035717 0.67500001 9.4895652e-39
0.34585714 0.26035717 0.67500001 6.7284341e-39
0.34161001 0.2624805 0.67550004 1.6955155e-38
0.34354004 0.2624805 0.67550004 1.4280805e-38
0.34624168 0.26257741 0.67575008 5.0696204e-39
0.32978573 0.26678574 0.67500001 8.3235447e-40
0.3349286 0.26678574 0.67500001 7.3948902e-40
0.33750004 0.26678574 0.67500001 6.8311506e-39
0.34126514 0.26490384 0.67566675 1.9720328e-38
0.34366691 0.2651512 0.67575002 1.3175958e-38
0.34636956 0.26524955 0.67600006 6.9095841e-39
0.32528573 0.26935717 0.67500001 9.2056761e-40
0.32882145 0.26903573 0.67500001 9.2057602e-40
0.3317143 0.26871431 0.67500001 1.3822814e-39
0.33428574 0.26871431 0.67500001 1.1993601e-39
0.33750004 0.26871431 0.67500007 3.9644583e-39
0.34134784 0.26872611 0.67600006 9.0329661e-39
0.34379429 0.26846859 0.67600006 8.8438819e-39
0.34604764 0.26879048 0.67600006 8.2024978e-39
0.34804001 0.26861715 0.67800003 7.9276975e-39
0.31435716 0.27192858 0.67500001 5.539543e-40
0.32271433 0.27192858 0.67500001 5.5322563e-40
0.32528573 0.27128571 0.67500001 9.1983613e-40
0.32858112 0.27135289 0.67516673 7.368742e-40
0.3317143 0.27128571 0.67500001 1.1060561e-39
0.33428574 0.27128571 0.67500001 1.3844633e-39
0.33775717 0.27115715 0.67500001 1.1139846e-39
0.34084073 0.27138597 0.67524999 5.0747477e-39
0.34354001 0.27148622 0.67550004 7.3763552e-39
0.34636956 0.27168763 0.67600006 7.8355257e-39
0.31435716 0.27385718 0.67500001 5.5362219e-40
0.31564286 0.27578574 0.67500001 2.7807647e-40
0.31950003 0.27450001 0.67500007 5.5358156e-40
0.32285714 0.2750743 0.67800003 4.6174886e-40
0.32568049 0.27463096 0.67850006 4.6139433e-40
0.32892689 0.27494517 0.67800003 3.6990636e-40
0.33172476 0.27439845 0.67633343 9.2203197e-40
0.33478099 0.27426288 0.67600006 1.1068072e-39
0.3371067 0.27406052 0.67550004 1.3848318e-39
0.34051847 0.27429676 0.67640007 2.8588717e-39
0.34305844 0.27474862 0.67666674 4.9818388e-39
0.34610289 0.2750743 0.67800003 7.5603766e-39
0.34804001 0.2750743 0.67800003 7.9269871e-39
0.31696892 0.27705273 0.67600006 3.6916507e-40
0.31938702 0.27691591 0.67566675 4.6246493e-40
0.32346269 0.2776787 0.67900002 4.621104e-40
0.32592005 0.27742001 0.67900002 3.6957565e-40
0.32837737 0.2776787 0.67900002 4.6282926e-40
0.33125019 0.27765751 0.67799997 9.2094736e-40
0.33448005 0.27765718 0.67800003 1.1053624e-39
0.33681384 0.27745289 0.67750007 1.2911872e-39
0.34058741 0.27750683 0.67785722 1.5695692e-39
0.3439045 0.27800924 0.6783334 3.3227057e-39
0.34635812 0.2778624 0.6785 6.915031e-39
0.3482967 0.2778624 0.67850006 8.2010796e-39
0.31946421 0.28019375 0.67820001 2.7808348e-40
0.32204002 0.28065336 0.67900002 1.8698787e-40
0.32613561 0.2804378 0.67900008 2.7880935e-40
0.32850671 0.28065336 0.67900002 2.7915547e-40
0.33109337 0.28065336 0.67900002 2.7916948e-40
0.33432671 0.28065336 0.67900002 7.3693586e-40
0.33743548 0.28055024 0.67875004 9.2276905e-40
0.34014666 0.28065336 0.67900002 1.2025775e-39
0.34338006 0.28065336 0.67900002 1.3891394e-39
0.34661335 0.28065336 0.67900002 3.2351525e-39
0.34855336 0.28065336 0.67900002 8.2932697e-39
0.3265667 0.28324002 0.67900002 3.6953362e-40
0.32850671 0.28324002 0.67900002 2.7914986e-40
0.33130893 0.28302446 0.67900008 1.8768852e-40
0.33432668 0.28324002 0.67900002 3.7065325e-40
0.33777556 0.28302449 0.67900008 6.4618356e-40
0.3420867 0.28259334 0.67900002 1.1125441e-39
0.3265667 0.28518003 0.67900002 3.7205595e-40
0.32850671 0.28518003 0.67900002 3.7063083e-40
0.33044669 0.28518003 0.67900002 2.7880234e-40
0.33562002 0.28518003 0.67900002 3.7101479e-40
0.32316193 0.28171429 0.68000001 2.7918069e-40
0.32488891 0.28128254 0.68000001 2.7880374e-40
0.32316193 0.28300953 0.68000001 4.6175026e-40
0.32532066 0.28344128 0.68000001 3.7026649e-40
0.33093336 0.28430477 0.68000001 1.8732558e-40
0.33740956 0.28430477 0.68000001 6.4617936e-40
0.34064764 0.28365713 0.68000001 1.475933e-39
0.343454 0.28387302 0.68000001 1.3858996e-39
0.34647626 0.28365716 0.68000001 2.0337717e-39
0.34906667 0.28365713 0.68000001 6.3625887e-39
0.32575241 0.28624761 0.68000001 1.876773e-40
0.32834291 0.28689525 0.68000001 2.7844361e-40
0.33179688 0.2864635 0.68000001 3.7064064e-40
0.33417147 0.28624761 0.68000001 3.7064485e-40
0.33765668 0.28645858 0.68050003 8.3019928e-40
0.34049907 0.28666955 0.68100005 1.9333112e-39
0.34305033 0.2865459 0.68040007 1.9336616e-39
0.34647626 0.28624764 0.68000001 1.6603159e-39
0.34906667 0.28624761 0.68000001 2.6791341e-39
0.32834288 0.28819048 0.68000001 2.7772474e-40
0.331581 0.28819048 0.68000001 4.6175026e-40
0.33417147 0.28819048 0.68000001 6.4615554e-40
0.33740959 0.28819048 0.68000001 9.2096278e-40
0.34100002 0.28903812 0.68200004 1.1064485e-39
0.34292513 0.28847304 0.68066669 8.3200415e-40
0.34681463 0.28847304 0.68066669 1.0178345e-39
0.34906667 0.28819048 0.68000001 1.0235813e-39
