# .PCD v0.7 - Point Cloud Data file format
VERSION 0.7
FIELDS x y z rgb
SIZE 4 4 4 4
TYPE F F F F
COUNT 1 1 1 1
WIDTH 309
HEIGHT 1
VIEWPOINT 0 0 0 1 0 0 0
POINTS 309
DATA ascii
-0.49867716 -0.19350001 1.161 3.0410195e-39
-0.49646574 -0.19350001 1.161 1.7495716e-39
-0.49867716 -0.19018286 1.161 2.0229117e-39
-0.49646574 -0.19018286 1.161 5.531948e-40
-0.49425432 -0.18907715 1.161 1.8406195e-40
-0.49988669 -0.20596668 1.169 1.3790374e-39
-0.49766004 -0.20596668 1.169 2.1147976e-39
-0.49988669 -0.20262668 1.169 1.010978e-39
-0.49766004 -0.20262668 1.169 2.0218789e-39
-0.49988669 -0.19928668 1.169 1.8515777e-40
-0.49766004 -0.19928668 1.169 6.4467296e-40
-0.49817622 -0.19638573 1.1650001 1.0116576e-39
-0.49766004 -0.19706002 1.169 1.1041797e-39
-0.49560797 -0.19386891 1.1676668 1.104205e-39
-0.49595717 -0.19194764 1.1650001 8.287167e-40
-0.49766004 -0.16811335 1.169 7.3617915e-40
-0.49988669 -0.16588667 1.169 2.7662613e-40
-0.49936289 -0.21114001 1.1730001 3.4973705e-39
-0.49712861 -0.21114001 1.1730001 2.7587237e-39
-0.49936289 -0.20890573 1.1730001 1.8385835e-39
-0.49712861 -0.20890573 1.1730001 2.2077079e-39
-0.49712861 -0.20555431 1.1730001 3.2182543e-39
-0.49414957 -0.20518193 1.1730001 1.9329119e-39
-0.49712861 -0.20220287 1.1730001 2.3895824e-39
-0.49712861 -0.19996859 1.1730001 1.1038617e-39
-0.49489433 -0.19996859 1.1730001 8.2800905e-40
-0.49712861 -0.1977343 1.1730001 1.195316e-39
-0.49489433 -0.19550002 1.1730001 7.3543086e-40
-0.49936289 -0.1664543 1.1730001 8.2764611e-40
-0.49882385 -0.21634382 1.177 1.7499443e-39
-0.49882385 -0.21410193 1.177 3.2211171e-39
-0.49658194 -0.21410193 1.177 2.6700958e-39
-0.49658194 -0.21186002 1.177 2.0243802e-39
-0.49658194 -0.20961811 1.177 1.3808199e-39
-0.49321908 -0.2073762 1.177 1.1070945e-39
-0.49209812 -0.2051343 1.177 1.2896864e-39
-0.48985621 -0.2051343 1.177 1.01381e-39
-0.49658194 -0.20289239 1.177 1.6556201e-39
-0.49321908 -0.20289239 1.177 9.205592e-40
-0.49658194 -0.19840859 1.177 7.35798e-40
-0.49359274 -0.19990318 1.177 4.602803e-40
-0.49434003 -0.19616668 1.177 2.7588764e-40
-0.49658194 -0.19392477 1.177 3.2174906e-39
-0.49658194 -0.19168288 1.177 5.7968158e-39
-0.49602002 -0.21482953 1.1810001 2.0283011e-39
-0.49602002 -0.21145526 1.1810001 8.2978169e-40
-0.49377051 -0.21145526 1.1810001 1.6595073e-39
-0.49152097 -0.21145526 1.1810001 2.3945612e-39
-0.4903962 -0.20808096 1.1810001 1.7502792e-39
-0.48927146 -0.20583144 1.1810001 1.1967523e-39
-0.49077114 -0.20283207 1.1810001 8.2906002e-40
-0.49377051 -0.19908287 1.1810001 7.3576157e-40
-0.49152097 -0.19908287 1.1810001 1.1949657e-39
-0.49377051 -0.19683334 1.1810001 9.1872911e-40
-0.49152097 -0.19683334 1.1810001 1.4701092e-39
-0.49602002 -0.19345906 1.1810001 8.6397435e-39
-0.49602002 -0.19008477 1.1810001 1.068526e-38
-0.49826956 -0.15746668 1.1810001 6.6301862e-39
-0.49995717 -0.2178143 1.1850001 1.9350488e-39
-0.49770004 -0.2178143 1.1850001 2.2144832e-39
-0.49485052 -0.21628478 1.189 2.9495287e-39
-0.4954429 -0.21555716 1.1850001 2.4906847e-39
-0.49062479 -0.21366002 1.187 3.4044126e-39
-0.49092859 -0.21104287 1.1850001 2.4856863e-39
-0.48867145 -0.21104287 1.1850001 2.7633592e-39
-0.48579147 -0.21175525 1.189 2.3938732e-39
-0.48826131 -0.20850065 1.1876668 1.6606242e-39
-0.48579147 -0.20835811 1.189 1.3808143e-39
-0.48846638 -0.20525366 1.1863334 1.012731e-39
-0.49092859 -0.2020143 1.1850001 5.5356334e-40
-0.48836383 -0.20235525 1.187 3.6844901e-40
-0.48579147 -0.2026962 1.189 8.2762649e-40
-0.49092859 -0.19975716 1.1850001 8.2800905e-40
-0.48826131 -0.19945177 1.1876668 7.3542806e-40
-0.48579147 -0.19816668 1.189 1.0112835e-39
-0.4954429 -0.19524287 1.1850001 4.2284083e-39
-0.49288577 -0.19557239 1.187 2.2962601e-39
-0.49062479 -0.19670096 1.187 1.2860739e-39
-0.48867145 -0.19750002 1.1850001 7.3542526e-40
-0.4954429 -0.19298573 1.1850001 7.5445223e-39
-0.49288577 -0.19331145 1.187 3.3103995e-39
-0.49032098 -0.19363716 1.189 2.1129493e-39
-0.49711528 -0.19137239 1.189 7.1818354e-39
-0.4933407 -0.19061749 1.189 3.1288907e-39
-0.49032098 -0.19024001 1.189 2.2055191e-39
-0.48805621 -0.19024001 1.189 1.5619545e-39
-0.48579147 -0.18910763 1.189 8.2762089e-40
-0.49619529 -0.18771908 1.1850002 7.5463229e-39
-0.49318576 -0.18734287 1.1850001 3.9629491e-39
-0.49092859 -0.1862143 1.1850001 4.0523001e-39
-0.48836383 -0.18652859 1.187 3.3133002e-39
-0.48579147 -0.18684287 1.189 2.5717778e-39
-0.49092859 -0.18395716 1.1850001 5.1629272e-39
-0.48836383 -0.18426764 1.187 4.7030323e-39
-0.48579147 -0.18457811 1.189 4.3324617e-39
-0.49995717 -0.16815716 1.1850001 2.5739821e-39
-0.49657148 -0.16815716 1.1850001 4.4178723e-39
-0.49485052 -0.16872478 1.189 5.8083457e-39
-0.49995717 -0.16590001 1.1850001 2.7562125e-39
-0.49657148 -0.16590001 1.1850001 4.6994576e-39
-0.49371815 -0.16646001 1.189 6.2646393e-39
-0.49032098 -0.16646001 1.189 5.3455781e-39
-0.49995717 -0.16364287 1.1850001 3.0378105e-39
-0.49657148 -0.16364287 1.1850001 5.1600504e-39
-0.49371815 -0.16419525 1.189 5.8972735e-39
-0.49032098 -0.16419525 1.189 5.0718513e-39
-0.49995717 -0.16138573 1.1850001 3.3169127e-39
-0.49657148 -0.16025716 1.1850001 6.1681151e-39
-0.49371815 -0.1607981 1.189 5.8972777e-39
-0.49032098 -0.15966572 1.189 5.9916103e-39
-0.49657148 -0.15687144 1.1850001 8.1056414e-39
-0.49371815 -0.15740097 1.189 7.1887256e-39
-0.49032098 -0.15740097 1.189 7.2798422e-39
-0.49995717 -0.1546143 1.1850001 7.1866222e-39
-0.49657148 -0.1546143 1.1850001 7.3713204e-39
-0.49288577 -0.15487525 1.187 7.0979747e-39
-0.49032098 -0.1551362 1.189 7.372419e-39
-0.49995717 -0.15122858 1.1850001 6.0806432e-39
-0.49657148 -0.15122858 1.1850001 5.6207104e-39
-0.49288577 -0.15148382 1.187 5.9905663e-39
-0.49032098 -0.15173906 1.189 8.5641379e-39
-0.49995717 -0.14784287 1.1850001 4.9732391e-39
-0.49657148 -0.14784287 1.1850001 3.0392454e-39
-0.49288577 -0.14809239 1.187 3.2172173e-39
-0.49995717 -0.14558573 1.1850001 7.0922756e-39
-0.49657148 -0.14558573 1.1850001 5.1560959e-39
-0.49371815 -0.14607716 1.189 4.6937711e-39
-0.49995717 -0.14220001 1.1850001 9.3974718e-39
-0.49698955 -0.14231905 1.186 7.6496981e-39
-0.49485052 -0.14268002 1.189 4.429412e-39
-0.49995717 -0.1388143 1.1850001 9.6726182e-39
-0.49740767 -0.13904858 1.187 9.3041818e-39
-0.49995717 -0.13655715 1.1850001 9.3042028e-39
-0.49740767 -0.13678762 1.187 9.0293844e-39
-0.49938002 -0.13475335 1.189 8.8453701e-39
-0.48969814 -0.21246763 1.1930001 2.5789847e-39
-0.48742574 -0.20565049 1.1930001 1.0113059e-39
-0.48742574 -0.20110573 1.1930001 9.1909625e-40
-0.48515338 -0.20224193 1.1930001 8.2762229e-40
-0.48515338 -0.19883335 1.1930001 8.2833415e-40
-0.48288098 -0.19883335 1.1930001 6.4465335e-40
-0.48969814 -0.19656096 1.1930001 1.2864158e-39
-0.48742574 -0.19656096 1.1930001 1.1027546e-39
-0.48515338 -0.19656096 1.1930001 9.2016964e-40
-0.48969814 -0.19428858 1.1930001 1.6537718e-39
-0.48742574 -0.1931524 1.1930001 1.1041994e-39
-0.48515338 -0.1931524 1.1930001 9.2088571e-40
-0.48515338 -0.18974382 1.1930001 5.5138432e-40
-0.48969814 -0.16702001 1.1930001 5.3434229e-39
-0.48742574 -0.16702001 1.1930001 5.2533839e-39
-0.48515338 -0.16702001 1.1930001 5.4377765e-39
-0.48288098 -0.16702001 1.1930001 5.529605e-39
-0.49083433 -0.16361144 1.1930001 4.9785766e-39
-0.48288098 -0.16361144 1.1930001 5.8058122e-39
-0.48969814 -0.16020286 1.1930001 6.2660238e-39
-0.48969814 -0.15793049 1.1930001 7.3705959e-39
-0.48969814 -0.15452191 1.1930001 7.463551e-39
-0.48969814 -0.15111335 1.1930001 1.1240668e-38
-0.49197051 -0.14884096 1.1930001 1.2345603e-38
-0.49083433 -0.14656858 1.1930001 1.6138951e-38
-0.49424288 -0.14202382 1.1930001 1.234959e-38
-0.49651527 -0.13975143 1.1930001 1.0597833e-38
-0.49878764 -0.13520667 1.1930001 8.7546066e-39
-0.49651527 -0.13747905 1.1930001 9.6769608e-39
-0.49134004 -0.21546002 1.197 3.3136589e-39
-0.48678002 -0.21318002 1.197 2.2105553e-39
-0.48678002 -0.21090001 1.197 1.6577529e-39
-0.48678002 -0.20862001 1.197 1.1971391e-39
-0.48678002 -0.20634001 1.197 1.0120318e-39
-0.48450002 -0.20520002 1.197 1.0120163e-39
-0.48450002 -0.20178001 1.197 8.290418e-40
-0.48450002 -0.19722001 1.197 8.2796701e-40
-0.48450002 -0.19380002 1.197 7.3613291e-40
-0.48906004 -0.16530001 1.197 5.5296036e-39
-0.48678002 -0.16530001 1.197 5.6214405e-39
-0.49020004 -0.16302001 1.197 5.4370268e-39
-0.48678002 -0.16302001 1.197 5.8043856e-39
-0.48906004 -0.16074002 1.197 6.5411926e-39
-0.48678002 -0.16074002 1.197 6.5408549e-39
-0.48450002 -0.16074002 1.197 6.5404709e-39
-0.48906004 -0.15732001 1.197 7.463523e-39
-0.48678002 -0.15732001 1.197 7.4617265e-39
-0.48450002 -0.15732001 1.197 7.3702372e-39
-0.48906004 -0.15390001 1.197 7.7390267e-39
-0.48678002 -0.15390001 1.197 7.9233773e-39
-0.48906004 -0.15162002 1.197 1.2603784e-38
-0.48678002 -0.15162002 1.197 9.3934207e-39
-0.49134004 -0.14934 1.197 1.4955083e-38
-0.48678002 -0.14934 1.197 1.0773824e-38
-0.49590003 -0.14478001 1.197 1.0122544e-38
-0.49362004 -0.14478001 1.197 1.7784071e-38
-0.49362004 -0.14250001 1.197 1.825439e-38
-0.49134004 -0.14250001 1.197 1.918106e-38
-0.49590003 -0.14022002 1.197 1.4660904e-38
-0.49362004 -0.14022002 1.197 1.8619211e-38
-0.49134004 -0.14022002 1.197 1.899414e-38
-0.49818003 -0.13566001 1.197 8.6660291e-39
-0.49590003 -0.13680001 1.197 1.1708503e-38
-0.49362004 -0.13794 1.197 1.5771941e-38
-0.49818003 -0.13338001 1.197 8.4783896e-39
-0.49818003 -0.13110001 1.197 8.2954473e-39
-0.49818003 -0.11970001 1.197 9.6772845e-39
-0.48652384 -0.21407048 1.202 1.9343132e-39
-0.4842343 -0.21407048 1.202 1.198176e-39
-0.48652384 -0.21178097 1.202 1.6577305e-39
-0.4842343 -0.21178097 1.202 9.2123043e-40
-0.48652384 -0.20949145 1.202 1.2886004e-39
-0.4842343 -0.20834668 1.202 7.3614412e-40
-0.48652384 -0.15454286 1.202 8.1077826e-39
-0.4842343 -0.15454286 1.202 8.4765777e-39
-0.48652384 -0.15225334 1.202 6.0888226e-39
-0.4842343 -0.15225334 1.202 5.2551719e-39
-0.4911029 -0.14881906 1.202 1.8343578e-38
-0.48728701 -0.14843747 1.202 1.0416179e-38
-0.4842343 -0.14881906 1.202 4.0476254e-39
-0.49339241 -0.14538477 1.202 1.9467323e-38
-0.4911029 -0.14538477 1.202 2.1024498e-38
-0.4876686 -0.14538477 1.202 1.9816535e-38
-0.4842343 -0.14538477 1.202 9.8458425e-39
-0.4911029 -0.14309525 1.202 2.0191609e-38
-0.4876686 -0.14309525 1.202 1.3843779e-38
-0.4842343 -0.14309525 1.202 6.4497663e-39
-0.4819448 -0.14309525 1.202 1.1031806e-39
-0.49339241 -0.1385162 1.202 1.6232236e-38
-0.4911029 -0.13966095 1.202 1.8066701e-38
-0.48881337 -0.13966095 1.202 1.1434353e-38
-0.4842343 -0.13966095 1.202 3.3072451e-39
-0.4819448 -0.13966095 1.202 1.8417938e-39
-0.49568194 -0.13622667 1.202 1.2816653e-38
-0.49339241 -0.13622667 1.202 1.3566104e-38
-0.4911029 -0.13622667 1.202 1.4192341e-38
-0.4842343 -0.13622667 1.202 4.2281056e-39
-0.4819448 -0.13622667 1.202 1.5659174e-39
-0.49682671 -0.13393715 1.202 9.9506498e-39
-0.49339241 -0.13393715 1.202 1.0784459e-38
-0.4911029 -0.13393715 1.202 1.1234947e-38
-0.4819448 -0.13393715 1.202 1.7531701e-39
-0.47965527 -0.13393715 1.202 2.5785699e-39
-0.49682671 -0.13050286 1.202 8.1121378e-39
-0.49339241 -0.13164763 1.202 8.1111051e-39
-0.4911029 -0.13050286 1.202 8.3869184e-39
-0.47965527 -0.13164763 1.202 2.7716016e-39
-0.49797148 -0.12477905 1.202 8.6649389e-39
-0.49797148 -0.11791048 1.202 9.7669718e-39
-0.49797148 -0.11562096 1.202 9.3992697e-39
-0.49339241 -0.11562096 1.202 8.8471945e-39
-0.49797148 -0.11218667 1.202 9.2159616e-39
-0.48814288 -0.14127429 1.2060001 4.0706852e-39
-0.48814288 -0.13897716 1.2060001 5.4187133e-39
-0.49044004 -0.13668001 1.2060001 1.0505181e-38
-0.48814288 -0.13668001 1.2060001 6.8116838e-39
-0.49044004 -0.13323429 1.2060001 9.3059685e-39
-0.48814288 -0.13323429 1.2060001 8.9336042e-39
-0.48508 -0.13285145 1.2060001 4.2420948e-39
-0.49503431 -0.12978858 1.2060001 8.4783672e-39
-0.49044004 -0.12978858 1.2060001 9.3074188e-39
-0.48814288 -0.12978858 1.2060001 1.0137527e-38
-0.48469716 -0.12978858 1.2060001 6.3557601e-39
-0.4996286 -0.12749144 1.2060001 8.0210212e-39
-0.49618289 -0.12749144 1.2060001 8.6624207e-39
-0.49273717 -0.12749144 1.2060001 8.846812e-39
-0.48584574 -0.12749144 1.2060001 9.4914864e-39
-0.49618289 -0.1251943 1.2060001 8.9397335e-39
-0.49273717 -0.1251943 1.2060001 8.8468288e-39
-0.49044004 -0.1251943 1.2060001 9.2138177e-39
-0.48814288 -0.1251943 1.2060001 9.4897067e-39
-0.48584574 -0.1251943 1.2060001 7.5558027e-39
-0.4996286 -0.12174858 1.2060001 9.3999872e-39
-0.49618289 -0.12289715 1.2060001 9.2159673e-39
-0.49273717 -0.12174858 1.2060001 8.8464729e-39
-0.49044004 -0.12289715 1.2060001 8.6602852e-39
-0.48584574 -0.12289715 1.2060001 5.6106841e-39
-0.49618289 -0.11830287 1.2060001 9.1230598e-39
-0.49273717 -0.11830287 1.2060001 8.755352e-39
-0.49733147 -0.11600572 1.2060001 9.1230528e-39
-0.49618289 -0.11370858 1.2060001 8.7557234e-39
-0.49273717 -0.11370858 1.2060001 8.203595e-39
-0.49206671 -0.12791429 1.21 9.7666103e-39
-0.48976195 -0.12791429 1.21 1.059386e-38
-0.48515242 -0.12791429 1.21 8.37972e-39
-0.48976195 -0.12330477 1.21 8.3801067e-39
-0.48515242 -0.12330477 1.21 2.768771e-39
-0.498981 -0.12100001 1.21 9.3067308e-39
-0.49667624 -0.12100001 1.21 9.0312355e-39
-0.49206671 -0.12100001 1.21 8.5695174e-39
-0.48976195 -0.12100001 1.21 8.2900257e-39
-0.48745719 -0.12100001 1.21 5.0613934e-39
-0.48515242 -0.12100001 1.21 1.9329077e-39
-0.49206671 -0.11869524 1.21 8.4809091e-39
-0.48941529 -0.11889143 1.2120001 6.3496295e-39
-0.49283499 -0.11562222 1.21 8.0192023e-39
-0.49022481 -0.11561906 1.2140001 6.2638994e-39
-0.498981 -0.11178096 1.21 9.2159785e-39
-0.49667624 -0.11178096 1.21 8.9397685e-39
-0.49321908 -0.11178096 1.21 8.386847e-39
-0.49022478 -0.11215048 1.2140001 7.0918496e-39
-0.49667624 -0.1094762 1.21 9.3070993e-39
-0.49403241 -0.10965715 1.2120001 8.9407831e-39
-0.49022478 -0.10983811 1.2140001 7.8326531e-39
-0.49206671 -0.10717144 1.21 9.2167071e-39
-0.49022478 -0.10752572 1.2140001 8.755694e-39
-0.48213145 -0.10752572 1.2140001 6.5386478e-39
-0.48760003 -0.11841715 1.2190001 1.7484912e-39
-0.48760003 -0.1149343 1.2190001 4.1362113e-39
-0.48760003 -0.11261239 1.2190001 4.877721e-39
-0.48760003 -0.11029048 1.2190001 5.6181615e-39
-0.48411718 -0.11029048 1.2190001 5.1546526e-39
-0.48721308 -0.10719462 1.2190001 7.9244647e-39
-0.48411718 -0.10564668 1.2190001 7.8275902e-39
