# .PCD v0.7 - Point Cloud Data file format
VERSION 0.7
FIELDS x y z rgb
SIZE 4 4 4 4
TYPE F F F F
COUNT 1 1 1 1
WIDTH 367
HEIGHT 1
VIEWPOINT 0 0 0 1 0 0 0
POINTS 367
DATA ascii
-0.37556669 0.17670001 0.66500002 2.9536177e-39
-0.38037431 0.17903715 0.66900003 3.229829e-39
-0.37693149 0.17883621 0.66666669 3.8734174e-39
-0.37450907 0.17963764 0.66650003 4.1510903e-39
-0.36973524 0.1792597 0.66666669 4.0577918e-39
-0.3797372 0.18158573 0.66900009 3.7833881e-39
-0.37606096 0.1816781 0.66700006 4.5169749e-39
-0.37328359 0.18147263 0.66799998 3.689389e-39
-0.37006623 0.1815424 0.66650003 3.6857583e-39
-0.36852002 0.18077144 0.66600001 4.1460302e-39
-0.36126003 0.18031144 0.66900003 2.7706179e-39
-0.35616288 0.18286002 0.66900003 2.5858987e-39
-0.34660575 0.18286002 0.66900003 3.4124322e-39
-0.34469432 0.18286002 0.66900003 3.503909e-39
-0.34136668 0.18176667 0.66500002 3.5053439e-39
-0.38477147 0.17930478 0.67000002 3.5942941e-39
-0.38221908 0.17930478 0.67000002 3.5049557e-39
-0.36781716 0.17879954 0.67050004 3.6900981e-39
-0.36467144 0.17898573 0.67000002 3.5986171e-39
-0.36180001 0.17930478 0.67000002 3.3223694e-39
-0.3855536 0.18128644 0.67025006 2.8635674e-39
-0.3828572 0.18121906 0.67000002 3.6897296e-39
-0.36945716 0.18121906 0.67000002 3.688296e-39
-0.36759815 0.18156345 0.67080003 2.9550442e-39
-0.36431429 0.18120001 0.67040002 2.8632031e-39
-0.36180001 0.18185715 0.67000002 2.3121691e-39
-0.37347621 0.17082477 0.68200004 2.3968061e-39
-0.3704381 0.16967621 0.68000001 2.3024483e-39
-0.37323689 0.17296407 0.68275011 3.6853967e-39
-0.37087813 0.17212382 0.68200004 3.7750728e-39
-0.37532479 0.17497811 0.68300003 2.7685019e-39
-0.3736462 0.1751062 0.68350005 3.503902e-39
-0.372585 0.17284058 0.68900007 2.5793981e-39
-0.36484194 0.17389049 0.68900001 4.5202049e-39
-0.36287335 0.17257811 0.68900001 3.3295945e-39
-0.37276554 0.17531906 0.68740004 3.6875575e-39
-0.37038764 0.17634448 0.68833339 3.9677444e-39
-0.36746669 0.17651525 0.68900001 3.8770173e-39
-0.36484194 0.17651525 0.68900001 3.3259959e-39
-0.36070716 0.17593096 0.68800008 2.8635758e-39
-0.37566668 0.17705335 0.68600005 3.5968277e-39
-0.37034115 0.17208974 0.69020003 1.9376202e-39
-0.36739907 0.17245241 0.69060004 2.951433e-39
-0.3706286 0.17480001 0.69000006 3.413486e-39
-0.36760575 0.17493144 0.69000006 4.0610456e-39
-0.36405718 0.17545715 0.69000006 3.3259917e-39
-0.36208573 0.17480001 0.69000006 3.3263561e-39
-0.35945717 0.17677145 0.69000006 3.0468853e-39
-0.36381 0.17017953 0.70350003 2.0262271e-39
-0.36205715 0.17030096 0.70400006 2.8624632e-39
-0.36365175 0.17279588 0.70233339 4.0624904e-39
-0.36176607 0.17296033 0.70300001 4.61206e-39
-0.35836452 0.1734889 0.70333338 4.1500085e-39
-0.35602289 0.17365335 0.70400006 3.9648983e-39
-0.360681 0.16990381 0.70700002 2.8635436e-39
-0.35939431 0.16992 0.708 3.6943847e-39
-0.36100265 0.17236078 0.70640004 4.0610498e-39
-0.35846668 0.17249477 0.70749998 4.5195014e-39
-0.35558578 0.17314345 0.70740002 3.8734062e-39
-0.35197717 0.17329144 0.708 3.7815917e-39
-0.36040956 0.1643143 0.71000004 2.7587503e-40
-0.35956287 0.16454573 0.71100003 4.6027049e-40
-0.36040956 0.16634287 0.71000004 6.4322963e-40
-0.35857946 0.16621678 0.7112 1.1960503e-39
-0.35554606 0.16613206 0.71200001 2.3067405e-39
-0.35256442 0.16668229 0.71362507 3.4167426e-39
-0.35020003 0.16796002 0.71400005 4.1507315e-39
-0.36108574 0.16837144 0.71000004 1.7499709e-39
-0.35875928 0.16922596 0.71074998 3.5096235e-39
-0.35583276 0.16944383 0.71166676 4.7046032e-39
-0.35275465 0.16992065 0.7136668 3.6922771e-39
-0.35020003 0.17000002 0.71400005 3.7823105e-39
-0.35838097 0.17107621 0.71000004 4.0624637e-39
-0.35533273 0.17191367 0.71066666 3.9674067e-39
-0.35004419 0.16350509 0.71833342 2.3053364e-39
-0.35142621 0.16650048 0.71650004 4.1496441e-39
-0.34969869 0.16698669 0.71800005 4.2436544e-39
-0.34910035 0.16942732 0.71733332 3.6893946e-39
-0.34717432 0.16982096 0.71900004 3.3209625e-39
-0.34937859 0.17127763 0.71650004 3.6883114e-39
-0.4173848 0.16159049 0.72200006 5.7935424e-39
-0.41796288 0.16319144 0.72300005 8.1088364e-39
-0.34902859 0.16320002 0.72000003 2.4032801e-39
-0.34923717 0.16603601 0.72100008 3.8784452e-39
-0.34754449 0.16884732 0.72166675 3.9649025e-39
-0.41530669 0.15877335 0.72800004 7.1801594e-39
-0.41140002 0.15833715 0.72600001 2.8502187e-39
-0.41726574 0.1610743 0.72900003 9.4713665e-39
-0.41611716 0.16063239 0.727 7.4610301e-39
-0.41224968 0.16074273 0.72750008 7.4620825e-39
-0.40906668 0.16154668 0.72800004 1.0973777e-38
-0.41773811 0.16295239 0.72500002 8.4636718e-39
-0.41550669 0.16325144 0.72633338 1.1612353e-38
-0.41259527 0.1639 0.72860003 1.6128105e-38
-0.40986001 0.16408287 0.72900003 1.484419e-38
-0.40407431 0.16454573 0.72900003 7.3782274e-39
-0.40199146 0.16454573 0.72900003 2.5718843e-39
-0.35152003 0.16432001 0.72800004 2.7727717e-39
-0.34992003 0.16454573 0.72900003 3.8755614e-39
-0.34783718 0.16454573 0.72900003 4.88577e-39
-0.41886124 0.16588596 0.72575003 1.9348758e-38
-0.41554862 0.16594288 0.72600001 1.9268147e-38
-0.40407431 0.16593429 0.72900003 3.6785458e-39
-0.40144002 0.16570668 0.72800004 1.5616098e-39
-0.34927621 0.16617382 0.72549999 3.7851748e-39
-0.34719908 0.16632383 0.72766674 3.6908366e-39
-0.38621718 0.14918858 0.73200005 1.0419564e-38
-0.38797146 0.15029524 0.73400003 1.0235189e-38
-0.40337002 0.15744621 0.73150003 3.4962523e-39
-0.40587908 0.16082001 0.73100001 1.051213e-38
-0.4037905 0.16012383 0.73100001 1.0510663e-38
-0.4006972 0.16030706 0.73120004 1.3551313e-38
-0.39806861 0.16104001 0.73200005 1.3279091e-38
-0.34973335 0.16011049 0.73200005 1.6574292e-39
-0.3472591 0.16072193 0.73266673 2.4889947e-39
-0.41701812 0.16360477 0.73100001 1.1711708e-38
-0.40931433 0.1641435 0.73133337 1.3652536e-38
-0.40685385 0.16302001 0.73150003 1.4113854e-38
-0.40327749 0.16298287 0.73133337 1.4109163e-38
-0.3999593 0.1630808 0.73240012 1.1798189e-38
-0.35204035 0.16314064 0.73100007 1.749643e-39
-0.34964177 0.163036 0.73220009 3.2287542e-39
-0.34687349 0.16378114 0.73283339 3.968857e-39
-0.34416446 0.16381018 0.73400009 3.9695703e-39
-0.34589475 0.1661543 0.73150003 3.9652739e-39
-0.34355623 0.16655104 0.73171431 3.8737831e-39
-0.34078574 0.16672286 0.73400003 3.2301947e-39
-0.39342955 0.15272668 0.73900002 8.8501177e-39
-0.3906143 0.15272668 0.73900002 9.5880316e-39
-0.38797623 0.15252 0.73800004 8.9404776e-39
-0.39359909 0.15462762 0.73800004 1.1978979e-38
-0.39219338 0.15533143 0.73800004 1.7708357e-38
-0.38920668 0.15413429 0.73900002 1.3629124e-38
-0.39219338 0.15673715 0.73800004 1.6428106e-38
-0.39906004 0.16117239 0.73900002 1.557639e-38
-0.39765242 0.16117239 0.73900002 1.6585853e-38
-0.34885082 0.1614216 0.73800009 2.3985858e-39
-0.34572637 0.16127621 0.73733342 3.3234315e-39
-0.34416527 0.1615462 0.73750007 4.4265645e-39
-0.39970788 0.16381977 0.73825002 7.9256502e-39
-0.34313717 0.16321753 0.73680007 3.8780753e-39
-0.34081113 0.16385081 0.73733342 3.5996933e-39
-0.34042192 0.16588223 0.73700011 3.3213072e-39
-0.39255241 0.15293334 0.74000001 1.0050436e-38
-0.38691431 0.15293334 0.74000001 8.2904601e-39
-0.39161274 0.15481271 0.74000001 1.6037687e-38
-0.38879371 0.15528256 0.74000001 1.4467876e-38
-0.38599214 0.15449797 0.74171436 1.0968825e-38
-0.38327098 0.15345001 0.74250007 1.0862972e-38
-0.39149335 0.15758668 0.74200004 1.8823319e-38
-0.3881337 0.15765749 0.74233341 1.0057632e-38
-0.3852652 0.15690783 0.74280006 1.0877331e-38
-0.38282192 0.15779907 0.74300003 8.3576061e-39
-0.34885716 0.15857144 0.74000001 6.4323103e-40
-0.34556001 0.15758668 0.74200004 9.2231923e-40
-0.3966105 0.16160858 0.74100006 1.5391623e-38
-0.39432001 0.16041335 0.74200004 1.3650019e-38
-0.39202097 0.15992193 0.74300003 1.5030076e-38
-0.38848287 0.15992193 0.74300003 6.2689889e-39
-0.38518068 0.15968606 0.74300003 6.4975687e-40
-0.35192001 0.15970668 0.74200004 1.01095e-39
-0.3486219 0.1594905 0.74100006 1.1038589e-39
-0.34650478 0.1594905 0.74100006 1.5637804e-39
-0.3437556 0.1605759 0.74166673 3.1358271e-39
-0.38865975 0.16328311 0.74300003 5.5142636e-40
-0.38565239 0.16204478 0.74300003 1.7481535e-39
-0.34107241 0.16416764 0.74300003 3.4146e-39
-0.37919146 0.14726572 0.74700004 9.8649044e-39
-0.37776861 0.14797714 0.74700004 8.1114106e-39
-0.37257525 0.14888763 0.74800003 4.3281709e-39
-0.37115049 0.14888763 0.74800003 4.2395753e-39
-0.38106906 0.15143001 0.74650002 9.117655e-39
-0.37935296 0.15165582 0.74620003 9.945622e-39
-0.37730908 0.15092382 0.74750006 4.1571327e-39
-0.37341547 0.15076135 0.74740005 1.4795035e-39
-0.37067556 0.15078732 0.74800003 1.4813056e-39
-0.38214955 0.1548181 0.74500006 1.2637598e-38
-0.37931791 0.15443119 0.74725008 1.1896413e-38
-0.37693223 0.15450363 0.74760002 1.4564312e-38
-0.37328762 0.15387429 0.74800003 1.4191935e-38
-0.37115049 0.15316191 0.74800003 9.5656879e-39
-0.3819567 0.15747526 0.74650002 1.2901655e-38
-0.37898672 0.15814859 0.74800003 1.0314107e-38
-0.37684956 0.15601143 0.74800003 1.4050031e-38
-0.34338719 0.15854239 0.74650002 1.6567019e-39
-0.38527146 0.16106191 0.74500006 8.2976487e-40
-0.38236168 0.16062143 0.74625009 1.8410259e-40
-0.34315071 0.16055487 0.74660009 2.8649869e-39
-0.34040454 0.16094406 0.74774998 3.8769991e-39
-0.33838096 0.16171049 0.74800003 3.5075285e-39
-0.34270003 0.16248097 0.74500006 3.5997129e-39
-0.34079951 0.16329953 0.74550009 3.2312836e-39
-0.33793983 0.16363963 0.74640006 2.9539792e-39
-0.3764286 0.14642859 0.75000012 3.7238806e-40
-0.3807143 0.14928572 0.75000006 1.169985e-38
-0.3764286 0.14857143 0.75000012 4.4214232e-39
-0.37335336 0.1480543 0.75100005 3.781083e-39
-0.37071431 0.14928572 0.75000006 3.871527e-39
-0.3764286 0.15214287 0.75000006 3.6776798e-40
-0.37014598 0.15213977 0.75175005 1.6628228e-39
-0.3764286 0.15357144 0.75000006 9.2101196e-39
-0.37217003 0.15531 0.75150001 1.7878674e-38
-0.37071431 0.15357144 0.75000006 8.6591879e-39
-0.37614289 0.15728572 0.75000006 9.3233516e-39
-0.37392351 0.15773049 0.75166672 4.5245447e-39
-0.34305525 0.15827811 0.75200003 1.4755449e-39
-0.34096956 0.15794033 0.75266671 1.9419096e-39
-0.37962162 0.16085717 0.75066674 9.2289517e-41
-0.37671465 0.1604273 0.75200003 1.9300672e-39
-0.37456766 0.15971048 0.75200003 1.2868208e-39
-0.34214288 0.15928572 0.75000006 2.6777342e-39
-0.34008425 0.16036879 0.7524001 3.4181747e-39
-0.33777431 0.16135715 0.75300002 3.2305437e-39
-0.37080002 0.15192001 0.75600004 2.6755244e-39
-0.36889336 0.15232192 0.75800002 3.5027417e-39
-0.3710286 0.15459524 0.75500005 6.7245244e-39
-0.34001717 0.15520954 0.75800002 1.1982671e-39
-0.33785146 0.15520954 0.75800002 1.5674098e-39
-0.33568573 0.15520954 0.75800002 1.8472239e-39
-0.37512001 0.15768 0.75600004 9.8844175e-39
-0.3733778 0.15747811 0.7573334 9.9546085e-39
-0.37081382 0.15727192 0.75750005 4.8859592e-39
-0.36744958 0.15737525 0.75800002 1.7470492e-39
-0.33998328 0.15739086 0.75600004 2.0308893e-39
-0.33785143 0.15737525 0.75800002 2.1238122e-39
-0.33568573 0.15737525 0.75800002 2.2174399e-39
-0.37322479 0.15954097 0.75800002 1.00148e-40
-0.37129971 0.16002224 0.75800008 4.6026629e-40
-0.36600575 0.15954097 0.75800002 3.6842519e-40
-0.33912003 0.15912001 0.75600004 2.9546532e-39
-0.33743906 0.16031906 0.75600004 2.7706249e-39
-0.3349092 0.16036192 0.7573334 2.0355724e-39
-0.33279812 0.16098477 0.75800002 1.4827714e-39
-0.35824668 0.14606 0.76300001 1.4719043e-39
-0.36769527 0.14982858 0.76000005 4.4228693e-39
-0.36431479 0.14920239 0.76050007 7.7350905e-39
-0.3626067 0.14824 0.76300001 5.8983273e-39
-0.35970002 0.14896667 0.76300001 3.4047713e-39
-0.37059051 0.15200001 0.76000005 2.9495763e-39
-0.3671318 0.15206669 0.76033342 4.6065613e-39
-0.36397547 0.15118535 0.7610001 7.4643021e-39
-0.36188003 0.15114668 0.76300001 7.8352174e-39
-0.35897335 0.15042001 0.76300001 3.130355e-39
-0.35679334 0.15042001 0.76300001 2.023297e-39
-0.37059051 0.15489525 0.76000005 3.8725892e-39
-0.3671318 0.15496318 0.76033342 3.1361018e-39
-0.36454448 0.15429556 0.76300001 2.0208518e-39
-0.33657146 0.15417144 0.76000005 1.2933228e-39
-0.33461955 0.15499716 0.76050007 1.5709971e-39
-0.3655186 0.15737525 0.7615 7.357952e-40
-0.33422801 0.15747905 0.76060003 1.9412174e-39
-0.33174735 0.15765208 0.76166672 2.5830022e-39
-0.32918003 0.15768668 0.76300001 3.6835975e-39
-0.33440003 0.15996191 0.76000005 1.2994507e-39
-0.32918003 0.15986668 0.76300001 2.6730511e-39
-0.36210003 0.14644286 0.76500005 2.0239823e-39
-0.36147764 0.14845763 0.76600003 3.0374223e-39
-0.35819528 0.14882192 0.76600003 1.5626804e-39
-0.35622764 0.14926001 0.76700008 1.1953258e-39
-0.35181719 0.14848001 0.76800001 1.8406714e-39
-0.35035431 0.14994286 0.76800001 1.1052587e-39
-0.36064288 0.15227143 0.76500005 5.1604217e-39
-0.35845715 0.15227143 0.76500005 2.1187296e-39
-0.35627145 0.15154287 0.76500005 2.2087645e-39
-0.35181716 0.15140572 0.76800001 3.3068009e-39
-0.36338699 0.15483525 0.76566672 1.6596012e-39
-0.36112863 0.15421429 0.76500005 2.8595247e-39
-0.3582063 0.15468401 0.76540005 1.9339895e-39
-0.35560924 0.15434827 0.76566672 2.3017224e-39
-0.36411005 0.15761191 0.76616669 5.5210879e-40
-0.3601248 0.1570524 0.76700002 1.4712106e-39
-0.35866383 0.1570524 0.76700002 1.5644909e-39
-0.33077145 0.15664287 0.76500005 2.9478345e-39
-0.3284986 0.15841001 0.7665 3.1333076e-39
-0.35126668 0.14593334 0.77000004 2.0254662e-39
-0.34906667 0.14593334 0.77000004 1.2868376e-39
-0.35468894 0.14837781 0.7700001 1.7477639e-39
-0.35126668 0.14813334 0.77000004 1.5658866e-39
-0.34931111 0.1478889 0.7700001 1.1049322e-39
-0.35713336 0.15180001 0.77000004 1.6566529e-39
-0.35493335 0.15106668 0.77000004 1.4718931e-39
-0.34980002 0.15033334 0.77000004 6.4716727e-40
-0.35713336 0.15326668 0.77000004 2.1180262e-39
-0.35493335 0.15400001 0.77000004 2.5764764e-39
-0.35273334 0.15326668 0.77000004 4.9674139e-39
-0.35548577 0.15682541 0.77066672 2.6686734e-39
-0.33385718 0.15209049 0.77900004 1.1089442e-39
-0.33088955 0.15209049 0.77900004 1.291567e-39
-0.32792193 0.15209049 0.77900004 1.5674322e-39
-0.3256962 0.15209049 0.77900004 1.2036691e-39
-0.33364239 0.15421668 0.77850002 1.4745149e-39
-0.33085304 0.15393621 0.77833337 1.4745317e-39
-0.3280288 0.15430534 0.77820009 2.1170145e-39
-0.3249543 0.1543162 0.77900004 1.659981e-39
-0.33374003 0.15614001 0.77700001 2.0266041e-39
-0.33057144 0.1493143 0.78000003 1.9336896e-39
-0.32918477 0.14969715 0.78200006 2.3006714e-39
-0.33131433 0.1508 0.78000003 1.6581845e-39
-0.32815748 0.15056001 0.78133339 1.9333309e-39
-0.32567877 0.15155303 0.78133339 1.0171157e-39
-0.32397145 0.15267619 0.78200006 1.3844521e-39
-0.32291126 0.15438326 0.78160006 1.9376384e-39
-0.3283743 0.14502573 0.78900003 1.5692105e-39
-0.32829145 0.14840478 0.78700006 1.4773708e-39
-0.32591385 0.14943954 0.78850007 1.4780924e-39
-0.32386574 0.1495343 0.78900003 1.5695804e-39
-0.32712573 0.15046287 0.78600001 1.1085882e-39
-0.32508716 0.15130715 0.78650004 1.475926e-39
-0.32309115 0.15191081 0.78833342 1.8454414e-39
-0.32735908 0.14557716 0.79200006 1.7536073e-39
-0.32774889 0.14764985 0.79233336 1.4788169e-39
-0.32619336 0.14840667 0.79100001 1.4788211e-39
-0.32283336 0.15161145 0.79200006 1.84544e-39
-0.32751751 0.14542352 0.79666674 2.1202416e-39
-0.32756001 0.14972001 0.79800004 1.3855605e-39
-0.32528001 0.14972001 0.79800004 1.4777477e-39
-0.32300001 0.14972001 0.79800004 1.9372755e-39
-0.32481432 0.15067144 0.79500002 1.567428e-39
-0.32229024 0.15166692 0.79625005 1.9361965e-39
-0.32628033 0.14518383 0.80233335 1.6606956e-39
-0.32790989 0.14830986 0.80133337 2.3046357e-39
-0.3259086 0.14855748 0.80266666 1.6621334e-39
-0.32329094 0.14827192 0.80250001 1.3873359e-39
-0.32204512 0.15072827 0.80066669 1.753236e-39
-0.32807368 0.14338794 0.80800003 1.7510836e-39
-0.32510573 0.14602762 0.80700004 1.5688517e-39
-0.32320002 0.14697906 0.80800003 1.8450715e-39
-0.32316765 0.14815049 0.80600005 1.8461533e-39
-0.32789147 0.14306667 0.81200004 1.749643e-39
-0.32526252 0.14523125 0.8120001 1.5684804e-39
-0.32916003 0.14196001 0.81900007 1.1975329e-39
-0.32679811 0.14316763 0.81700003 1.1971825e-39
-0.32604003 0.14430001 0.81900007 1.29009e-39
-0.32341748 0.14578383 0.81566668 1.6595914e-39
-0.32920003 0.14030191 0.82300001 5.5176547e-40
-0.3268486 0.14030191 0.82300001 5.5140814e-40
-0.32761812 0.14152478 0.82100004 8.2765452e-40
-0.3256686 0.14247906 0.82200003 7.3618056e-40
-0.32371336 0.14343715 0.82300001 7.3689802e-40
-0.32449049 0.1446524 0.82100004 1.1971699e-39
-0.33081049 0.1389562 0.82900006 3.6770912e-40
-0.32923144 0.13974573 0.82900006 3.6772454e-40
-0.3260743 0.14098382 0.82700002 4.5957685e-40
-0.32450002 0.1422143 0.82500005 4.6030412e-40
-0.32332003 0.14317238 0.82600003 4.6066566e-40
-0.32804477 0.1394581 0.83200002 2.7589605e-40
-0.32686001 0.14008287 0.83100003 3.6773575e-40
-0.33081907 0.13916668 0.83500004 3.6771753e-40
-0.32762572 0.13950001 0.83700001 4.5957405e-40
-0.32628858 0.14014129 0.83766669 5.5140954e-40
-0.3236143 0.13983335 0.83900005 2.7662893e-40
-0.32917145 0.13889429 0.84300005 4.5958105e-40
-0.32515717 0.13889429 0.84300005 9.2602006e-41
-0.32870096 0.13164191 0.84800005 4.4302107e-39
-0.33397621 0.13439524 0.84500003 4.5979279e-39
-0.33163646 0.13434929 0.84725004 3.6777695e-39
-0.32789335 0.13406476 0.84800005 3.6806926e-39
-0.32547051 0.13487239 0.84800005 4.1525294e-39
-0.33397621 0.13680953 0.84500003 2.0218579e-39
-0.3318302 0.13654129 0.84500003 1.9293077e-39
-0.32899874 0.13670224 0.84600008 1.4701274e-39
-0.32577592 0.13670224 0.84600008 1.1035464e-39
-0.33214906 0.13866334 0.84650004 6.4324924e-40
-0.32811952 0.13866334 0.84650004 5.5142496e-40
-0.32489479 0.13866334 0.84650004 6.4361498e-40
-0.32514337 0.13368811 0.86650002 4.0423061e-39
-0.32046193 0.13428096 0.86500007 2.8505508e-39
