# .PCD v0.7 - Point Cloud Data file format
VERSION 0.7
FIELDS x y z rgb
SIZE 4 4 4 4
TYPE F F F F
COUNT 1 1 1 1
WIDTH 1034
HEIGHT 1
VIEWPOINT 0 0 0 1 0 0 0
POINTS 1034
DATA ascii
-0.33486384 0.03489048 1.1330001 9.2236127e-40
-0.33140099 0.034109529 1.131 1.6552194e-39
-0.32896429 0.034515716 1.1325001 3.957215e-39
-0.32637429 0.035545718 1.131 5.2576634e-39
-0.16524 0.034560002 1.1340001 3.4101775e-39
-0.35964003 0.037800003 1.1340001 9.1946339e-40
-0.35532004 0.037800003 1.1340001 9.1946759e-40
-0.35208002 0.037800003 1.1340001 6.4359116e-40
-0.34884003 0.037800003 1.1340001 1.0123569e-39
-0.34344003 0.037800003 1.1340001 2.0225557e-39
-0.33804002 0.037800003 1.1340001 4.0422682e-39
-0.3348 0.037800003 1.1340001 4.5136384e-39
-0.33156002 0.037800003 1.1340001 5.7129145e-39
-0.32940003 0.037800003 1.1340001 6.7274307e-39
-0.16524 0.037800003 1.1340001 3.497697e-39
-0.16308001 0.037800003 1.1340001 3.5920436e-39
-0.35532004 0.039960004 1.1340001 6.4394989e-40
-0.35208002 0.039960004 1.1340001 4.5991456e-40
-0.34884003 0.039960004 1.1340001 1.1027742e-39
-0.34668002 0.039960004 1.1340001 1.8381673e-39
-0.34344003 0.039960004 1.1340001 3.4958809e-39
-0.34020004 0.039960004 1.1340001 5.6210706e-39
-0.33804002 0.039960004 1.1340001 7.1811978e-39
-0.33435574 0.039907146 1.1325001 8.3851136e-39
-0.16524 0.039960004 1.1340001 3.5909646e-39
-0.35208002 0.042120002 1.1340001 1.1034749e-39
-0.34884003 0.042120002 1.1340001 2.0218621e-39
-0.34668002 0.042120002 1.1340001 2.9394898e-39
-0.34308004 0.042840004 1.1340001 5.1604175e-39
-0.34020004 0.042120002 1.1340001 6.3600635e-39
-0.33804002 0.043200001 1.1340001 7.8323252e-39
-0.33588001 0.042120002 1.1340001 8.1110686e-39
-0.32508001 0.042120002 1.1340001 9.7702284e-39
-0.31344858 0.044162858 1.131 9.4932828e-39
-0.31129432 0.042008575 1.131 9.3996621e-39
-0.16524 0.043200001 1.1340001 2.4892988e-39
-0.16264859 0.044162858 1.131 3.2232723e-39
-0.34668002 0.046440002 1.1340001 4.5146908e-39
-0.34344003 0.046440002 1.1340001 5.6235383e-39
-0.34020004 0.046440002 1.1340001 7.5604256e-39
-0.16524 0.046440002 1.1340001 2.5793533e-39
-0.16524 0.049680002 1.1340001 2.9481232e-39
-0.16632001 0.052920002 1.1340001 3.0395943e-39
-0.23652002 0.055080004 1.1340001 1.1981817e-39
-0.23004001 0.055080004 1.1340001 1.2914437e-39
-0.16740002 0.055080004 1.1340001 2.9499042e-39
-0.16480286 0.054934289 1.131 3.1317914e-39
-0.24084002 0.058320004 1.1340001 1.1049294e-39
-0.23868002 0.058320004 1.1340001 9.2196891e-40
-0.23544002 0.057240006 1.1340001 1.0145107e-39
-0.23250858 0.058575243 1.1320001 1.201406e-39
-0.22943145 0.057088576 1.131 8.3406546e-40
-0.16956002 0.058320004 1.1340001 3.0421055e-39
-0.16740002 0.058320004 1.1340001 3.1339325e-39
-0.16480286 0.058165718 1.131 3.1321361e-39
-0.24732001 0.061560005 1.1340001 1.838526e-39
-0.24408001 0.061560005 1.1340001 1.3804471e-39
-0.24084002 0.061560005 1.1340001 1.1060225e-39
-0.17172001 0.061560005 1.1340001 3.039614e-39
-0.16956002 0.061560005 1.1340001 3.3165301e-39
-0.16695715 0.061397146 1.131 3.5008934e-39
-0.25920004 0.065880008 1.1340001 8.9296441e-39
-0.25596002 0.065880008 1.1340001 8.2010796e-39
-0.2538 0.065880008 1.1340001 8.9623322e-39
-0.25056002 0.064800009 1.1340001 6.5404457e-39
-0.24774288 0.064628571 1.131 3.5001801e-39
-0.24451144 0.063551433 1.131 1.2875537e-39
-0.24235716 0.063551433 1.131 1.0134835e-39
-0.17172001 0.064800009 1.1340001 2.5815169e-39
-0.16933572 0.06471286 1.1325001 2.856631e-39
-0.16695715 0.063551433 1.131 2.857305e-39
-0.25959146 0.067860007 1.131 5.3584967e-39
-0.25636002 0.067860007 1.131 6.8246626e-39
-0.25312859 0.067860007 1.131 9.6024187e-39
-0.2509743 0.067860007 1.131 1.1907902e-38
-0.17172001 0.068040006 1.1340001 2.7644606e-39
-0.16911145 0.067860007 1.131 2.7633732e-39
-0.17172001 0.070200004 1.1340001 3.0388839e-39
-0.16956002 0.070200004 1.1340001 2.8559219e-39
-0.16365525 -0.022760002 1.138 1.8806134e-38
-0.16582286 -0.018424762 1.138 1.8068211e-38
-0.16365525 -0.019508572 1.138 1.8346228e-38
-0.16690668 -0.016257145 1.138 1.7700863e-38
-0.16690668 -0.014089525 1.138 1.7517188e-38
-0.1701581 -0.010838096 1.138 1.7239172e-38
-0.16799049 -0.0097542861 1.138 1.723917e-38
-0.16799049 -0.0075866673 1.138 1.7237737e-38
-0.16799049 -0.0043352386 1.138 1.6962588e-38
-0.16799049 -0.0010838096 1.138 1.7330283e-38
-0.16799049 0.0010838096 1.138 1.7607244e-38
-0.16654542 0.0039739688 1.138 1.5305612e-38
-0.16582286 0.0075866673 1.138 8.7651401e-39
-0.37066287 0.011921906 1.138 5.4409196e-39
-0.36741146 0.011921906 1.138 5.2514977e-39
-0.36416 0.011921906 1.138 4.8777042e-39
-0.16726796 0.011199366 1.138 3.5974583e-39
-0.36307621 0.014089525 1.138 5.1550337e-39
-0.16690668 0.014089525 1.138 4.7912973e-39
-0.36307621 0.016257145 1.138 5.5302945e-39
-0.3609086 0.016257145 1.138 4.8838362e-39
-0.35874099 0.016257145 1.138 5.3408389e-39
-0.16799049 0.016257145 1.138 4.6987303e-39
-0.3609086 0.019508572 1.138 5.43488e-39
-0.35874099 0.019508572 1.138 6.1706346e-39
-0.35585082 0.019147303 1.138 6.8170816e-39
-0.16799049 0.019508572 1.138 4.5143629e-39
-0.35874099 0.022760002 1.138 4.6069341e-39
-0.35657334 0.022760002 1.138 4.6062264e-39
-0.16799049 0.022760002 1.138 4.1477692e-39
-0.35874099 0.02492762 1.138 3.4098412e-39
-0.35657334 0.02492762 1.138 3.7779035e-39
-0.16799049 0.02492762 1.138 3.6875379e-39
-0.3609086 0.029262859 1.138 1.7478186e-39
-0.35874099 0.028179049 1.138 2.5811511e-39
-0.35548955 0.02709524 1.138 2.1191066e-39
-0.29371241 0.029262859 1.138 4.1441917e-39
-0.16799049 0.028179049 1.138 3.1339466e-39
-0.3609086 0.031430479 1.138 1.7488821e-39
-0.16799049 0.031430479 1.138 3.317256e-39
-0.36307621 0.034681909 1.138 1.0123919e-39
-0.3609086 0.035765715 1.138 9.2018926e-40
-0.35874099 0.034681909 1.138 1.655948e-39
-0.34790289 0.035765715 1.138 1.1077839e-39
-0.16799049 0.034681909 1.138 2.7680493e-39
-0.36416 0.037933335 1.138 9.1945218e-40
-0.35874099 0.037933335 1.138 9.1983193e-40
-0.34790289 0.037933335 1.138 1.4715287e-39
-0.34140003 0.037933335 1.138 3.1289509e-39
-0.16799049 0.037933335 1.138 3.0403132e-39
-0.36307621 0.040100954 1.138 8.2761948e-40
-0.3609086 0.040100954 1.138 8.2762509e-40
-0.35874099 0.040100954 1.138 7.357952e-40
-0.33164573 0.040100954 1.138 8.8471917e-39
-0.16799049 0.040100954 1.138 3.4973383e-39
-0.36379874 0.042991113 1.138 6.4430302e-40
-0.3609086 0.043352384 1.138 9.2017245e-40
-0.35874099 0.043352384 1.138 9.1981511e-40
-0.35585082 0.043713655 1.138 1.1034819e-39
-0.35223812 0.044436194 1.138 1.9314559e-39
-0.35007051 0.044436194 1.138 3.0327812e-39
-0.34681907 0.044436194 1.138 4.6061549e-39
-0.34140003 0.044436194 1.138 7.1944975e-39
-0.33489716 0.042268574 1.138 8.6671193e-39
-0.1701581 0.044436194 1.138 3.7739168e-39
-0.16799049 0.043352384 1.138 3.0388783e-39
-0.36307621 0.046603814 1.138 9.208801e-40
-0.35874099 0.046603814 1.138 1.3804247e-39
-0.35548955 0.046603814 1.138 1.9321706e-39
-0.35223812 0.046603814 1.138 2.7612194e-39
-0.35007051 0.046603814 1.138 3.6831729e-39
-0.1701581 0.046603814 1.138 3.4994837e-39
-0.16799049 0.046603814 1.138 3.0399573e-39
-0.17232573 0.05093905 1.138 2.8573527e-39
-0.1701581 0.04985524 1.138 3.040309e-39
-0.16799049 0.04985524 1.138 2.9488378e-39
-0.22868383 0.053106669 1.138 1.7520589e-39
-0.17232573 0.053106669 1.138 2.76552e-39
-0.1701581 0.053106669 1.138 2.6740432e-39
-0.23518668 0.055274289 1.138 1.2907332e-39
-0.23301907 0.055274289 1.138 1.291808e-39
-0.17449334 0.055274289 1.138 2.5814902e-39
-0.17232573 0.055274289 1.138 2.6747621e-39
-0.1701581 0.055274289 1.138 2.8609414e-39
-0.24385716 0.058525719 1.138 1.2889592e-39
-0.17449334 0.058525719 1.138 2.3056292e-39
-0.17232573 0.058525719 1.138 2.6736943e-39
-0.25469527 0.061777148 1.138 1.0145093e-39
-0.25036001 0.061777148 1.138 1.6544753e-39
-0.17557716 0.061777148 1.138 2.8555632e-39
-0.2611981 0.063944764 1.138 5.2572697e-39
-0.25903049 0.063944764 1.138 4.8784454e-39
-0.25686288 0.063944764 1.138 4.4124366e-39
-0.25361145 0.063944764 1.138 5.2436014e-39
-0.17557716 0.063944764 1.138 2.7644452e-39
-0.26336575 0.066112384 1.138 6.0074156e-39
-0.17882858 0.06719619 1.138 4.0494022e-39
-0.17557715 0.06719619 1.138 2.7644452e-39
-0.16858096 -0.025015241 1.1420001 1.8345515e-38
-0.16858096 -0.022840001 1.1420001 1.8160404e-38
-0.16640572 -0.022840001 1.1420001 1.8529905e-38
-0.16858096 -0.019577144 1.1420001 1.7976375e-38
-0.16640572 -0.020664763 1.1420001 1.8345514e-38
-0.17075621 -0.016314287 1.1420001 1.760831e-38
-0.17075621 -0.014139049 1.1420001 1.7515396e-38
-0.17293143 -0.010876192 1.1420001 1.7790902e-38
-0.17293143 -0.0076133339 1.1420001 1.7607233e-38
-0.17075621 -0.0076133339 1.1420001 1.7146977e-38
-0.17293143 -0.0043504764 1.1420001 1.7330294e-38
-0.17075621 -0.0043504764 1.1420001 1.6870755e-38
-0.17293143 -0.0010876191 1.1420001 1.6782512e-38
-0.17075621 -0.0010876191 1.1420001 1.7329214e-38
-0.17293143 0.0010876191 1.1420001 1.6419133e-38
-0.17075621 0.0010876191 1.1420001 1.778805e-38
-0.17293143 0.0043504764 1.1420001 7.3793877e-39
-0.17003113 0.0047130166 1.1420001 1.0607266e-38
-0.16966859 0.0076133339 1.1420001 6.5473835e-39
-0.17075621 0.010876192 1.1420001 4.2392375e-39
-0.37305337 0.014139049 1.1420001 8.4772728e-39
-0.37087813 0.014139049 1.1420001 8.9339419e-39
-0.36761528 0.014139049 1.1420001 6.9114058e-39
-0.17075621 0.014139049 1.1420001 4.698394e-39
-0.37305337 0.016314287 1.1420001 7.1869501e-39
-0.37087813 0.016314287 1.1420001 7.4610357e-39
-0.36761528 0.016314287 1.1420001 6.4558675e-39
-0.17075621 0.016314287 1.1420001 4.5143545e-39
-0.17075621 0.019577144 1.1420001 4.2381347e-39
-0.36217716 0.022840001 1.1420001 4.5140196e-39
-0.17075621 0.022840001 1.1420001 4.1470335e-39
-0.36217716 0.025015241 1.1420001 3.1332543e-39
-0.17075621 0.025015241 1.1420001 3.870825e-39
-0.36435241 0.029365717 1.1420001 1.1960965e-39
-0.36217716 0.027190479 1.1420001 1.7514115e-39
-0.17293143 0.027190479 1.1420001 3.3179875e-39
-0.17075621 0.028278098 1.1420001 3.4094573e-39
-0.36435241 0.031540953 1.1420001 1.0116955e-39
-0.36000192 0.031540953 1.1420001 3.3143806e-39
-0.17075621 0.031540953 1.1420001 3.1335934e-39
-0.17293143 0.033716194 1.1420001 2.5825945e-39
-0.17075621 0.034803815 1.1420001 2.0326493e-39
-0.17293143 0.03806667 1.1420001 2.581486e-39
-0.17075621 0.03806667 1.1420001 2.489296e-39
-0.36652765 0.040241908 1.1420001 8.2797261e-40
-0.17293143 0.040241908 1.1420001 3.0385153e-39
-0.17075621 0.040241908 1.1420001 3.3140232e-39
-0.36652765 0.044592384 1.1420001 3.6915246e-40
-0.17293143 0.043504767 1.1420001 3.0388727e-39
-0.17075621 0.042417146 1.1420001 3.5880962e-39
-0.36652765 0.046767622 1.1420001 7.3613431e-40
-0.17293143 0.046767622 1.1420001 3.0402964e-39
-0.17510667 0.04894286 1.1420001 2.7658549e-39
-0.17293143 0.04894286 1.1420001 2.949184e-39
-0.23383811 0.053293336 1.1420001 1.6598647e-39
-0.17510667 0.052205719 1.1420001 2.8576988e-39
-0.17836954 0.055468574 1.1420001 2.3067054e-39
-0.24906477 0.05981905 1.1420001 1.1963852e-39
-0.24688955 0.058731429 1.1420001 1.0123765e-39
-0.1816324 0.05981905 1.1420001 2.6726265e-39
-0.17836954 0.058731429 1.1420001 2.2148685e-39
-0.25776574 0.061994288 1.1420001 6.4610089e-40
-0.25341526 0.061994288 1.1420001 1.3807694e-39
-0.1816324 0.061994288 1.1420001 3.1307152e-39
-0.17945716 0.061994288 1.1420001 3.1321445e-39
-0.26429144 0.064169526 1.1420001 3.9661945e-39
-0.1816324 0.064169526 1.1420001 3.4994781e-39
-0.17945716 0.064169526 1.1420001 3.6842253e-39
-0.1816324 0.067432389 1.1420001 3.5902093e-39
-0.17244571 -0.027285716 1.146 1.8437359e-38
-0.17135429 -0.025102859 1.146 1.7884188e-38
-0.17135429 -0.022920001 1.146 1.7881312e-38
-0.17135429 -0.019645717 1.146 1.7699791e-38
-0.17353715 -0.016371429 1.146 1.7975651e-38
-0.17572001 -0.012005715 1.146 1.8344793e-38
-0.17353715 -0.014188573 1.146 1.7883814e-38
-0.17572001 -0.0098228576 1.146 1.8161484e-38
-0.17572001 -0.0076400004 1.146 1.7976021e-38
-0.17572001 -0.0043657147 1.146 1.7790915e-38
-0.17572001 -0.0010914287 1.146 1.6326215e-38
-0.17572001 0.0010914287 1.146 1.4936828e-38
-0.17790286 0.0054571433 1.146 2.0330949e-39
-0.17572001 0.0043657147 1.146 4.5263524e-39
-0.17572001 0.0076400004 1.146 2.7666284e-39
-0.17353715 0.0076400004 1.146 4.3328429e-39
-0.17572001 0.0098228576 1.146 4.3299842e-39
-0.17353715 0.0098228576 1.146 4.2381487e-39
-0.17572001 0.012005715 1.146 4.4236148e-39
-0.17353715 0.013097144 1.146 4.514021e-39
-0.17353715 0.016371429 1.146 4.5125734e-39
-0.36999431 0.018554287 1.146 5.9938258e-39
-0.36781144 0.018554287 1.146 5.9930887e-39
-0.3656286 0.019645717 1.146 5.5303085e-39
-0.17353715 0.019645717 1.146 4.2366956e-39
-0.3656286 0.022920001 1.146 4.4232589e-39
-0.17353715 0.022920001 1.146 3.8711501e-39
-0.3656286 0.025102859 1.146 2.9495791e-39
-0.17353715 0.025102859 1.146 3.5945744e-39
-0.36781144 0.028377146 1.146 9.2129208e-40
-0.3656286 0.027285716 1.146 1.4719617e-39
-0.17572001 0.028377146 1.146 3.0406789e-39
-0.17353715 0.029468574 1.146 3.2247129e-39
-0.36781144 0.03165143 1.146 2.7699607e-40
-0.17572001 0.03165143 1.146 2.9488519e-39
-0.17353715 0.03165143 1.146 3.0406901e-39
-0.17790286 0.03383429 1.146 2.7648291e-39
-0.17572001 0.03383429 1.146 2.6733538e-39
-0.17572001 0.037108574 1.146 2.4896618e-39
-0.17353715 0.036017146 1.146 2.0322835e-39
-0.17572001 0.040382858 1.146 2.7633802e-39
-0.17572001 0.043657146 1.146 2.4882296e-39
-0.17572001 0.046931431 1.146 2.5811021e-39
-0.2324743 0.049114291 1.146 1.1999781e-39
-0.23029144 0.049114291 1.146 1.5683991e-39
-0.2324743 0.052388575 1.146 1.5673131e-39
-0.23029144 0.051297147 1.146 1.6598731e-39
-0.17790286 0.052388575 1.146 2.6743739e-39
-0.18226859 0.055662859 1.146 2.3982018e-39
-0.18226859 0.057845719 1.146 2.2148867e-39
-0.25648573 0.060028575 1.146 1.9328656e-39
-0.25212002 0.060028575 1.146 1.9314167e-39
-0.17898953 -0.027452383 1.153 1.4942235e-38
-0.17633334 -0.027380954 1.1500001 1.889941e-38
-0.17898953 -0.025256192 1.153 1.4762147e-38
-0.1752381 -0.025190478 1.1500001 1.8527039e-38
-0.17898953 -0.023060001 1.153 1.485075e-38
-0.1752381 -0.023000002 1.1500001 1.8528469e-38
-0.18118572 -0.019765716 1.153 1.106209e-38
-0.17898953 -0.019765716 1.153 1.4943657e-38
-0.1752381 -0.019714288 1.1500001 1.8436269e-38
-0.18118572 -0.016471429 1.153 1.151804e-38
-0.17852382 -0.016428573 1.1500001 1.4944373e-38
-0.17633334 -0.016428573 1.1500001 1.8344074e-38
-0.18118572 -0.013177143 1.153 1.1706739e-38
-0.17852382 -0.013142858 1.1500001 1.5036211e-38
-0.17633334 -0.014238096 1.1500001 1.8345151e-38
-0.18071429 -0.0098571433 1.1500001 1.1717862e-38
-0.17852382 -0.0098571433 1.1500001 1.4944024e-38
-0.18071429 -0.007666667 1.1500001 1.1524869e-38
-0.17852382 -0.007666667 1.1500001 1.4764299e-38
-0.18338192 -0.0032942859 1.153 6.4498167e-39
-0.18071429 -0.0043809526 1.1500001 1.2172386e-38
-0.17852382 -0.0043809526 1.1500001 1.5035142e-38
-0.18338192 -0.0010980953 1.153 6.5463185e-39
-0.18071429 -0.0010952381 1.1500001 1.1076463e-38
-0.17852382 -0.0010952381 1.1500001 1.3655819e-38
-0.18338192 0.0010980953 1.153 6.7295635e-39
-0.18071429 0.0010952381 1.1500001 9.5908945e-39
-0.17852382 0.0010952381 1.1500001 1.2275013e-38
-0.18071429 0.0043809526 1.1500001 4.6062432e-39
-0.17852382 0.0032857144 1.1500001 7.1942411e-39
-0.18071429 0.007666667 1.1500001 3.7779049e-39
-0.17852382 0.007666667 1.1500001 3.2268933e-39
-0.18071429 0.0098571433 1.1500001 4.5122189e-39
-0.17852382 0.0098571433 1.1500001 4.4218211e-39
-0.18095002 0.013161429 1.1515 3.9593968e-39
-0.17852382 0.013142858 1.1500001 4.2359823e-39
-0.17633334 0.014238096 1.1500001 4.512572e-39
-0.18118572 0.016471429 1.153 3.7775027e-39
-0.17852382 0.016428573 1.1500001 4.0515827e-39
-0.17633334 0.016428573 1.1500001 4.4178583e-39
-0.3744505 0.020863811 1.153 5.2541055e-39
-0.3701905 0.020809526 1.1500001 5.16227e-39
-0.18118572 0.019765716 1.153 3.4998298e-39
-0.17852382 0.019714288 1.1500001 3.7760355e-39
-0.17633334 0.019714288 1.1500001 4.1434013e-39
-0.3766467 0.023060001 1.153 4.5183075e-39
-0.3744505 0.023060001 1.153 4.5175971e-39
-0.3701905 0.023000002 1.1500001 4.3335758e-39
-0.18118572 0.023060001 1.153 2.8573457e-39
-0.17852382 0.023000002 1.1500001 3.2261072e-39
-0.17633334 0.023000002 1.1500001 3.5938289e-39
-0.3766467 0.025256192 1.153 3.0406565e-39
-0.3744505 0.025256192 1.153 3.0453298e-39
-0.3701905 0.025190478 1.1500001 2.7680437e-39
-0.18338192 0.025256192 1.153 2.6722523e-39
-0.18118572 0.025256192 1.153 2.8591491e-39
-0.17852382 0.025190478 1.1500001 3.1342927e-39
-0.17633334 0.025190478 1.1500001 3.4101719e-39
-0.37128574 0.027380954 1.1500001 1.379022e-39
-0.18338192 0.02855048 1.153 2.7636955e-39
-0.18071429 0.028476194 1.1500001 2.8573429e-39
-0.17852382 0.028476194 1.1500001 2.9491966e-39
-0.18338192 0.031844765 1.153 2.9463323e-39
-0.18071429 0.031761907 1.1500001 3.0403244e-39
-0.17852382 0.031761907 1.1500001 3.0414034e-39
-0.18338192 0.034040954 1.153 2.7630733e-39
-0.18071429 0.033952381 1.1500001 2.8563255e-39
-0.24707144 0.038433336 1.153 2.3996283e-39
-0.24423811 0.038333334 1.1500001 1.5673495e-39
-0.18338192 0.036237147 1.153 2.6704699e-39
-0.18071429 0.037238099 1.1500001 2.4860674e-39
-0.17852382 0.037238099 1.1500001 2.4875136e-39
-0.24707144 0.040629525 1.153 2.0276032e-39
-0.24487525 0.040629525 1.153 1.658099e-39
-0.24158096 0.040629525 1.153 1.6566445e-39
-0.18071429 0.040523812 1.1500001 2.3942375e-39
-0.17852382 0.040523812 1.1500001 2.5786456e-39
-0.24487525 0.042825717 1.153 1.3811464e-39
-0.24158096 0.042825717 1.153 1.472249e-39
-0.2360905 0.042825717 1.153 1.6573493e-39
-0.18118572 0.042825717 1.153 2.7630369e-39
-0.17852382 0.043809526 1.1500001 2.6729894e-39
-0.24048287 0.047218099 1.153 1.382919e-39
-0.23828669 0.047218099 1.153 1.0163029e-39
-0.2360905 0.046120003 1.153 1.1074238e-39
-0.23328573 0.047095243 1.1500001 1.1996236e-39
-0.18118572 0.046120003 1.153 3.0399377e-39
-0.17852382 0.047095243 1.1500001 2.8573092e-39
-0.24048287 0.049414288 1.153 1.5673061e-39
-0.23828669 0.049414288 1.153 6.4931406e-40
-0.23547621 0.049285717 1.1500001 9.2410869e-40
-0.18071429 0.049285717 1.1500001 3.0417187e-39
-0.17852382 0.049285717 1.1500001 2.9498678e-39
-0.24048287 0.051610481 1.153 1.4754678e-39
-0.23860352 0.052981272 1.151 1.3843554e-39
-0.23547621 0.051476195 1.1500001 1.2925199e-39
-0.18411398 0.053074609 1.1530001 2.5818476e-39
-0.18071429 0.052571431 1.1500001 2.5829084e-39
-0.1877743 0.056002859 1.153 2.6722678e-39
-0.18509525 0.055857148 1.1500001 2.5804351e-39
-0.25146383 0.058199052 1.153 4.6244251e-40
-0.1877743 0.058199052 1.153 2.7630299e-39
-0.18509525 0.058047622 1.1500001 2.4885996e-39
-0.27122954 0.062591434 1.153 2.3920655e-39
-0.26573905 0.062591434 1.153 1.5680642e-39
-0.26176193 0.062428575 1.1500001 1.011659e-39
-0.2602486 0.060395241 1.153 1.1967509e-39
-0.25519049 0.060238101 1.1500001 2.7597368e-39
-0.18997049 0.062591434 1.153 2.9470568e-39
-0.1877743 0.061493337 1.153 2.9467037e-39
-0.18509525 0.061333336 1.1500001 2.8548612e-39
-0.19875525 0.064787626 1.153 2.8548527e-39
-0.19655906 0.064787626 1.153 3.2222045e-39
-0.19326478 0.064787626 1.153 3.4065902e-39
-0.18997049 0.064787626 1.153 3.039251e-39
-0.18728572 0.064619049 1.1500001 3.1314494e-39
-0.18509525 0.064619049 1.1500001 3.2243457e-39
-0.1818143 -0.02754762 1.1570001 1.0976355e-38
-0.1818143 -0.025343811 1.1570001 1.0695115e-38
-0.1818143 -0.023140002 1.1570001 1.0887041e-38
-0.18401811 -0.018732382 1.1570001 5.7057664e-39
-0.18622191 -0.012120953 1.1570001 9.2632835e-41
-0.18401811 -0.013222858 1.1570001 5.8840761e-39
-0.18401811 -0.0099171437 1.1570001 5.893043e-39
-0.18401811 -0.0077133337 1.1570001 5.7911728e-39
-0.18622191 -0.0033057146 1.1570001 3.7316998e-40
-0.18401811 -0.0055095241 1.1570001 6.0806782e-39
-0.18622191 -0.0011019048 1.1570001 2.112662e-39
-0.18622191 0.0011019048 1.1570001 3.8679201e-39
-0.18622191 0.0033057146 1.1570001 4.0490603e-39
-0.18401811 0.0044076191 1.1570001 4.3267192e-39
-0.18401811 0.0077133337 1.1570001 3.8679453e-39
-0.18622191 0.0099171437 1.1570001 3.9608346e-39
-0.18401811 0.0099171437 1.1570001 4.236711e-39
-0.18622191 0.012120953 1.1570001 3.500218e-39
-0.18401811 0.013222858 1.1570001 3.5916919e-39
-0.18401811 0.016528573 1.1570001 3.5009116e-39
-0.18622191 0.018732382 1.1570001 3.5916821e-39
-0.18401811 0.019834287 1.1570001 3.4083698e-39
-0.18622191 0.023140002 1.1570001 2.394955e-39
-0.18401811 0.023140002 1.1570001 2.6715363e-39
-0.18622191 0.025343811 1.1570001 2.4860758e-39
-0.18622191 0.028649526 1.1570001 2.6711607e-39
-0.18622191 0.031955238 1.1570001 2.8548542e-39
-0.18622191 0.034159049 1.1570001 2.7619705e-39
-0.18622191 0.03636286 1.1570001 2.6708258e-39
-0.18401811 0.038566668 1.1570001 2.8533716e-39
-0.18401811 0.040770479 1.1570001 3.1271082e-39
-0.24792859 0.04297429 1.1570001 1.4744168e-39
-0.23911335 0.04297429 1.1570001 2.1165268e-39
-0.18622191 0.04297429 1.1570001 4.3224326e-39
-0.18401811 0.04297429 1.1570001 3.4962677e-39
-0.24462289 0.046280004 1.1570001 1.3804205e-39
-0.24131715 0.045178097 1.1570001 1.2900073e-39
-0.23911335 0.045178097 1.1570001 1.290729e-39
-0.23470573 0.045178097 1.1570001 1.1074196e-39
-0.23250192 0.047381908 1.1570001 1.3840134e-39
-0.18622191 0.046280004 1.1570001 4.5089693e-39
-0.18401811 0.046280004 1.1570001 3.7731979e-39
-0.24462289 0.049585719 1.1570001 2.1158177e-39
-0.18622191 0.049585719 1.1570001 3.5002067e-39
-0.18401811 0.049585719 1.1570001 3.3168819e-39
-0.27437431 0.053993337 1.1570001 1.3814967e-39
-0.18622191 0.051789526 1.1570001 3.0410237e-39
-0.19062954 0.056197148 1.1570001 2.8566632e-39
-0.27217048 0.058400955 1.1570001 1.654855e-39
-0.25674382 0.058400955 1.1570001 4.137663e-39
-0.25454003 0.058400955 1.1570001 2.2987825e-39
-0.19062954 0.058400955 1.1570001 3.0392552e-39
-0.27217048 0.060604766 1.1570001 2.0236305e-39
-0.26776287 0.060604766 1.1570001 1.7485108e-39
-0.26555908 0.060604766 1.1570001 1.3807975e-39
-0.26335526 0.060604766 1.1570001 1.2878718e-39
-0.19944477 0.06170667 1.1570001 2.6718964e-39
-0.19577178 0.062073972 1.1570001 3.2232723e-39
-0.19283335 0.06170667 1.1570001 3.1314396e-39
-0.19062954 0.060604766 1.1570001 3.0381748e-39
-0.49867716 -0.19350001 1.161 3.0410195e-39
-0.49646574 -0.19350001 1.161 1.7495716e-39
-0.49867716 -0.19018286 1.161 2.0229117e-39
-0.49646574 -0.19018286 1.161 5.531948e-40
-0.49425432 -0.18907715 1.161 1.8406195e-40
-0.18686573 -0.021008573 1.161 9.3348898e-41
-0.1846543 -0.022114288 1.161 5.4274111e-39
-0.18686573 -0.018797144 1.161 9.2269899e-41
-0.18686573 -0.016585715 1.161 9.2630032e-41
-0.1846543 -0.016585715 1.161 5.7872085e-39
-0.18907715 -0.012162858 1.161 2.7587783e-40
-0.18686573 -0.014374287 1.161 9.2272701e-41
-0.18907715 -0.0033171431 1.161 1.9299888e-39
-0.18686573 -0.005528572 1.161 2.759535e-40
-0.18907715 -0.0011057144 1.161 3.1288683e-39
-0.18686573 0.005528572 1.161 4.1430622e-39
-0.18686573 0.0077400007 1.161 4.0530344e-39
-0.18907715 0.0099514294 1.161 4.0537365e-39
-0.18907715 0.013268572 1.161 3.2225549e-39
-0.18686573 0.014374287 1.161 2.9481218e-39
-0.18907715 0.016585715 1.161 3.1314354e-39
-0.18686573 0.016585715 1.161 3.3168917e-39
-0.18907715 0.018797144 1.161 3.4072979e-39
-0.18907715 0.022114288 1.161 2.8530549e-39
-0.18686573 0.021008573 1.161 3.0385195e-39
-0.18907715 0.02543143 1.161 2.5775568e-39
-0.18907715 0.028748574 1.161 2.3942375e-39
-0.18907715 0.032065716 1.161 2.1212436e-39
-0.18907715 0.034277145 1.161 2.3963955e-39
-0.18907715 0.037594289 1.161 2.8552101e-39
-0.18686573 0.038700003 1.161 3.2218122e-39
-0.18907715 0.040911432 1.161 3.4055098e-39
-0.18686573 0.040911432 1.161 3.771763e-39
-0.23330572 0.043122862 1.161 1.2907206e-39
-0.18907715 0.043122862 1.161 3.4044392e-39
-0.24878573 0.046440002 1.161 9.2052277e-40
-0.23330572 0.045334287 1.161 1.2921667e-39
-0.18907715 0.046440002 1.161 3.312968e-39
-0.24878573 0.049757145 1.161 1.1963824e-39
-0.18907715 0.049757145 1.161 3.2232793e-39
-0.2465743 0.051968575 1.161 1.5648048e-39
-0.24436288 0.051968575 1.161 1.8403057e-39
-0.18907715 0.051968575 1.161 2.9484819e-39
-0.27311143 0.056391433 1.161 1.4722616e-39
-0.27090001 0.056391433 1.161 1.4726091e-39
-0.25320858 0.056391433 1.161 1.015273e-39
-0.19571145 0.056391433 1.161 2.672272e-39
-0.19350001 0.056391433 1.161 2.7648347e-39
-0.19018286 0.054180004 1.161 2.6726237e-39
-0.26537144 0.058602862 1.161 1.4708323e-39
-0.26205429 0.058602862 1.161 1.6570312e-39
-0.25984287 0.058602862 1.161 2.9441785e-39
-0.20013429 0.058602862 1.161 2.0297668e-39
-0.19681716 0.058602862 1.161 2.4889485e-39
-0.19350001 0.058602862 1.161 2.8566604e-39
-0.19792287 0.060814291 1.161 2.7640878e-39
-0.49988669 -0.20596668 1.169 1.3790374e-39
-0.49766004 -0.20596668 1.169 2.1147976e-39
-0.49988669 -0.20262668 1.169 1.010978e-39
-0.49766004 -0.20262668 1.169 2.0218789e-39
-0.49988669 -0.19928668 1.169 1.8515777e-40
-0.49766004 -0.19928668 1.169 6.4467296e-40
-0.49817622 -0.19638573 1.1650001 1.0116576e-39
-0.49766004 -0.19706002 1.169 1.1041797e-39
-0.49560797 -0.19386891 1.1676668 1.104205e-39
-0.49595717 -0.19194764 1.1650001 8.287167e-40
-0.49766004 -0.16811335 1.169 7.3617915e-40
-0.49988669 -0.16588667 1.169 2.7662613e-40
-0.19038001 -0.030060003 1.169 5.5137872e-40
-0.18815334 -0.031173337 1.169 9.2258688e-41
-0.19260667 -0.027833335 1.169 9.2196751e-40
-0.19038001 -0.027833335 1.169 5.5210179e-40
-0.18750954 -0.027738096 1.1650001 9.2264293e-41
-0.18455081 -0.029217463 1.1650002 7.3656521e-39
-0.1808524 -0.029957145 1.1650001 1.5130216e-38
-0.19260667 -0.025606668 1.169 8.2904741e-40
-0.19038001 -0.025606668 1.169 4.5954602e-40
-0.18750954 -0.025519049 1.1650001 9.2628631e-41
-0.18529049 -0.025519049 1.1650001 5.4198707e-39
-0.19409113 -0.022637781 1.169 1.1038378e-39
-0.19046828 -0.021820638 1.1650002 9.198039e-40
-0.18750954 -0.023300001 1.1650001 9.2275504e-41
-0.19483335 -0.018926667 1.169 1.4715708e-39
-0.19083811 -0.018861907 1.1650001 1.0130911e-39
-0.19928668 -0.016700001 1.169 1.3793864e-39
-0.19706002 -0.016700001 1.169 2.022225e-39
-0.19483335 -0.016700001 1.169 1.6548732e-39
-0.19083811 -0.016642857 1.1650001 1.0120065e-39
-0.19928668 -0.013360001 1.169 1.195344e-39
-0.19706002 -0.013360001 1.169 1.3790038e-39
-0.19483335 -0.013360001 1.169 1.0123681e-39
-0.19120798 -0.013684127 1.1650002 5.5246192e-40
-0.19928668 -0.010020001 1.169 1.379015e-39
-0.19706002 -0.010020001 1.169 1.2871627e-39
-0.19483335 -0.010020001 1.169 9.2016264e-40
-0.19083811 -0.0099857152 1.1650001 4.6062782e-40
-0.18750954 -0.0099857152 1.1650001 9.2275504e-41
-0.19928668 -0.0077933338 1.169 1.5623343e-39
-0.19706002 -0.0077933338 1.169 1.2871781e-39
-0.19483335 -0.0077933338 1.169 1.1024225e-39
-0.19083811 -0.0077666673 1.1650001 6.4358556e-40
-0.18750954 -0.0077666673 1.1650001 9.3713236e-41
-0.19928668 -0.0044533336 1.169 3.5012885e-39
-0.19706002 -0.0044533336 1.169 3.4980656e-39
-0.19416668 -0.0044380957 1.1650001 3.1350326e-39
-0.19120798 -0.004807937 1.1650002 2.2998643e-39
-0.19928668 -0.0011133334 1.169 3.9644107e-39
-0.19706002 -0.0011133334 1.169 4.0573434e-39
-0.19416668 -0.0011095239 1.1650001 4.1488412e-39
-0.19194764 -0.0011095239 1.1650001 4.2395528e-39
-0.19928668 0.0011133334 1.169 3.871506e-39
-0.19706002 0.0011133334 1.169 3.8711571e-39
-0.19416668 0.0011095239 1.1650001 4.4221799e-39
-0.19083811 0.0011095239 1.1650001 4.602583e-39
-0.19928668 0.0033400003 1.169 3.5938527e-39
-0.19706002 0.0044533336 1.169 3.6846148e-39
-0.19416668 0.0044380957 1.1650001 3.9604744e-39
-0.19083811 0.0044380957 1.1650001 4.2363341e-39
-0.19706002 0.0077933338 1.169 3.5002348e-39
-0.19483335 0.0077933338 1.169 3.7768006e-39
-0.19083811 0.0077666673 1.1650001 4.0540938e-39
-0.19706002 0.010020001 1.169 3.3161784e-39
-0.19416668 0.0099857152 1.1650001 3.6845966e-39
-0.19194764 0.0099857152 1.1650001 4.0530162e-39
-0.21932667 0.014473334 1.169 3.4966026e-39
-0.21710001 0.014473334 1.169 3.2200129e-39
-0.21487334 0.014473334 1.169 2.8530255e-39
-0.19706002 0.013360001 1.169 2.6722355e-39
-0.19450001 0.013339048 1.1670001 2.9484749e-39
-0.19194764 0.013314286 1.1650001 3.1321501e-39
-0.21932667 0.016700001 1.169 3.1296348e-39
-0.21710001 0.016700001 1.169 2.945584e-39
-0.21487334 0.016700001 1.169 2.8530353e-39
-0.19706002 0.016700001 1.169 2.7651725e-39
-0.19483335 0.016700001 1.169 2.8566618e-39
-0.19194764 0.016642857 1.1650001 3.0396083e-39
-0.21932667 0.018926667 1.169 2.7622788e-39
-0.21710001 0.018926667 1.169 2.7633367e-39
-0.19706002 0.018926667 1.169 3.0406635e-39
-0.19416668 0.018861907 1.1650001 3.1328606e-39
-0.19194764 0.018861907 1.1650001 3.1310697e-39
-0.19706002 0.022266667 1.169 2.6715209e-39
-0.19416668 0.022190478 1.1650001 2.8533912e-39
-0.19194764 0.022190478 1.1650001 2.9445204e-39
-0.19706002 0.025606668 1.169 2.5775582e-39
-0.19416668 0.025519049 1.1650001 2.6690308e-39
-0.19194764 0.025519049 1.1650001 2.6693909e-39
-0.19706002 0.027833335 1.169 2.577568e-39
-0.19416668 0.02884762 1.1650001 2.3024161e-39
-0.19194764 0.02884762 1.1650001 2.1187381e-39
-0.19706002 0.031173337 1.169 2.3946173e-39
-0.19416668 0.032176193 1.1650001 1.8461014e-39
-0.19194764 0.032176193 1.1650001 1.3865624e-39
-0.19706002 0.034513336 1.169 2.5782687e-39
-0.19416668 0.03439524 1.1650001 2.3045516e-39
-0.19194764 0.03439524 1.1650001 2.0301255e-39
-0.19928668 0.037853338 1.169 2.7626403e-39
-0.19706002 0.037853338 1.169 2.7619312e-39
-0.19416668 0.037723809 1.1650001 2.7630173e-39
-0.19194764 0.037723809 1.1650001 2.6715391e-39
-0.19928668 0.041193336 1.169 2.6690027e-39
-0.19706002 0.041193336 1.169 2.9448834e-39
-0.19416668 0.041052382 1.1650001 2.9448988e-39
-0.19194764 0.041052382 1.1650001 2.9459736e-39
-0.19928668 0.043420002 1.169 2.6707922e-39
-0.19706002 0.043420002 1.169 2.761211e-39
-0.19416668 0.04327143 1.1650001 2.5775582e-39
-0.19194764 0.04327143 1.1650001 2.3946061e-39
-0.25272667 0.047873337 1.169 2.1143702e-39
-0.19928668 0.046760004 1.169 2.7626459e-39
-0.19706002 0.046760004 1.169 2.6693895e-39
-0.19450001 0.0466781 1.1670001 2.3935383e-39
-0.19194764 0.046600007 1.1650001 2.1183905e-39
-0.25384003 0.050100002 1.169 3.7057618e-40
-0.20151335 0.050100002 1.169 2.6722439e-39
-0.19928668 0.050100002 1.169 3.0381412e-39
-0.19706002 0.050100002 1.169 3.4051413e-39
-0.19416668 0.049928576 1.1650001 3.2211297e-39
-0.19194764 0.049928576 1.1650001 2.9466981e-39
-0.25384003 0.052326672 1.169 9.2481775e-40
-0.24964288 0.052147623 1.1650001 1.2882165e-39
-0.20151335 0.052326672 1.169 2.5782434e-39
-0.19928668 0.052326672 1.169 2.8551708e-39
-0.19638573 0.052147623 1.1650001 3.0395803e-39
-0.19416668 0.052147623 1.1650001 2.9477658e-39
-0.19194764 0.052147623 1.1650001 2.8566478e-39
-0.27499336 0.054553337 1.169 1.2896682e-39
-0.27276668 0.054553337 1.169 1.1052686e-39
-0.26896381 0.056682862 1.1670001 9.2015983e-40
-0.2660867 0.056780003 1.169 8.2906983e-40
-0.26163334 0.056780003 1.169 2.1177053e-39
-0.25851905 0.056585718 1.1650001 3.3126135e-39
-0.2563 0.056585718 1.1650001 2.2094819e-39
-0.25384003 0.054553337 1.169 1.474784e-39
-0.25038254 0.055846035 1.1650002 1.2889746e-39
-0.24742383 0.055476196 1.1650001 1.2893095e-39
-0.24520478 0.054366671 1.1650001 1.2900171e-39
-0.20262668 0.05566667 1.169 2.5804155e-39
-0.19957177 0.055908259 1.1663334 2.3967473e-39
-0.19638573 0.054366671 1.1650001 2.6726139e-39
-0.19416668 0.054366671 1.1650001 2.6740642e-39
-0.27183336 0.058804765 1.1650001 1.7474094e-39
-0.26961431 0.058804765 1.1650001 1.6541404e-39
-0.20596668 0.059006672 1.169 2.7651696e-39
-0.20304286 0.058804765 1.1650001 2.3985437e-39
-0.20304286 0.061023813 1.1650001 2.5814973e-39
-0.49936289 -0.21114001 1.1730001 3.4973705e-39
-0.49712861 -0.21114001 1.1730001 2.7587237e-39
-0.49936289 -0.20890573 1.1730001 1.8385835e-39
-0.49712861 -0.20890573 1.1730001 2.2077079e-39
-0.49712861 -0.20555431 1.1730001 3.2182543e-39
-0.49414957 -0.20518193 1.1730001 1.9329119e-39
-0.49712861 -0.20220287 1.1730001 2.3895824e-39
-0.49712861 -0.19996859 1.1730001 1.1038617e-39
-0.49489433 -0.19996859 1.1730001 8.2800905e-40
-0.49712861 -0.1977343 1.1730001 1.195316e-39
-0.49489433 -0.19550002 1.1730001 7.3543086e-40
-0.49936289 -0.1664543 1.1730001 8.2764611e-40
-0.19326572 -0.03016286 1.1730001 1.0127212e-39
-0.19103144 -0.032397144 1.1730001 8.2831453e-40
-0.19550002 -0.027928574 1.1730001 1.1974852e-39
-0.19550002 -0.025694288 1.1730001 1.0141617e-39
-0.1977343 -0.022342857 1.1730001 1.1034903e-39
-0.1977343 -0.018991429 1.1730001 1.5627e-39
-0.20220287 -0.010054287 1.1730001 1.4712064e-39
-0.20220287 -0.0078200009 1.1730001 1.8403449e-39
-0.20220287 -0.0044685719 1.1730001 3.5005627e-39
-0.20220287 -0.001117143 1.1730001 3.9636918e-39
-0.20220287 0.001117143 1.1730001 3.7785873e-39
-0.20220287 0.0044685719 1.1730001 3.1343109e-39
-0.19996859 0.0055857147 1.1730001 3.3169253e-39
-0.19996859 0.0078200009 1.1730001 3.2254626e-39
-0.19996859 0.010054287 1.1730001 3.1321487e-39
-0.19996859 0.013405715 1.1730001 2.6711425e-39
-0.19996859 0.016757144 1.1730001 2.7640822e-39
-0.21560858 0.018991429 1.1730001 2.7619088e-39
-0.19996859 0.018991429 1.1730001 3.0403034e-39
-0.21784288 0.021225715 1.1730001 2.7615319e-39
-0.20220287 0.023460001 1.1730001 2.945968e-39
-0.19996859 0.022342857 1.1730001 2.763006e-39
-0.19996859 0.025694288 1.1730001 2.670114e-39
-0.19996859 0.027928574 1.1730001 2.5772163e-39
-0.19996859 0.031280003 1.1730001 2.3946271e-39
-0.19996859 0.034631431 1.1730001 2.5797064e-39
-0.20220287 0.036865715 1.1730001 2.8559037e-39
-0.20220287 0.040217146 1.1730001 2.4871128e-39
-0.20220287 0.043568574 1.1730001 2.5814636e-39
-0.20220287 0.045802861 1.1730001 2.7640752e-39
-0.25806001 0.050271433 1.1730001 9.2209643e-41
-0.25582573 0.048037145 1.1730001 3.1231341e-39
-0.20220287 0.048037145 1.1730001 2.7644522e-39
-0.27370003 0.052505717 1.1730001 6.4537501e-40
-0.25917715 0.052505717 1.1730001 1.1960307e-39
-0.27146572 0.054740004 1.1730001 6.453624e-40
-0.26476288 0.056974288 1.1730001 9.2452768e-40
-0.25917715 0.054740004 1.1730001 2.2094735e-39
-0.21114001 0.056974288 1.1730001 2.029764e-39
-0.20890573 0.056974288 1.1730001 2.5804407e-39
-0.20667145 0.056974288 1.1730001 3.13252e-39
-0.49882385 -0.21634382 1.177 1.7499443e-39
-0.49882385 -0.21410193 1.177 3.2211171e-39
-0.49658194 -0.21410193 1.177 2.6700958e-39
-0.49658194 -0.21186002 1.177 2.0243802e-39
-0.49658194 -0.20961811 1.177 1.3808199e-39
-0.49321908 -0.2073762 1.177 1.1070945e-39
-0.49209812 -0.2051343 1.177 1.2896864e-39
-0.48985621 -0.2051343 1.177 1.01381e-39
-0.49658194 -0.20289239 1.177 1.6556201e-39
-0.49321908 -0.20289239 1.177 9.205592e-40
-0.49658194 -0.19840859 1.177 7.35798e-40
-0.49359274 -0.19990318 1.177 4.602803e-40
-0.49434003 -0.19616668 1.177 2.7588764e-40
-0.49658194 -0.19392477 1.177 3.2174906e-39
-0.49658194 -0.19168288 1.177 5.7968158e-39
-0.19840859 -0.030265717 1.177 1.6566711e-39
-0.19616668 -0.030265717 1.177 1.3804345e-39
-0.19840859 -0.028023811 1.177 1.4733672e-39
-0.20065048 -0.019056192 1.177 1.1953678e-39
-0.20289239 -0.012330477 1.177 1.1034959e-39
-0.2051343 -0.0078466674 1.177 2.4821088e-39
-0.2051343 -0.0033628573 1.177 4.3303051e-39
-0.2051343 0.0011209524 1.177 3.8696997e-39
-0.20289239 0.0078466674 1.177 2.9517287e-39
-0.20289239 0.010088572 1.177 2.9499098e-39
-0.21410193 0.014572382 1.177 2.8515877e-39
-0.20289239 0.013451429 1.177 2.5807518e-39
-0.20289239 0.016814286 1.177 2.7644396e-39
-0.20289239 0.019056192 1.177 2.9470358e-39
-0.2051343 0.023540001 1.177 2.8527004e-39
-0.20289239 0.021298097 1.177 2.9466784e-39
-0.2051343 0.025781907 1.177 2.6697482e-39
-0.20289239 0.025781907 1.177 2.7630229e-39
-0.20289239 0.028023811 1.177 2.5782827e-39
-0.20289239 0.03138667 1.177 2.394969e-39
-0.20289239 0.034749527 1.177 2.6736831e-39
-0.2566981 0.045959052 1.177 6.1662626e-39
-0.26118192 0.05044286 1.177 1.0484655e-40
-0.25894001 0.048200954 1.177 5.7167765e-39
-0.26342383 0.052684765 1.177 3.1235125e-39
-0.27014953 0.054926671 1.177 9.3292847e-41
-0.26790765 0.054926671 1.177 9.2237669e-41
-0.26566574 0.054926671 1.177 9.4402675e-41
-0.26342383 0.054926671 1.177 1.2893529e-39
-0.21186002 0.054926671 1.177 1.6613444e-39
-0.20849715 0.054926671 1.177 2.9474141e-39
-0.2051343 0.054926671 1.177 2.94704e-39
-0.49602002 -0.21482953 1.1810001 2.0283011e-39
-0.49602002 -0.21145526 1.1810001 8.2978169e-40
-0.49377051 -0.21145526 1.1810001 1.6595073e-39
-0.49152097 -0.21145526 1.1810001 2.3945612e-39
-0.4903962 -0.20808096 1.1810001 1.7502792e-39
-0.48927146 -0.20583144 1.1810001 1.1967523e-39
-0.49077114 -0.20283207 1.1810001 8.2906002e-40
-0.49377051 -0.19908287 1.1810001 7.3576157e-40
-0.49152097 -0.19908287 1.1810001 1.1949657e-39
-0.49377051 -0.19683334 1.1810001 9.1872911e-40
-0.49152097 -0.19683334 1.1810001 1.4701092e-39
-0.49602002 -0.19345906 1.1810001 8.6397435e-39
-0.49602002 -0.19008477 1.1810001 1.068526e-38
-0.49826956 -0.15746668 1.1810001 6.6301862e-39
-0.20133239 -0.030368574 1.1810001 2.0240257e-39
-0.20133239 -0.02811905 1.1810001 1.6570537e-39
-0.20245716 -0.025869526 1.1810001 1.2893207e-39
-0.19908287 -0.025869526 1.1810001 1.1971265e-39
-0.20245716 -0.02249524 1.1810001 1.0123695e-39
-0.20358191 -0.019120954 1.1810001 8.276321e-40
-0.20358191 -0.01687143 1.1810001 7.3614973e-40
-0.20583144 -0.012372382 1.1810001 1.1027658e-39
-0.20358191 -0.014621906 1.1810001 9.2017385e-40
-0.20583144 -0.010122858 1.1810001 1.8381855e-39
-0.20808096 -0.007873334 1.1810001 3.131434e-39
-0.21707906 -0.003374286 1.1810001 4.0555567e-39
-0.21482953 -0.003374286 1.1810001 3.9633471e-39
-0.21033049 -0.003374286 1.1810001 4.2392291e-39
-0.20808096 -0.004499048 1.1810001 4.1480929e-39
-0.20583144 -0.00562381 1.1810001 3.4083544e-39
-0.21482953 -0.001124762 1.1810001 3.9615478e-39
-0.21033049 -0.001124762 1.1810001 4.0537449e-39
-0.20808096 -0.001124762 1.1810001 4.2370501e-39
-0.20583144 -0.001124762 1.1810001 4.0544483e-39
-0.21482953 0.001124762 1.1810001 3.9604576e-39
-0.21145526 0.001124762 1.1810001 3.7771496e-39
-0.20808096 0.001124762 1.1810001 3.8697025e-39
-0.21482953 0.003374286 1.1810001 3.684577e-39
-0.21033049 0.003374286 1.1810001 3.5938289e-39
-0.20808096 0.004499048 1.1810001 3.3179665e-39
-0.20583144 0.004499048 1.1810001 3.2268512e-39
-0.20808096 0.007873334 1.1810001 3.3147407e-39
-0.20583144 0.007873334 1.1810001 3.1339438e-39
-0.20808096 0.010122858 1.1810001 3.4072866e-39
-0.20583144 0.010122858 1.1810001 3.2254121e-39
-0.21482953 0.012372382 1.1810001 3.2217828e-39
-0.21145526 0.013497144 1.1810001 3.0374181e-39
-0.20808096 0.013497144 1.1810001 2.9459498e-39
-0.20583144 0.013497144 1.1810001 2.764434e-39
-0.21482953 0.01687143 1.1810001 2.5775316e-39
-0.21145526 0.01687143 1.1810001 2.4856961e-39
-0.20808096 0.01687143 1.1810001 3.1285474e-39
-0.20583144 0.01687143 1.1810001 2.9466728e-39
-0.21482953 0.019120954 1.1810001 2.3027384e-39
-0.21145526 0.019120954 1.1810001 2.2105427e-39
-0.20808096 0.019120954 1.1810001 3.495532e-39
-0.20583144 0.019120954 1.1810001 3.2203927e-39
-0.21707906 0.023620002 1.1810001 3.3122141e-39
-0.21482953 0.02249524 1.1810001 2.852315e-39
-0.21145526 0.02249524 1.1810001 2.5764498e-39
-0.20808096 0.02249524 1.1810001 2.9430869e-39
-0.20583144 0.021370478 1.1810001 3.0367287e-39
-0.21482953 0.025869526 1.1810001 2.5778931e-39
-0.21145526 0.025869526 1.1810001 2.3013202e-39
-0.20808096 0.025869526 1.1810001 2.576475e-39
-0.21145526 0.02811905 1.1810001 1.9343356e-39
-0.20808096 0.02811905 1.1810001 2.3938788e-39
-0.20583144 0.02811905 1.1810001 2.486436e-39
-0.21033049 0.031493336 1.1810001 2.3942375e-39
-0.20808096 0.031493336 1.1810001 2.7626543e-39
-0.20583144 0.031493336 1.1810001 2.5797008e-39
-0.21033049 0.034867622 1.1810001 2.6711902e-39
-0.20808096 0.034867622 1.1810001 2.8559233e-39
-0.20583144 0.034867622 1.1810001 2.7647899e-39
-0.20808096 0.037117146 1.1810001 2.8573555e-39
-0.20583144 0.037117146 1.1810001 2.8569659e-39
-0.20808096 0.040491432 1.1810001 3.2250506e-39
-0.20583144 0.040491432 1.1810001 2.8565918e-39
-0.21145526 0.043865718 1.1810001 2.8566338e-39
-0.20808096 0.043865718 1.1810001 3.2246834e-39
-0.20583144 0.043865718 1.1810001 2.8566072e-39
-0.26206955 0.046115242 1.1810001 1.6296231e-38
-0.25982001 0.046115242 1.1810001 1.1244118e-38
-0.20808096 0.046115242 1.1810001 3.0392384e-39
-0.20583144 0.046115242 1.1810001 2.9473889e-39
-0.26544383 0.05061429 1.1810001 7.2691783e-39
-0.26206955 0.048364766 1.1810001 8.2241114e-39
-0.21033049 0.05061429 1.1810001 2.9470666e-39
-0.20808096 0.049489528 1.1810001 3.1307306e-39
-0.20583144 0.049489528 1.1810001 2.9492008e-39
-0.27331716 0.052863814 1.1810001 1.7466709e-39
-0.27106765 0.052863814 1.1810001 2.9398373e-39
-0.2665686 0.052863814 1.1810001 4.8676793e-39
-0.21707906 0.052863814 1.1810001 2.8551877e-39
-0.21482953 0.052863814 1.1810001 2.4878457e-39
-0.21145526 0.052863814 1.1810001 2.4875108e-39
-0.20808096 0.052863814 1.1810001 3.3140288e-39
-0.20583144 0.052863814 1.1810001 2.9473931e-39
-0.21707906 0.055113338 1.1810001 2.7626263e-39
-0.21482953 0.055113338 1.1810001 2.2119791e-39
-0.49995717 -0.2178143 1.1850001 1.9350488e-39
-0.49770004 -0.2178143 1.1850001 2.2144832e-39
-0.49485052 -0.21628478 1.189 2.9495287e-39
-0.4954429 -0.21555716 1.1850001 2.4906847e-39
-0.49062479 -0.21366002 1.187 3.4044126e-39
-0.49092859 -0.21104287 1.1850001 2.4856863e-39
-0.48867145 -0.21104287 1.1850001 2.7633592e-39
-0.48579147 -0.21175525 1.189 2.3938732e-39
-0.48826131 -0.20850065 1.1876668 1.6606242e-39
-0.48579147 -0.20835811 1.189 1.3808143e-39
-0.48846638 -0.20525366 1.1863334 1.012731e-39
-0.49092859 -0.2020143 1.1850001 5.5356334e-40
-0.48836383 -0.20235525 1.187 3.6844901e-40
-0.48579147 -0.2026962 1.189 8.2762649e-40
-0.49092859 -0.19975716 1.1850001 8.2800905e-40
-0.48826131 -0.19945177 1.1876668 7.3542806e-40
-0.48579147 -0.19816668 1.189 1.0112835e-39
-0.4954429 -0.19524287 1.1850001 4.2284083e-39
-0.49288577 -0.19557239 1.187 2.2962601e-39
-0.49062479 -0.19670096 1.187 1.2860739e-39
-0.48867145 -0.19750002 1.1850001 7.3542526e-40
-0.4954429 -0.19298573 1.1850001 7.5445223e-39
-0.49288577 -0.19331145 1.187 3.3103995e-39
-0.49032098 -0.19363716 1.189 2.1129493e-39
-0.49711528 -0.19137239 1.189 7.1818354e-39
-0.4933407 -0.19061749 1.189 3.1288907e-39
-0.49032098 -0.19024001 1.189 2.2055191e-39
-0.48805621 -0.19024001 1.189 1.5619545e-39
-0.48579147 -0.18910763 1.189 8.2762089e-40
-0.49619529 -0.18771908 1.1850002 7.5463229e-39
-0.49318576 -0.18734287 1.1850001 3.9629491e-39
-0.49092859 -0.1862143 1.1850001 4.0523001e-39
-0.48836383 -0.18652859 1.187 3.3133002e-39
-0.48579147 -0.18684287 1.189 2.5717778e-39
-0.49092859 -0.18395716 1.1850001 5.1629272e-39
-0.48836383 -0.18426764 1.187 4.7030323e-39
-0.48579147 -0.18457811 1.189 4.3324617e-39
-0.49995717 -0.16815716 1.1850001 2.5739821e-39
-0.49657148 -0.16815716 1.1850001 4.4178723e-39
-0.49485052 -0.16872478 1.189 5.8083457e-39
-0.49995717 -0.16590001 1.1850001 2.7562125e-39
-0.49657148 -0.16590001 1.1850001 4.6994576e-39
-0.49371815 -0.16646001 1.189 6.2646393e-39
-0.49032098 -0.16646001 1.189 5.3455781e-39
-0.49995717 -0.16364287 1.1850001 3.0378105e-39
-0.49657148 -0.16364287 1.1850001 5.1600504e-39
-0.49371815 -0.16419525 1.189 5.8972735e-39
-0.49032098 -0.16419525 1.189 5.0718513e-39
-0.49995717 -0.16138573 1.1850001 3.3169127e-39
-0.49657148 -0.16025716 1.1850001 6.1681151e-39
-0.49371815 -0.1607981 1.189 5.8972777e-39
-0.49032098 -0.15966572 1.189 5.9916103e-39
-0.49657148 -0.15687144 1.1850001 8.1056414e-39
-0.49371815 -0.15740097 1.189 7.1887256e-39
-0.49032098 -0.15740097 1.189 7.2798422e-39
-0.49995717 -0.1546143 1.1850001 7.1866222e-39
-0.49657148 -0.1546143 1.1850001 7.3713204e-39
-0.49288577 -0.15487525 1.187 7.0979747e-39
-0.49032098 -0.1551362 1.189 7.372419e-39
-0.49995717 -0.15122858 1.1850001 6.0806432e-39
-0.49657148 -0.15122858 1.1850001 5.6207104e-39
-0.49288577 -0.15148382 1.187 5.9905663e-39
-0.49032098 -0.15173906 1.189 8.5641379e-39
-0.49995717 -0.14784287 1.1850001 4.9732391e-39
-0.49657148 -0.14784287 1.1850001 3.0392454e-39
-0.49288577 -0.14809239 1.187 3.2172173e-39
-0.49995717 -0.14558573 1.1850001 7.0922756e-39
-0.49657148 -0.14558573 1.1850001 5.1560959e-39
-0.49371815 -0.14607716 1.189 4.6937711e-39
-0.49995717 -0.14220001 1.1850001 9.3974718e-39
-0.49698955 -0.14231905 1.186 7.6496981e-39
-0.49485052 -0.14268002 1.189 4.429412e-39
-0.49995717 -0.1388143 1.1850001 9.6726182e-39
-0.49740767 -0.13904858 1.187 9.3041818e-39
-0.49995717 -0.13655715 1.1850001 9.3042028e-39
-0.49740767 -0.13678762 1.187 9.0293844e-39
-0.49938002 -0.13475335 1.189 8.8453701e-39
-0.20540002 -0.028214287 1.1850001 1.6570102e-39
-0.20878573 -0.025957145 1.1850001 1.0130687e-39
-0.20652859 -0.025957145 1.1850001 1.1963796e-39
-0.20878573 -0.02257143 1.1850001 9.2122762e-40
-0.20652859 -0.02257143 1.1850001 1.0119869e-39
-0.21104287 -0.019185716 1.1850001 7.3683777e-40
-0.20878573 -0.019185716 1.1850001 9.1943256e-40
-0.20652859 -0.019185716 1.1850001 9.1943256e-40
-0.21104287 -0.016928572 1.1850001 7.3576157e-40
-0.20878573 -0.016928572 1.1850001 9.1943256e-40
-0.20652859 -0.016928572 1.1850001 8.2723973e-40
-0.21330002 -0.012414287 1.1850001 1.6552194e-39
-0.21104287 -0.013542859 1.1850001 1.1945915e-39
-0.20878573 -0.013542859 1.1850001 1.0112793e-39
-0.20652859 -0.01467143 1.1850001 1.0112695e-39
-0.21330002 -0.010157144 1.1850001 2.8494606e-39
-0.21104287 -0.010157144 1.1850001 2.4846283e-39
-0.20878573 -0.010157144 1.1850001 2.1129787e-39
-0.21402001 -0.0079266671 1.189 4.054105e-39
-0.21104287 -0.0079000005 1.1850001 3.5981631e-39
-0.2178143 -0.0056428574 1.1850001 4.3332352e-39
-0.21429241 -0.0048968261 1.1863334 3.9647918e-39
-0.21104287 -0.0056428574 1.1850001 3.8733403e-39
-0.2178143 -0.0011285715 1.1850001 4.0523099e-39
-0.21330002 -0.0011285715 1.1850001 3.869355e-39
-0.2178143 0.0011285715 1.1850001 4.0519274e-39
-0.2178143 0.0056428574 1.1850001 3.408702e-39
-0.21405241 0.0048904764 1.1850002 3.5931016e-39
-0.21104287 0.0056428574 1.1850001 3.4101579e-39
-0.2178143 0.0079000005 1.1850001 3.3161546e-39
-0.21442859 0.0079000005 1.1850001 3.6838581e-39
-0.21104287 0.0079000005 1.1850001 3.5920352e-39
-0.21442859 0.010157144 1.1850001 3.7746076e-39
-0.21104287 0.010157144 1.1850001 3.7753419e-39
-0.2178143 0.021442859 1.1850001 3.0366908e-39
-0.2178143 0.025957145 1.1850001 2.9459666e-39
-0.2178143 0.028214287 1.1850001 2.5789763e-39
-0.21555716 0.028214287 1.1850001 2.2116273e-39
-0.21818191 0.031655241 1.187 2.669723e-39
-0.21442859 0.031600002 1.1850001 2.2098323e-39
-0.2178143 0.034985717 1.1850001 2.6686286e-39
-0.21442859 0.034985717 1.1850001 2.484966e-39
-0.21442859 0.03724286 1.1850001 2.5793322e-39
-0.21104287 0.03724286 1.1850001 2.7659095e-39
-0.21442857 0.040628571 1.1850001 2.6722552e-39
-0.21104287 0.040628575 1.1850001 3.0414188e-39
-0.26610956 0.044162858 1.189 1.4636672e-38
-0.26295716 0.04401429 1.1850001 9.2757607e-39
-0.21555716 0.04401429 1.1850001 2.4885575e-39
-0.27063906 0.046427622 1.189 1.7075542e-38
-0.26837429 0.046427622 1.189 2.3205172e-38
-0.26521429 0.046271432 1.1850001 1.9818709e-38
-0.2208143 0.046427622 1.189 1.9354118e-39
-0.21741715 0.046427622 1.189 2.3967389e-39
-0.21402001 0.046427622 1.189 2.5804211e-39
-0.21104287 0.046271432 1.1850001 2.8552241e-39
-0.27470574 0.049739048 1.187 3.5892312e-39
-0.2718429 0.04939016 1.1876668 8.7748441e-39
-0.26860002 0.049657144 1.1850001 1.2085965e-38
-0.26521429 0.048528574 1.1850001 1.2350047e-38
-0.22007145 0.050785717 1.1850001 2.7644452e-39
-0.21730447 0.049335562 1.1863334 2.6722566e-39
-0.21405241 0.050033338 1.1850002 2.7633788e-39
-0.21104287 0.048528574 1.1850001 2.8548836e-39
-0.2697286 0.053042859 1.1850001 3.872564e-39
-0.22007145 0.053042859 1.1850001 2.6718754e-39
-0.22007145 0.055300005 1.1850001 2.6704251e-39
-0.48969814 -0.21246763 1.1930001 2.5789847e-39
-0.48742574 -0.20565049 1.1930001 1.0113059e-39
-0.48742574 -0.20110573 1.1930001 9.1909625e-40
-0.48515338 -0.20224193 1.1930001 8.2762229e-40
-0.48515338 -0.19883335 1.1930001 8.2833415e-40
-0.48288098 -0.19883335 1.1930001 6.4465335e-40
-0.48969814 -0.19656096 1.1930001 1.2864158e-39
-0.48742574 -0.19656096 1.1930001 1.1027546e-39
-0.48515338 -0.19656096 1.1930001 9.2016964e-40
