# .PCD v0.7 - Point Cloud Data file format
VERSION 0.7
FIELDS x y z rgb
SIZE 4 4 4 4
TYPE F F F F
COUNT 1 1 1 1
WIDTH 1029
HEIGHT 1
VIEWPOINT 0 0 0 1 0 0 0
POINTS 1029
DATA ascii
-0.14117144 -0.0094114291 1.098 1.8066055e-38
-0.13870001 -0.0093857152 1.095 1.8250087e-38
-0.13661429 -0.0093857152 1.095 1.8436986e-38
-0.13403715 -0.0093514295 1.0910001 1.8711786e-38
-0.21402001 -0.0079266671 1.189 4.054105e-39
-0.21104287 -0.0079000005 1.1850001 3.5981631e-39
-0.20808096 -0.007873334 1.1810001 3.131434e-39
-0.2051343 -0.0078466674 1.177 2.4821088e-39
-0.20220287 -0.0078200009 1.1730001 1.8403449e-39
-0.19928668 -0.0077933338 1.169 1.5623343e-39
-0.19706002 -0.0077933338 1.169 1.2871781e-39
-0.19483335 -0.0077933338 1.169 1.1024225e-39
-0.19194764 -0.0077666673 1.1650001 8.2762089e-40
-0.18972859 -0.0077666673 1.1650001 4.5955023e-40
-0.18750954 -0.0077666673 1.1650001 9.3713236e-41
-0.18401811 -0.0077133337 1.1570001 5.7911728e-39
-0.18071429 -0.007666667 1.1500001 1.1524869e-38
-0.17852382 -0.007666667 1.1500001 1.4764299e-38
-0.17572001 -0.0076400004 1.146 1.7976021e-38
-0.17293143 -0.0076133339 1.1420001 1.7607233e-38
-0.17075621 -0.0076133339 1.1420001 1.7146977e-38
-0.16799049 -0.0075866673 1.138 1.7237737e-38
-0.16524 -0.0075600003 1.1340001 1.7238449e-38
-0.16308001 -0.0075600003 1.1340001 1.7605786e-38
-0.15992668 -0.007513334 1.1270001 1.7881652e-38
-0.15722001 -0.007486667 1.123 1.7514668e-38
-0.15466668 -0.0074666673 1.12 1.7146243e-38
-0.15158001 -0.0074200006 1.113 1.6777817e-38
-0.14892286 -0.0073933336 1.1090001 1.6410842e-38
-0.14628096 -0.007366667 1.105 1.6868234e-38
-0.14326286 -0.0073200003 1.098 1.7329212e-38
-0.14078572 -0.0073000006 1.095 1.7696201e-38
-0.13870001 -0.0073000006 1.095 1.7974579e-38
-0.13611525 -0.0072733336 1.0910001 1.797781e-38
-0.13366859 -0.0072533339 1.0880001 1.7884904e-38
-0.12785715 -0.0071600005 1.074 1.8436639e-38
-0.12546001 -0.0071400004 1.0710001 1.8895815e-38
-0.12307429 -0.0071200007 1.0680001 1.935964e-38
-0.12138001 -0.0071400004 1.0710001 1.7799139e-38
-0.11934001 -0.0071400004 1.0710001 1.6114756e-38
-0.2178143 -0.0056428574 1.1850001 4.3332352e-39
-0.21555716 -0.0056428574 1.1850001 4.148816e-39
-0.21402001 -0.0056619053 1.189 3.9662366e-39
-0.21104287 -0.0056428574 1.1850001 3.8733403e-39
-0.20808096 -0.00562381 1.1810001 3.8736654e-39
-0.20583144 -0.00562381 1.1810001 3.4083544e-39
-0.20220287 -0.0055857147 1.1730001 2.9470372e-39
-0.19928668 -0.0055666668 1.169 2.8541367e-39
-0.19706002 -0.0055666668 1.169 2.7579964e-39
-0.19416668 -0.0055476194 1.1650001 2.4857171e-39
-0.19194764 -0.0055476194 1.1650001 2.2055233e-39
-0.18972859 -0.0055476194 1.1650001 1.1949503e-39
-0.18686573 -0.005528572 1.161 2.759535e-40
-0.18401811 -0.0055095241 1.1570001 6.0806782e-39
-0.18071429 -0.0054761907 1.1500001 1.1989791e-38
-0.17852382 -0.0054761907 1.1500001 1.4941154e-38
-0.17572001 -0.0054571433 1.146 1.7881674e-38
-0.17293143 -0.0054380954 1.1420001 1.7422487e-38
-0.17075621 -0.0054380954 1.1420001 1.696259e-38
-0.16799049 -0.005419048 1.138 1.7054424e-38
-0.16524 -0.0054000001 1.1340001 1.7238088e-38
-0.16308001 -0.0054000001 1.1340001 1.7422829e-38
-0.15992668 -0.0053666672 1.1270001 1.7699769e-38
-0.15680002 -0.0053333337 1.12 1.7422467e-38
-0.15411429 -0.0053142859 1.1160001 1.7236278e-38
-0.15158001 -0.0053000003 1.113 1.7236987e-38
-0.14892286 -0.0052809529 1.1090001 1.7145166e-38
-0.14628096 -0.005261905 1.105 1.7237014e-38
-0.14326286 -0.0052285716 1.098 1.7421048e-38
-0.14078572 -0.005214286 1.095 1.7329575e-38
-0.13819334 -0.0051952386 1.0910001 1.7239536e-38
-0.13611525 -0.0051952386 1.0910001 1.742321e-38
-0.13330001 -0.005166667 1.085 1.7606165e-38
-0.13074954 -0.0051476192 1.0810001 1.7883466e-38
-0.12785715 -0.0051142862 1.074 1.8161128e-38
-0.12546001 -0.0051000002 1.0710001 1.8622101e-38
-0.12307429 -0.0050857146 1.0680001 1.9085552e-38
-0.12104001 -0.0050857146 1.0680001 1.733132e-38
-0.11900572 -0.0050857146 1.0680001 1.5657714e-38
-0.11697143 -0.0050857146 1.0680001 7.9096922e-39
-0.21707906 -0.003374286 1.1810001 4.0555567e-39
-0.21482953 -0.003374286 1.1810001 3.9633471e-39
-0.21330002 -0.0033857145 1.1850001 3.8718787e-39
-0.21033049 -0.003374286 1.1810001 4.2392291e-39
-0.20808096 -0.003374286 1.1810001 4.5143559e-39
-0.2051343 -0.0033628573 1.177 4.3303051e-39
-0.20220287 -0.0033514288 1.1730001 4.0540882e-39
-0.19928668 -0.0033400003 1.169 4.1488005e-39
-0.19706002 -0.0033400003 1.169 4.2381347e-39
-0.19416668 -0.0033285716 1.1650001 3.8761849e-39
-0.19194764 -0.0033285716 1.1650001 3.4991207e-39
-0.18907715 -0.0033171431 1.161 1.9299888e-39
-0.18622191 -0.0033057146 1.1570001 3.7316998e-40
-0.18338192 -0.0032942859 1.153 6.4498167e-39
-0.18071429 -0.0032857144 1.1500001 1.2447177e-38
-0.17852382 -0.0032857144 1.1500001 1.5129131e-38
-0.17572001 -0.0032742859 1.146 1.7700157e-38
-0.17293143 -0.0032628574 1.1420001 1.723846e-38
-0.17075621 -0.0032628574 1.1420001 1.6778919e-38
-0.16799049 -0.0032514287 1.138 1.6962945e-38
-0.16524 -0.0032400002 1.1340001 1.714661e-38
-0.16207334 -0.0032200003 1.1270001 1.7330995e-38
-0.15935905 -0.0032085716 1.123 1.742283e-38
-0.15680002 -0.0032000002 1.12 1.7422473e-38
-0.15411429 -0.0031885717 1.1160001 1.7329918e-38
-0.15158001 -0.0031800002 1.113 1.7605423e-38
-0.14892286 -0.0031685717 1.1090001 1.7880575e-38
-0.14628096 -0.003157143 1.105 1.7697269e-38
-0.14326286 -0.0031371431 1.098 1.7421402e-38
-0.14078572 -0.0031285717 1.095 1.6961865e-38
-0.13819334 -0.0031171432 1.0910001 1.6410857e-38
-0.13574097 -0.0031085717 1.0880001 1.6869683e-38
-0.13330001 -0.0031000001 1.085 1.7237744e-38
-0.13038668 -0.0030800002 1.0780001 1.7513609e-38
-0.12785715 -0.0030685717 1.074 1.7791269e-38
-0.12510858 -0.0030514288 1.0680001 1.8254035e-38
-0.12261334 -0.0030400001 1.064 1.8714264e-38
-0.12058667 -0.0030400001 1.064 1.6966853e-38
-0.11856001 -0.0030400001 1.064 1.5194953e-38
-0.11653334 -0.0030400001 1.064 7.6234266e-39
-0.33156002 -0.0010800001 1.1340001 4.6061802e-40
-0.2178143 -0.0011285715 1.1850001 4.0523099e-39
-0.21482953 -0.001124762 1.1810001 3.9615478e-39
-0.21330002 -0.0011285715 1.1850001 3.869355e-39
-0.21033049 -0.001124762 1.1810001 4.0537449e-39
-0.20808096 -0.001124762 1.1810001 4.2370501e-39
-0.20583144 -0.001124762 1.1810001 4.0544483e-39
-0.20220287 -0.001117143 1.1730001 3.9636918e-39
-0.19928668 -0.0011133334 1.169 3.9644107e-39
-0.19706002 -0.0011133334 1.169 4.0573434e-39
-0.19416668 -0.0011095239 1.1650001 4.1488412e-39
-0.19194764 -0.0011095239 1.1650001 4.2395528e-39
-0.18907715 -0.0011057144 1.161 3.1288683e-39
-0.18622191 -0.0011019048 1.1570001 2.112662e-39
-0.18338192 -0.0010980953 1.153 6.5463185e-39
-0.18071429 -0.0010952381 1.1500001 1.1076463e-38
-0.17852382 -0.0010952381 1.1500001 1.3655819e-38
-0.17572001 -0.0010914287 1.146 1.6326215e-38
-0.17293143 -0.0010876191 1.1420001 1.6782512e-38
-0.17075621 -0.0010876191 1.1420001 1.7329214e-38
-0.16799049 -0.0010838096 1.138 1.7330283e-38
-0.16524 -0.0010800001 1.1340001 1.7329562e-38
-0.16207334 -0.0010733334 1.1270001 1.7237724e-38
-0.15992668 -0.0010733334 1.1270001 1.7146252e-38
-0.15680002 -0.0010666668 1.12 1.7145896e-38
-0.15466668 -0.0010666668 1.12 1.7146977e-38
-0.15158001 -0.00106 1.113 1.7329935e-38
-0.14892286 -0.0010561906 1.1090001 1.7513243e-38
-0.14588381 -0.0010495238 1.102 1.7422121e-38
-0.14287144 -0.0010428572 1.095 1.7421755e-38
-0.14027144 -0.0010390477 1.0910001 1.7053689e-38
-0.13781334 -0.0010361905 1.0880001 1.6776759e-38
-0.13536668 -0.0010333334 1.085 1.6961157e-38
-0.13280858 -0.0010295239 1.0810001 1.7237022e-38
-0.12990287 -0.0010228573 1.074 1.7420334e-38
-0.12750001 -0.0010200001 1.0710001 1.7603289e-38
-0.12510858 -0.0010171429 1.0680001 1.806713e-38
-0.12261334 -0.0010133334 1.064 1.8529517e-38
-0.12024667 -0.0010104763 1.0610001 1.6687046e-38
-0.11856001 -0.0010133334 1.064 1.4929853e-38
-0.11653334 -0.0010133334 1.064 7.4523126e-39
-0.33372003 0.0010800001 1.1340001 4.6026629e-40
-0.33068287 0.0010771429 1.131 5.5209338e-40
-0.32852858 0.0010771429 1.131 5.5209618e-40
-0.2178143 0.0011285715 1.1850001 4.0519274e-39
-0.21482953 0.001124762 1.1810001 3.9604576e-39
-0.21258001 0.001124762 1.1810001 3.7771482e-39
-0.21033049 0.001124762 1.1810001 3.8693466e-39
-0.20808096 0.001124762 1.1810001 3.8697025e-39
-0.2051343 0.0011209524 1.177 3.8696997e-39
-0.20220287 0.001117143 1.1730001 3.7785873e-39
-0.19928668 0.0011133334 1.169 3.871506e-39
-0.19706002 0.0011133334 1.169 3.8711571e-39
-0.19416668 0.0011095239 1.1650001 4.4221799e-39
-0.19194764 0.0011095239 1.1650001 4.8795371e-39
-0.18972859 0.0011095239 1.1650001 4.4174645e-39
-0.18622191 0.0011019048 1.1570001 3.8679201e-39
-0.18338192 0.0010980953 1.153 6.7295635e-39
-0.18071429 0.0010952381 1.1500001 9.5908945e-39
-0.17852382 0.0010952381 1.1500001 1.2275013e-38
-0.17572001 0.0010914287 1.146 1.4936828e-38
-0.17293143 0.0010876191 1.1420001 1.6419133e-38
-0.17075621 0.0010876191 1.1420001 1.778805e-38
-0.16799049 0.0010838096 1.138 1.7607244e-38
-0.16524 0.0010800001 1.1340001 1.7422128e-38
-0.16207334 0.0010733334 1.1270001 1.7143742e-38
-0.15992668 0.0010733334 1.1270001 1.6777117e-38
-0.15680002 0.0010666668 1.12 1.6867519e-38
-0.15466668 0.0010666668 1.12 1.6870032e-38
-0.15158001 0.00106 1.113 1.7054063e-38
-0.14892286 0.0010561906 1.1090001 1.7146984e-38
-0.14588381 0.0010495238 1.102 1.7239547e-38
-0.14287144 0.0010428572 1.095 1.7330655e-38
-0.14027144 0.0010390477 1.0910001 1.7238093e-38
-0.13781334 0.0010361905 1.0880001 1.7145903e-38
-0.13536668 0.0010333334 1.085 1.7144473e-38
-0.13244002 0.0010266667 1.0780001 1.7144106e-38
-0.12990287 0.0010228573 1.074 1.7235932e-38
-0.12666668 0.0010133334 1.064 1.7329209e-38
-0.12464001 0.0010133334 1.064 1.7881304e-38
-0.12226763 0.0010104763 1.0610001 1.8343329e-38
-0.11990667 0.0010076191 1.0580001 1.6505879e-38
-0.11789144 0.0010076191 1.0580001 1.4551389e-38
-0.11620477 0.0010104763 1.0610001 7.3472082e-39
-0.33283716 0.0032314288 1.131 6.4321982e-40
-0.33068287 0.0032314288 1.131 6.4392607e-40
-0.32852858 0.0032314288 1.131 6.4393308e-40
-0.21482953 0.003374286 1.1810001 3.684577e-39
-0.21330002 0.0033857145 1.1850001 3.6853001e-39
-0.21033049 0.003374286 1.1810001 3.5938289e-39
-0.20808096 0.003374286 1.1810001 3.5023549e-39
-0.20583144 0.003374286 1.1810001 3.4105208e-39
-0.20220287 0.0033514288 1.1730001 3.4098132e-39
-0.19928668 0.0033400003 1.169 3.5938527e-39
-0.19706002 0.0033400003 1.169 3.7768062e-39
-0.19416668 0.0033285716 1.1650001 4.1445056e-39
-0.19194764 0.0033285716 1.1650001 4.5107671e-39
-0.18972859 0.0033285716 1.1650001 4.2352565e-39
-0.18622191 0.0033057146 1.1570001 4.0490603e-39
-0.18401811 0.0033057146 1.1570001 5.1571707e-39
-0.18071429 0.0032857144 1.1500001 6.2614429e-39
-0.17852382 0.0032857144 1.1500001 7.1942411e-39
-0.17572001 0.0032742859 1.146 8.0229648e-39
-0.17293143 0.0032628574 1.1420001 1.0422219e-38
-0.17075621 0.0032628574 1.1420001 1.2725636e-38
-0.16799049 0.0032514287 1.138 1.447768e-38
-0.16582286 0.0032514287 1.138 1.6322266e-38
-0.16308001 0.0032400002 1.1340001 1.6778556e-38
-0.15992668 0.0032200003 1.1270001 1.7236656e-38
-0.15722001 0.0032085716 1.123 1.7145536e-38
-0.15466668 0.0032000002 1.12 1.7053699e-38
-0.15158001 0.0031800002 1.113 1.7146609e-38
-0.14892286 0.0031685717 1.1090001 1.7148068e-38
-0.14588381 0.0031485716 1.102 1.733212e-38
-0.14287144 0.0031285717 1.095 1.7515061e-38
-0.14027144 0.0031171432 1.0910001 1.7422495e-38
-0.13781334 0.0031085717 1.0880001 1.7423571e-38
-0.13486762 0.0030885716 1.0810001 1.7421419e-38
-0.13244002 0.0030800002 1.0780001 1.7510366e-38
-0.12990287 0.0030685717 1.074 1.7421024e-38
-0.12666668 0.0030400001 1.064 1.7330995e-38
-0.12428858 0.0030314287 1.0610001 1.7699424e-38
-0.12192191 0.0030228572 1.0580001 1.8161089e-38
-0.11956667 0.0030142858 1.0550001 1.5764372e-38
-0.11755715 0.0030142858 1.0550001 1.3360754e-38
-0.11554763 0.0030142858 1.0550001 6.7154833e-39
-0.11321525 0.0030057144 1.052 9.2225057e-41
-0.33499146 0.0053857146 1.131 1.1960489e-39
-0.33372003 0.0054000001 1.1340001 8.2869008e-40
-0.33068287 0.0053857146 1.131 7.3576297e-40
-0.32852858 0.0053857146 1.131 6.4428901e-40
-0.2178143 0.0056428574 1.1850001 3.408702e-39
-0.21555716 0.0056428574 1.1850001 3.5009032e-39
-0.21330002 0.0056428574 1.1850001 3.5931044e-39
-0.21104287 0.0056428574 1.1850001 3.4101579e-39
-0.20808096 0.00562381 1.1810001 3.1339382e-39
-0.20583144 0.00562381 1.1810001 3.0431817e-39
-0.20220287 0.0055857147 1.1730001 2.9510028e-39
-0.19996859 0.0055857147 1.1730001 3.3169253e-39
-0.19706002 0.0055666668 1.169 3.5927821e-39
-0.19416668 0.0055476194 1.1650001 3.8686389e-39
-0.19194764 0.0055476194 1.1650001 4.1452174e-39
-0.18972859 0.0055476194 1.1650001 4.1466481e-39
-0.18686573 0.005528572 1.161 4.1430622e-39
-0.18401811 0.0055095241 1.1570001 3.5881046e-39
-0.18071429 0.0054761907 1.1500001 2.9510435e-39
-0.17790286 0.0054571433 1.146 2.0330949e-39
-0.17572001 0.0054571433 1.146 1.1215769e-39
-0.17293143 0.0054380954 1.1420001 4.4283918e-39
-0.17075621 0.0054380954 1.1420001 7.658445e-39
-0.16858096 0.0054380954 1.1420001 1.1438435e-38
-0.16582286 0.005419048 1.138 1.5116891e-38
-0.16207334 0.0053666672 1.1270001 1.6411212e-38
-0.15992668 0.0053666672 1.1270001 1.7696194e-38
-0.15680002 0.0053333337 1.12 1.7516113e-38
-0.15466668 0.0053333337 1.12 1.7238809e-38
-0.15158001 0.0053000003 1.113 1.7238088e-38
-0.14892286 0.0052809529 1.1090001 1.7147343e-38
-0.14628096 0.005261905 1.105 1.7425376e-38
-0.14287144 0.005214286 1.095 1.7698365e-38
-0.14027144 0.0051952386 1.0910001 1.7697281e-38
-0.13743334 0.005166667 1.085 1.7606884e-38
-0.13486762 0.0051476192 1.0810001 1.7699081e-38
-0.13244002 0.0051333336 1.0780001 1.7789467e-38
-0.12990287 0.0051142862 1.074 1.7514664e-38
-0.12630953 0.0050523812 1.0610001 1.7239169e-38
-0.12393715 0.0050380956 1.0580001 1.7607598e-38
-0.1215762 0.0050238101 1.0550001 1.7974553e-38
-0.11922667 0.0050095241 1.052 1.5121885e-38
-0.11722287 0.0050095241 1.052 1.2158639e-38
-0.11478096 0.0049904766 1.0480001 6.153344e-39
-0.11246191 0.0049761906 1.0450001 9.4017318e-41
-0.11047143 0.0049761906 1.0450001 8.3338863e-40
-0.10816953 0.0049619051 1.0420001 1.5673453e-39
-0.33810002 0.007513334 1.1270001 3.0367469e-39
-0.33595335 0.007513334 1.1270001 1.8457399e-39
-0.33499146 0.0075400006 1.131 1.4747952e-39
-0.33372003 0.0075600003 1.1340001 1.1985502e-39
-0.33068287 0.0075400006 1.131 1.4726007e-39
-0.32852858 0.0075400006 1.131 1.7463122e-39
-0.32637429 0.0075400006 1.131 2.2083581e-39
-0.2178143 0.0079000005 1.1850001 3.3161546e-39
-0.21555716 0.0079000005 1.1850001 3.5920184e-39
-0.21330002 0.0079000005 1.1850001 3.867892e-39
-0.21104287 0.0079000005 1.1850001 3.5920352e-39
-0.20808096 0.007873334 1.1810001 3.3147407e-39
-0.20583144 0.007873334 1.1810001 3.1339438e-39
-0.20289239 0.0078466674 1.177 2.9517287e-39
-0.19996859 0.0078200009 1.1730001 3.2254626e-39
-0.19706002 0.0077933338 1.169 3.5002348e-39
-0.19483335 0.0077933338 1.169 3.7768006e-39
-0.19194764 0.0077666673 1.1650001 4.1459321e-39
-0.18972859 0.0077666673 1.1650001 4.0540924e-39
-0.18686573 0.0077400007 1.161 4.0530344e-39
-0.18401811 0.0077133337 1.1570001 3.8679453e-39
-0.18071429 0.007666667 1.1500001 3.7779049e-39
-0.17852382 0.007666667 1.1500001 3.2268933e-39
-0.17572001 0.0076400004 1.146 2.7666284e-39
-0.17353715 0.0076400004 1.146 4.3328429e-39
-0.17075621 0.0076133339 1.1420001 5.8987673e-39
-0.16858096 0.0076133339 1.1420001 7.288194e-39
-0.16582286 0.0075866673 1.138 8.7651401e-39
-0.16207334 0.007513334 1.1270001 1.1252994e-38
-0.15935905 0.007486667 1.123 1.3835517e-38
-0.15680002 0.0074666673 1.12 1.5490717e-38
-0.15411429 0.0074400003 1.1160001 1.7055502e-38
-0.15158001 0.0074200006 1.113 1.7146613e-38
-0.14892286 0.0073933336 1.1090001 1.7145185e-38
-0.14628096 0.007366667 1.105 1.7330657e-38
-0.14287144 0.0073000006 1.095 1.7421415e-38
-0.14027144 0.0072733336 1.0910001 1.7422129e-38
-0.13743334 0.0072333338 1.085 1.7515048e-38
-0.13486762 0.0072066672 1.0810001 1.7515054e-38
-0.13244002 0.0071866671 1.0780001 1.7515044e-38
-0.12990287 0.0071600005 1.074 1.7329927e-38
-0.12595239 0.0070533338 1.0580001 1.7145908e-38
-0.12358572 0.0070333336 1.0550001 1.7515414e-38
-0.12123048 0.007013334 1.052 1.7885235e-38
-0.11877334 0.0069866669 1.0480001 1.5026823e-38
-0.11677715 0.0069866669 1.0480001 1.2161508e-38
-0.11445239 0.0069666672 1.0450001 6.1630242e-39
-0.11213905 0.0069466671 1.0420001 9.2223656e-41
-0.10952001 0.0069066673 1.036 7.3868748e-40
-0.10723525 0.0068866671 1.033 1.3822408e-39
-0.10200001 0.0068000006 1.0200001 6.4610369e-40
-0.33930004 0.0096942866 1.131 1.6606312e-39
-0.33714575 0.0096942866 1.131 2.1194429e-39
-0.33499146 0.0096942866 1.131 1.8428518e-39
-0.33372003 0.0097200004 1.1340001 1.4744238e-39
-0.33068287 0.0096942866 1.131 2.1176212e-39
-0.32852858 0.0096942866 1.131 2.7615571e-39
-0.32724002 0.0097200004 1.1340001 4.0537224e-39
-0.32508001 0.0097200004 1.1340001 5.249386e-39
-0.21555716 0.010157144 1.1850001 3.590931e-39
-0.21330002 0.010157144 1.1850001 4.0501197e-39
-0.21104287 0.010157144 1.1850001 3.7753419e-39
-0.20808096 0.010122858 1.1810001 3.4072866e-39
-0.20583144 0.010122858 1.1810001 3.2254121e-39
-0.20289239 0.010088572 1.177 2.9499098e-39
-0.19996859 0.010054287 1.1730001 3.1321487e-39
-0.19706002 0.010020001 1.169 3.3161784e-39
-0.19416668 0.0099857152 1.1650001 3.6845966e-39
-0.19194764 0.0099857152 1.1650001 4.0530162e-39
-0.18907715 0.0099514294 1.161 4.0537365e-39
-0.18622191 0.0099171437 1.1570001 3.9608346e-39
-0.18401811 0.0099171437 1.1570001 4.236711e-39
-0.18071429 0.0098571433 1.1500001 4.5122189e-39
-0.17852382 0.0098571433 1.1500001 4.4218211e-39
-0.17572001 0.0098228576 1.146 4.3299842e-39
-0.17353715 0.0098228576 1.146 4.2381487e-39
-0.17075621 0.0097885719 1.1420001 4.0577302e-39
-0.16799049 0.0097542861 1.138 3.2337456e-39
-0.16524 0.0097200004 1.1340001 2.3215045e-39
-0.16207334 0.0096600009 1.1270001 6.182917e-39
-0.15935905 0.0096257152 1.123 9.9604155e-39
-0.15680002 0.0096000005 1.12 1.3464201e-38
-0.15411429 0.0095657147 1.1160001 1.6866796e-38
-0.15158001 0.0095400009 1.113 1.7056227e-38
-0.14892286 0.0095057152 1.1090001 1.7146267e-38
-0.14628096 0.0094714295 1.105 1.7146266e-38
-0.14287144 0.0093857152 1.095 1.7146263e-38
-0.14027144 0.0093514295 1.0910001 1.7238094e-38
-0.13743334 0.009300001 1.085 1.7329932e-38
-0.13486762 0.0092657153 1.0810001 1.7330295e-38
-0.13244002 0.0092400005 1.0780001 1.7238094e-38
-0.12954001 0.009180001 1.0710001 1.7143742e-38
-0.12595239 0.009068572 1.0580001 1.6962234e-38
-0.12358572 0.0090428581 1.0550001 1.7423215e-38
-0.12123048 0.0090171434 1.052 1.7790531e-38
-0.11843334 0.0089571439 1.0450001 1.5029698e-38
-0.11644287 0.0089571439 1.0450001 1.2156847e-38
-0.11412381 0.0089314291 1.0420001 6.1533398e-39
-0.1118162 0.0089057153 1.039 9.329705e-41
-0.10920286 0.0088542867 1.033 6.4720511e-40
-0.10692382 0.008828572 1.0300001 1.1060155e-39
-0.10424858 0.0087685715 1.023 7.3866366e-40
-0.10200001 0.0087428577 1.0200001 2.7804004e-40
-0.37174669 0.011921906 1.138 5.1629062e-39
-0.36957908 0.011921906 1.138 5.7189345e-39
-0.36741146 0.011921906 1.138 5.2514977e-39
-0.36524382 0.011921906 1.138 4.8777028e-39
-0.36307621 0.011921906 1.138 4.8780657e-39
-0.35964003 0.011880001 1.1340001 4.8680226e-39
-0.35748002 0.011880001 1.1340001 4.6000495e-39
-0.33804002 0.011880001 1.1340001 2.0261613e-39
-0.33499146 0.011848573 1.131 1.4737134e-39
-0.33372003 0.011880001 1.1340001 8.3050756e-40
-0.33068287 0.011848573 1.131 1.1982083e-39
-0.32852858 0.011848573 1.131 1.5677265e-39
-0.32637429 0.011848573 1.131 3.5931535e-39
-0.32422003 0.011848573 1.131 5.6275404e-39
-0.32206574 0.011848573 1.131 6.8246458e-39
-0.31878003 0.011806668 1.1270001 8.0159891e-39
-0.31550956 0.011764763 1.123 6.8174572e-39
-0.31253335 0.011733335 1.12 5.6142504e-39
-0.31040001 0.011733335 1.12 4.1416343e-39
-0.21482953 0.012372382 1.1810001 3.2217828e-39
-0.21258001 0.012372382 1.1810001 3.4054692e-39
-0.21033049 0.012372382 1.1810001 3.2221709e-39
-0.20808096 0.012372382 1.1810001 3.1299795e-39
-0.20583144 0.012372382 1.1810001 2.9484623e-39
-0.20289239 0.012330477 1.177 2.765136e-39
-0.19996859 0.012288572 1.1730001 2.8558813e-39
-0.19706002 0.012246667 1.169 2.9477336e-39
-0.19416668 0.012204763 1.1650001 3.2243331e-39
-0.19194764 0.012204763 1.1650001 3.5005655e-39
-0.18907715 0.012162858 1.161 3.499855e-39
-0.18622191 0.012120953 1.1570001 3.500218e-39
-0.18401811 0.012120953 1.1570001 3.7760874e-39
-0.18071429 0.01204762 1.1500001 4.1430734e-39
-0.17852382 0.01204762 1.1500001 4.3288982e-39
-0.17572001 0.012005715 1.146 4.4236148e-39
-0.17353715 0.012005715 1.146 4.4221897e-39
-0.17075621 0.011963811 1.1420001 4.4211037e-39
-0.16799049 0.011921906 1.138 3.9647862e-39
-0.16582286 0.011921906 1.138 3.594203e-39
-0.16207334 0.011806668 1.1270001 4.8863446e-39
-0.15935905 0.011764763 1.123 6.2675498e-39
-0.15680002 0.011733335 1.12 9.1288836e-39
-0.15411429 0.01169143 1.1160001 1.1992688e-38
-0.15158001 0.01166 1.113 1.392594e-38
-0.14892286 0.011618096 1.1090001 1.5952052e-38
-0.14628096 0.011576192 1.105 1.6778921e-38
-0.14287144 0.011471429 1.095 1.7605077e-38
-0.14027144 0.011429525 1.0910001 1.7421759e-38
-0.13781334 0.011398096 1.0880001 1.7236654e-38
-0.13486762 0.011324762 1.0810001 1.7237371e-38
-0.13194858 0.011251429 1.074 1.7238087e-38
-0.12917715 0.011188572 1.0680001 1.7053697e-38
-0.12630953 0.011115239 1.0610001 1.6962589e-38
-0.12358572 0.011052381 1.0550001 1.742357e-38
-0.12123048 0.011020953 1.052 1.7884877e-38
-0.11843334 0.01094762 1.0450001 1.5118669e-38
-0.11610858 0.010916191 1.0420001 1.2343751e-38
-0.11379524 0.010884763 1.039 6.1626668e-39
-0.11084763 0.010790477 1.0300001 9.2219452e-41
-0.10846286 0.010748572 1.026 6.4576458e-40
-0.10650858 0.010748572 1.026 1.2889662e-39
-0.10394286 0.010685715 1.0200001 1.1964076e-39
-0.10170001 0.010654286 1.0170001 1.1031204e-39
-0.099762864 0.010654286 1.0170001 1.1034623e-39
-0.097825721 0.010654286 1.0170001 1.1045441e-39
-0.37305337 0.014139049 1.1420001 8.4772728e-39
-0.37087813 0.014139049 1.1420001 8.9339419e-39
-0.36870289 0.014139049 1.1420001 7.6500428e-39
-0.36652765 0.014139049 1.1420001 6.2646057e-39
-0.36307621 0.014089525 1.138 5.1550337e-39
-0.35964003 0.014040001 1.1340001 4.048333e-39
-0.35748002 0.014040001 1.1340001 4.0411486e-39
-0.33714575 0.014002858 1.131 1.9314363e-39
-0.33499146 0.014002858 1.131 1.1038406e-39
-0.33283716 0.014002858 1.131 1.8620314e-40
-0.33068287 0.014002858 1.131 2.7660511e-40
-0.32852858 0.014002858 1.131 2.7805265e-40
-0.32637429 0.014002858 1.131 3.1238894e-39
-0.32307336 0.013953335 1.1270001 5.897998e-39
-0.3209267 0.013953335 1.1270001 9.3192598e-39
-0.31680003 0.013866668 1.12 1.2618163e-38
-0.31466669 0.013866668 1.12 1.0509535e-38
-0.31253335 0.013866668 1.12 8.3743222e-39
-0.31040001 0.013866668 1.12 4.6897438e-39
-0.21932667 0.014473334 1.169 3.4966026e-39
-0.21710001 0.014473334 1.169 3.2200129e-39
-0.21487334 0.014473334 1.169 2.8530255e-39
-0.21410193 0.014572382 1.177 2.8515877e-39
-0.21258001 0.014621906 1.1810001 2.7611942e-39
-0.21033049 0.014621906 1.1810001 2.7608424e-39
-0.20808096 0.014621906 1.1810001 2.7622802e-39
-0.20583144 0.014621906 1.1810001 2.6725999e-39
-0.20289239 0.014572382 1.177 2.4885631e-39
-0.19996859 0.014522858 1.1730001 2.4864051e-39
-0.19706002 0.014473334 1.169 2.4885729e-39
-0.19483335 0.014473334 1.169 2.6726181e-39
-0.19194764 0.014423811 1.1650001 2.8559303e-39
-0.18907715 0.014374287 1.161 2.9452547e-39
-0.18686573 0.014374287 1.161 2.9481218e-39
-0.18401811 0.014324763 1.1570001 3.4076552e-39
-0.18118572 0.014275239 1.153 3.776079e-39
-0.17852382 0.014238096 1.1500001 4.1434266e-39
-0.17633334 0.014238096 1.1500001 4.512572e-39
-0.17353715 0.014188573 1.146 4.6058523e-39
-0.17075621 0.014139049 1.1420001 4.698394e-39
-0.16799049 0.014089525 1.138 4.7930881e-39
-0.16582286 0.014089525 1.138 4.8813419e-39
-0.16207334 0.013953335 1.1270001 3.6846148e-39
-0.15935905 0.013903811 1.123 2.4943743e-39
-0.15680002 0.013866668 1.12 4.7910114e-39
-0.15411429 0.013817144 1.1160001 7.1066894e-39
-0.15158001 0.013780001 1.113 1.0886713e-38
-0.14892286 0.013730478 1.1090001 1.4656294e-38
-0.14628096 0.013680954 1.105 1.6412312e-38
-0.14326286 0.013594287 1.098 1.8064266e-38
-0.14027144 0.01350762 1.0910001 1.7607233e-38
-0.13781334 0.013470477 1.0880001 1.7145897e-38
-0.13486762 0.01338381 1.0810001 1.7144457e-38
-0.13194858 0.013297143 1.074 1.7144812e-38
-0.12917715 0.013222858 1.0680001 1.7054049e-38
-0.12595239 0.013099048 1.0580001 1.6870756e-38
-0.12358572 0.013061905 1.0550001 1.7423224e-38
-0.12076953 0.012975239 1.0480001 1.7975639e-38
-0.11843334 0.012938096 1.0450001 1.5216598e-38
-0.11610858 0.012900953 1.0420001 1.2431636e-38
-0.11346667 0.012826667 1.036 6.2451753e-39
-0.11084763 0.012752382 1.0300001 9.2934114e-41
-0.10846286 0.012702858 1.026 7.3831333e-40
-0.10650858 0.012702858 1.026 1.3807933e-39
-0.10394286 0.012628572 1.0200001 1.654855e-39
-0.10170001 0.012591429 1.0170001 1.929993e-39
-0.099762864 0.012591429 1.0170001 1.4704455e-39
-0.097825721 0.012591429 1.0170001 1.0123485e-39
-0.095605724 0.012554287 1.0140001 1.0127114e-39
-0.37305337 0.016314287 1.1420001 7.1869501e-39
-0.37087813 0.016314287 1.1420001 7.4610357e-39
-0.36870289 0.016314287 1.1420001 6.8217886e-39
-0.36652765 0.016314287 1.1420001 6.1821407e-39
-0.36307621 0.016257145 1.138 5.5302945e-39
-0.3609086 0.016257145 1.138 4.8838362e-39
-0.35874099 0.016257145 1.138 5.3408389e-39
-0.35100001 0.0162 1.1340001 3.5095002e-39
-0.33714575 0.016157145 1.131 3.1234845e-39
-0.33588001 0.0162 1.1340001 3.3146888e-39
-0.33283716 0.016157145 1.131 3.5848143e-39
-0.33068287 0.016157145 1.131 2.2065644e-39
-0.32852858 0.016157145 1.131 7.3540424e-40
-0.32406574 0.016042858 1.123 2.8508506e-39
-0.32192668 0.016042858 1.123 4.9699306e-39
-0.31978765 0.016042858 1.123 8.6663556e-39
-0.31680003 0.016000001 1.12 1.2433413e-38
-0.31466669 0.016000001 1.12 9.8552102e-39
-0.31253335 0.016000001 1.12 7.3576591e-39
-0.21932667 0.016700001 1.169 3.1296348e-39
-0.21710001 0.016700001 1.169 2.945584e-39
-0.21487334 0.016700001 1.169 2.8530353e-39
-0.21482953 0.01687143 1.1810001 2.5775316e-39
-0.21258001 0.01687143 1.1810001 2.3020251e-39
-0.21033049 0.01687143 1.1810001 2.6693671e-39
-0.20808096 0.01687143 1.1810001 3.1285474e-39
-0.20583144 0.01687143 1.1810001 2.9466728e-39
-0.20289239 0.016814286 1.177 2.7644396e-39
-0.19996859 0.016757144 1.1730001 2.7640822e-39
-0.19706002 0.016700001 1.169 2.7651725e-39
-0.19483335 0.016700001 1.169 2.8566618e-39
-0.19194764 0.016642857 1.1650001 3.0396083e-39
-0.18907715 0.016585715 1.161 3.1314354e-39
-0.18686573 0.016585715 1.161 3.3168917e-39
-0.18401811 0.016528573 1.1570001 3.5009116e-39
-0.18118572 0.016471429 1.153 3.7775027e-39
-0.17852382 0.016428573 1.1500001 4.0515827e-39
-0.17633334 0.016428573 1.1500001 4.4178583e-39
-0.17353715 0.016371429 1.146 4.5125734e-39
-0.17075621 0.016314287 1.1420001 4.5143545e-39
-0.16799049 0.016257145 1.138 4.6987303e-39
-0.16524 0.0162 1.1340001 4.8817063e-39
-0.16207334 0.016100001 1.1270001 4.2374453e-39
-0.15935905 0.016042858 1.123 3.59135e-39
-0.15722001 0.016042858 1.123 4.6994548e-39
-0.15411429 0.015942859 1.1160001 5.8984156e-39
-0.15158001 0.015900001 1.113 7.1960277e-39
-0.14892286 0.015842859 1.1090001 8.5786343e-39
-0.14681049 0.015842859 1.1090001 1.2357215e-38
-0.14326286 0.015685715 1.098 1.6132144e-38
-0.14078572 0.015642859 1.095 1.6869328e-38
-0.13819334 0.015585715 1.0910001 1.7605436e-38
-0.13449334 0.015400001 1.0780001 1.7420319e-38
-0.13158001 0.015300001 1.0710001 1.7234849e-38
-0.12869334 0.015200001 1.064 1.7144442e-38
-0.12595239 0.015114287 1.0580001 1.7052995e-38
-0.12358572 0.015071429 1.0550001 1.7515429e-38
-0.12076953 0.014971429 1.0480001 1.8071425e-38
-0.11843334 0.014928573 1.0450001 1.5118299e-38
-0.11610858 0.014885715 1.0420001 1.2156127e-38
-0.11346667 0.014800001 1.036 6.0697537e-39
-0.11084763 0.014714287 1.0300001 9.2213847e-41
-0.10846286 0.014657144 1.026 7.3759026e-40
-0.10650858 0.014657144 1.026 1.2900256e-39
-0.10394286 0.014571429 1.0200001 1.3800534e-39
-0.10170001 0.014528573 1.0170001 1.3786142e-39
-0.099762864 0.014528573 1.0170001 1.1952978e-39
-0.097825721 0.014528573 1.0170001 9.2015283e-40
-0.095888577 0.014528573 1.0170001 7.3648464e-40
-0.36999431 0.018554287 1.146 5.9938258e-39
-0.36781144 0.018554287 1.146 5.9930887e-39
-0.3656286 0.018554287 1.146 5.9001574e-39
-0.3609086 0.018424762 1.138 5.7121704e-39
-0.35874099 0.018424762 1.138 6.7230671e-39
-0.35657334 0.018424762 1.138 7.735061e-39
-0.35440573 0.018424762 1.138 6.7302614e-39
-0.35100001 0.018360002 1.1340001 5.7150248e-39
-0.34791717 0.01831143 1.131 5.7146423e-39
-0.34576288 0.01831143 1.131 5.7121452e-39
-0.34360859 0.01831143 1.131 4.9767591e-39
-0.34236002 0.018360002 1.1340001 4.2363228e-39
-0.34020004 0.018360002 1.1340001 4.2302118e-39
-0.33714575 0.01831143 1.131 4.2370431e-39
-0.33499146 0.01831143 1.131 5.6307339e-39
-0.33283716 0.01831143 1.131 6.9960428e-39
-0.33068287 0.01831143 1.131 4.1372777e-39
-0.32736668 0.018246667 1.1270001 1.1981845e-39
-0.32406574 0.018181905 1.123 2.6654028e-39
-0.32192668 0.018181905 1.123 4.0587853e-39
-0.31978765 0.018181905 1.123 8.126518e-39
-0.31680003 0.018133335 1.12 1.215795e-38
-0.31466669 0.018133335 1.12 9.303512e-39
-0.31253335 0.018133335 1.12 6.3535839e-39
-0.21932667 0.018926667 1.169 2.7622788e-39
-0.21710001 0.018926667 1.169 2.7633367e-39
-0.21560858 0.018991429 1.1730001 2.7619088e-39
-0.21482953 0.019120954 1.1810001 2.3027384e-39
-0.21258001 0.019120954 1.1810001 1.7513666e-39
-0.21033049 0.019120954 1.1810001 2.6697202e-39
-0.20808096 0.019120954 1.1810001 3.495532e-39
-0.20583144 0.019120954 1.1810001 3.2203927e-39
-0.20289239 0.019056192 1.177 2.9470358e-39
-0.19996859 0.018991429 1.1730001 3.0403034e-39
-0.19706002 0.018926667 1.169 3.0406635e-39
-0.19416668 0.018861907 1.1650001 3.1328606e-39
-0.19194764 0.018861907 1.1650001 3.1310697e-39
-0.18907715 0.018797144 1.161 3.4072979e-39
-0.18622191 0.018732382 1.1570001 3.5916821e-39
-0.18401811 0.018732382 1.1570001 3.6853085e-39
-0.18118572 0.01866762 1.153 3.6845812e-39
-0.17852382 0.018619049 1.1500001 4.051556e-39
-0.17633334 0.018619049 1.1500001 4.3270821e-39
-0.17353715 0.018554287 1.146 4.3281766e-39
-0.17075621 0.018489525 1.1420001 4.3299688e-39
-0.16799049 0.018424762 1.138 4.6061914e-39
-0.16524 0.018360002 1.1340001 4.8820706e-39
-0.16308001 0.018360002 1.1340001 4.7913253e-39
-0.15935905 0.018181905 1.123 4.6984052e-39
-0.15722001 0.018181905 1.123 4.7001905e-39
-0.15411429 0.018068573 1.1160001 4.6116144e-39
-0.15158001 0.01802 1.113 3.6036072e-39
-0.14892286 0.01795524 1.1090001 2.5077343e-39
-0.14681049 0.01795524 1.1090001 8.3970975e-39
-0.14326286 0.017777145 1.098 1.4192441e-38
-0.14078572 0.017728573 1.095 1.6132488e-38
-0.13819334 0.01766381 1.0910001 1.7970626e-38
-0.13486762 0.017501906 1.0810001 1.7603994e-38
-0.13158001 0.017340001 1.0710001 1.7235929e-38
-0.12869334 0.017226668 1.064 1.7236284e-38
-0.12595239 0.017129526 1.0580001 1.7237378e-38
-0.12358572 0.017080953 1.0550001 1.769765e-38
-0.12076953 0.016967621 1.0480001 1.8066755e-38
-0.11843334 0.016919049 1.0450001 1.4936785e-38
-0.1157743 0.016821906 1.039 1.1786637e-38
-0.1131381 0.016724763 1.033 5.969673e-39
-0.11084763 0.016676191 1.0300001 9.2931312e-41
-0.10846286 0.016611429 1.026 6.461107e-40
-0.10619715 0.016562859 1.023 1.1974698e-39
-0.10394286 0.016514286 1.0200001 1.01271e-39
-0.10170001 0.016465716 1.0170001 8.2796e-40
-0.099762864 0.016465716 1.0170001 8.2759847e-40
-0.097825721 0.016465716 1.0170001 8.2832714e-40
-0.095888577 0.016465716 1.0170001 5.5283326e-40
-0.093674295 0.016417144 1.0140001 1.85843e-40
-0.3744505 0.020863811 1.153 5.2541055e-39
-0.37128574 0.020809526 1.1500001 5.2548286e-39
-0.36909527 0.020809526 1.1500001 5.1619071e-39
-0.3656286 0.020737145 1.146 5.1608197e-39
-0.3609086 0.020592382 1.138 5.1579498e-39
-0.35874099 0.020592382 1.138 5.6185608e-39
-0.35657334 0.020592382 1.138 6.1695934e-39
-0.35316002 0.020520002 1.1340001 5.4367227e-39
-0.35100001 0.020520002 1.1340001 4.7020037e-39
-0.34884003 0.020520002 1.1340001 4.7930853e-39
-0.34668002 0.020520002 1.1340001 4.9760683e-39
-0.34452003 0.020520002 1.1340001 4.5165601e-39
-0.34236002 0.020520002 1.1340001 4.055568e-39
-0.34020004 0.020520002 1.1340001 4.0530358e-39
-0.33804002 0.020520002 1.1340001 4.1466958e-39
-0.33499146 0.020465715 1.131 5.0733324e-39
-0.33283716 0.020465715 1.131 6.0902856e-39
-0.33068287 0.020465715 1.131 4.5143194e-39
-0.32736668 0.020393334 1.1270001 2.9477392e-39
-0.32406574 0.020320954 1.123 3.8686081e-39
-0.32192668 0.020320954 1.123 4.8810364e-39
-0.31978765 0.020320954 1.123 7.4675812e-39
-0.31680003 0.020266669 1.12 1.0135101e-38
-0.31466669 0.020266669 1.12 8.4788184e-39
-0.3133705 0.020320954 1.123 6.9135806e-39
-0.21784288 0.021225715 1.1730001 2.7615319e-39
-0.2178143 0.021442859 1.1850001 3.0366908e-39
-0.21482953 0.021370478 1.1810001 2.6693587e-39
-0.21258001 0.021370478 1.1810001 2.2105385e-39
-0.21033049 0.021370478 1.1810001 2.6686384e-39
-0.20808096 0.021370478 1.1810001 3.1267551e-39
-0.20583144 0.021370478 1.1810001 3.0367287e-39
-0.20289239 0.021298097 1.177 2.9466784e-39
-0.19996859 0.021225715 1.1730001 2.855552e-39
-0.19706002 0.021153335 1.169 2.8562611e-39
-0.19416668 0.021080954 1.1650001 2.9466518e-39
-0.19194764 0.021080954 1.1650001 3.0367091e-39
-0.18907715 0.021008573 1.161 3.0377993e-39
-0.18686573 0.021008573 1.161 3.0385195e-39
-0.18401811 0.020936191 1.1570001 3.1317914e-39
-0.18118572 0.020863811 1.153 3.3154371e-39
-0.17852382 0.020809526 1.1500001 3.5923519e-39
-0.17633334 0.020809526 1.1500001 3.9597219e-39
-0.17353715 0.020737145 1.146 4.1452146e-39
-0.17075621 0.020664763 1.1420001 4.2384949e-39
-0.16799049 0.020592382 1.138 4.4225344e-39
-0.16524 0.020520002 1.1340001 4.5140168e-39
-0.16308001 0.020520002 1.1340001 4.6069341e-39
-0.15935905 0.020320954 1.123 4.6080131e-39
-0.15722001 0.020320954 1.123 4.6094494e-39
-0.15411429 0.020194286 1.1160001 4.6108689e-39
-0.15158001 0.020140002 1.113 4.1502411e-39
-0.14892286 0.020067621 1.1090001 3.6864561e-39
-0.14681049 0.020067621 1.1090001 6.0857145e-39
-0.14326286 0.019868573 1.098 8.3934947e-39
-0.14078572 0.019814286 1.095 1.2079882e-38
-0.13819334 0.019741906 1.0910001 1.5765496e-38
-0.13536668 0.019633334 1.085 1.6868954e-38
-0.13158001 0.019380001 1.0710001 1.7879142e-38
-0.12869334 0.019253334 1.064 1.7789455e-38
-0.12559524 0.019090477 1.0550001 1.7696551e-38
-0.12323429 0.019036192 1.052 1.8067488e-38
-0.12076953 0.01896381 1.0480001 1.8438037e-38
-0.11843334 0.018909525 1.0450001 1.5117589e-38
-0.1157743 0.018800953 1.039 1.1788077e-38
-0.1131381 0.018692382 1.033 5.8860939e-39
-0.11041715 0.018565716 1.026 9.2215248e-41
-0.10846286 0.018565716 1.026 7.3794199e-40
-0.10619715 0.018511429 1.023 1.381138e-39
-0.10394286 0.018457144 1.0200001 1.1960194e-39
-0.10170001 0.018402858 1.0170001 1.0112723e-39
-0.099762864 0.018402858 1.0170001 9.2015283e-40
-0.097825721 0.018402858 1.0170001 8.2941455e-40
-0.095888577 0.018402858 1.0170001 5.5356895e-40
-0.093951434 0.018402858 1.0170001 3.6988254e-40
-0.3766467 0.023060001 1.153 4.5183075e-39
-0.3744505 0.023060001 1.153 4.5175971e-39
-0.37128574 0.023000002 1.1500001 4.4261287e-39
-0.36909527 0.023000002 1.1500001 4.3328583e-39
-0.3656286 0.022920001 1.146 4.4232589e-39
-0.36217716 0.022840001 1.1420001 4.5140196e-39
-0.35874099 0.022760002 1.138 4.6069341e-39
-0.35657334 0.022760002 1.138 4.6062264e-39
-0.35316002 0.022680001 1.1340001 4.1452665e-39
-0.35100001 0.022680001 1.1340001 3.5938667e-39
-0.34884003 0.022680001 1.1340001 3.871499e-39
-0.34668002 0.022680001 1.1340001 4.1473782e-39
-0.34452003 0.022680001 1.1340001 3.9651576e-39
-0.3414543 0.022620002 1.131 3.7796803e-39
-0.33930004 0.022620002 1.131 3.8711445e-39
-0.33804002 0.022680001 1.1340001 3.963001e-39
-0.33499146 0.022620002 1.131 4.5176223e-39
-0.33283716 0.022620002 1.131 5.0696792e-39
-0.33068287 0.022620002 1.131 4.8820286e-39
-0.32736668 0.022540001 1.1270001 4.6076039e-39
-0.32406574 0.022460001 1.123 5.1643608e-39
-0.32192668 0.022460001 1.123 5.7136263e-39
-0.31978765 0.022460001 1.123 6.9104053e-39
-0.31680003 0.022400001 1.12 8.0171032e-39
-0.31466669 0.022400001 1.12 7.74627e-39
-0.31253335 0.022400001 1.12 7.3749343e-39
-0.21707906 0.023620002 1.1810001 3.3122141e-39
-0.21482953 0.023620002 1.1810001 3.0356301e-39
-0.21258001 0.023620002 1.1810001 2.6686496e-39
-0.21033049 0.023620002 1.1810001 2.7586942e-39
-0.20808096 0.023620002 1.1810001 2.7597789e-39
-0.2051343 0.023540001 1.177 2.8527004e-39
-0.20220287 0.023460001 1.1730001 2.945968e-39
-0.19996859 0.023460001 1.1730001 2.7626543e-39
-0.19706002 0.023380002 1.169 2.5786176e-39
-0.19416668 0.023300001 1.1650001 2.7604893e-39
-0.19194764 0.023300001 1.1650001 2.944526e-39
-0.18907715 0.023220001 1.161 2.6686692e-39
-0.18622191 0.023140002 1.1570001 2.394955e-39
-0.18401811 0.023140002 1.1570001 2.6715363e-39
-0.18118572 0.023060001 1.153 2.8573457e-39
-0.17852382 0.023000002 1.1500001 3.2261072e-39
-0.17633334 0.023000002 1.1500001 3.5938289e-39
-0.17353715 0.022920001 1.146 3.8711501e-39
-0.17075621 0.022840001 1.1420001 4.1470335e-39
-0.16799049 0.022760002 1.138 4.1477692e-39
-0.16524 0.022680001 1.1340001 4.1474062e-39
-0.16207334 0.022540001 1.1270001 4.331073e-39
-0.15935905 0.022460001 1.123 4.5161748e-39
-0.15722001 0.022460001 1.123 4.6098011e-39
-0.15466668 0.022400001 1.12 4.6097969e-39
-0.15198858 0.022320002 1.1160001 4.7923889e-39
-0.14946 0.022260001 1.113 4.881021e-39
-0.14681049 0.022180002 1.1090001 3.773998e-39
-0.14326286 0.021960001 1.098 2.5959685e-39
-0.14078572 0.021900002 1.095 8.1201364e-39
-0.13870001 0.021900002 1.095 1.3552456e-38
-0.13486762 0.021620002 1.0810001 1.604317e-38
-0.13194858 0.021480002 1.074 1.8525952e-38
-0.12917715 0.021360001 1.0680001 1.8345146e-38
-0.12595239 0.021160001 1.0580001 1.8067848e-38
-0.12358572 0.021100001 1.0550001 1.8436985e-38
-0.12076953 0.020960001 1.0480001 1.880394e-38
-0.11809334 0.020840002 1.0420001 1.5307349e-38
-0.1157743 0.020780001 1.039 1.1694081e-38
-0.1131381 0.020660002 1.033 5.8778375e-39
-0.11041715 0.020520002 1.026 9.328584e-41
-0.10846286 0.020520002 1.026 8.3156414e-40
-0.10619715 0.020460002 1.023 1.5648034e-39
-0.10394286 0.020400001 1.0200001 1.3789716e-39
-0.10200001 0.020400001 1.0200001 1.1038238e-39
-0.099762864 0.020340001 1.0170001 1.0127058e-39
-0.097825721 0.020340001 1.0170001 8.2904601e-40
-0.095888577 0.020340001 1.0170001 6.4502749e-40
-0.093951434 0.020340001 1.0170001 4.6134669e-40
-0.09201429 0.020340001 1.0170001 6.4464914e-40
-0.090077147 0.020340001 1.0170001 7.372021e-40
-0.3766467 0.025256192 1.153 3.0406565e-39
-0.3744505 0.025256192 1.153 3.0453298e-39
-0.37128574 0.025190478 1.1500001 2.8591561e-39
-0.36909527 0.025190478 1.1500001 2.7691255e-39
-0.3656286 0.025102859 1.146 2.9495791e-39
-0.36217716 0.025015241 1.1420001 3.1332543e-39
-0.35874099 0.02492762 1.138 3.4098412e-39
-0.35657334 0.02492762 1.138 3.7779035e-39
-0.35316002 0.024840001 1.1340001 2.7626922e-39
-0.35100001 0.024840001 1.1340001 1.8396541e-39
-0.34884003 0.024840001 1.1340001 2.2116399e-39
-0.34668002 0.024840001 1.1340001 2.5822119e-39
-0.34452003 0.024840001 1.1340001 2.2141525e-39
-0.34236002 0.024840001 1.1340001 1.9411543e-39
-0.33930004 0.024774287 1.131 2.3052635e-39
-0.33804002 0.024840001 1.1340001 2.7658871e-39
-0.33499146 0.024774287 1.131 3.0414048e-39
-0.33283716 0.024774287 1.131 3.3197699e-39
-0.32951334 0.024686668 1.1270001 3.4097992e-39
-0.32736668 0.024686668 1.1270001 3.5992169e-39
-0.32406574 0.024599049 1.123 4.0566063e-39
-0.32192668 0.024599049 1.123 4.61265e-39
-0.31978765 0.024599049 1.123 5.0700422e-39
-0.31680003 0.024533335 1.12 5.531047e-39
-0.31466669 0.024533335 1.12 5.8076619e-39
-0.2178143 0.025957145 1.1850001 2.9459666e-39
-0.21482953 0.025869526 1.1810001 2.5778931e-39
-0.21258001 0.025869526 1.1810001 2.2098407e-39
-0.21033049 0.025869526 1.1810001 2.3927998e-39
-0.20808096 0.025869526 1.1810001 2.576475e-39
-0.2051343 0.025781907 1.177 2.6697482e-39
-0.20289239 0.025781907 1.177 2.7630229e-39
-0.19996859 0.025694288 1.1730001 2.670114e-39
-0.19706002 0.025606668 1.169 2.5775582e-39
-0.19416668 0.025519049 1.1650001 2.6690308e-39
-0.19194764 0.025519049 1.1650001 2.6693909e-39
-0.18907715 0.02543143 1.161 2.5775568e-39
-0.18622191 0.025343811 1.1570001 2.4860758e-39
-0.18338192 0.025256192 1.153 2.6722523e-39
-0.18118572 0.025256192 1.153 2.8591491e-39
-0.17852382 0.025190478 1.1500001 3.1342927e-39
-0.17633334 0.025190478 1.1500001 3.4101719e-39
-0.17353715 0.025102859 1.146 3.5945744e-39
-0.17075621 0.025015241 1.1420001 3.870825e-39
-0.16799049 0.02492762 1.138 3.6875379e-39
-0.16524 0.024840001 1.1340001 3.5042131e-39
-0.16207334 0.024686668 1.1270001 3.871541e-39
-0.15935905 0.024599049 1.123 4.3314262e-39
-0.15722001 0.024599049 1.123 4.424328e-39
-0.15466668 0.024533335 1.12 4.5176069e-39
-0.15198858 0.024445716 1.1160001 4.7002101e-39
-0.14946 0.024380002 1.113 4.883158e-39
-0.14681049 0.024292383 1.1090001 4.513658e-39
-0.1441762 0.024204763 1.105 4.0548813e-39
-0.14117144 0.02405143 1.098 6.3669537e-39
-0.13870001 0.023985716 1.095 8.6794157e-39
-0.13611525 0.023898097 1.0910001 1.3190549e-38
-0.13244002 0.023613336 1.0780001 1.7703395e-38
-0.12917715 0.023394287 1.0680001 1.8068578e-38
-0.12595239 0.02317524 1.0580001 1.8527392e-38
-0.12358572 0.023109525 1.0550001 1.8897599e-38
-0.12076953 0.022956192 1.0480001 1.9359254e-38
-0.11843334 0.022890478 1.0450001 1.5209045e-38
-0.1157743 0.022759048 1.039 1.1139113e-38
-0.1131381 0.02262762 1.033 5.6091413e-39
-0.11084763 0.022561906 1.0300001 1.8403813e-40
-0.10846286 0.022474287 1.026 8.301222e-40
-0.10619715 0.022408573 1.023 1.5651579e-39
-0.10394286 0.022342859 1.0200001 1.2882095e-39
-0.10170001 0.022277145 1.0170001 1.0116282e-39
-0.099762864 0.022277145 1.0170001 9.2051156e-40
-0.097825721 0.022277145 1.0170001 8.290376e-40
-0.095888577 0.022277145 1.0170001 7.3648604e-40
-0.093951434 0.022277145 1.0170001 5.5245351e-40
-0.09201429 0.022277145 1.0170001 8.279558e-40
-0.090077147 0.022277145 1.0170001 1.0116268e-39
-0.37128574 0.027380954 1.1500001 1.379022e-39
-0.36781144 0.027285716 1.146 1.1067581e-39
-0.3656286 0.027285716 1.146 1.4719617e-39
-0.36217716 0.027190479 1.1420001 1.7514115e-39
-0.35874099 0.02709524 1.138 2.3052929e-39
-0.35657334 0.02709524 1.138 2.8584555e-39
-0.35440573 0.02709524 1.138 1.4719533e-39
-0.35100001 0.027000003 1.1340001 9.5833401e-41
-0.34884003 0.027000003 1.1340001 5.5247733e-40
-0.34668002 0.027000003 1.1340001 9.2198432e-40
-0.34452003 0.027000003 1.1340001 5.5142776e-40
-0.34236002 0.027000003 1.1340001 9.5463458e-41
-0.33930004 0.026928574 1.131 8.2690482e-40
-0.33714575 0.026928574 1.131 1.4722784e-39
-0.33499146 0.026928574 1.131 1.4697799e-39
-0.33283716 0.026928574 1.131 1.4737232e-39
-0.32951334 0.026833335 1.1270001 2.0222236e-39
-0.32736668 0.026833335 1.1270001 2.4860716e-39
-0.32406574 0.026738098 1.123 3.0338644e-39
-0.32192668 0.026738098 1.123 3.500941e-39
-0.31978765 0.026738098 1.123 3.2261576e-39
-0.31680003 0.026666669 1.12 2.9495903e-39
-0.31550956 0.026738098 1.123 3.9540565e-39
-0.2178143 0.028214287 1.1850001 2.5789763e-39
-0.21555716 0.028214287 1.1850001 2.2116273e-39
-0.21258001 0.02811905 1.1810001 1.7513793e-39
-0.21033049 0.02811905 1.1810001 2.1172933e-39
-0.20808096 0.02811905 1.1810001 2.3938788e-39
-0.20583144 0.02811905 1.1810001 2.486436e-39
-0.20289239 0.028023811 1.177 2.5782827e-39
-0.19996859 0.027928574 1.1730001 2.5772163e-39
-0.19706002 0.027833335 1.169 2.577568e-39
-0.19416668 0.027738096 1.1650001 2.4853668e-39
-0.19194764 0.027738096 1.1650001 2.3938858e-39
-0.18907715 0.027642859 1.161 2.4853584e-39
-0.18622191 0.02754762 1.1570001 2.5789735e-39
-0.18338192 0.027452383 1.153 2.6718712e-39
-0.18071429 0.027380954 1.1500001 2.7655116e-39
-0.17852382 0.027380954 1.1500001 2.9495525e-39
-0.17572001 0.027285716 1.146 3.1335906e-39
-0.17293143 0.027190479 1.1420001 3.3179875e-39
-0.17075621 0.027190479 1.1420001 3.5020228e-39
-0.16799049 0.02709524 1.138 3.1346864e-39
-0.16524 0.027000003 1.1340001 2.7677032e-39
-0.16207334 0.026833335 1.1270001 3.4105503e-39
-0.15935905 0.026738098 1.123 4.0544721e-39
-0.15722001 0.026738098 1.123 4.2381403e-39
-0.15466668 0.026666669 1.12 4.3317779e-39
-0.15198858 0.02657143 1.1160001 4.6080103e-39
-0.14946 0.026500002 1.113 4.8831594e-39
-0.14681049 0.026404765 1.1090001 5.2505028e-39
-0.1441762 0.026309526 1.105 5.5260079e-39
-0.14117144 0.026142858 1.098 4.6137486e-39
-0.13819334 0.025976192 1.0910001 3.7076858e-39
-0.13536668 0.025833335 1.085 1.0244602e-38
-0.13244002 0.025666669 1.0780001 1.6775349e-38
-0.12954001 0.025500001 1.0710001 1.7882062e-38
-0.12595239 0.025190478 1.0580001 1.8897259e-38
-0.12323429 0.025047621 1.052 1.9358217e-38
-0.12076953 0.024952382 1.0480001 1.9815923e-38
-0.11843334 0.024880953 1.0450001 1.5214426e-38
-0.1157743 0.024738098 1.039 1.0496624e-38
-0.1131381 0.02459524 1.033 5.3268189e-39
-0.11084763 0.024523811 1.0300001 1.8511433e-40
-0.10846286 0.024428573 1.026 9.230339e-40
-0.10619715 0.024357144 1.023 1.5648006e-39
-0.10394286 0.024285715 1.0200001 1.1963782e-39
-0.10170001 0.024214288 1.0170001 8.2867887e-40
-0.099762864 0.024214288 1.0170001 8.2868027e-40
-0.097825721 0.024214288 1.0170001 8.2832013e-40
-0.095888577 0.024214288 1.0170001 7.361245e-40
-0.093951434 0.024214288 1.0170001 6.4428761e-40
-0.09201429 0.024214288 1.0170001 1.0112695e-39
-0.090077147 0.024214288 1.0170001 1.2871347e-39
-0.088140003 0.024214288 1.0170001 1.1038238e-39
-0.36781144 0.029468574 1.146 7.3582603e-40
-0.36435241 0.029365717 1.1420001 1.1960965e-39
-0.3609086 0.029262859 1.138 1.7478186e-39
-0.35874099 0.029262859 1.138 2.8573695e-39
-0.35532004 0.029160002 1.1340001 3.8779576e-39
-0.35316002 0.029160002 1.1340001 2.6729698e-39
-0.35100001 0.029160002 1.1340001 1.4776482e-39
-0.34884003 0.029160002 1.1340001 1.8431713e-39
-0.34668002 0.029160002 1.1340001 2.296993e-39
-0.34452003 0.029160002 1.1340001 2.6672301e-39
-0.34236002 0.029160002 1.1340001 3.1235125e-39
-0.33930004 0.029082859 1.131 2.853003e-39
-0.33714575 0.029082859 1.131 2.5717722e-39
-0.33499146 0.029082859 1.131 1.7463444e-39
-0.33283716 0.029082859 1.131 9.194732e-40
-0.32951334 0.028980002 1.1270001 1.7470759e-39
-0.32736668 0.028980002 1.1270001 2.5743226e-39
-0.32522002 0.028980002 1.1270001 2.9431093e-39
-0.32192668 0.028877145 1.123 3.4065958e-39
-0.31978765 0.028877145 1.123 2.8541521e-39
-0.31764859 0.028877145 1.123 2.3924607e-39
-0.31550956 0.028877145 1.123 2.7590824e-39
-0.29371241 0.029262859 1.138 4.1441917e-39
-0.2178143 0.030471431 1.1850001 2.6708062e-39
-0.21555716 0.030471431 1.1850001 2.3023866e-39
-0.21330002 0.030471431 1.1850001 2.0272445e-39
-0.21033049 0.030368574 1.1810001 2.3023978e-39
-0.20808096 0.030368574 1.1810001 2.6708202e-39
-0.20583144 0.030368574 1.1810001 2.5789889e-39
-0.20289239 0.030265717 1.177 2.4857367e-39
-0.19996859 0.03016286 1.1730001 2.4861123e-39
-0.19706002 0.030060003 1.169 2.4861011e-39
-0.19416668 0.029957145 1.1650001 2.2113008e-39
-0.19194764 0.029957145 1.1650001 1.9357845e-39
-0.18907715 0.029854288 1.161 2.3034754e-39
-0.18622191 0.029751431 1.1570001 2.7637067e-39
-0.18338192 0.029648574 1.153 2.8558785e-39
-0.18071429 0.029571431 1.1500001 2.9491756e-39
-0.17852382 0.029571431 1.1500001 2.9492008e-39
-0.17572001 0.029468574 1.146 3.0399629e-39
-0.17353715 0.029468574 1.146 3.2247129e-39
-0.17075621 0.029365717 1.1420001 3.3168931e-39
-0.16799049 0.029262859 1.138 3.2254009e-39
-0.16524 0.029160002 1.1340001 3.1332193e-39
-0.16207334 0.028980002 1.1270001 3.5023661e-39
-0.15935905 0.028877145 1.123 3.8700711e-39
-0.15722001 0.028877145 1.123 4.1459405e-39
-0.15466668 0.028800001 1.12 4.3303374e-39
-0.15198858 0.028697144 1.1160001 4.5150916e-39
-0.14946 0.028620003 1.113 4.6072956e-39
-0.14681049 0.028517144 1.1090001 4.8813756e-39
