# .PCD v0.7 - Point Cloud Data file format
VERSION 0.7
FIELDS x y z
SIZE 4 4 4
TYPE F F F
COUNT 1 1 1
WIDTH 331
HEIGHT 1
VIEWPOINT 0 0 0 1 0 0 0
POINTS 331
DATA ascii
0.26722494 -0.024480233 0.66900015
0.27535817 -0.023371397 0.66880959
0.28200588 -0.021920435 0.66900009
0.29749063 -0.024862293 0.66900003
0.27602312 -0.019959195 0.66900009
0.28130201 -0.019959195 0.66900003
0.25869343 -0.030875687 0.67800003
0.26028436 -0.030852918 0.67750001
0.27967998 -0.03012133 0.67700005
0.28487256 -0.030858265 0.6767059
0.29468411 -0.032359846 0.67659086
0.30521762 -0.031902701 0.67752379
0.31122425 -0.033053964 0.67900002
0.25806642 -0.026188109 0.67695469
0.26444453 -0.024237806 0.67309856
0.27507895 -0.026826069 0.67133337
0.28589147 -0.025131579 0.6718303
0.29440558 -0.025087921 0.67108327
0.30346039 -0.025218317 0.67353344
0.26627919 -0.015934257 0.6761111
0.27468881 -0.014856894 0.67321038
0.28498074 -0.014750985 0.67338043
0.29458526 -0.015327849 0.67445588
0.3033877 -0.016544383 0.67649996
0.26931435 -0.0093568778 0.67900008
0.27569088 -0.0073130284 0.67774439
0.28445014 -0.0063941698 0.67768776
0.29200417 -0.007869605 0.67750001
0.24882756 -0.032530837 0.68900007
0.25444123 -0.033041954 0.68623245
0.26587403 -0.033548024 0.68671858
0.27321756 -0.034461584 0.68479478
0.28561991 -0.034723725 0.68335479
0.29381907 -0.035335302 0.68578583
0.30537269 -0.036538921 0.68368578
0.31168178 -0.036924787 0.68366671
0.25500134 -0.024843702 0.68369681
0.26088738 -0.020287372 0.68000001
0.25703415 -0.01589974 0.68521804
0.26243776 -0.013577686 0.68109679
0.29891509 -0.010679712 0.68025005
0.30285117 -0.011357433 0.6812858
0.25932103 -0.0076927356 0.68827277
0.26528478 -0.0052331886 0.68421829
0.27431387 -0.0029249592 0.68155247
0.2857402 -0.0016496344 0.68118179
0.29554483 -0.0044004666 0.68191296
0.30337396 -0.0059513203 0.68596673
0.26688963 0.0031035265 0.68809992
0.27467984 0.0051461048 0.68568593
0.28459418 0.0049919267 0.68438023
0.29421476 0.0044124755 0.68696231
0.27645737 0.011744224 0.68888897
0.28429332 0.01181885 0.6885556
0.29043651 0.011184952 0.68900001
0.25760156 -0.041242588 0.69725001
0.26452711 -0.041855585 0.69418198
0.29619032 -0.040992029 0.69584614
0.30463487 -0.041773289 0.69569999
0.31328931 -0.043063685 0.69421428
0.2472941 -0.031026781 0.69125003
0.25632992 -0.037766937 0.69338101
0.26475394 -0.038058244 0.69079173
0.27170628 -0.038331743 0.69083345
0.28930968 -0.038926501 0.69500005
0.29512733 -0.038241856 0.69200015
0.30187142 -0.038328905 0.69171435
0.24775706 -0.025049983 0.69314289
0.25131217 -0.024610348 0.69145006
0.24928515 -0.017902086 0.69554549
0.25269681 -0.014130927 0.6930567
0.25564632 -0.0052892021 0.6946407
0.26097751 -0.0018054841 0.69137502
0.30605683 -0.0012448323 0.6924445
0.31156638 -0.00036235279 0.69900006
0.25790769 0.0034502367 0.69709373
0.26353899 0.0063791242 0.6931408
0.27053154 0.0097563267 0.69000006
0.29771835 0.0083884746 0.69090915
0.30509627 0.0051044067 0.69423264
0.31156638 0.00036949979 0.69900006
0.26593629 0.014483169 0.6961804
0.27455571 0.015803499 0.69224638
0.28518778 0.016403519 0.69202179
0.2949008 0.015056594 0.69296563
0.30372062 0.01361306 0.6971429
0.26999632 0.021562334 0.69800001
0.27560914 0.0244551 0.69703341
0.2844851 0.024095751 0.69618213
0.29317722 0.022617571 0.69667858
0.30127054 0.02012952 0.69900006
0.27587122 0.030331999 0.69800001
0.29956299 -0.050032482 0.708
0.30668318 -0.050975308 0.70785719
0.31066927 -0.050702043 0.70700002
0.25728899 -0.045041256 0.7039566
0.26171365 -0.045649607 0.70276928
0.27611047 -0.044474564 0.70246881
0.28489646 -0.044237826 0.70236546
0.29476315 -0.045288242 0.7025438
0.30567676 -0.046534609 0.70312202
0.31148282 -0.04764184 0.7033
0.24790928 -0.020208735 0.70200002
0.24730349 -0.014623874 0.7042439
0.25058335 -0.011576355 0.70225
0.24776544 -0.0059664459 0.70511776
0.2517494 -0.0040981784 0.70183998
0.24901401 0.00098944572 0.70583338
0.25396663 0.0054960651 0.70360315
0.31201214 0.002813027 0.70000005
0.25585479 0.014773023 0.70587969
0.26192388 0.01673816 0.70182753
0.30599836 0.017616784 0.70090008
0.25819784 0.024388563 0.70696002
0.26472905 0.02512694 0.70275623
0.27116919 0.026760696 0.70015383
0.28689042 0.028627375 0.70000005
0.29637179 0.027009826 0.70127791
0.30438581 0.024682434 0.70397621
0.26633179 0.033787671 0.70512986
0.27451804 0.034709014 0.70167196
0.28479984 0.034423411 0.70191014
0.2947748 0.035414819 0.70440024
0.30302566 0.03310753 0.70715791
0.26952201 0.041411575 0.70833337
0.27572402 0.043500856 0.70687515
0.28503779 0.043732502 0.7063216
0.2931897 0.042980034 0.70700008
0.27798098 0.050110396 0.70900005
0.28544033 0.050110396 0.70900005
0.25727591 -0.053617999 0.7143333
0.26469055 -0.053832848 0.71611357
0.27476701 -0.053520486 0.71784204
0.28543606 -0.052563891 0.71596545
0.29596418 -0.05388166 0.71672082
0.30323565 -0.054123037 0.71269691
0.25707763 -0.049093436 0.7105
0.26623902 -0.048824225 0.71200001
0.27440137 -0.048709892 0.71512502
0.28636244 -0.049229071 0.71066666
0.29234847 -0.049552284 0.71175003
0.2477465 -0.0033415332 0.71000004
0.24905166 0.0057995445 0.71218187
0.25093564 0.0064344527 0.71057147
0.24952535 0.011583986 0.7136668
0.25191349 0.016004825 0.71193343
0.25440893 0.025251813 0.7122916
0.2568627 0.035055831 0.71372002
0.26281542 0.036589891 0.7105484
0.30545723 0.037102852 0.71084619
0.25865239 0.04352168 0.71770597
0.26495266 0.044788424 0.71414679
0.2728239 0.047588874 0.7118001
0.28712872 0.048620589 0.71133333
0.29587772 0.047033381 0.71194124
0.30441687 0.04514325 0.71486676
0.26733878 0.052732609 0.71760011
0.27495834 0.054596506 0.71569562
0.28477001 0.055108059 0.71425819
0.29481864 0.055422723 0.71680349
0.30240917 0.052166462 0.71799999
0.27669758 0.06208434 0.71795672
0.28457108 0.063274771 0.71763396
0.29267284 0.062022686 0.71799999
0.26831266 -0.060752016 0.72383332
0.27376637 -0.061244357 0.72310013
0.28532371 -0.060798585 0.72500008
0.26419774 -0.058921445 0.72000009
0.27540302 -0.057839543 0.72038114
0.28426945 -0.057370592 0.72182757
0.29398185 -0.058048956 0.72178954
0.27528682 -0.047111291 0.72000003
0.25353843 0.038011398 0.72062504
0.25510174 0.045359965 0.72275013
0.260326 0.048626333 0.72000003
0.3088066 0.048626333 0.72000003
0.31053713 0.047906261 0.72049999
0.25823221 0.054606598 0.7253871
0.26410809 0.056008078 0.72223085
0.27017361 0.059180085 0.72000003
0.29895899 0.059933927 0.72000003
0.30521697 0.055109706 0.72096884
0.31075263 0.05020364 0.72100002
0.25934258 0.062472999 0.72811121
0.26539168 0.064775974 0.7245146
0.27411088 0.066005819 0.72143757
0.28538001 0.068329297 0.72039139
0.29493979 0.065987378 0.7210499
0.30378729 0.064704373 0.72567642
0.26883534 0.071524948 0.72800004
0.27554047 0.074537888 0.72613329
0.28472489 0.075100794 0.72506654
0.29438525 0.073713377 0.72583795
0.30221125 0.071290873 0.72820008
0.27757964 0.081179678 0.72800004
0.28419146 0.081086896 0.72769248
0.25065881 0.038980566 0.73233336
0.24905774 0.046219524 0.73366678
0.25172269 0.045913033 0.73173684
0.2546497 0.054568738 0.73422933
0.25603929 0.064395025 0.73480773
0.2618157 0.068360627 0.73050004
0.25874928 0.074666105 0.73795658
0.26447436 0.075050697 0.73244792
0.27154729 0.077553578 0.73018742
0.29694644 0.078163259 0.73020011
0.30498359 0.076170862 0.73360002
0.25936496 0.08156608 0.73839998
0.26552549 0.084583201 0.73660672
0.27449077 0.085313253 0.73208624
0.28470454 0.08574795 0.73126841
0.29455331 0.085153908 0.7326296
0.30428481 0.084700927 0.73660553
0.26735488 0.091405615 0.73861545
0.27583012 0.093131252 0.73659104
0.28480339 0.094488256 0.73616964
0.2948373 0.093578421 0.73781604
0.30287915 0.090428717 0.73880005
0.2495445 0.057943709 0.74480003
0.25156713 0.055651568 0.74238104
0.25283495 0.06532453 0.74455547
0.25516304 0.075066514 0.74395645
0.25678286 0.084443808 0.7448045
0.26181471 0.088132143 0.7416001
0.30845827 0.087542884 0.74100006
0.31001744 0.086508445 0.74100006
0.2584269 0.09116599 0.74737501
0.26438212 0.0953715 0.74401927
0.27370581 0.097984299 0.74157691
0.28442591 0.099562958 0.74000001
0.29529268 0.098543234 0.7410714
0.30463386 0.095614962 0.74318433
0.26672491 0.1038091 0.74700004
0.27481842 0.10490119 0.74434906
0.28514004 0.10493619 0.74278951
0.2948775 0.1045871 0.74439043
0.30200133 0.10306322 0.7474001
0.26887587 0.11082034 0.74800003
0.27664766 0.11239916 0.74720848
0.28484744 0.11278655 0.74654549
0.29256555 0.11112303 0.7474001
0.2489932 0.066529617 0.75452954
0.25161073 0.066668622 0.75285715
0.24869595 0.073769979 0.75711113
0.25191969 0.075233206 0.7543124
0.25381482 0.086301111 0.75471425
0.25626644 0.095321871 0.75482613
0.26076108 0.097489491 0.75012505
0.25789019 0.10438878 0.75692862
0.2628862 0.10629835 0.75194865
0.27038383 0.10954615 0.75000006
0.29879045 0.10954615 0.75000006
0.30537757 0.1059255 0.75025004
0.2591404 0.11344723 0.75830775
0.26508009 0.11491557 0.75329494
0.27444419 0.11652929 0.75031704
0.28458527 0.11824572 0.75017399
0.29529759 0.11565328 0.7513414
0.30458131 0.11524118 0.75514638
0.31036136 0.11841008 0.75900006
0.26664102 0.1235213 0.75778574
0.27486393 0.12535837 0.7564128
0.28472331 0.12544763 0.75385189
0.29485506 0.125329 0.75553858
0.30366266 0.12372676 0.75829643
0.26963574 0.13231686 0.75900006
0.2750617 0.13254969 0.75889468
0.28518003 0.13279983 0.75831044
0.2937389 0.13288963 0.75852931
0.24840197 0.077586539 0.76000005
0.25000116 0.079177976 0.76000005
0.24885155 0.085816339 0.7624287
0.25146571 0.08463762 0.7621305
0.24964094 0.093437903 0.76414287
0.2522119 0.095309593 0.76269233
0.25458506 0.10521191 0.76429999
0.25691062 0.11493447 0.76441377
0.26033765 0.11912049 0.76100004
0.25873637 0.12384295 0.767591
0.26317692 0.12600687 0.76222724
0.30760697 0.12626731 0.76180011
0.311997 0.1223627 0.76300001
0.25952095 0.13088112 0.76766676
0.265522 0.13467927 0.76458329
0.27480644 0.13669537 0.76125002
0.28473353 0.13743386 0.76128006
0.29561818 0.13704811 0.76216656
0.30423695 0.13496841 0.76485294
0.31121421 0.13687816 0.76900005
0.26750162 0.14292397 0.76653856
0.27509767 0.14474545 0.76493227
0.2846714 0.14487401 0.76436198
0.29511833 0.14464025 0.7661463
0.30451882 0.1408042 0.76814288
0.27768105 0.15103988 0.76800001
0.2826826 0.15219796 0.76781827
0.25005019 0.098762155 0.77000004
0.24947616 0.10140492 0.77325004
0.25158989 0.10616667 0.77213639
0.25344938 0.11542217 0.77402627
0.25408393 0.12494001 0.77576774
0.25678959 0.13442296 0.77542233
0.26116958 0.13716237 0.77149999
0.3095901 0.13925225 0.77100003
0.311618 0.13925225 0.77100003
0.25810456 0.14266244 0.7771818
0.26307672 0.1455961 0.77288002
0.27111319 0.14874591 0.77000004
0.29581031 0.14966862 0.77060002
0.30574653 0.1460571 0.77168274
0.31137183 0.1429559 0.77179998
0.26450753 0.1549553 0.7735073
0.27433097 0.15557216 0.77129817
0.2850171 0.15622157 0.7709744
0.2949585 0.15566234 0.77201825
0.30528504 0.15556133 0.77424473
0.284159 0.16159821 0.77050012
0.29518172 0.1610256 0.77054548
0.24876633 0.10557662 0.7816667
0.25087184 0.10696729 0.78183335
0.24934544 0.11518136 0.78600007
0.25076273 0.11460891 0.78320009
0.24731186 0.12496545 0.7820574
0.25015286 0.12502357 0.78300005
0.2496475 0.13010834 0.78400004
0.25305992 0.13541691 0.78404176
0.25502712 0.14627311 0.78476924
0.24963796 0.13519236 0.79449999
0.25156322 0.13724799 0.79300004
0.25154495 0.14387165 0.79200006
0.2516214 0.13635485 0.80240011
