# .PCD v0.7 - Point Cloud Data file format
VERSION 0.7
FIELDS x y z
SIZE 4 4 4
TYPE F F F
COUNT 1 1 1
WIDTH 1415
HEIGHT 1
VIEWPOINT 0 0 0 1 0 0 0
POINTS 1415
DATA ascii
0.065279946 0.13177311 0.82384616
0.075357966 0.13197632 0.8228001
0.084965408 0.13195893 0.82199997
0.095514856 0.1318606 0.8215791
0.10499012 0.13108073 0.82171446
0.11510854 0.13087977 0.82092315
0.12468598 0.13089028 0.82128584
0.1355364 0.13246542 0.82100004
0.14483754 0.13228618 0.82084203
0.15510792 0.13149972 0.82309103
0.16565093 0.13137878 0.82222229
0.17507549 0.13225783 0.82200009
0.18507306 0.13254729 0.82251722
0.19501637 0.13105403 0.82192868
0.20471469 0.13135345 0.8223685
0.21161853 0.1308046 0.82100004
0.22666253 0.13109113 0.82100004
0.2320611 0.13109113 0.82100004
0.24645522 0.13049227 0.82320005
0.25290033 0.13102235 0.8222
0.34469244 0.13033445 0.82044452
0.35299051 0.13007292 0.82000005
0.36588338 0.13026373 0.82000011
0.37498984 0.13007294 0.82000011
-0.40198505 0.14870089 0.8274287
-0.39518514 0.14849946 0.82700008
-0.38379493 0.14797272 0.82776487
-0.37422791 0.14756221 0.82662088
-0.36471075 0.14731696 0.82525015
-0.35515445 0.14773412 0.82567871
-0.34609392 0.14833839 0.82677287
-0.33486477 0.14792113 0.82699996
-0.32550406 0.14795494 0.82658333
-0.314201 0.14674953 0.8264783
-0.30539563 0.14396982 0.82342106
-0.29456544 0.14232008 0.82374203
-0.28484315 0.14309983 0.82397318
-0.27480328 0.14357266 0.8248502
-0.26441443 0.1441866 0.82390726
-0.25491753 0.14435199 0.82367402
-0.24482282 0.14364259 0.82419991
-0.2352633 0.14281468 0.82420003
-0.22479403 0.14360429 0.82340735
-0.21557729 0.14407279 0.82452184
-0.20447469 0.14399068 0.82512504
-0.19491422 0.14324419 0.82339996
-0.18531911 0.14264031 0.82443738
-0.1749922 0.14195545 0.82337523
-0.16503726 0.1415989 0.82511109
-0.15525177 0.14166068 0.82350028
-0.14576958 0.14202742 0.82153851
-0.1357556 0.14169192 0.82183337
-0.12784362 0.14140618 0.82100004
-0.091798 0.14046098 0.82050002
-0.084695742 0.14037539 0.82000011
-0.077506408 0.14037539 0.82000005
-0.42018348 0.15561557 0.82800007
-0.41359457 0.15531455 0.82366681
-0.40421125 0.15315256 0.8233847
-0.3953515 0.15281701 0.82420594
-0.38529152 0.15190278 0.82355571
-0.37511906 0.15171577 0.82253337
-0.36547837 0.15147553 0.82122231
-0.35487249 0.15099287 0.82171434
-0.34465811 0.1512242 0.82273686
-0.33491966 0.15190451 0.82270002
-0.32534572 0.15166812 0.82235003
-0.31491563 0.15185782 0.82219052
-0.3089484 0.1520067 0.8210001
0.13740279 0.11969072 0.83900005
0.14093363 0.11991032 0.83900005
0.16535527 0.11991032 0.83900011
0.24610214 0.11965934 0.83900011
0.25627431 0.11991032 0.83900011
0.26215905 0.11932471 0.83900011
0.34694749 0.11926606 0.83800018
0.35344094 0.11898752 0.83800018
0.36682254 0.11889002 0.83800012
0.37571692 0.11854304 0.8368001
0.38444191 0.11802183 0.83585727
0.39608532 0.11807136 0.83672732
0.40513518 0.11844168 0.83622241
0.41540325 0.11797627 0.83528012
0.42559665 0.1174572 0.83666682
0.43499398 0.11752004 0.83600003
0.44533926 0.11679712 0.83613902
0.45522648 0.11736179 0.83608574
0.46449316 0.11676252 0.83537507
0.47477674 0.11699417 0.83457589
0.48286778 0.11610375 0.83575004
-0.13447161 0.12957308 0.83900005
-0.12281984 0.12869464 0.83900005
-0.11558163 0.12869464 0.83900005
-0.10181136 0.12869464 0.83900005
-0.094749704 0.12869464 0.83900005
-0.08479213 0.12897944 0.838
-0.074694268 0.12874387 0.83780009
-0.064575121 0.12788855 0.83689994
-0.054347403 0.12819175 0.83787501
-0.045441668 0.12816356 0.83630449
-0.035098981 0.12871426 0.83558339
-0.024780488 0.12839091 0.83584219
-0.015124519 0.1274958 0.8358928
-0.0053857598 0.12671329 0.83527267
0.0045001213 0.12681708 0.83420014
0.014675208 0.12620927 0.83438891
0.024988487 0.12487335 0.83419049
0.035390161 0.12450709 0.83413333
0.044677231 0.12524462 0.83347368
0.054914821 0.12554367 0.83411443
0.065152466 0.12560545 0.83485711
0.074878111 0.12568408 0.83481491
0.085568681 0.1246872 0.83310342
0.094712481 0.12475703 0.83431989
0.10531632 0.12472348 0.83497149
0.11554003 0.12431651 0.83488011
0.12497126 0.12367359 0.83514309
0.13472125 0.12313043 0.83493531
0.144501 0.12306968 0.83527273
0.15464532 0.12349137 0.83479184
0.16486607 0.12320041 0.83473343
0.17484294 0.12360878 0.83505875
0.18498094 0.12381824 0.83538699
0.19526915 0.12389144 0.83572739
0.20491272 0.12357088 0.83572727
0.21466067 0.12431308 0.83614284
0.22494407 0.12418484 0.83471406
0.23494527 0.12316015 0.83575004
0.24490896 0.12364867 0.8348124
0.25472641 0.12310344 0.83474183
0.26089203 0.12236404 0.83420002
0.33939385 0.12557612 0.83000004
0.3447867 0.12283362 0.8340646
0.35480806 0.12250954 0.8337
0.36533791 0.12224213 0.83309668
0.37505412 0.12152044 0.83171427
0.38515124 0.12134662 0.83169997
0.39486775 0.12147727 0.83192593
0.4058322 0.12182723 0.83144438
0.41437626 0.1210139 0.83050001
0.42587504 0.12128907 0.83039999
0.43453434 0.1221929 0.83111989
0.44387418 0.12114777 0.83200002
0.45387 0.12199237 0.83074999
-0.36284104 0.13873389 0.83900011
-0.35958588 0.13978027 0.83700001
-0.31418172 0.13732794 0.83595997
-0.30496278 0.13725053 0.83507413
-0.29466224 0.1362513 0.83439291
-0.2852729 0.13724624 0.83436114
-0.27483618 0.13653742 0.83393949
-0.26509577 0.13639703 0.83381462
-0.25552016 0.13729958 0.83507144
-0.24488986 0.13646503 0.83441198
-0.23512232 0.13708892 0.83497149
-0.22434343 0.13806289 0.83554566
-0.21465911 0.1374443 0.83503234
-0.20516439 0.13740477 0.83417398
-0.19486034 0.13646097 0.83446163
-0.18532242 0.13688767 0.83417648
-0.174522 0.13620064 0.83447373
-0.16484341 0.13563588 0.83338457
-0.15610832 0.13491409 0.83385724
-0.14430827 0.13387939 0.8344444
-0.13489912 0.13350748 0.83458549
-0.12487912 0.13363487 0.83333325
-0.11553144 0.13251233 0.83364505
-0.10520037 0.13160275 0.83452004
-0.094694227 0.13164598 0.83407146
-0.085316241 0.13225397 0.83308333
-0.074209645 0.13257025 0.83355999
-0.065846838 0.13240629 0.83272743
-0.054411151 0.13057067 0.83183348
-0.044785701 0.13194913 0.83183348
-0.036940597 0.13159783 0.83144444
-0.026525732 0.13094775 0.83100003
-0.01540973 0.13094777 0.83100003
-0.0072913012 0.13051271 0.83100003
0.0093202526 0.13007769 0.83100003
-0.4217315 0.14959851 0.83800006
-0.41337016 0.147158 0.83588248
-0.40589306 0.1463732 0.83485186
-0.39491221 0.14540626 0.83427787
-0.38559547 0.1440717 0.83413148
-0.37508813 0.14255229 0.83434474
-0.36495748 0.14247413 0.83493543
-0.35516194 0.14337108 0.83413333
-0.34462109 0.14379553 0.83477134
-0.33517614 0.1427599 0.83531582
-0.32500705 0.14380276 0.83438885
-0.31675848 0.14270335 0.83260012
-0.28138193 0.14051838 0.83100003
-0.27613619 0.14051838 0.83100003
-0.25277644 0.14057474 0.83133334
-0.24605811 0.14076452 0.83039999
-0.23665363 0.14034927 0.8300001
-0.22518635 0.14097643 0.83199996
-0.21379904 0.14172147 0.83083332
-0.20900102 0.14121827 0.83000004
-0.18214871 0.14051837 0.83100003
-0.16533901 0.14034927 0.83000004
-0.42230281 0.15222175 0.83459997
-0.41584486 0.15209834 0.83214277
-0.40897301 0.15164639 0.83000004
0.42654663 0.10849057 0.84700006
0.43248746 0.10863837 0.84700006
0.4572258 0.10929118 0.84633338
0.46539965 0.10952518 0.84700006
0.47110289 0.10952517 0.84700006
-0.032421447 0.11942091 0.84800005
-0.024391841 0.1194209 0.84800005
-0.014829385 0.11938067 0.84771436
-0.0047545014 0.11925996 0.84685725
0.0055598458 0.1194209 0.84800011
0.015012684 0.11927293 0.84800005
0.025621688 0.11843506 0.84612501
0.033646829 0.11850665 0.84613335
0.045198042 0.11853304 0.84800011
0.056267153 0.11889614 0.84680003
0.065172203 0.11803076 0.84477776
0.075143591 0.11776524 0.84582597
0.085780665 0.11656532 0.84663993
0.094952323 0.11714351 0.84712148
0.10459163 0.11753044 0.84581274
0.1152692 0.11746057 0.84543353
0.12495998 0.11696755 0.84635305
0.13491756 0.11671937 0.84524256
0.14483339 0.11648595 0.84494144
0.15515794 0.11714929 0.84715408
0.16488406 0.11703131 0.84542865
0.17507277 0.11730031 0.84614295
0.18505499 0.11836453 0.84549993
0.1950725 0.11713476 0.84511793
0.2050993 0.1176106 0.84448135
0.21477801 0.1177214 0.84591669
0.22477981 0.11815679 0.84623832
0.23519602 0.11732275 0.84707147
0.24422503 0.11721297 0.8449167
0.25495535 0.11755867 0.84466684
0.26166669 0.11676987 0.84311116
0.34741363 0.11662323 0.84261543
0.35501736 0.11585508 0.84361911
0.36505643 0.11567902 0.84483737
0.37523097 0.11512634 0.84520006
0.38453656 0.11479766 0.84435725
0.39514753 0.11441163 0.84384876
0.40488368 0.11356758 0.84320009
0.41472533 0.1132752 0.84318739
0.42503455 0.11231184 0.8435334
0.43523887 0.11311163 0.84388882
0.44494998 0.11215047 0.84372723
0.45508724 0.11204121 0.84259987
0.46544743 0.11213713 0.84278941
0.47537246 0.11222912 0.84384209
0.48508132 0.11214904 0.84452397
0.49159881 0.11041198 0.84700006
-0.32577908 0.1292381 0.84833336
-0.31259716 0.12930351 0.84759998
-0.30570352 0.12909764 0.847
-0.28795302 0.1287891 0.84733337
-0.26420927 0.12900972 0.84800005
-0.25392494 0.12894517 0.84800011
-0.24540398 0.12867624 0.84714293
-0.23535383 0.12878978 0.84733337
-0.20946966 0.12976839 0.84600002
-0.18509129 0.12909043 0.84692305
-0.17512593 0.12787628 0.84681815
-0.16462277 0.12834977 0.84749997
-0.15479197 0.12756237 0.84644002
-0.1447209 0.12732549 0.8462801
-0.13454391 0.12690312 0.84517157
-0.12505952 0.12594858 0.84550017
-0.11465725 0.12509973 0.8458572
-0.10513558 0.12527898 0.84509301
-0.095273644 0.12510215 0.84537512
-0.085057572 0.12510061 0.84545708
-0.07528583 0.1247884 0.84500009
-0.064966813 0.1242298 0.84572005
-0.055096604 0.12386115 0.84511429
-0.044540171 0.12343008 0.84490013
-0.035313915 0.12351757 0.84492308
-0.024907351 0.12364869 0.84382856
-0.014981012 0.12234497 0.84248006
-0.004654848 0.12196516 0.84183347
0.0052733072 0.12196931 0.84314293
0.014224054 0.12161349 0.84363645
0.023994407 0.12171775 0.84258825
0.034912076 0.12123718 0.843077
0.045175306 0.12070455 0.84388888
0.054813538 0.12099124 0.84258825
0.064816982 0.12135929 0.84093344
0.075048521 0.12165948 0.84200007
0.083929308 0.12116548 0.84162503
0.094863363 0.12140822 0.84200007
0.10446911 0.1213074 0.84085727
0.11447724 0.12151555 0.84133333
0.12327866 0.12144445 0.84050006
0.14637637 0.12048859 0.84128582
0.15557383 0.12083882 0.84180003
0.16560195 0.12019617 0.84100002
0.17525074 0.12033909 0.84200013
0.18533328 0.1210767 0.84100002
0.19317864 0.1210767 0.84100002
0.20940021 0.1210767 0.84100002
0.21589577 0.1212347 0.84154558
0.22555502 0.12031868 0.84185719
0.23614188 0.12063068 0.84249997
0.2412535 0.12019617 0.84100002
0.25496811 0.12019617 0.84100002
0.34259915 0.12005325 0.84000003
0.35850686 0.12093272 0.84000003
0.36115813 0.12093272 0.84000003
-0.41263786 0.13942181 0.84700006
-0.40387338 0.13765261 0.84805268
-0.39450938 0.13726307 0.84692609
-0.38528052 0.13722396 0.84540033
-0.37523746 0.13742933 0.84500015
-0.36492044 0.13657372 0.84507149
-0.35510132 0.13684677 0.84694141
-0.34485441 0.13707814 0.84530783
-0.33418477 0.13653775 0.84493744
-0.32498944 0.1349895 0.84512496
-0.31502032 0.13263074 0.84538472
-0.30479383 0.13277882 0.84358329
-0.29499596 0.13178064 0.84439987
-0.28523505 0.13188918 0.84328002
-0.27518776 0.13199177 0.84326315
-0.26498455 0.1323867 0.8434484
-0.25470823 0.1325108 0.84385192
-0.2453181 0.13173644 0.84411108
-0.23428422 0.13234951 0.84253365
-0.22550057 0.13304895 0.84388238
-0.21515004 0.13271426 0.84458327
-0.20511937 0.13247231 0.84360009
-0.19542429 0.13193148 0.84423995
-0.18461584 0.1320409 0.8419168
-0.17546362 0.13149557 0.84112507
-0.16540036 0.13102677 0.84271437
-0.15452848 0.13138607 0.8408668
-0.14708038 0.13080831 0.84181833
-0.43071645 0.14455253 0.847
-0.42491713 0.14652365 0.84450012
-0.41557065 0.14289685 0.84260887
-0.40511811 0.1422652 0.84270352
-0.39739496 0.14095458 0.84328586
-0.38497311 0.1413288 0.84100002
-0.35429469 0.14106229 0.84233338
-0.34699035 0.14109097 0.84133333
-0.32620677 0.1410353 0.84100002
-0.42280045 0.15101355 0.84100008
0.034035571 0.10927815 0.85900003
0.094796911 0.10979273 0.85600007
0.1267934 0.10915094 0.85799998
0.13419552 0.10915093 0.85800004
0.14547926 0.10915093 0.85800004
0.16619359 0.10869265 0.85742861
0.17145589 0.10902267 0.85700005
0.20800765 0.10837878 0.85900003
0.21804667 0.10921454 0.8585
0.22512412 0.10831517 0.85850012
0.23527144 0.10858066 0.85750002
0.24447705 0.10905611 0.85726666
0.25490183 0.10909057 0.85807711
0.26057339 0.10914989 0.85800004
0.35597891 0.10899567 0.85820007
0.36484316 0.10903137 0.85761541
0.37550884 0.10789516 0.8555001
0.38483024 0.10760173 0.85494119
0.39538202 0.10734557 0.85568416
0.40521309 0.10707083 0.85513067
0.41500339 0.10686057 0.85431266
0.42440063 0.10684177 0.85344839
0.43513519 0.10619654 0.85313052
0.44550315 0.10700681 0.85503221
0.45462242 0.10658365 0.85374188
0.46529806 0.10665666 0.85459256
0.47529882 0.10645927 0.85437846
0.48517543 0.10578449 0.85444993
0.49289712 0.10596316 0.85408711
-0.16008431 0.11993083 0.85800004
-0.15426691 0.11953159 0.85799992
-0.14488888 0.11993085 0.85799998
-0.13372551 0.11993084 0.85799998
-0.12483838 0.11963423 0.8577143
-0.11420551 0.11846062 0.85526317
-0.10532001 0.11891527 0.85460001
-0.095218964 0.11903252 0.85799998
-0.08404801 0.11838809 0.85699993
-0.074581124 0.11750239 0.85759991
-0.065717399 0.11706148 0.85715634
-0.054856837 0.11718034 0.85610008
-0.045200638 0.11685223 0.85596305
-0.035150025 0.11675168 0.85475004
-0.024929717 0.11630056 0.85474378
-0.014642503 0.11573122 0.85503119
-0.0050292877 0.1154787 0.85502791
0.00534083 0.11533929 0.85491663
0.015086377 0.11477218 0.85467649
0.024286559 0.11428896 0.85538226
0.035073452 0.11388898 0.85476333
0.045141518 0.11403675 0.85478055
0.055010956 0.11396626 0.85359538
0.064729296 0.11378258 0.85633343
0.074790128 0.11301938 0.85418767
0.084296264 0.11210313 0.85414302
0.095548369 0.11199884 0.8532728
0.10536603 0.11229622 0.8540799
0.11489733 0.11251792 0.85439998
0.12510836 0.11184033 0.85420007
0.13479809 0.11196057 0.85410005
0.14491285 0.11162757 0.8550477
0.15472229 0.11256547 0.85504758
0.16483594 0.11228817 0.85456002
0.17482914 0.11276199 0.85441375
0.1849063 0.11370771 0.85442859
0.19477125 0.11253561 0.85427284
0.20495068 0.11272258 0.85432005
0.21490407 0.11280607 0.85485715
0.2250547 0.11291749 0.8540557
0.23465149 0.11275742 0.85308701
0.24525544 0.11292823 0.8529129
0.25508446 0.11316457 0.85311532
0.26475257 0.11277528 0.85535729
0.27040422 0.11284681 0.852
0.34969619 0.11387339 0.85300004
0.35618058 0.11199863 0.85362494
0.36391503 0.11139829 0.85299993
0.37515607 0.11087964 0.85245454
0.38566655 0.11103228 0.85233331
0.39435372 0.11111058 0.85193753
0.40511829 0.11017174 0.85200012
0.41553745 0.11080305 0.85000008
0.43878877 0.11080305 0.85000002
0.44415447 0.11080306 0.85000002
0.48523813 0.11017172 0.85200012
-0.40307546 0.12951171 0.85720009
-0.39452818 0.12981242 0.85799998
-0.38801581 0.12981242 0.85800004
-0.32366386 0.12614655 0.85487998
-0.31529665 0.12559927 0.85420585
-0.30507728 0.12517589 0.85437506
-0.29559547 0.12619789 0.85429722
-0.2846922 0.12652579 0.85555547
-0.27496502 0.1274925 0.8554799
-0.26473486 0.12661651 0.85416675
-0.25497431 0.12565623 0.85400003
-0.24551871 0.12563242 0.85476458
-0.23443776 0.12601614 0.8536334
-0.22501776 0.12659521 0.85583794
-0.21495107 0.12607743 0.85546315
-0.20466788 0.12629226 0.85514706
-0.19497837 0.12563846 0.85539478
-0.18530928 0.12518896 0.85444003
-0.17469515 0.12369979 0.85392874
-0.16523096 0.1243223 0.85436374
-0.15539069 0.12312781 0.85386366
-0.14531834 0.12305026 0.85474074
-0.13539208 0.12198728 0.85429406
-0.125594 0.1213318 0.85443747
-0.11784226 0.12116732 0.85280001
-0.10255266 0.12094561 0.85250002
-0.095047615 0.12117717 0.85256243
-0.086036995 0.12090771 0.85223079
-0.075201653 0.12149596 0.85260004
-0.065845691 0.12156295 0.85227269
-0.054382302 0.12073437 0.85100001
-0.046582855 0.1205925 0.85000002
-0.43338478 0.13887754 0.85712504
-0.42409718 0.13746466 0.85500002
-0.41483924 0.13528077 0.85424256
-0.40536103 0.13341095 0.85279173
-0.39527538 0.1325815 0.85321742
-0.38498577 0.1327246 0.85412502
-0.37569836 0.13275144 0.85409522
-0.36487144 0.13286696 0.85426313
-0.35503861 0.13249116 0.8539474
-0.34465504 0.1335258 0.85515797
-0.33664581 0.13263381 0.85449994
-0.28259882 0.13038194 0.85000008
-0.27667189 0.13074401 0.85120004
-0.24157146 0.1307628 0.85250002
-0.22208574 0.13038194 0.85000002
-0.21828504 0.13082692 0.85000002
-0.20062296 0.13038194 0.85000002
-0.19168013 0.13038194 0.85000002
-0.43175778 0.14112376 0.85277784
-0.42632103 0.14211753 0.85100001
0.37438864 0.099177264 0.86900008
0.38276944 0.099632189 0.86900008
0.39770254 0.099632189 0.86900008
0.40455958 0.099632196 0.86900008
0.4160147 0.098840714 0.86723542
0.42474583 0.098976731 0.86594439
0.43468019 0.098867737 0.86610532
0.44515944 0.098538563 0.86668199
0.45388213 0.097868308 0.86638892
0.46635908 0.099109516 0.86775011
0.47373524 0.098372154 0.86593342
0.48598117 0.098055877 0.8658095
0.49488991 0.097543076 0.86512506
0.50131506 0.097245544 0.86720008
-0.063857518 0.10878296 0.86700004
-0.058688566 0.10848038 0.86700004
-0.04272563 0.10848038 0.86700004
-0.034972202 0.10825345 0.86700004
-0.024307679 0.10875347 0.86616671
-0.014746314 0.10876346 0.86592311
-0.0044099176 0.10811286 0.86614287
0.0053976546 0.10780106 0.86615783
0.016034793 0.10727498 0.86492306
0.025130315 0.10660808 0.86534303
0.034678809 0.10710907 0.86453348
0.045433804 0.10706836 0.86412489
0.055080898 0.10741039 0.86483347
0.064843714 0.10725276 0.86525017
0.075241342 0.10707106 0.86482149
0.084994338 0.1069501 0.86445826
0.095197909 0.10673323 0.86514807
0.1053104 0.10629589 0.86505395
0.11525063 0.10630764 0.86470705
0.12506649 0.10542132 0.86452627
0.1349304 0.10619678 0.86393952
0.14478377 0.10564921 0.86419505
0.15490192 0.10523617 0.86404759
0.16483106 0.10531908 0.86556238
0.1750371 0.10648106 0.86479318
0.18486443 0.10667964 0.86470836
0.19564113 0.10704965 0.86391175
0.20493694 0.10614078 0.86341667
0.21466464 0.10662027 0.86365527
0.22542919 0.10560865 0.86517394
0.23553567 0.10537341 0.866
0.24550185 0.10587618 0.86519051
0.25548035 0.1055714 0.86438459
0.26470616 0.10667782 0.86405265
0.35780895 0.10481828 0.86392319
0.36504048 0.1040406 0.86469984
0.37396729 0.10325328 0.86352974
0.38519385 0.10318545 0.86381489
0.39491215 0.10348621 0.86407143
0.40471834 0.10282248 0.86495841
0.41376182 0.10213478 0.86343485
0.42542037 0.10269836 0.86105877
0.43467835 0.10250388 0.86112499
0.4453795 0.10248883 0.86152941
0.45479375 0.10193174 0.86179996
0.46497583 0.10210574 0.86252183
0.47504008 0.10183355 0.86146683
0.48452812 0.10117657 0.86150002
0.49513337 0.10118376 0.86076921
-0.34041971 0.11964872 0.86900002
-0.33353978 0.11759204 0.86460006
-0.32541957 0.11845257 0.86649996
-0.31537089 0.11875283 0.86799997
-0.3045606 0.11918012 0.86842859
-0.2939747 0.11846594 0.86900008
-0.28346211 0.11800189 0.86760008
-0.27452719 0.11766963 0.86783332
-0.26516226 0.11728367 0.86750013
-0.25644132 0.11879275 0.8668462
-0.24460568 0.11808024 0.8667779
-0.23633221 0.11891843 0.86700004
-0.22479884 0.11737049 0.86600012
-0.2159708 0.11818013 0.8652001
-0.20500335 0.11854801 0.86577791
-0.19468766 0.11792184 0.86463988
-0.18512522 0.11749915 0.86552006
-0.17532362 0.11755694 0.86568004
-0.16503437 0.11710022 0.86392301
-0.15477049 0.11663475 0.86424017
-0.14493178 0.11576519 0.86423528
-0.13514572 0.11594995 0.86441177
-0.12484968 0.11575044 0.86440003
-0.11471569 0.1145918 0.86427277
-0.10518806 0.11422772 0.86426324
-0.094829105 0.11480783 0.86408132
-0.084856428 0.1135811 0.86440629
-0.075682789 0.11278647 0.86360002
-0.064534463 0.11199896 0.86383355
-0.05464714 0.11198286 0.86292601
-0.04455132 0.11181945 0.86381829
-0.035251334 0.11183986 0.86388904
-0.025154578 0.11131805 0.862625
-0.015149714 0.1113935 0.86209095
-0.00505216 0.11110752 0.86192316
0.0049905106 0.11090931 0.86146158
0.013280145 0.11073454 0.86100006
0.025358215 0.11133551 0.86100006
0.065290898 0.11030579 0.86000007
0.073886536 0.11030579 0.86000001
0.15658553 0.11030579 0.86000007
0.16165243 0.11030579 0.86000001
0.17884369 0.11030579 0.86000001
0.18567999 0.11050588 0.86000007
0.19151093 0.11075599 0.86000001
-0.4136551 0.12791649 0.86428595
-0.4045057 0.12740968 0.86452186
-0.3948766 0.12606375 0.86412907
-0.38500065 0.12627982 0.8637144
-0.37453938 0.12688437 0.86531043
-0.36493063 0.12767658 0.86526668
-0.35499421 0.12753101 0.86619991
-0.34422719 0.12688066 0.86688232
-0.33434096 0.12472877 0.86409104
-0.32495573 0.12162293 0.86193335
-0.31530744 0.12086956 0.86300009
-0.30478305 0.12088333 0.86353338
-0.29492709 0.1216008 0.86350006
-0.28540036 0.12155166 0.8637619
-0.27500376 0.12216902 0.86312515
-0.26508635 0.12204081 0.86329645
-0.25538331 0.12160069 0.86257148
-0.24360384 0.12221576 0.86322224
-0.23410609 0.12176062 0.86355555
-0.22507653 0.121553 0.86274999
-0.21428446 0.12165356 0.86225003
-0.20503698 0.12219638 0.86130774
-0.19432981 0.12125857 0.86025006
-0.18480425 0.12124604 0.86142874
-0.17519246 0.12048995 0.86199999
-0.16588631 0.1202104 0.86000007
-0.15140945 0.12201124 0.86000001
-0.13919461 0.1202104 0.86000001
-0.44132516 0.13308677 0.86666673
-0.43476006 0.13440055 0.86499995
-0.42467073 0.13275485 0.86447066
-0.41665131 0.13113658 0.86140007
-0.40746871 0.13011502 0.86000001
-0.3831827 0.13021588 0.86066669
-0.37451306 0.13065673 0.86120015
-0.36732328 0.13121855 0.86133337
-0.35304108 0.13115548 0.86309099
-0.34412307 0.13146847 0.86180013
-0.33823669 0.13106379 0.86542863
0.4855721 0.089734964 0.87900013
0.4955804 0.089325935 0.87900013
0.50539351 0.089734964 0.87900013
-0.014539368 0.099744797 0.87800008
-0.0036971825 0.099706918 0.87766671
0.005388774 0.099858396 0.87900013
0.015254317 0.099728562 0.87785721
0.025663216 0.099138357 0.87728572
0.034128346 0.09852156 0.87827271
0.045370657 0.098938078 0.87900013
0.055115037 0.097984664 0.87807697
0.065640777 0.098359413 0.87773675
0.075231597 0.098455288 0.87744445
0.084456153 0.098494768 0.87747055
0.095362701 0.098366044 0.87742865
0.10444002 0.098224886 0.87700003
0.11562695 0.098511748 0.87739998
0.12508962 0.09732078 0.87710524
0.13364409 0.097977154 0.87658328
0.14437278 0.097535357 0.87758833
0.1555212 0.09806484 0.8750667
0.16448589 0.098280087 0.87588906
0.1743923 0.097920857 0.87627286
0.18463559 0.098252989 0.87700015
0.19543786 0.098065071 0.87737513
0.20430543 0.098391958 0.8749525
0.2154638 0.098122008 0.87700021
0.22457227 0.097394325 0.87729436
0.23501062 0.098346092 0.8774547
0.24500103 0.099003524 0.87707704
0.25482267 0.09898603 0.87692314
0.26547986 0.098084643 0.87647629
0.27187663 0.096446082 0.87625009
0.36652794 0.097269543 0.87277788
0.37531388 0.096770249 0.87400001
0.38507357 0.097859614 0.87369573
0.39456269 0.097335897 0.87322241
0.40536383 0.096463315 0.87290913
0.41440871 0.095101915 0.87356001
0.42550305 0.095823243 0.87475002
0.43505597 0.094357498 0.87418526
0.44511929 0.093330078 0.87475002
0.45488954 0.093702883 0.8743183
0.46490076 0.094468214 0.87402946
0.47549617 0.093852244 0.87454826
0.48495123 0.093693621 0.87257159
0.49479872 0.093209833 0.87100005
0.50333697 0.092764288 0.87338889
-0.34117413 0.10985671 0.87800002
-0.33893913 0.10973159 0.87700003
-0.21024212 0.10906152 0.87900007
-0.20321369 0.10906152 0.87900013
-0.19442227 0.10849509 0.87855566
-0.18527271 0.10906152 0.87900007
-0.17517549 0.10955168 0.87871438
-0.16478327 0.10964726 0.87877786
-0.1561708 0.10925448 0.87760001
-0.14435048 0.10925448 0.87760001
-0.13523108 0.10885298 0.87733334
-0.12488654 0.10847541 0.8770625
-0.1144776 0.10723637 0.87479186
-0.10599305 0.10786351 0.87440002
-0.093833081 0.10802876 0.87660009
-0.084550187 0.1070974 0.87414813
-0.075016119 0.10659534 0.87527263
-0.065030061 0.10693742 0.87443477
-0.05432843 0.10688142 0.87459278
-0.044733018 0.10621219 0.87355566
-0.035273775 0.10511069 0.87347829
-0.024957173 0.10533495 0.87407994
-0.014762406 0.10428374 0.87350017
-0.0051410035 0.10385189 0.87421429
0.0047312514 0.103483 0.87427586
0.015051391 0.10274428 0.87288487
0.025618626 0.1013306 0.87357157
0.035531353 0.10221484 0.8735218
0.044644546 0.10210401 0.87461919
0.054760817 0.1021117 0.87351865
0.064792253 0.10261175 0.87317401
0.074901253 0.10252611 0.87300009
0.08506 0.1025824 0.87336367
0.094901532 0.10230859 0.87300003
0.10508099 0.10107864 0.87233347
0.11489916 0.10095391 0.87257159
0.12454595 0.10077448 0.8726002
0.13510682 0.10133176 0.87337512
0.14523277 0.10066202 0.87400019
0.15381494 0.10043212 0.8720001
0.16453184 0.10114605 0.87225008
0.17547846 0.10211495 0.87263161
0.18508679 0.10204054 0.87188882
0.19436407 0.10224455 0.87173909
0.20445369 0.10120638 0.87159997
0.21534073 0.10164056 0.87260002
0.22512738 0.10141357 0.87299997
0.23486631 0.10180968 0.872091
0.24479336 0.10227098 0.87235284
0.25384414 0.10222495 0.8714667
0.26550382 0.10224582 0.87190914
0.27139378 0.10168433 0.87100005
0.36074096 0.10077343 0.87100005
-0.40486151 0.1194424 0.87788886
-0.3969692 0.11936246 0.87655562
-0.38384506 0.11921915 0.87700003
-0.37821212 0.11955872 0.875
-0.34270108 0.11705509 0.87600005
-0.33393732 0.11421511 0.87552392
-0.32496142 0.11507053 0.87572736
-0.31484741 0.11527719 0.87507141
-0.30512252 0.11618131 0.87507683
-0.29505587 0.11535458 0.87472737
-0.28588581 0.11610373 0.87544447
-0.27469715 0.11398961 0.87504005
-0.26515839 0.11448967 0.87428588
-0.25443774 0.11477273 0.8745001
-0.24522695 0.11420417 0.8752799
-0.23484838 0.11640322 0.8761
-0.22569077 0.11440413 0.8761428
-0.21460614 0.11401949 0.87520683
-0.20525749 0.11358859 0.87442875
-0.19520997 0.11295927 0.87411118
-0.18538614 0.11237751 0.87485164
-0.17528257 0.11285619 0.87364012
-0.165071 0.11279964 0.87340015
-0.15552337 0.1127279 0.87320006
-0.14472061 0.11163352 0.87333339
-0.13459757 0.11141321 0.87192327
-0.12525833 0.11095192 0.87216681
-0.1164798 0.11100234 0.87190926
-0.10092293 0.11062624 0.8720001
-0.095120572 0.1106585 0.87181824
-0.088283375 0.11034824 0.87100005
-0.078751735 0.11001897 0.87200004
-0.44403645 0.12678444 0.8769092
-0.43485191 0.12524167 0.87505114
-0.4250665 0.12508813 0.87382036
-0.41512606 0.12372822 0.87492865
-0.40582204 0.12299277 0.87339991
-0.39433232 0.12161532 0.87313336
-0.38498449 0.12200914 0.87355006
-0.37521091 0.12281673 0.87315792
-0.3645606 0.12283542 0.87445831
-0.35563079 0.12292894 0.87476009
-0.34702957 0.1224364 0.8731429
-0.23425584 0.12006178 0.87200004
-0.44332775 0.13071708 0.87000006
-0.43404379 0.13084723 0.87000006
-0.42776725 0.13071708 0.87000006
0.2469836 0.089622967 0.88700002
0.26130071 0.089572445 0.8865
0.37497702 0.089825056 0.88900006
0.38504955 0.089020111 0.88840002
0.39528126 0.088100873 0.88771427
0.40568364 0.087533869 0.8878001
0.41385981 0.087615177 0.88750005
0.42615125 0.088861644 0.88653862
0.43479148 0.088305824 0.88557917
0.4450255 0.087471284 0.88444012
0.45319834 0.087173462 0.88456267
0.46545899 0.087558173 0.88554865
0.47501612 0.087930515 0.88420719
0.48480475 0.087566756 0.88414305
0.4949396 0.086423874 0.88447845
0.50530905 0.085704595 0.88463348
0.51181251 0.085662603 0.88450003
-0.13376597 0.09983854 0.88700002
-0.1222261 0.098715544 0.88860005
-0.11488147 0.098743238 0.88807696
-0.10590217 0.098723501 0.88811117
-0.095116228 0.098134905 0.88700008
-0.088237196 0.099132881 0.88900006
-0.074207492 0.099132881 0.88900006
-0.064236484 0.099042833 0.88819999
-0.054660227 0.099020325 0.88800001
-0.044684835 0.098062828 0.88731575
-0.034746207 0.097915493 0.88685006
-0.025880819 0.098204918 0.88680011
-0.014701368 0.097594939 0.88468188
-0.0049382406 0.096618176 0.88482761
0.0053060758 0.096168853 0.88471997
0.014805328 0.096120752 0.88496006
0.024315311 0.096193515 0.88483351
0.035298001 0.095285229 0.88500011
0.044973835 0.095806509 0.8847695
0.055033974 0.095017008 0.88536853
0.065364152 0.094861686 0.88506681
0.074681044 0.093708098 0.88533354
0.085435703 0.09416879 0.88462085
0.094626106 0.094126157 0.88538468
0.10548495 0.093815945 0.88524002
0.11449896 0.094173878 0.88375849
0.12506047 0.093399689 0.88272238
0.13571735 0.094221309 0.8840369
0.14569181 0.093447588 0.88441676
0.15469751 0.094687738 0.88382363
0.16498464 0.093781233 0.88391674
0.17451325 0.093840949 0.88390011
0.18498626 0.095049247 0.88442874
0.19497514 0.094796188 0.88446677
0.20494807 0.094141714 0.88427275
0.21463773 0.094118863 0.88403708
0.22551206 0.094232261 0.88380015
0.23545869 0.094149992 0.88444817
0.24537688 0.094284423 0.88448554
0.25523433 0.094291039 0.88380021
0.2642878 0.094014138 0.88466662
0.27240163 0.092692137 0.88619995
0.36829385 0.092710733 0.884
0.37498611 0.092456758 0.88326091
0.38502043 0.092575207 0.88292849
0.39491984 0.092487626 0.88175988
0.40541145 0.092235565 0.88359982
0.41431099 0.090975329 0.88211769
0.4251397 0.092307769 0.881625
0.43316907 0.091671012 0.88072729
0.44063798 0.09173134 0.88050008
0.45672673 0.09101519 0.88249999
0.46244916 0.090758428 0.88360006
-0.35027063 0.10912543 0.88700002
-0.34352008 0.10798661 0.8842144
-0.33618161 0.10830977 0.88676935
-0.32494375 0.10791609 0.88829416
-0.31501254 0.10839733 0.88757151
-0.30616534 0.10913879 0.88900006
-0.29358968 0.10792127 0.88692874
-0.28479409 0.10747997 0.88400024
-0.27562949 0.10850588 0.88481253
-0.26486868 0.10884834 0.88707715
-0.25481603 0.10808174 0.88733351
-0.24759777 0.10789762 0.88760006
-0.23296137 0.10724527 0.88733357
-0.22482221 0.10749105 0.88580006
-0.21493095 0.10775536 0.88473946
-0.20521209 0.10687835 0.88486362
-0.19551836 0.1061112 0.8837648
-0.18491291 0.10741403 0.8842383
-0.17491631 0.10670735 0.88385713
-0.16554743 0.10635979 0.88365406
-0.15395823 0.10642248 0.88459098
-0.14499465 0.10434045 0.88523692
-0.13501707 0.10336023 0.88457888
-0.12541476 0.10306646 0.88405883
-0.11528214 0.10239933 0.88254559
-0.10437734 0.1034553 0.88338703
-0.095231518 0.10357562 0.88315141
-0.085709497 0.10191492 0.88319051
-0.074714348 0.10178199 0.88588238
-0.065099634 0.10229807 0.88453829
-0.054836702 0.1025118 0.8822633
-0.044967752 0.10186327 0.88157159
-0.034968298 0.1011546 0.8817144
-0.025858689 0.10165193 0.88180017
-0.00031447312 0.10181472 0.88000005
-0.45226651 0.11808094 0.88800007
-0.4445087 0.11814386 0.88595456
-0.4341549 0.11850274 0.88571435
-0.42398381 0.11746693 0.884682
-0.41470006 0.11655361 0.88522583
-0.4050881 0.11494429 0.88599992
-0.39506373 0.11571296 0.88615614
-0.38478449 0.11570049 0.88543576
-0.37479311 0.1160792 0.8861739
-0.36506233 0.11706417 0.88345462
-0.35434309 0.11638115 0.88491172
-0.34598571 0.1148518 0.88309526
-0.33411446 0.11124069 0.88169241
-0.32529092 0.11144183 0.88237506
-0.31428102 0.11115052 0.88143754
-0.30495167 0.11179022 0.88433331
-0.29562038 0.1117535 0.88264298
-0.28565142 0.11229871 0.88084221
-0.27517462 0.11119054 0.88037509
-0.26440915 0.11205079 0.88157898
-0.25456417 0.11041977 0.88250005
-0.24418592 0.11211883 0.88426673
-0.23527591 0.1119826 0.88304782
-0.22535664 0.11147919 0.88175011
-0.21906257 0.11084702 0.88100004
-0.45205238 0.12148853 0.88575006
-0.446345 0.12252677 0.88186681
-0.43443426 0.12089901 0.88483346
-0.42498821 0.12114722 0.88100004
-0.4189634 0.12099349 0.88100004
-0.37522912 0.12080258 0.88140005
-0.36880082 0.12024191 0.88000005
-0.35676482 0.12116327 0.88000005
0.42814195 0.079540431 0.89900005
0.43440798 0.079203285 0.89809102
0.44497752 0.078791536 0.89827287
0.45364988 0.079451956 0.898
0.46547815 0.07949619 0.89850008
0.47449002 0.079590678 0.89722222
0.48504969 0.078599185 0.89900011
0.49526304 0.078614697 0.89800006
0.50477725 0.077606626 0.89511549
0.51435161 0.076566041 0.89571452
0.52025443 0.073810719 0.89800006
-0.01291801 0.088854007 0.89800012
-0.0053858175 0.088550963 0.89612508
0.0034575311 0.088755064 0.89700007
0.016034996 0.089380823 0.89700013
0.025332287 0.087765098 0.89514309
0.034069017 0.088130213 0.89544457
0.044810109 0.088807367 0.89675015
0.055576526 0.088946797 0.89636379
0.065175854 0.087291867 0.89690924
0.075796425 0.087676786 0.89610541
0.085177444 0.086703993 0.89613646
0.0952828 0.087411493 0.8967334
0.10493215 0.086804263 0.89628583
0.11518761 0.087198935 0.89500004
0.1251207 0.087430045 0.89540005
0.13460226 0.086533695 0.8951335
0.14510906 0.087022424 0.89557695
0.15518126 0.087082945 0.89539289
0.16488603 0.087105758 0.89357585
0.17463444 0.0870528 0.89595014
0.18437599 0.087254211 0.89784223
0.19573618 0.087638684 0.89773691
0.20490594 0.087575503 0.89612007
0.21551082 0.087532245 0.89533347
0.22514114 0.087138839 0.89664
0.23470764 0.087803438 0.89489484
0.24456117 0.088025086 0.89320838
0.25514361 0.0872228 0.89488888
0.26519257 0.086396478 0.89570832
0.2736893 0.08550594 0.89339143
0.37620267 0.086433247 0.8944
0.38517255 0.08518672 0.89522588
0.39540923 0.083897375 0.89534485
0.40487489 0.083162449 0.89483351
0.41493076 0.083470888 0.89500016
0.42564115 0.084685676 0.89503229
0.43487823 0.083435841 0.89423096
0.4444997 0.082995683 0.89344466
0.45553717 0.082827121 0.89388913
0.46410069 0.082632855 0.89280003
0.47515085 0.082348093 0.89105904
0.48540303 0.082600296 0.89338481
0.49498564 0.081934392 0.89271992
0.50506425 0.081963189 0.8900001
0.51399195 0.08136262 0.890625
-0.25261122 0.099085808 0.89700001
-0.24852172 0.099085808 0.89700001
-0.21140084 0.099563226 0.89566672
-0.20818083 0.099209078 0.89600003
-0.18066046 0.097737983 0.89900005
-0.17490479 0.097261369 0.89716673
-0.16534764 0.09783949 0.89772737
-0.15493007 0.097690798 0.89666677
-0.14504455 0.097440712 0.89615005
-0.13452755 0.09675435 0.89533347
-0.1251519 0.095931493 0.89504349
-0.11461642 0.09527 0.89560014
-0.10466424 0.095829874 0.89470005
-0.095310301 0.096280232 0.89554554
-0.084513471 0.096751034 0.89507407
-0.075055748 0.095691875 0.89539415
-0.064735793 0.095555805 0.89506274
-0.054674212 0.094211407 0.89482373
-0.044988874 0.093887351 0.89468205
-0.034976102 0.093362704 0.89394999
-0.024830993 0.09338598 0.89390635
-0.015670262 0.092783734 0.89325011
-0.0050100433 0.091678761 0.89195246
0.0051606693 0.091456786 0.89283341
0.015205904 0.092056222 0.89260006
0.025436351 0.092083521 0.89146149
0.034883674 0.092067823 0.89130771
0.044892125 0.091675594 0.89238465
0.055052139 0.091630489 0.89300001
0.064714029 0.091573633 0.89153332
0.075634725 0.090285622 0.89125001
0.085550465 0.090322539 0.89128578
0.09573739 0.090460919 0.89159995
0.104129 0.090412103 0.8914547
0.11742999 0.090857923 0.89000005
0.12500772 0.091212265 0.89085722
0.13436261 0.090857923 0.89000005
0.14450768 0.090916261 0.89057159
0.15648392 0.091701806 0.89066684
0.16214146 0.091789752 0.89000005
0.17610066 0.091008492 0.89240009
0.18527061 0.091463864 0.89210528
0.19425043 0.091900371 0.89205283
0.2047382 0.090974599 0.8911429
0.2146599 0.090891957 0.89033341
0.22537985 0.091476627 0.8918463
0.2336347 0.091081284 0.89066666
0.25744772 0.090128176 0.89200008
0.26665226 0.090700746 0.89074999
0.27315924 0.090379648 0.89080012
0.37558627 0.090027131 0.89100003
-0.42358357 0.10859832 0.89800006
-0.41410103 0.10881207 0.8963334
-0.40495256 0.10898644 0.89553338
-0.39427516 0.10824791 0.89630771
-0.38532719 0.10834186 0.89637494
-0.3759062 0.10914379 0.8973335
-0.36622825 0.10919312 0.89688897
-0.35613152 0.109455 0.89350003
-0.34294027 0.10387249 0.89378577
-0.33515713 0.10397342 0.89362884
-0.32566705 0.10391434 0.89340925
-0.31479451 0.10485552 0.89492595
-0.30525932 0.10513775 0.89488578
-0.29548609 0.10400532 0.89309096
-0.28415465 0.10411839 0.89470595
-0.27473149 0.10476887 0.89448154
-0.26510075 0.10459474 0.89371985
-0.25513315 0.10306766 0.89289296
-0.24454141 0.10452954 0.89319444
-0.23550916 0.10417575 0.89127272
-0.224795 0.10293221 0.89321744
-0.21537548 0.10270529 0.89324003
-0.20549223 0.10266501 0.89366668
-0.19425976 0.10290431 0.89386362
-0.18508275 0.1025194 0.89307123
-0.17491631 0.1022605 0.89194447
-0.16507082 0.10211786 0.89242101
-0.15617485 0.10245397 0.89160007
-0.14797142 0.10040133 0.89200008
-0.081027195 0.10040133 0.89200002
-0.078211784 0.10040133 0.89200002
-0.45452973 0.11416157 0.89560002
-0.44493017 0.11438166 0.89703572
-0.43559206 0.11435723 0.89519364
-0.42500231 0.11219397 0.89347839
-0.41692397 0.11147151 0.89323074
-0.4035731 0.11125966 0.89219999
-0.39526626 0.11135871 0.89166665
-0.3832677 0.11157665 0.8922857
-0.37537131 0.11143292 0.89328575
-0.36509907 0.11256526 0.89437509
-0.35753149 0.11229113 0.89214289
-0.24283685 0.11135817 0.89000005
-0.43713284 0.12067647 0.89000005
0.51840544 0.069879293 0.90800005
0.52031606 0.069879293 0.90800005
0.018802281 0.079473473 0.90900004
0.027409483 0.079473473 0.90900004
0.08756347 0.078435369 0.90800005
0.094091378 0.078435369 0.90800011
0.10730641 0.079386048 0.90800011
0.12699816 0.079254903 0.90649998
0.13477692 0.079152904 0.9053334
0.14515464 0.079386048 0.90800011
0.1546258 0.079386048 0.90800011
0.17545141 0.078435369 0.90800005
0.22750345 0.079298615 0.90700006
0.23633029 0.079298615 0.90700006
0.27590626 0.078476325 0.90575004
0.3782925 0.079386048 0.90799999
0.38614666 0.077722155 0.9065001
0.3947545 0.077445433 0.90652388
0.40493488 0.077394366 0.90504366
0.41541037 0.07691095 0.90595841
0.42504635 0.077018097 0.90577155
0.4341048 0.075817555 0.90600014
0.44428149 0.076210067 0.90544468
0.45557821 0.076493911 0.90488005
0.4642193 0.076181039 0.90555567
0.4750945 0.075766876 0.9071365
0.48525739 0.075553194 0.90616685
0.49466881 0.074478425 0.90372759
0.50455624 0.073314503 0.90404564
0.51414824 0.071540631 0.90328574
0.5224058 0.071351461 0.90500003
-0.134067 0.089653343 0.90800011
-0.124651 0.089531593 0.90725005
-0.11554958 0.089031518 0.90700006
-0.10625768 0.089519225 0.90712506
-0.094581127 0.089843474 0.90800011
-0.08444991 0.087882817 0.90741181
-0.074901931 0.087618575 0.90573704
-0.064502984 0.087814294 0.90429175
-0.055005375 0.087635458 0.90418512
-0.045050856 0.087330922 0.90541673
-0.034236979 0.086645551 0.90517867
-0.025105821 0.085827865 0.90502781
-0.015941804 0.085794784 0.90516686
-0.0052983221 0.085429505 0.90430778
0.005043813 0.085334226 0.90563345
0.014562907 0.084897332 0.90474367
0.02464317 0.083122805 0.9043811
0.035275832 0.083851539 0.90459275
0.045177564 0.084182799 0.90480012
0.054537334 0.084387697 0.90346456
0.06472899 0.082719475 0.90500015
0.074734882 0.082737111 0.90392315
0.08471489 0.082080476 0.90480959
0.094572097 0.082512498 0.90376681
0.10470011 0.08252877 0.90413654
0.11446863 0.082534745 0.90394127
0.1243511 0.082419008 0.90220016
0.13532728 0.081811897 0.90200007
0.14509356 0.081943721 0.90368432
0.15477456 0.081978515 0.90352648
0.16469565 0.081776358 0.90417653
0.17489929 0.082352877 0.9043045
0.18543082 0.082301885 0.90525919
0.19485995 0.08281561 0.9048
0.20527646 0.082753524 0.90570599
0.21461125 0.08316803 0.904652
0.22476391 0.082010202 0.90331578
0.23524575 0.082880311 0.90466666
0.24466138 0.083114348 0.9045217
0.25461546 0.082853861 0.9032222
0.26516446 0.081755199 0.90326309
0.27318341 0.081308715 0.90338463
0.37606597 0.084340401 0.90000004
0.38455763 0.081149161 0.9017778
0.39483759 0.080750249 0.90200007
0.41604754 0.080986351 0.90200007
0.42245322 0.081694648 0.90200007
-0.4111051 0.099350229 0.90800005
-0.35130742 0.097556196 0.90900004
-0.34414926 0.09740857 0.90514296
-0.33494282 0.096550509 0.90525717
-0.32523409 0.096711189 0.90592861
-0.3155517 0.095984645 0.9045589
-0.30547532 0.097119108 0.90528572
-0.29490918 0.098123819 0.90752947
-0.28469259 0.097132877 0.90664715
-0.27486119 0.097130261 0.90469587
-0.26471758 0.09698531 0.90540618
-0.25556856 0.095442161 0.90463632
-0.24506454 0.097473495 0.90403998
-0.23563127 0.097747952 0.90619051
-0.22497545 0.097559132 0.90555018
-0.2158175 0.097472221 0.90315801
-0.20489445 0.096776709 0.90508342
-0.1949731 0.095691308 0.90506482
-0.18537407 0.095209897 0.90424162
-0.17535612 0.092771977 0.90388238
-0.16463464 0.092924893 0.90450025
-0.1546462 0.093341462 0.90333343
-0.1447248 0.092585601 0.90512007
-0.13540995 0.092753232 0.90421057
-0.12472515 0.092259787 0.90375006
-0.11509325 0.092099115 0.90216672
-0.10500649 0.092232391 0.90406251
-0.095143504 0.092856847 0.90478271
-0.08560238 0.091955438 0.90249997
-0.074924208 0.091024496 0.90172726
-0.067518406 0.091418646 0.90166664
-0.042663258 0.090565346 0.90100002
-0.037923563 0.090565346 0.90100002
-0.4625321 0.10933179 0.90800011
-0.45483851 0.10788561 0.90657908
-0.44567272 0.10754134 0.90535003
-0.43516469 0.10707126 0.90460008
-0.42548212 0.10617498 0.90359104
-0.41478682 0.10448197 0.90492624
-0.40529692 0.10462163 0.90431046
-0.39552483 0.10400476 0.90474093
-0.3849071 0.10605313 0.90321434
-0.37469131 0.10629018 0.90367997
-0.36479345 0.10651731 0.90430433
-0.35640031 0.10571335 0.90706253
-0.34823334 0.10193263 0.90350002
-0.32377213 0.10134274 0.90036362
-0.31495866 0.10062872 0.9000001
-0.30537704 0.10035949 0.90000004
-0.2947416 0.10121073 0.90199995
-0.28488809 0.10097932 0.90133351
-0.27470839 0.10088299 0.90000004
-0.2666336 0.10130179 0.90000004
-0.24367158 0.10130179 0.90000004
-0.23503198 0.10074748 0.901375
-0.22473383 0.10035948 0.90000004
-0.20313583 0.10082562 0.90080005
-0.19613785 0.10035949 0.90000004
-0.18496457 0.10035948 0.90000004
-0.46204373 0.11203826 0.90300006
-0.45523193 0.11149994 0.90288895
-0.44672781 0.11115973 0.90200007
-0.43637395 0.11084782 0.90100002
0.38407019 0.067765452 0.91800004
0.41755211 0.068726592 0.9180001
0.42429027 0.069223247 0.91763645
0.43449354 0.06932348 0.917
0.44410795 0.068853363 0.91650009
0.4564333 0.069141001 0.91712505
0.46500716 0.068775423 0.91610003
0.47513103 0.069266491 0.91666669
0.48516947 0.068249151 0.91483343
0.49490416 0.067727216 0.91533339
0.50435209 0.067307904 0.91587496
0.51489514 0.067514442 0.91561538
0.52548158 0.067471348 0.91477776
0.53029728 0.064811334 0.91700006
-0.060274772 0.078423381 0.91900003
-0.05785758 0.078423381 0.91900003
-0.042199671 0.079018272 0.917
-0.035386104 0.079242937 0.91636366
-0.02349814 0.078735843 0.91766673
-0.014735027 0.078336984 0.91799998
-0.0047515286 0.078097798 0.91708338
0.0049414928 0.077243201 0.91526312
0.014497623 0.076929428 0.91453117
0.024549777 0.077278778 0.91507995
0.034182452 0.07758411 0.91556525
0.044988122 0.077102795 0.91441393
0.054800462 0.07704486 0.91412008
0.064814493 0.077010788 0.91415393
0.075310938 0.076597847 0.91450018
0.084783852 0.07634744 0.91409099
0.095074244 0.07565669 0.91468197
0.10550834 0.076318786 0.9145
0.11533848 0.076362811 0.91430312
0.12390479 0.076265998 0.91455573
0.13492788 0.07578484 0.91559267
0.14502081 0.075759411 0.91591668
0.15497994 0.076153241 0.91490012
0.16500629 0.075718753 0.91411769
0.17469531 0.074719861 0.91464722
0.18529071 0.07591106 0.91479331
0.19528253 0.075998336 0.91412139
0.20557834 0.077188216 0.91500014
0.21506168 0.076693751 0.91459399
0.22457577 0.075662695 0.91411787
0.23580013 0.076904021 0.91395664
0.24514256 0.076105118 0.91474205
0.25483212 0.076119006 0.91531038
0.26525876 0.076156311 0.91496688
0.27473807 0.074916825 0.91393113
0.28059667 0.073371068 0.91600001
0.37922463 0.078694507 0.91100007
0.38529223 0.072685935 0.91378957
0.39508298 0.072334476 0.91390473
0.40512511 0.072665855 0.91420835
0.41482756 0.071827635 0.91470003
0.42468059 0.072072908 0.91281831
0.43604732 0.072074831 0.91274995
0.44501787 0.072508745 0.91240013
0.45510721 0.072351381 0.91382372
0.46527371 0.071363904 0.91263652
0.47549167 0.071842231 0.91283345
0.48508841 0.070924841 0.91015387
0.49545258 0.070033208 0.91000003
0.50605011 0.070477076 0.911125
0.51384777 0.070148647 0.91149998
-0.36226267 0.089648962 0.91900003
-0.35445786 0.08914119 0.91840011
-0.34532067 0.089610867 0.91814291
-0.33447364 0.089415163 0.91825008
-0.32858312 0.089969687 0.91900003
-0.30634493 0.089007497 0.91900003
-0.29748189 0.089007497 0.91900003
-0.28410676 0.089969687 0.91900003
-0.27476713 0.089544296 0.91875005
-0.26492983 0.088925861 0.91727287
-0.25759435 0.089578092 0.91500008
-0.23164308 0.089871794 0.91800004
-0.22671738 0.088718414 0.91800004
-0.21377532 0.088670358 0.91800004
-0.20632467 0.08877334 0.9180001
-0.19399008 0.087684393 0.91691679
-0.18552795 0.087984242 0.91607708
-0.17518 0.089003131 0.91566676
-0.16510528 0.087350756 0.91419989
-0.15481243 0.087601721 0.91486377
-0.14484891 0.086920977 0.91339135
-0.1349716 0.086581334 0.91336006
-0.12477085 0.085474379 0.91364288
-0.11480099 0.085311405 0.91368192
-0.10506506 0.085337587 0.91467756
-0.094985582 0.085229777 0.9137187
-0.084891297 0.083590485 0.91577291
-0.075306512 0.083028838 0.91581815
-0.064690337 0.082791209 0.91566658
-0.054572683 0.082086645 0.91484016
-0.044773862 0.08223971 0.91381824
-0.035028264 0.081645489 0.91200006
-0.024749888 0.080766469 0.91285723
-0.014208936 0.081552312 0.91290909
-0.0049664755 0.081197552 0.91233337
0.003152323 0.081048697 0.91200012
0.038374417 0.081645489 0.91200006
0.049514372 0.080602147 0.91100007
0.055648517 0.080602147 0.91100007
0.17123879 0.080602147 0.91100007
0.20766027 0.081555963 0.91100007
0.24668607 0.080513671 0.91000003
0.25514317 0.080513671 0.91000003
0.26104718 0.080513671 0.91000003
-0.45473561 0.099374875 0.91700006
-0.44122881 0.099374875 0.91700006
-0.43544015 0.099374883 0.917
-0.42236078 0.099087559 0.91583341
-0.41441914 0.098635569 0.91335714
-0.40504125 0.099054761 0.91338462
-0.39786667 0.099065565 0.91416663
-0.3804481 0.099374875 0.91700006
-0.37449691 0.099139504 0.91660005
-0.36429116 0.096385553 0.91555005
-0.35543379 0.094890319 0.91302931
-0.34588578 0.092768781 0.913706
-0.33459514 0.091992348 0.91338474
-0.32528913 0.09137588 0.9138335
-0.31399986 0.092090942 0.91584617
-0.30388027 0.092717081 0.91450012
-0.29491231 0.093089014 0.9148078
-0.28569767 0.092941478 0.91420013
-0.27485386 0.093074977 0.91421056
-0.26612002 0.092432544 0.91166675
-0.25287762 0.092657305 0.91388893
-0.24495411 0.092829451 0.91578954
-0.23488954 0.093067765 0.91404188
-0.22539805 0.092705935 0.91347605
-0.21477228 0.09275943 0.91261554
-0.20488454 0.09180849 0.91233331
-0.1948027 0.09078753 0.91161543
-0.18653014 0.090629056 0.91112494
-0.17289799 0.090994135 0.91000003
-0.15638268 0.090994135 0.91000003
-0.14968084 0.090994135 0.91000003
-0.097023398 0.090041369 0.91000003
-0.46473116 0.10493957 0.91489482
-0.45462778 0.10287409 0.9131906
-0.44510981 0.1032305 0.91423082
-0.43487018 0.10212756 0.91235292
-0.42530578 0.10183129 0.91227776
-0.41966987 0.10338014 0.91000003
-0.40602681 0.1014746 0.91000003
-0.39219245 0.10132414 0.91439998
-0.38459539 0.10231709 0.91331816
-0.37496924 0.10185935 0.91215384
-0.36455983 0.10234386 0.91047627
-0.35626003 0.10323355 0.90999997
0.49487406 0.0596947 0.92700005
0.50292021 0.0596947 0.92700005
0.52795279 0.058724131 0.92700005
0.532179 0.058724131 0.92700005
0.0078045884 0.069475248 0.92800009
0.015127181 0.069475248 0.92800009
0.024890637 0.069475248 0.92800009
0.034231011 0.069475248 0.92800009
0.045947161 0.069475248 0.92800009
0.05532008 0.069151372 0.92800009
0.065327629 0.068503633 0.92800003
0.076185793 0.068392903 0.92650002
0.085128836 0.068471998 0.92757148
0.095155634 0.067879409 0.92612505
0.10496673 0.068962589 0.9267143
0.11525995 0.068615757 0.92560017
0.12425195 0.068261765 0.92676944
0.13477218 0.068406925 0.9267143
0.14566204 0.0681132 0.92540008
0.15433741 0.068430856 0.92629409
0.16590397 0.067799114 0.92726672
0.17496364 0.067790963 0.9269501
0.18063366 0.067865998 0.926
0.19642997 0.069425344 0.92733335
0.20584275 0.069045074 0.92874998
0.2145469 0.068818487 0.92788887
0.22424848 0.068665765 0.9266364
0.23416167 0.068074077 0.9258889
0.24440482 0.06809818 0.92799997
0.25467238 0.06787508 0.92716664
0.26326942 0.067848668 0.92644447
0.27438021 0.068552844 0.92866671
0.28260744 0.067722648 0.92871433
0.38772526 0.067263439 0.92242867
0.39456317 0.066665947 0.9239167
0.40474322 0.066753499 0.92427993
0.41523817 0.06587299 0.92448151
0.42495549 0.064519018 0.92417872
0.43499535 0.065579176 0.92481822
0.44503561 0.065120332 0.92454559
0.45490724 0.065160073 0.92341381
0.46473458 0.064367883 0.92348164
0.4749521 0.065050326 0.92428005
0.48462793 0.064456537 0.92422229
0.4948619 0.063535303 0.92392844
0.50487882 0.062990181 0.92252386
0.51485038 0.063459024 0.92333341
0.52492964 0.062911764 0.92383337
0.53180212 0.061773967 0.92330009
-0.1632053 0.079106063 0.92700005
