# .PCD v0.7 - Point Cloud Data file format
VERSION 0.7
FIELDS x y z
SIZE 4 4 4
TYPE F F F
COUNT 1 1 1
WIDTH 200
HEIGHT 1
VIEWPOINT 0 0 0 1 0 0 0
POINTS 200
DATA ascii
-0.15945233 0.11631684 0.58773333
-0.15463969 0.11798687 0.58420014
-0.14460954 0.11902478 0.58400005
-0.13860328 0.11845335 0.58211112
-0.13280818 0.11939321 0.58000004
-0.11795905 0.11907715 0.58700001
-0.15848 0.12040001 0.588
-0.15326582 0.12350368 0.58366668
-0.14613247 0.12366798 0.58285117
-0.13884814 0.1239651 0.58234894
-0.13117746 0.12394809 0.58218175
-0.12450016 0.1258004 0.58515793
-0.11790059 0.12329461 0.58857143
-0.15368234 0.13139765 0.58497488
-0.14607859 0.13111605 0.58353847
-0.1387382 0.13129184 0.58275628
-0.13153419 0.13144454 0.58295852
-0.12433829 0.1315506 0.58639997
-0.11948287 0.1284581 0.58900005
-0.1580016 0.14023811 0.58900005
-0.15344885 0.13871667 0.58762163
-0.14638126 0.13855958 0.58663887
-0.13865031 0.13888201 0.58379072
-0.13084236 0.13879722 0.58517784
-0.1238301 0.13855042 0.58755004
-0.11948287 0.13743335 0.58900011
-0.15260001 0.14576513 0.5880667
-0.1467641 0.14412209 0.58654547
-0.13874319 0.14599076 0.58507138
-0.13143685 0.14627635 0.58693182
-0.12651229 0.14500333 0.58830005
-0.15164131 0.15374513 0.58862507
-0.14445637 0.15374209 0.58776468
-0.13860835 0.15352139 0.58646518
-0.13205874 0.15334545 0.58735895
-0.1273362 0.15145716 0.58900005
-0.14376256 0.16104415 0.58850008
-0.13896492 0.16137964 0.58836102
-0.13339326 0.1614165 0.58850002
-0.14455512 0.16712822 0.58887506
-0.13873583 0.16662811 0.58810002
-0.13496001 0.16688001 0.588
-0.13078764 0.1901605 0.58812499
-0.16126668 0.11912382 0.59000003
-0.11445334 0.11896382 0.59200001
-0.16831547 0.12533832 0.59371436
-0.16266966 0.12346823 0.59243482
-0.1144423 0.12413374 0.59196299
-0.11121827 0.1259989 0.59683335
-0.16774254 0.13111113 0.59617394
-0.16228935 0.13140409 0.59340012
-0.12170635 0.13119844 0.5901112
-0.11614943 0.13140804 0.59268612
-0.11108558 0.13099554 0.59815794
-0.16761677 0.13691011 0.59700006
-0.1616241 0.13836156 0.5919376
-0.12080954 0.1410381 0.59000003
-0.1164192 0.1389032 0.5937658
-0.11178207 0.13706653 0.59883338
-0.16600858 0.1488943 0.59900004
-0.1604127 0.14625096 0.59268183
-0.15636054 0.14699081 0.5903334
-0.12755239 0.14778095 0.59000003
-0.1231042 0.14667822 0.59083331
-0.11663856 0.14592735 0.59417951
-0.11238382 0.14547144 0.59900004
-0.16590267 0.15268934 0.59780002
-0.16174611 0.15412407 0.59609759
-0.15501894 0.15383862 0.5914762
-0.14768201 0.15589212 0.59050006
-0.12821887 0.1545606 0.59100002
-0.12316065 0.15348718 0.59161353
-0.11720578 0.1535522 0.5937143
-0.16574478 0.15836573 0.59600002
-0.16013262 0.16053346 0.59457147
-0.15295577 0.16069318 0.59112501
-0.14716426 0.161498 0.59113336
-0.13564858 0.16266572 0.59100002
-0.13306792 0.16232215 0.5906924
-0.12273254 0.16217804 0.5949232
-0.11914539 0.16167508 0.5975455
-0.15083563 0.16750725 0.59140009
-0.14687109 0.16742866 0.59021443
-0.13616964 0.1700123 0.59230006
-0.13125028 0.16966479 0.59446329
-0.12337287 0.1687656 0.59637779
-0.11898151 0.16898315 0.59857148
-0.15950942 0.1772949 0.59762508
-0.15410787 0.17661455 0.59610009
-0.14606933 0.17766589 0.59428567
-0.1391498 0.17646421 0.59246671
-0.13050437 0.175888 0.59356815
-0.12369607 0.17591712 0.59728205
-0.11903048 0.17256573 0.59800005
-0.15903001 0.1812605 0.59850001
-0.15387705 0.18337955 0.5940001
-0.14621639 0.18345013 0.59327024
-0.13866282 0.18356331 0.59392869
-0.13142891 0.1843313 0.59466666
-0.12554191 0.18304227 0.59850001
-0.15916286 0.18996859 0.59900004
-0.15346415 0.19062807 0.59681249
-0.14624104 0.19086839 0.59605122
-0.13923985 0.19139573 0.59461522
-0.13045201 0.19040638 0.59508002
-0.12627661 0.19104242 0.59900004
-0.15156601 0.19885823 0.59828579
-0.14649788 0.19865772 0.5962559
-0.13889991 0.19882053 0.59497905
-0.13180117 0.19821918 0.59705728
-0.12721621 0.1968143 0.59900004
-0.1525234 0.20562088 0.59868753
-0.14669654 0.20641844 0.59708107
-0.13849042 0.20605253 0.59557903
-0.13203792 0.20580144 0.59811437
-0.14611579 0.21333544 0.59697723
-0.13847221 0.21282032 0.59818739
-0.13233452 0.21227328 0.59892863
-0.12721621 0.21050572 0.59900004
-0.10792387 0.13230872 0.60375005
-0.17085716 0.13600001 0.60000002
-0.1129524 0.14190477 0.60000002
-0.10783549 0.13594954 0.60549998
-0.16514286 0.14800002 0.60000002
-0.164 0.14800002 0.60000002
-0.11371119 0.14636667 0.60150003
-0.11156525 0.14779574 0.60383344
-0.11453959 0.1542152 0.60375005
-0.11163584 0.15364212 0.60421437
-0.11542525 0.16162178 0.60354555
-0.11164984 0.16027272 0.60533339
-0.1166863 0.16727048 0.60150003
-0.1117562 0.16560763 0.60800004
-0.1597143 0.17471431 0.59999996
-0.12057143 0.17828572 0.60000002
-0.11868001 0.17945334 0.60200006
-0.12156457 0.18390656 0.60194737
-0.11715049 0.18426035 0.60466665
-0.11117715 0.1858743 0.60800004
-0.15860638 0.19419304 0.60266674
-0.15581858 0.19477001 0.60150003
-0.12256747 0.19199201 0.60283339
-0.11876719 0.19182715 0.6075334
-0.15922365 0.19842701 0.60329413
-0.15527762 0.19907232 0.60057145
-0.13002752 0.2004706 0.60012496
-0.12365817 0.19870295 0.60193634
-0.11813319 0.1985852 0.60791308
-0.15941934 0.20646383 0.60242862
-0.15533525 0.20627511 0.60030007
-0.12907937 0.20679365 0.59999996
-0.12399218 0.20622186 0.60311121
-0.11816534 0.20420913 0.60880005
-0.11267524 0.17922954 0.61300004
-0.11114382 0.17922668 0.611
-0.11540867 0.18289477 0.61140007
-0.11103991 0.18275954 0.61162508
-0.11648954 0.19129416 0.61157149
-0.11574708 0.19702201 0.61175001
-0.1204543 0.20832191 0.611
-0.11903207 0.20835525 0.61166668
-0.12072649 0.21153374 0.61120003
-0.11847989 0.21272203 0.61362499
-0.16510001 0.11188096 0.63500005
-0.16785811 0.11700629 0.63453853
-0.1647293 0.11792643 0.63825005
-0.16728039 0.12273297 0.63640004
-0.1640949 0.12474235 0.63836366
-0.16198073 0.12865716 0.63488895
-0.15991907 0.11200477 0.6450001
-0.15309715 0.11138224 0.64733338
-0.147744 0.11096229 0.648
-0.14070858 0.11170287 0.648
-0.12796858 0.11197239 0.64600003
-0.12328358 0.11130214 0.64508331
-0.11843461 0.11168446 0.64433336
-0.16093062 0.11643282 0.64336598
-0.15390022 0.11573368 0.64638883
-0.14826247 0.11721134 0.6477499
-0.14009143 0.11417144 0.648
-0.12899673 0.117142 0.64581817
-0.12406939 0.11653361 0.64464903
-0.11866954 0.11581016 0.64283341
-0.16101696 0.12375236 0.64400005
-0.15405886 0.12329816 0.64670271
-0.1488326 0.12235949 0.64761531
-0.12950756 0.12288953 0.64781815
-0.12485714 0.12202726 0.64579999
-0.11960001 0.12082668 0.64400005
-0.16030201 0.12897991 0.64490002
-0.15378755 0.1282414 0.64709091
-0.14996572 0.12836573 0.648
-0.14654323 0.11147465 0.65327281
-0.14588888 0.11588576 0.64999986
-0.13886847 0.11680239 0.65040618
-0.13315834 0.1164142 0.65233338
-0.14553404 0.12427092 0.65006882
-0.13908881 0.12365999 0.65125012
-0.13260898 0.12415329 0.65047055
-0.14695288 0.12982808 0.65041178
