# .PCD v0.7 - Point Cloud Data file format
VERSION 0.7
FIELDS x y z
SIZE 4 4 4
TYPE F F F
COUNT 1 1 1
WIDTH 139
HEIGHT 1
VIEWPOINT 0 0 0 1 0 0 0
POINTS 139
DATA ascii
-0.13975239 0.11986668 0.58000004
-0.13137048 0.11854916 0.58366668
-0.14450234 0.12560496 0.58356255
-0.13807037 0.12447256 0.58258981
-0.13125689 0.12388783 0.58393008
-0.1241079 0.12420078 0.58599991
-0.11788779 0.12348708 0.58758348
-0.14546195 0.13070717 0.58462501
-0.13876161 0.13001034 0.58358335
-0.13084841 0.13129708 0.58531088
-0.12495871 0.13028425 0.58837497
-0.14451069 0.13891101 0.58812511
-0.13995956 0.13960606 0.58794737
-0.13072668 0.13632478 0.58744448
-0.12678695 0.13841102 0.58881825
-0.15232341 0.1487179 0.58777779
-0.14648746 0.1455697 0.58890921
-0.138818 0.14589453 0.58862501
-0.13107589 0.14827842 0.58900011
-0.12565334 0.14304286 0.58900005
-0.15245001 0.1507681 0.58850002
-0.14640859 0.15363865 0.58900005
-0.13909902 0.15257956 0.58787996
-0.13012803 0.15346788 0.58799994
-0.12693471 0.15377389 0.58714288
-0.12824 0.15848 0.588
-0.12712 0.15848 0.588
-0.11358859 0.11851874 0.59733337
-0.11159086 0.11909868 0.59720004
-0.11447858 0.12528318 0.59166676
-0.11071754 0.12516898 0.59740007
-0.12258949 0.13276984 0.59031588
-0.11634299 0.13123278 0.59368616
-0.11144721 0.13097863 0.59846669
-0.12755239 0.1410381 0.59000003
-0.12356535 0.13858759 0.59015161
-0.11612937 0.13857944 0.59605879
-0.11172893 0.13897447 0.5982728
-0.14533411 0.14737102 0.59071434
-0.14122736 0.14705475 0.59036374
-0.12963285 0.14678706 0.5909524
-0.12493104 0.14712229 0.59186363
-0.11470381 0.14476848 0.59688896
-0.11200858 0.14328 0.597
-0.1519296 0.15409885 0.59021443
-0.14637065 0.15344204 0.59065706
-0.14025548 0.1503731 0.59025002
-0.13164146 0.15090355 0.59020013
-0.12398236 0.15420812 0.59476471
-0.11841222 0.15518211 0.59645462
-0.14465429 0.15872572 0.59100002
-0.12327017 0.16015294 0.5967778
-0.1194562 0.15883335 0.59633338
-0.12037048 0.17171334 0.59900004
-0.11871716 0.17076287 0.59833336
-0.12037048 0.17342478 0.59900004
-0.11922954 0.17399526 0.5990001
-0.13161188 0.19951402 0.59891307
-0.12721621 0.20137811 0.59900004
-0.14583552 0.20702963 0.59645456
-0.13855477 0.20631507 0.59620011
-0.1323304 0.20589136 0.59875017
-0.12721621 0.20537144 0.59900004
-0.15136637 0.21164668 0.59900004
-0.14637049 0.2107235 0.59800005
-0.13813932 0.21219961 0.59690911
-0.13360636 0.21038859 0.59866667
-0.12664573 0.21050572 0.59900004
-0.10833655 0.11809986 0.60285008
-0.10423303 0.11805461 0.60466671
-0.11257143 0.12285715 0.60000002
-0.10776114 0.12245258 0.60408002
-0.10463525 0.1237143 0.60699999
-0.10928132 0.13275951 0.60471433
-0.10938397 0.13668126 0.60284621
-0.11257143 0.1457143 0.60000002
-0.11102096 0.14668572 0.60400003
-0.11781192 0.15727381 0.60049999
-0.12022477 0.16049144 0.60400003
-0.11565441 0.16147093 0.60536587
-0.11070363 0.16233107 0.60773337
-0.11546058 0.1688991 0.60539484
-0.10941286 0.16694896 0.60749996
-0.10480762 0.16502859 0.60800004
-0.1160616 0.17275938 0.60333335
-0.13806219 0.1996711 0.6003201
-0.12857144 0.20057145 0.60000002
-0.12420553 0.20113394 0.60699993
-0.15766668 0.20926668 0.60200006
-0.15432382 0.20900477 0.60125005
-0.13542858 0.20285715 0.60000002
-0.12972844 0.20684227 0.60006666
-0.12537825 0.20589194 0.60253131
-0.15407069 0.21361345 0.60080647
-0.14850649 0.21344288 0.6002
-0.13092309 0.21366958 0.60103464
-0.12571485 0.21385089 0.60091668
-0.10711358 0.12719786 0.61125004
-0.10745344 0.13055541 0.61126322
-0.16883783 0.11770239 0.63770002
-0.17344287 0.12171429 0.63900006
-0.16914545 0.12472886 0.63885719
-0.16370574 0.12719145 0.63900006
-0.16661811 0.12891668 0.63850003
-0.16192518 0.13127558 0.6364001
-0.16176383 0.13587201 0.63520008
-0.14973429 0.11153048 0.64700001
-0.12774858 0.11170287 0.648
-0.12409441 0.11146417 0.64662498
-0.1657905 0.11885715 0.64000005
-0.16132297 0.11717855 0.64324147
-0.15488695 0.11629911 0.64793324
-0.14985001 0.11470097 0.64750004
-0.12912713 0.1173573 0.64776921
-0.12395295 0.11667491 0.64650011
-0.11891208 0.11727398 0.64322227
-0.16817701 0.12297403 0.64020693
-0.16133037 0.12360042 0.64365852
-0.15684244 0.1238694 0.64800006
-0.13015112 0.12048668 0.64766669
-0.12315779 0.121518 0.64477783
-0.11820525 0.12264001 0.64225006
-0.15984002 0.12805715 0.648
-0.15243429 0.13021715 0.648
-0.14893278 0.12844935 0.64780003
-0.14609525 0.11204763 0.6500001
-0.14176191 0.11204763 0.65000004
-0.13134 0.11213382 0.65050006
-0.15261905 0.11823811 0.6500001
-0.14614496 0.11642157 0.65022212
-0.13900298 0.1168052 0.65078801
-0.13219413 0.11580247 0.65054542
-0.15356617 0.12376933 0.65025705
-0.14623292 0.12392602 0.6506111
-0.13975313 0.12287061 0.65080965
-0.13405779 0.12166476 0.65066671
-0.15826985 0.12896827 0.65000004
-0.15414286 0.12946938 0.65000004
-0.1460218 0.12884408 0.65085721
