# .PCD v0.7 - Point Cloud Data file format
VERSION 0.7
FIELDS x y z
SIZE 4 4 4
TYPE F F F
COUNT 1 1 1
WIDTH 677
HEIGHT 1
VIEWPOINT 0 0 0 1 0 0 0
POINTS 677
DATA ascii
0.089880958 -0.046738099 0.75500005
0.093217149 -0.046248 0.75640005
0.097436205 -0.045911241 0.75560009
0.10241024 -0.046156432 0.75725001
0.10660128 -0.045961272 0.75800008
0.11478286 -0.045480002 0.75800002
0.11622667 -0.045480002 0.75800002
0.12344572 -0.045480005 0.75800008
0.12777714 -0.045840956 0.75800002
0.13331175 -0.045961272 0.75800002
0.13767755 -0.046923812 0.75800002
0.14205483 -0.047886353 0.75799996
0.14510287 -0.046201907 0.75800002
0.09774591 -0.04345867 0.75800002
0.10323239 -0.042953338 0.75799996
0.10750075 -0.042566989 0.75755554
0.11224572 -0.04245238 0.75550002
0.11734213 -0.042473972 0.75588894
0.12256192 -0.042536195 0.75699997
0.12744002 -0.042480007 0.75600004
0.13265464 -0.042535566 0.75700009
0.13692129 -0.043554924 0.75800008
0.10828573 -0.038982861 0.75800002
0.11241664 -0.038344938 0.75709093
0.11742042 -0.038658511 0.75771433
0.12296445 -0.038742229 0.75799996
0.1275222 -0.038658511 0.75771433
0.13114604 -0.0392235 0.75800008
0.13443336 -0.051593341 0.76300001
0.13713321 -0.050895382 0.76185721
0.091259532 -0.045630004 0.76050007
0.12964715 -0.047803335 0.76050007
0.13241087 -0.048005529 0.76140004
0.13776509 -0.047530167 0.76000011
0.14259049 -0.045600004 0.76000005
0.092850804 -0.043764766 0.76166672
0.097021915 -0.041913714 0.76140004
0.10133334 -0.041980956 0.76000005
0.13876081 -0.042231273 0.76016676
0.14267407 -0.042729106 0.76044458
0.14567716 -0.042759053 0.76100004
0.098339252 -0.039364383 0.76260006
0.10281684 -0.038298413 0.76116675
0.10710488 -0.036811721 0.76090014
0.11262667 -0.035851907 0.76050001
0.11781731 -0.035972543 0.76050013
0.1224043 -0.036213811 0.76050007
0.12790143 -0.03595699 0.76016676
0.13297334 -0.037127834 0.76111114
0.13729598 -0.038102306 0.76208341
0.14228135 -0.039385337 0.76300001
0.10856401 -0.033572 0.76300001
0.11279933 -0.033102453 0.76271433
0.11766922 -0.032685086 0.7626667
0.1227347 -0.032680109 0.7625556
0.12732325 -0.032809529 0.76220006
0.13171144 -0.03316953 0.7626667
0.11990001 -0.029793335 0.76300001
0.12244335 -0.029430002 0.76300001
0.12753001 -0.029430002 0.76300001
0.13007334 -0.029793335 0.76300001
0.13260001 -0.051728573 0.76500005
0.14935715 -0.050271433 0.76500005
0.15257287 -0.050370004 0.7665
0.084114291 -0.047542859 0.76800001
0.087245077 -0.046547621 0.76766676
0.14869367 -0.047377147 0.76533341
0.15235454 -0.048592623 0.76725
0.15872002 -0.049005717 0.76800001
0.088994294 -0.043693334 0.76719999
0.092440002 -0.041165173 0.76600003
0.095442861 -0.040800005 0.76500005
0.14802954 -0.042293973 0.76566672
0.093592145 -0.038021669 0.76774997
0.097453579 -0.037229288 0.76650012
0.10135841 -0.035731114 0.76566672
0.13915715 -0.035700001 0.76500005
0.14266478 -0.036986671 0.76525003
0.14664839 -0.037283052 0.76760006
0.098742865 -0.033645719 0.76800001
0.10222064 -0.032856353 0.76666677
0.10661429 -0.032300003 0.76500005
0.11147144 -0.031328574 0.76500005
0.13332859 -0.032057144 0.76500005
0.13760638 -0.032685433 0.76609999
0.14159207 -0.033874609 0.7676667
0.10309763 -0.028881667 0.76775002
0.10740288 -0.027762858 0.76716673
0.11227263 -0.02770262 0.76550013
0.11737668 -0.027702382 0.76550007
0.12255403 -0.026842859 0.76554555
0.12731788 -0.026775002 0.76499999
0.1321775 -0.027521735 0.76599997
0.13668831 -0.028506575 0.7675001
0.10752001 -0.024137145 0.76800001
0.11274201 -0.022957429 0.76770008
0.11770859 -0.023395238 0.7676667
0.12247512 -0.023492249 0.76742864
0.12762392 -0.022658953 0.7675001
0.13213089 -0.023083542 0.76771438
0.1353143 -0.024137145 0.76800001
0.15820573 -0.051267054 0.77120006
0.16080858 -0.051400956 0.77100003
0.082937144 -0.046240002 0.77066672
0.15297684 -0.046748891 0.77100009
0.1565713 -0.048024606 0.77183336
0.083386391 -0.042942569 0.77209997
0.087209903 -0.042135999 0.77079999
0.090200007 -0.040333334 0.77000004
0.15153702 -0.042320412 0.7718572
0.088040166 -0.038011588 0.77250004
0.091784291 -0.037081432 0.77100003
0.096066676 -0.035933334 0.77000004
0.14850667 -0.036942225 0.77066672
0.15188654 -0.037314288 0.7725715
0.089079052 -0.033128574 0.77300012
0.092737526 -0.032479744 0.77160013
0.097240008 -0.031973336 0.77000004
0.14340931 -0.031714074 0.77044445
0.14773549 -0.032338809 0.77174997
0.15165526 -0.033128574 0.77300012
0.093671434 -0.027649391 0.77271438
0.097714819 -0.027184024 0.77144444
0.10193335 -0.026766671 0.77000004
0.13811111 -0.026155557 0.7700001
0.14226894 -0.027304417 0.77109098
0.14744116 -0.027230795 0.77277786
0.098953336 -0.023174765 0.77250004
0.10282048 -0.022767462 0.77116674
0.10780001 -0.022314288 0.7700001
0.11220001 -0.021266667 0.77000004
0.11806667 -0.021266667 0.7700001
0.12246668 -0.021266667 0.7700001
0.12540001 -0.021266667 0.77000004
0.13346668 -0.021266667 0.77000004
0.1374737 -0.022574643 0.77087498
0.14180928 -0.022990717 0.77249998
0.14502953 -0.024294287 0.77300006
0.099385723 -0.019140955 0.77300006
0.10237941 -0.017854547 0.77236378
0.10723978 -0.017627142 0.77125007
0.11234574 -0.017620953 0.77100003
0.11740905 -0.017610716 0.77050012
0.12246668 -0.017600002 0.7700001
0.12747507 -0.017749336 0.7701335
0.13281238 -0.017468942 0.77176934
0.13700782 -0.018983429 0.77260005
0.1030331 -0.013246906 0.77275002
0.10740247 -0.012505161 0.77241671
0.11254001 -0.012503809 0.77233344
0.11768891 -0.01250381 0.77233332
0.12280224 -0.012500635 0.77211112
0.12726964 -0.01250561 0.77244449
0.13082725 -0.012802859 0.77260005
0.11410953 -0.0095704766 0.77300006
0.11631811 -0.0095704766 0.77300006
0.15426192 -0.045023814 0.77500004
0.15759145 -0.045637526 0.77540004
0.16229838 -0.048169661 0.77814299
0.082351431 -0.040804766 0.77900004
0.15426192 -0.042071432 0.77500004
0.15775695 -0.042215776 0.77766669
0.08388143 -0.038059525 0.77600002
0.086149529 -0.03679524 0.77580005
0.15426192 -0.038380954 0.77500004
0.15771186 -0.037762012 0.77744448
0.16099334 -0.036353335 0.77900004
0.083620004 -0.033300005 0.77700007
0.086949065 -0.032558419 0.77700007
0.090785719 -0.030261906 0.77500004
0.15358953 -0.031751115 0.77533334
0.15751737 -0.032853022 0.77811116
0.16099334 -0.03264381 0.77900004
0.089084767 -0.027718289 0.77820009
0.091718286 -0.026732385 0.77540004
0.14983334 -0.025833335 0.77500004
0.15244973 -0.027703432 0.77780002
0.089770481 -0.024482859 0.77900004
0.092804052 -0.023153573 0.778
0.096618295 -0.02219143 0.7768001
0.14392859 -0.021404764 0.77500004
0.14750023 -0.022899788 0.77566671
0.1507843 -0.022228574 0.778
0.098513104 -0.017407382 0.77775002
0.10111906 -0.015500001 0.77500004
0.13854846 -0.016777281 0.77557153
0.14272811 -0.017747145 0.77650011
0.14741857 -0.01777762 0.7778334
0.15060668 -0.017063811 0.77900004
0.099357918 -0.012882478 0.77740002
0.10205696 -0.011962858 0.77540004
0.13331239 -0.012185715 0.7755
0.13716154 -0.01272362 0.77679998
0.14258158 -0.012470909 0.77863652
0.14664987 -0.013601589 0.77900004
0.099286675 -0.0096323816 0.778
0.10242482 -0.0072617782 0.77820027
0.10762259 -0.0076023131 0.77628583
0.11251627 -0.0069915759 0.77607703
0.11759601 -0.0069424771 0.77560008
0.12232001 -0.0075971433 0.77571446
0.12747975 -0.0071802726 0.77628571
0.1325746 -0.0074053979 0.77766675
0.13692266 -0.0079960842 0.7790001
0.14096192 -0.0096447626 0.77900004
0.10361938 -0.0032149209 0.77900004
0.10787296 -0.0031160002 0.77900004
0.11297887 -0.002519619 0.77840012
0.11772731 -0.0022204232 0.77744448
0.12217028 -0.0022204232 0.77744448
0.12747097 -0.0022220635 0.77816689
0.13225017 -0.0027187306 0.77866673
0.13576858 -0.0037095239 0.77900004
0.11499525 0.00074190483 0.77900004
0.11814833 0.0020402384 0.77900004
0.12237979 0.0022255026 0.7787779
0.12711303 0.001236508 0.77900004
0.13131715 0.00074190483 0.77900004
0.16337192 -0.045773812 0.78150004
0.16242826 -0.042470165 0.78233337
0.16501334 -0.042560004 0.7840001
0.081945919 -0.038222481 0.78080004
0.1624656 -0.037343949 0.78200001
0.16501334 -0.039573334 0.78400004
0.083165094 -0.03251873 0.78200006
0.085428581 -0.030457145 0.78000003
0.15917429 -0.032724764 0.78100002
0.16107525 -0.030574288 0.78300005
0.08437334 -0.029120002 0.78400004
0.086646818 -0.027322726 0.78142864
0.15377145 -0.026000002 0.78000003
0.15711072 -0.027768334 0.78275001
0.16128001 -0.027626669 0.78400004
0.088509396 -0.022899048 0.78285724
0.091695875 -0.020570159 0.78066671
0.15352792 -0.022023134 0.78200012
0.15605335 -0.023893334 0.78400004
0.09259481 -0.017271517 0.78236371
0.096261427 -0.016724288 0.78050005
0.15350781 -0.017453715 0.78319997
0.094229341 -0.012992001 0.78400004
0.097136609 -0.01244762 0.78200001
0.14838764 -0.012138097 0.7803334
0.1509289 -0.012638096 0.78066671
0.094826676 -0.0097066676 0.78400004
0.097661726 -0.0074552386 0.78280002
0.13853779 -0.005699683 0.78066671
0.14252278 -0.0072354986 0.78127283
0.14712574 -0.0076559312 0.78272736
0.15107557 -0.0087111127 0.7840001
0.098608002 -0.0025356193 0.78320009
0.10215916 -0.0018988361 0.7804445
0.10734287 -0.0011142858 0.78000003
0.11142857 -0.00074285717 0.78000003
0.13396192 -0.0012380953 0.78000009
0.13801263 -0.0020473809 0.78225011
0.14238168 -0.0024254762 0.78375
0.14560001 -0.0037333337 0.78400004
0.099306673 0.00074666669 0.78400004
0.10238215 0.0020526191 0.78325003
0.10738223 0.0022384129 0.78300011
0.11233079 0.0022330158 0.78111118
0.11573653 0.0032222224 0.78066671
0.12748238 0.0033452385 0.78049999
0.13253799 0.002398307 0.78133333
0.13776457 0.0023889525 0.78360003
0.14112002 0.0022400003 0.7840001
0.10378668 0.005226667 0.78400004
0.10813092 0.0068557574 0.78399998
0.11267414 0.007463017 0.78350008
0.11752268 0.0073009534 0.78200001
0.1226324 0.0076208059 0.78184623
0.12733768 0.0072538536 0.78272736
0.13193168 0.0065316674 0.78375
0.13738668 0.005226667 0.78400004
0.11424001 0.011200001 0.78400004
0.11752534 0.011797334 0.78400004
0.12200534 0.011498666 0.78400004
0.12618667 0.011200001 0.78400004
0.11947715 -0.051097147 0.78900003
0.12248286 -0.052600004 0.78900003
0.08309143 -0.03069143 0.78600001
0.083796017 -0.027431814 0.78700006
0.15944572 -0.026200002 0.78600001
0.084839694 -0.023273971 0.78833342
0.086713187 -0.021988733 0.78716677
0.15811494 -0.022373971 0.78600007
0.16107938 -0.02322413 0.78666675
0.087977983 -0.017445359 0.78787512
0.090577148 -0.01572 0.78600001
0.1549543 -0.01572 0.78600001
0.15658414 -0.017230477 0.78666675
0.088987634 -0.013141429 0.78850007
0.091646537 -0.012511838 0.78600001
0.15405601 -0.012725716 0.78600001
0.15684991 -0.012758858 0.78800005
0.089420006 -0.0075142863 0.78900003
0.092190802 -0.0074936515 0.78700012
0.095442861 -0.0063628578 0.78600001
0.14896573 -0.0052400003 0.78600001
0.1526918 -0.0073060724 0.78687501
0.15604882 -0.0082511911 0.78775007
0.089420006 -0.0030057146 0.78900003
0.092540011 -0.0026804085 0.78814292
0.09620709 -0.0020334697 0.78657156
0.1444743 -0.00074857147 0.78600001
0.14782108 -0.0020598811 0.78687501
0.1514743 -0.0032546036 0.78866673
0.097485721 0.0022499051 0.78740007
0.10105715 0.0037428574 0.78600001
0.14384827 0.0022482544 0.78666675
0.14701793 0.001952762 0.78840011
0.09887509 0.0062582549 0.78850007
0.10254781 0.0077012121 0.78700018
0.10644686 0.0088331439 0.78600001
0.12950286 0.0097314296 0.78600001
0.13287143 0.0093571441 0.78600001
0.13773715 0.0082342867 0.78600013
0.14252298 0.0075036911 0.78762507
0.14502573 0.0052600005 0.78900003
0.10324629 0.011872574 0.78900003
0.10734794 0.012762752 0.78822231
0.11218442 0.012874633 0.78672743
0.11715144 0.013848573 0.78600001
0.12231658 0.013624 0.78600001
0.12765507 0.013035621 0.78660011
0.13274086 0.012750584 0.78744453
0.137123 0.012330615 0.78800005
0.14117953 0.011264287 0.78850007
0.10895715 0.015780002 0.78900003
0.11282144 0.016976288 0.78870004
0.11774065 0.017249843 0.78744453
0.12225842 0.017252911 0.78755569
0.12756866 0.01726008 0.78791678
0.13281502 0.017095001 0.78900003
0.11872572 0.020288574 0.78900003
0.12298381 0.021290479 0.78900003
0.12714052 0.021454604 0.78888893
0.13225144 0.020288574 0.78900003
0.12183259 -0.056312192 0.79260004
0.12612477 -0.05664286 0.79300004
0.11978001 -0.053486671 0.79100001
0.12204 -0.054993335 0.79100001
0.12656002 -0.054240003 0.79100001
0.082320958 -0.026433336 0.79300004
0.083257467 -0.023140319 0.79233336
0.085126676 -0.020340001 0.79100001
0.083831437 -0.018125717 0.79300004
0.08550334 -0.01695 0.79100001
0.086920321 -0.012812699 0.79133332
0.087496191 -0.007542857 0.792
0.15443334 -0.0052733338 0.79100001
0.15720986 -0.0057857148 0.79233336
0.087926291 -0.0025643813 0.79179996
0.091906667 -0.00075333338 0.79100001
0.15346155 -0.0019620953 0.79220003
0.093318418 0.0017609525 0.79233336
0.095673338 0.0037666669 0.79100001
0.14953667 0.0026366669 0.79100001
0.15208477 0.0018876193 0.79250002
0.094404764 0.005286667 0.79300004
0.09692625 0.0081270905 0.79166663
0.10019334 0.0097933337 0.79100001
0.14704935 0.0075417147 0.79179996
0.1502924 0.005286667 0.79300004
0.09833201 0.012536953 0.79300004
0.1017362 0.013457553 0.79128575
0.13861334 0.014313335 0.79100001
0.14275062 0.013252111 0.79185718
0.14614192 0.01182254 0.79233336
0.10311296 0.017211428 0.7926001
0.10757191 0.017520955 0.79124999
0.11224668 0.018833335 0.79100001
0.13484667 0.018833335 0.79100001
0.13789918 0.01733196 0.79122221
0.1425512 0.017181667 0.7930001
0.10422286 0.020391431 0.79300004
0.10830402 0.022064025 0.7927779
0.11229397 0.022610478 0.79133338
0.11730478 0.02292286 0.79100007
0.12229112 0.023855558 0.79100001
0.12769002 0.024483336 0.79100001
0.13244216 0.022953859 0.79136366
0.13741887 0.02219886 0.79280013
0.14122954 0.020391431 0.79300004
0.11253049 0.027188573 0.7930001
0.1174075 0.027061634 0.79242867
0.12267226 0.027296463 0.7930001
0.12733315 0.027037526 0.79300004
0.13216668 0.026433337 0.7930001
0.13518763 0.026433336 0.79300004
0.14212002 -0.060952004 0.79800004
0.14516 -0.060800005 0.79800004
0.12492858 -0.058300003 0.79500002
0.12868001 -0.057275053 0.79760003
0.13300002 -0.056240007 0.79800004
0.13604 -0.056240004 0.79800004
0.14273678 -0.057701338 0.79720002
0.079800002 -0.026600001 0.79800004
0.081700005 -0.026980001 0.79800004
0.079800002 -0.022040002 0.79800004
0.081762671 -0.021693336 0.79640007
0.07942 -0.017100001 0.79800004
0.082183272 -0.017216736 0.79585719
0.079040006 -0.014440001 0.79800004
0.08271122 -0.0129 0.79677778
0.085557148 -0.012114286 0.79500002
0.082885124 -0.0085358331 0.79662502
0.085557148 -0.007571429 0.79500002
0.08723858 -0.0022728574 0.79650003
0.15622382 -0.0012619048 0.79500002
0.088920005 0.00152 0.79800004
0.091562673 0.0025805717 0.79720008
0.15370001 0.0030285716 0.79500002
0.15666179 0.0024952383 0.79685718
0.092981756 0.0075907931 0.79700005
0.14915715 0.0098428577 0.79500002
0.15255119 0.007790131 0.79618186
0.15656002 0.0060800002 0.79800004
0.093693659 0.012408256 0.79766667
0.096276954 0.013495239 0.79600006
0.14845908 0.013404763 0.79666674
0.15211411 0.012309144 0.7978
0.093480006 0.017480001 0.79800004
0.09716659 0.017460557 0.79708332
0.10070001 0.01817143 0.79500002
0.14461429 0.018928573 0.79500002
0.1479543 0.017450796 0.79666668
0.15124002 0.017480001 0.79800004
0.098525882 0.021529049 0.79783338
0.10223274 0.022192504 0.79662502
0.10650724 0.023786096 0.79540008
0.13780001 0.024985716 0.79500002
0.14275448 0.022580191 0.79560006
0.14796406 0.021843335 0.79775
0.15124001 0.020520002 0.79800004
0.10308492 0.026088096 0.79783338
0.10741486 0.02770881 0.79708338
0.1121962 0.029565714 0.796
0.11735716 0.029528573 0.79500002
0.12190001 0.029528573 0.79500002
0.12784667 0.029270289 0.79619998
0.1326105 0.028796192 0.79566669
0.13755584 0.02827155 0.79687506
0.14184096 0.02696381 0.79749995
0.14592001 0.025840001 0.79800004
0.10746401 0.031768002 0.79800004
0.11264858 0.032531176 0.79772729
0.1174358 0.032206669 0.79700005
0.12228334 0.03190048 0.79750001
0.12787282 0.032538272 0.79790908
0.13294445 0.032666985 0.79766667
0.13705334 0.032173336 0.79800004
0.14060001 0.031160003 0.79800004
0.11324002 0.035720002 0.79800004
0.12844001 0.035720002 0.79800004
0.13269602 0.036328003 0.79800004
0.13604 0.035720002 0.79800004
0.127729 -0.061411709 0.8017143
0.13224889 -0.061156195 0.80266666
0.13772152 -0.061532576 0.8016001
0.1424762 -0.064000003 0.80000007
0.14552382 -0.063238099 0.80000001
0.13288096 -0.057929214 0.80033338
0.13834667 -0.05811581 0.80080003
0.078476198 -0.02514286 0.80000001
0.078476205 -0.022095239 0.80000007
0.078476198 -0.018285714 0.80000001
0.087307222 0.0025072112 0.80114293
0.090666674 0.003809524 0.80000001
0.084994294 0.006891429 0.80400002
0.087763816 0.0076317461 0.80133343
0.090666674 0.0083809532 0.80000007
0.15619048 0.009142858 0.80000001
0.084228575 0.011485715 0.80400002
0.088150218 0.012562723 0.80285716
0.091321528 0.013264382 0.80039996
0.15365081 0.013460319 0.80000007
0.1563943 0.01338381 0.80300003
0.092141673 0.017551191 0.80125004
0.15390477 0.01752381 0.80000007
0.15742783 0.017900191 0.80320007
0.093222551 0.022160955 0.80233335
0.096293658 0.022613017 0.80033338
0.1525992 0.022329254 0.8005715
0.15680519 0.022619596 0.80314291
0.094182864 0.026034288 0.80400002
0.09787897 0.026746843 0.80236369
0.10180834 0.028789289 0.80075008
0.14349207 0.02920635 0.80000007
0.14752096 0.028209051 0.80050009
0.15157484 0.026890375 0.80155563
0.15639526 0.025619049 0.80299997
0.10273087 0.032563239 0.80260003
0.10704762 0.033904765 0.80000001
0.1104762 0.034285717 0.80000001
0.11885715 0.034285717 0.80000001
0.12266668 0.034285717 0.80000007
0.12571429 0.034285717 0.80000001
0.13892066 0.033777781 0.80000007
0.1428012 0.032984048 0.80075008
0.14715111 0.032388575 0.8033334
0.10439239 0.03649905 0.80400008
0.10766604 0.037417997 0.80177772
0.11178233 0.037768714 0.80000007
0.11762235 0.037498008 0.80054551
0.12280255 0.037376087 0.80088896
0.12702042 0.037768714 0.80000007
0.13257144 0.038349211 0.80000007
0.13800383 0.037360545 0.80057156
0.14211158 0.037249524 0.80285716
0.10877562 0.04176686 0.80320007
0.11212402 0.041952599 0.80088896
0.11748065 0.041957777 0.80100006
0.12297334 0.042009529 0.80200005
0.12741441 0.041963387 0.80111116
0.1321802 0.041774098 0.80040008
0.13681933 0.042040549 0.80257154
0.14012572 0.041348573 0.80400002
0.11294286 0.045560002 0.80400002
0.11765429 0.046106197 0.8035
0.12266773 0.046827365 0.80363631
0.12756801 0.045789715 0.80400002
0.13246858 0.045177147 0.80400008
0.12851049 -0.065409526 0.80800003
0.13287112 -0.065922551 0.80800003
0.13762985 -0.066124454 0.80733341
0.14047429 -0.066015244 0.80600005
0.10388572 -0.060792387 0.80800003
0.10696381 -0.060792387 0.80800003
0.11235048 -0.060792387 0.80800003
0.11773716 -0.060792387 0.80800003
0.12338033 -0.061305404 0.80800003
0.1262489 -0.062228575 0.80666673
0.13279811 -0.063712388 0.80600011
0.1366362 -0.063712388 0.80600005
0.10388572 -0.059253339 0.80800003
0.10734858 -0.058868576 0.80800003
0.11235049 -0.058483813 0.80800003
0.11735239 -0.058868576 0.80800003
0.12281906 -0.05910667 0.80600005
0.12512191 -0.05910667 0.80600005
0.083808899 0.0084565086 0.80733341
0.085205719 0.0079320641 0.80600011
0.086811438 0.01408381 0.80666673
0.089284964 0.017364955 0.80680001
0.091497779 0.022299049 0.80733341
0.15889715 0.020725716 0.80600005
0.092740014 0.026900005 0.8070001
0.096464142 0.029425398 0.80600011
0.15352382 0.029169526 0.80600005
0.15698034 0.027913652 0.80666673
0.094651438 0.03232 0.80800003
0.097514078 0.033017147 0.80622232
0.10132572 0.034542859 0.80600005
0.14917397 0.034031115 0.80600011
0.15300974 0.032550056 0.80733341
0.15621334 0.030780954 0.80800003
0.098242551 0.037193656 0.80800003
0.10196381 0.037829049 0.80650008
0.10516382 0.039148573 0.80600005
0.14354478 0.039148573 0.80600005
0.14660192 0.037676197 0.80733341
0.15159622 0.036167622 0.80800003
0.10277398 0.041776516 0.80733341
0.10626043 0.042438369 0.80600011
0.13893905 0.043754287 0.80600005
0.1425494 0.04246939 0.80657154
0.14544001 0.041554287 0.80800003
0.10789947 0.046561059 0.80733341
0.082813337 -0.065787308 0.81266677
0.086826667 -0.065895244 0.81400001
0.098455243 -0.065895244 0.81400001
0.10233143 -0.065895244 0.81400001
0.10767113 -0.065841272 0.81333339
0.11551049 -0.065895244 0.81400001
0.12326287 -0.065895244 0.81400001
0.12805715 -0.06634286 0.81000006
0.13114285 -0.067114294 0.81000006
0.13731429 -0.068657145 0.81000006
0.082813337 -0.064239368 0.81266677
0.086826667 -0.064344764 0.81400001
0.10210343 -0.062965147 0.81220019
0.10727271 -0.063283503 0.81033337
0.11280119 -0.063355483 0.81125003
0.11793334 -0.063027628 0.81200004
0.12270973 -0.062979437 0.81240004
0.12651429 -0.064028576 0.81000006
0.083260581 0.014109335 0.81400007
0.085628577 0.014657144 0.81000006
0.087385148 0.017786667 0.8120001
0.089079373 0.022464763 0.81333339
0.090331435 0.022391111 0.81066674
0.089152388 0.027133334 0.81400001
0.090810001 0.027435716 0.81150001
0.089152388 0.031009527 0.81400001
0.092206404 0.032284334 0.81236362
0.15690857 0.032862861 0.81000006
0.094344765 0.036346667 0.81200004
0.096355051 0.038821336 0.8120001
0.14888573 0.038571432 0.81000006
0.15197144 0.038571432 0.81000006
0.1566 0.037846193 0.81100011
0.098238096 0.042545397 0.81222224
0.10157143 0.043457147 0.81000012
0.14788817 0.042680006 0.81057149
0.15223294 0.042121906 0.81257159
0.15650144 0.04134905 0.81150007
0.083828583 -0.067528576 0.81500006
0.088054843 -0.068068437 0.81614286
0.092327438 -0.066794477 0.8174001
0.097140387 -0.067203626 0.81860012
0.10184985 -0.067639053 0.81633341
0.10743953 -0.067735717 0.8175
0.11277716 -0.066890486 0.81666672
0.11774611 -0.067040198 0.81660002
0.12169715 -0.06687668 0.81650007
0.12670457 -0.067171238 0.81820005
0.089480959 -0.063803814 0.81700003
0.092685536 -0.064021908 0.81780005
0.09734001 -0.063855879 0.81766671
0.11875715 -0.064423814 0.81500006
0.12108572 -0.064423814 0.81500006
0.083110623 0.017422451 0.81557155
0.08584857 0.018934922 0.81700009
0.083460003 0.021060001 0.81900007
0.086811036 0.022342453 0.81700009
0.088373534 0.027180765 0.81540006
0.088259056 0.032270476 0.81650007
0.090814292 0.034928575 0.81500006
0.089106992 0.035591431 0.81833339
0.09236858 0.038310006 0.81675005
0.0928431 0.042627383 0.81750005
0.095471434 0.042690478 0.81500006
0.089919053 -0.072717153 0.82100004
0.093017563 -0.072420552 0.82271427
0.096931122 -0.071849212 0.82300007
0.093551911 -0.069283329 0.82200003
0.097192392 -0.069759049 0.82300001
0.10267906 -0.069759056 0.82300007
0.1065981 -0.069759049 0.82300001
0.11992286 -0.069759049 0.82300001
0.12253557 -0.06923651 0.82300007
0.12697715 -0.069759049 0.82300001
0.083663814 0.023457143 0.82100004
0.085227624 0.023457143 0.82100004
0.086078733 0.027389526 0.82166672
0.08645238 0.031685717 0.82150006
0.088212632 0.037945241 0.8215
0.089244768 0.041491434 0.82200003
0.09687715 -0.076399051 0.82700002
0.10342763 -0.075004764 0.82900006
0.1057962 -0.075004764 0.82900006
0.1223762 -0.075004771 0.82900012
0.12632382 -0.075004764 0.82900006
0.098391913 -0.073599048 0.82650006
0.1022198 -0.073015772 0.8263334
0.10753887 -0.072268002 0.82660007
0.11322764 -0.0721981 0.82850003
0.11784058 -0.071147241 0.82820004
0.12232763 -0.072607309 0.82866669
0.1280006 -0.07298629 0.82760012
0.1315324 -0.07324858 0.82700002
0.099785723 -0.069928579 0.82500005
0.10921429 -0.069928579 0.82500005
0.11235715 -0.069928579 0.82500005
0.11550001 -0.069928579 0.82500005
0.12492858 -0.069928579 0.82500005
0.12964286 -0.069928579 0.82500005
0.13121429 -0.069928579 0.82500005
0.1085562 -0.076069526 0.83200002
0.11196096 -0.075539246 0.83140004
0.11751448 -0.075965151 0.83260006
0.12267144 -0.076768577 0.83100003
0.11159144 -0.07360287 0.83100003
0.11792286 -0.07360287 0.83100003
0.11292382 -0.077138104 0.83500004
