# .PCD v0.7 - Point Cloud Data file format
VERSION 0.7
FIELDS x y z
SIZE 4 4 4
TYPE F F F
COUNT 1 1 1
WIDTH 789
HEIGHT 1
VIEWPOINT 0 0 0 1 0 0 0
POINTS 789
DATA ascii
-0.021840001 0.12264001 0.588
-0.016240001 0.12264001 0.588
-0.03157381 0.12403858 0.59200001
-0.028075786 0.12412995 0.59128571
-0.022610886 0.12399946 0.59142864
-0.017558521 0.12377482 0.59044451
-0.012389882 0.12390727 0.59137499
-0.0073307618 0.12405896 0.59210002
-0.0023890112 0.12326375 0.59307688
0.00056571432 0.12276001 0.59400004
-0.031949766 0.1261012 0.59375006
-0.027542861 0.12755138 0.59273678
-0.022550298 0.12740782 0.59193754
-0.017457239 0.12727116 0.59129995
-0.012410417 0.12748912 0.59231251
-0.0073351436 0.12752983 0.59250003
-0.0023113422 0.1267581 0.59345454
0.00056571432 0.12558857 0.59400004
-0.026022859 0.13068001 0.59400004
-0.022619763 0.13062501 0.59375006
-0.016779156 0.13166128 0.59388894
-0.012898288 0.13181145 0.59400004
-0.0090514291 0.13068001 0.59400004
-0.015274286 0.13520572 0.59400004
-0.013577144 0.13520572 0.59400004
-0.045067623 0.11922953 0.59900004
-0.041911166 0.11857076 0.59814292
0.0039733336 0.11976763 0.59600002
0.0078083333 0.11939166 0.59625
0.011961589 0.11883938 0.59800005
-0.045067623 0.12037048 0.59900004
-0.042059809 0.12116192 0.59840006
-0.038059894 0.1238053 0.59844446
-0.034057144 0.12374096 0.59600002
-0.0068245246 0.12281119 0.597
-0.0039666668 0.12183334 0.59500003
0.0029491431 0.12282192 0.59540004
0.0073865722 0.12270837 0.5965001
0.011876905 0.12247296 0.59858334
-0.037363403 0.12747227 0.59828579
-0.033003736 0.12794454 0.59575003
-0.0018895239 0.12946162 0.59533334
0.0023689074 0.12766829 0.59547073
0.0067850803 0.12706661 0.59686679
0.010839049 0.12607525 0.59900004
-0.035880003 0.13042097 0.59800005
-0.032263305 0.13236496 0.59800005
-0.027414968 0.13309947 0.59614295
-0.022695318 0.13333517 0.59575009
-0.018196624 0.1332484 0.59536374
-0.011711112 0.13354445 0.59500003
-0.0071818521 0.13287635 0.59538901
-0.0022707141 0.13290761 0.59637505
0.0022383495 0.13270387 0.59733343
0.005781089 0.13165513 0.59842861
-0.031376194 0.13577335 0.59900004
-0.02734625 0.137869 0.59818757
-0.02277155 0.13776809 0.59775007
-0.017733235 0.13757554 0.59652632
-0.012322587 0.13757485 0.59585726
-0.0073868106 0.13753808 0.59675008
-0.0028484762 0.13732488 0.59830004
0.0023960003 0.13588744 0.59900004
-0.026649391 0.1417226 0.5990001
-0.022632448 0.14222267 0.5983572
-0.017642526 0.1422755 0.59755009
-0.01252381 0.14232287 0.59775007
-0.0076020635 0.14236334 0.59872222
-0.0039933338 0.14147811 0.59900004
-0.02567143 0.14547144 0.59900004
-0.02110762 0.14547144 0.59900004
-0.017062426 0.14640495 0.59900004
-0.013446942 0.1464494 0.5990001
-0.048814289 0.11887715 0.60300004
0.014297619 0.11895572 0.60049999
0.017236589 0.11806407 0.60325015
-0.050045718 0.1236762 0.60400003
-0.047513053 0.1223362 0.60249996
-0.042559206 0.12385952 0.60116673
-0.037204765 0.12420668 0.60100001
0.014080954 0.1228322 0.60100001
0.017223919 0.12227673 0.60277778
-0.046408169 0.1269037 0.60371435
-0.042419884 0.12725465 0.60187501
-0.039428573 0.12914287 0.60000002
0.0091504771 0.12867905 0.60050005
0.01293077 0.12767231 0.60238469
0.016267462 0.12650017 0.60283339
-0.042097829 0.13203512 0.60314298
-0.037901532 0.13293748 0.60113341
-0.034857146 0.13371429 0.60000002
0.0084363278 0.1330633 0.60185719
0.011846286 0.13203123 0.60380006
-0.041992385 0.13518097 0.60400003
-0.036946353 0.13754192 0.60300016
-0.032802861 0.13768008 0.60100001
-0.00095238106 0.13847621 0.60000002
0.0024804233 0.13830054 0.60088891
0.0073383967 0.13757059 0.60226321
0.011217143 0.13604382 0.60400003
-0.035443652 0.14215858 0.60350007
-0.032114405 0.14221704 0.60212505
-0.028031114 0.14371556 0.60066664
-0.024 0.14457144 0.60000002
-0.0057142861 0.14457144 0.60000002
-0.0020961906 0.14232071 0.60046667
0.0022977979 0.14240898 0.60293752
0.0060663498 0.14208159 0.60344452
-0.03503143 0.14644286 0.60300004
-0.032116264 0.14670868 0.60300016
-0.027465276 0.14773226 0.60176927
-0.022508204 0.14782557 0.60083336
-0.017719526 0.14861286 0.60016668
-0.011879683 0.14808287 0.60033327
-0.0074387626 0.14765143 0.60089999
-0.0022935122 0.14742374 0.60231251
0.0020544219 0.14709662 0.60400003
-0.026737619 0.15237547 0.60375005
-0.022404145 0.15279903 0.60315007
-0.017197024 0.15247692 0.60187501
-0.012606132 0.15242887 0.60168755
-0.0074615716 0.1526971 0.60275006
-0.0021712172 0.15260965 0.60366666
0.00057523814 0.15186287 0.60400003
-0.021769594 0.15714893 0.60378581
-0.017241253 0.1574696 0.60343754
-0.012644764 0.15748572 0.60350001
-0.0075952397 0.1574561 0.60373688
-0.0031062861 0.15634973 0.60400003
-0.020708572 0.16106667 0.60400003
-0.017257145 0.16106668 0.60400003
-0.013518096 0.16077906 0.60400003
-0.0086285723 0.16049144 0.60400003
0.0221896 0.11849452 0.6069231
0.02170104 0.12173013 0.6068182
-0.050252862 0.12592143 0.60650003
-0.047773201 0.12846382 0.60642862
0.017649524 0.12786095 0.60750002
0.020266669 0.12565334 0.60800004
-0.047119476 0.1317087 0.60744452
-0.044006988 0.13394223 0.60533333
0.014028573 0.13298158 0.60533333
0.015923811 0.13202287 0.60800004
-0.045820002 0.13514 0.60900003
-0.042440668 0.13760965 0.60710001
-0.039416194 0.13863081 0.60566664
0.013190318 0.13776302 0.60650003
0.01565486 0.13741525 0.60880005
-0.041129287 0.14250596 0.60825002
-0.038313154 0.1426409 0.60606259
0.0086599058 0.14292447 0.60610002
0.012362462 0.14215757 0.60841674
-0.037642788 0.14741027 0.60661542
-0.032476828 0.14893144 0.60533333
0.0040333336 0.14865714 0.60500002
0.0076720351 0.14766259 0.60672736
0.011747967 0.14787214 0.60845453
-0.036457334 0.15195754 0.60760003
-0.032347262 0.15249205 0.60649997
-0.028539406 0.1527856 0.60537499
0.0027084255 0.15254889 0.60584617
0.0075165718 0.15264256 0.60710013
0.012172303 0.15262882 0.60858339
-0.035801906 0.15717933 0.60771441
-0.032256473 0.15733548 0.60670596
-0.027821379 0.15775897 0.60577774
-0.024014764 0.1588805 0.60516667
-0.0051857145 0.15960477 0.60500002
-0.0020751429 0.15846811 0.60550004
0.0024294609 0.15737548 0.60706669
0.0075299046 0.15755334 0.60819989
0.012056538 0.15768218 0.60809094
-0.032044247 0.16190366 0.60772735
-0.027728753 0.16290577 0.6065625
-0.022944227 0.16306078 0.60606253
-0.0173175 0.1639425 0.606125
-0.012546235 0.16319644 0.6062727
-0.0072214291 0.16270678 0.60662508
-0.002311548 0.16270086 0.606875
0.0021521773 0.16190444 0.60807151
0.0052200006 0.16182002 0.60900009
0.012739048 0.1603962 0.60800004
-0.031294763 0.16516429 0.6085
-0.027191171 0.1674059 0.60745466
-0.022559287 0.16774552 0.60735005
-0.017351611 0.16773473 0.60731256
-0.012623754 0.16759104 0.6074118
-0.0076811179 0.16758241 0.6081304
-0.0022154066 0.16786796 0.60841179
0.00086976192 0.16610216 0.60874999
-0.027260002 0.17110001 0.60900003
-0.021302024 0.17200944 0.60862505
-0.017133811 0.17249247 0.60835719
-0.012740298 0.1725741 0.60806245
-0.0076743462 0.17214032 0.60806257
-0.003228572 0.17197308 0.60857147
-0.016240001 0.17574002 0.60900003
-0.012407239 0.1759143 0.60879999
-0.0068222224 0.11948636 0.61400002
0.026617145 0.11909652 0.61200005
-0.0076019051 0.12163049 0.61400002
0.023483178 0.1236254 0.61133337
0.02651659 0.12267645 0.61191666
-0.052099369 0.12926985 0.61233342
0.018628811 0.12923595 0.61125004
0.022443609 0.12748295 0.61321431
0.026021907 0.12601621 0.61400002
-0.052628648 0.13217504 0.61346155
-0.048828002 0.13389735 0.61180001
0.018172728 0.13303056 0.61190909
0.021710072 0.1321777 0.61371434
-0.050874289 0.13566476 0.61400002
-0.047868233 0.13776293 0.61292863
-0.04480667 0.13849334 0.611
0.018069841 0.13755429 0.61200005
0.021302043 0.13658367 0.61400008
-0.046341773 0.14253253 0.61371434
-0.043563552 0.14233378 0.61136371
0.013965715 0.1443124 0.611
0.017611813 0.14239633 0.61226672
-0.045416515 0.14599559 0.61400002
-0.04228159 0.14764081 0.61233336
0.014052247 0.14758913 0.61114293
0.017407399 0.14724988 0.61282355
-0.041489936 0.15134735 0.61357152
-0.038285241 0.15372208 0.61216676
0.014553572 0.15252167 0.61125004
0.016139526 0.15205573 0.61250007
-0.038508698 0.15753298 0.612625
0.01397762 0.1560781 0.61150002
0.015750002 0.15633288 0.61250007
-0.036858574 0.16230842 0.61266673
-0.034041431 0.1638062 0.611
0.0034914287 0.16467907 0.611
0.0079293046 0.162654 0.61146158
0.011456827 0.16214065 0.61166668
-0.036040954 0.16656668 0.61366671
-0.032884952 0.16756858 0.61220002
-0.029337144 0.16922352 0.61199999
0.0028177784 0.16815463 0.61200005
0.0070080357 0.16731302 0.61318749
-0.031694099 0.17203699 0.61400002
-0.027629584 0.17297854 0.6123125
-0.023586668 0.17325857 0.61150002
-0.019202858 0.17398953 0.611
-0.0010481905 0.17317238 0.61140007
0.0020217584 0.17249373 0.61299998
0.0064323815 0.17055558 0.61400002
-0.030992383 0.17601335 0.61400002
-0.026978733 0.17708845 0.61313331
-0.022144644 0.17715299 0.61187512
-0.017838357 0.17758711 0.61136371
-0.012801906 0.17835382 0.611
-0.0074467682 0.17711356 0.61142117
-0.0025825175 0.17720893 0.61264288
0.0011690478 0.17587002 0.6135
-0.025910795 0.18098319 0.61366671
-0.021919457 0.18077144 0.61257148
-0.017347619 0.18189947 0.61300004
-0.012952699 0.18214726 0.61260003
-0.0076383553 0.18233326 0.61272728
-0.0033595241 0.18185955 0.6135
-0.012604288 0.18680526 0.6135
-0.0080617145 0.18635714 0.61339992
-0.0040933336 0.18536954 0.61400002
-0.01228 0.19004764 0.61400002
-0.053253654 0.11823229 0.61900002
-0.041233812 0.11957668 0.61849999
-0.011186096 0.11834001 0.6182
-0.0075358986 0.11790456 0.61592317
-0.0023489685 0.11809468 0.61691678
0.0019980003 0.11824792 0.61710006
-0.05297143 0.12124572 0.61800003
-0.047161907 0.12203144 0.61900002
-0.041070163 0.12124541 0.61900008
-0.039498098 0.12144192 0.61900002
-0.011551112 0.12078794 0.61666673
-0.0080047622 0.12007143 0.61500001
-0.0023476984 0.12155485 0.61658347
0.0019097622 0.12119645 0.61700004
-0.053885721 0.12827143 0.61500001
0.026465241 0.12820524 0.61750001
0.024053335 0.13200001 0.61600006
0.02613556 0.13126732 0.61900002
-0.052250825 0.13757725 0.61518174
-0.049785718 0.13998573 0.61500001
0.023126669 0.1381651 0.61733341
0.025939049 0.13794857 0.61900002
-0.051746808 0.14232396 0.61642867
-0.048872672 0.14321896 0.6153
0.020723335 0.14213066 0.61583346
-0.051143575 0.14696501 0.61725003
-0.047716849 0.14791211 0.61568749
0.020558335 0.14802073 0.61675
-0.050462067 0.15158176 0.61849999
-0.046953697 0.15259585 0.61625004
-0.042912502 0.1530492 0.61512506
0.018428383 0.15281829 0.61620009
0.020992383 0.15204763 0.61800003
-0.046621688 0.15740588 0.61723083
-0.042108972 0.15729439 0.61558831
0.018091906 0.15693904 0.61775005
-0.045522146 0.16123644 0.61675006
-0.042222079 0.16243093 0.61623538
-0.038950004 0.16370715 0.61500001
0.013540953 0.16263747 0.61800003
0.015917145 0.16211906 0.61900002
-0.045246668 0.1662962 0.61700004
-0.042198002 0.16667631 0.61710012
-0.037886757 0.16779847 0.61545461
0.0099733341 0.16778669 0.61600006
0.011767858 0.16767383 0.61775005
-0.040677145 0.1703724 0.61900002
-0.037574608 0.17234795 0.61706674
-0.034063131 0.17249146 0.61514282
0.0041000005 0.17395715 0.61500001
0.0079932148 0.17281204 0.61587501
0.011767144 0.17238145 0.61775005
-0.037110798 0.17749988 0.61850005
-0.033097826 0.17730084 0.61585724
-0.028934289 0.17934571 0.61500001
-0.0005857143 0.17922857 0.61500001
0.0025701832 0.17760523 0.61546159
0.007372858 0.17731784 0.61650002
0.011192383 0.1775981 0.61849999
-0.035960954 0.18216288 0.61900008
-0.032941554 0.18234752 0.61762506
-0.027708929 0.18311286 0.61575007
-0.02246106 0.18378551 0.61522222
-0.018742858 0.18450001 0.61500001
-0.0013182143 0.18329394 0.61537504
0.0023479166 0.18221602 0.61618757
0.0070605963 0.18238463 0.61774999
0.010021905 0.18216288 0.61900008
-0.032055147 0.18678848 0.61870003
-0.027475515 0.18737322 0.61757153
-0.022155037 0.18772171 0.61678582
-0.017582739 0.18754347 0.61537498
-0.014642858 0.1886 0.61500001
-0.0068845246 0.18867691 0.61524999
-0.0023463271 0.187756 0.61607152
0.0024740952 0.1873446 0.61820006
0.0053057144 0.18687907 0.61900008
-0.025939049 0.1904162 0.61900002
-0.022218877 0.1919342 0.61836368
-0.01746517 0.19253321 0.61714292
-0.012951493 0.19262885 0.61626673
-0.0076311911 0.19256884 0.61645001
-0.0023523218 0.19266066 0.61768752
0.00098253984 0.19080922 0.61900008
-0.016795002 0.19623215 0.61875004
-0.012368096 0.19788073 0.61837506
-0.007389789 0.197648 0.61805552
-0.0031827621 0.19781248 0.6189
-0.01061143 0.20102763 0.61900002
-0.0088428576 0.20102763 0.61900002
0.019611429 0.11469715 0.62400001
0.020800002 0.11469715 0.62400001
-0.051874287 0.11776002 0.6213333
-0.047362268 0.11958726 0.62162501
-0.042890288 0.11883011 0.62200004
-0.0053485716 0.1170743 0.62400001
-0.0021780955 0.11701176 0.6236667
0.0011866668 0.11688668 0.62300003
0.018986667 0.11629334 0.62300003
0.020800002 0.11588572 0.62400001
-0.051240955 0.1214381 0.62200004
-0.047238097 0.12104762 0.62
-0.043695241 0.12104762 0.62
-0.037809104 0.12147728 0.6235556
0.028342858 0.12931429 0.62
0.024209525 0.13403811 0.62
0.027183335 0.13267 0.62050003
0.024209525 0.1371873 0.62
0.026607623 0.1364188 0.62085712
0.023050267 0.14282638 0.62055558
0.026312225 0.14204112 0.62316674
0.023140764 0.14726613 0.62300009
0.022912124 0.15174901 0.62263644
-0.050352387 0.15698288 0.62200004
-0.049167622 0.1587581 0.62200004
0.019485716 0.15883811 0.62
0.020951049 0.15730421 0.6214
-0.046132386 0.16441619 0.62100005
0.014785715 0.1620543 0.62100005
0.017894162 0.1622919 0.6220668
-0.046368953 0.16709466 0.62260002
-0.043211907 0.16928335 0.62150002
0.014242331 0.16742624 0.62022221
0.016973238 0.16710944 0.6231001
-0.045760002 0.17056002 0.62400001
-0.042694438 0.17217825 0.62192315
0.01419524 0.17269716 0.62099999
0.016020002 0.1720681 0.62300003
-0.042025972 0.17710859 0.62309098
-0.039561909 0.17714287 0.62
0.01376053 0.17754869 0.62211114
0.016045716 0.17650287 0.62400001
-0.041600004 0.18066287 0.62400001
-0.03828213 0.18284158 0.62130767
0.012457382 0.18267217 0.6227501
-0.037639923 0.18732615 0.62190914
-0.03331973 0.18869933 0.62
0.0073833335 0.18782207 0.62016666
0.011140953 0.18739387 0.62288892
-0.036024608 0.19180113 0.62350005
-0.032221906 0.19236682 0.62207693
-0.027233994 0.19282347 0.62061542
-0.023815876 0.19387303 0.62
0.0026808791 0.19286139 0.62015384
0.0071071428 0.1924579 0.62178582
0.010324 0.19235983 0.62300003
-0.031592146 0.19697961 0.62391675
-0.02722 0.19748479 0.62220013
-0.022466905 0.1974581 0.62074995
-0.018311048 0.19787374 0.62019998
-0.014761906 0.19899049 0.62
-0.00082666671 0.19757335 0.62
0.0023688693 0.19767731 0.62143755
0.0063838097 0.19684811 0.62350005
-0.027055673 0.20213102 0.62372732
-0.022409339 0.20262851 0.62246674
-0.017761311 0.20247297 0.62162501
-0.012599473 0.20309469 0.62011105
-0.0070040813 0.2032177 0.62028575
-0.0023222712 0.20265694 0.62176925
0.002374762 0.20238176 0.62316674
0.0053485716 0.20146286 0.62400001
-0.026505146 0.20550402 0.62400001
-0.022569643 0.20639038 0.62362504
-0.017802441 0.20768864 0.62306255
-0.012595179 0.20788233 0.62231261
-0.0070636631 0.20776935 0.62207711
-0.0026272789 0.20735177 0.62307155
0.0011885716 0.20562287 0.62400001
-0.017234288 0.21168461 0.62400001
-0.011916763 0.21223971 0.62353343
-0.0072422861 0.21240972 0.62333339
-0.0032091432 0.21144687 0.62400001
-0.048822384 0.11411858 0.62900001
-0.033746354 0.11401874 0.62900007
-0.013734287 0.11405429 0.62700003
-0.0064798277 0.1127678 0.62890917
-0.0023932145 0.11366083 0.62812507
0.01820012 0.1136868 0.626625
0.020866668 0.11327524 0.62600005
-0.051168736 0.11706874 0.62716675
-0.047780715 0.11706061 0.62712497
-0.043089528 0.11732218 0.62714291
-0.03699917 0.11905728 0.626625
-0.032304287 0.11784583 0.62812501
-0.027897334 0.11889505 0.62860006
-0.012726033 0.11751048 0.62633336
-0.0069735455 0.11654498 0.62755561
-0.0024520636 0.11585883 0.62600005
0.0027663205 0.11633967 0.62645453
0.006818858 0.1173103 0.62780005
0.010765715 0.11842287 0.62800002
0.016722701 0.1164735 0.62716669
-0.040008575 0.12002572 0.62700003
-0.03523143 0.12181715 0.62700003
-0.032580078 0.12200075 0.62723082
-0.027936906 0.12086762 0.6275
0.024482859 0.15466002 0.62700003
0.025677145 0.15466002 0.62700003
0.023252763 0.15739526 0.62600005
0.026951022 0.15871158 0.62885714
0.022810031 0.16252546 0.62693346
0.02652508 0.16253884 0.62822223
0.01925651 0.16834414 0.62533331
0.022459799 0.16720147 0.62764293
-0.050838098 0.17284954 0.62800002
-0.04794303 0.17270823 0.62709099
-0.044642862 0.17440477 0.625
0.018475479 0.17282675 0.62574995
0.02136988 0.17274632 0.62762499
-0.047872677 0.17712447 0.62831247
-0.04441905 0.17779544 0.62519997
0.01831099 0.17791159 0.62638462
0.021622723 0.17733239 0.62814295
-0.047646128 0.18074466 0.62871432
-0.043019399 0.18275569 0.62654555
0.014880953 0.18273811 0.625
0.01777981 0.18243188 0.62640005
0.021332702 0.18042478 0.62800002
-0.042170584 0.18720488 0.62755555
-0.039880954 0.18809524 0.625
0.013935715 0.18747096 0.62529999
0.017090289 0.18738382 0.6274001
-0.040681429 0.1926389 0.62816668
-0.037785187 0.19302605 0.62533337
0.013287757 0.19231471 0.62600005
0.016757265 0.1927025 0.62837505
-0.040136192 0.19708668 0.62900001
-0.036945719 0.19760312 0.62633342
-0.033630952 0.19851191 0.625
0.0082523813 0.19830519 0.62528574
0.012482618 0.19736762 0.62775004
-0.037087545 0.20218375 0.62808341
-0.032076322 0.20258668 0.62600005
-0.029166669 0.2029762 0.625
0.0071548987 0.20259669 0.62592864
0.011127525 0.20194907 0.62810004
-0.03594286 0.20667145 0.62900001
-0.032241594 0.20758906 0.62766677
-0.027788924 0.20795034 0.6256364
-0.022976194 0.20869051 0.625
-0.00059523812 0.20833334 0.625
0.0027792859 0.20762311 0.62524998
0.0072736144 0.20764986 0.62705892
0.010416954 0.20678 0.62860006
-0.032067448 0.21216497 0.62881827
-0.027347814 0.21244153 0.6269334
-0.022626251 0.21196875 0.62518752
-0.018127706 0.21358228 0.625
-0.014166668 0.21416667 0.625
-0.005357143 0.21488097 0.625
-0.0017858201 0.21293484 0.6251111
0.002384881 0.21220203 0.625875
0.0070023821 0.21249656 0.62750018
0.01018381 0.21026573 0.62900001
-0.030791048 0.21649583 0.62900001
-0.027496638 0.21745244 0.62853342
-0.022678692 0.21723098 0.626625
-0.017711431 0.21790069 0.62585717
-0.012511286 0.2180496 0.62555009
-0.0072861547 0.21763328 0.62553847
-0.0023466034 0.21729547 0.62646663
0.0023928573 0.21770836 0.62800002
0.0066959318 0.21703361 0.62872738
-0.026557781 0.2218473 0.62900007
-0.022746906 0.22147168 0.62849998
-0.017936112 0.22240405 0.62775004
-0.01254362 0.22280633 0.62720019
-0.0070580957 0.22263639 0.62806666
-0.002514286 0.22260852 0.62866676
0.001797143 0.22152781 0.62900001
-0.051080957 0.11478191 0.63100004
-0.046309054 0.11366953 0.63150007
-0.043360006 0.11381875 0.6323334
-0.036487434 0.11427753 0.63220006
-0.011934954 0.11307783 0.63289994
-0.0090142861 0.11358001 0.63100004
0.003014286 0.11454191 0.63300002
0.007837262 0.11335869 0.63312501
0.012263883 0.11324149 0.63169241
0.015324287 0.11358 0.63100004
-0.052967623 0.11616763 0.63200003
-0.045071431 0.11598381 0.63100004
-0.041530479 0.11706953 0.63200003
-0.03751421 0.11705391 0.63191664
-0.03137286 0.11644334 0.63349998
-0.027691035 0.11708485 0.63208336
-0.023202738 0.11813632 0.63287503
-0.017660294 0.11824023 0.63269228
-0.011230476 0.11610508 0.63166666
-0.0090142861 0.11658476 0.63100004
0.0022117463 0.11526699 0.63366669
0.0076940749 0.1166289 0.63233334
0.012192988 0.11684875 0.63154554
0.015023811 0.11718573 0.63100004
-0.02463905 0.12079144 0.63100004
0.025840955 0.15444477 0.63100004
0.023780547 0.17230166 0.63100004
0.025840955 0.17367525 0.63100004
0.023956193 0.17611697 0.63200003
0.025922859 0.1760343 0.63300002
-0.050116193 0.18416192 0.634
-0.047350802 0.18378161 0.63200003
0.022051239 0.18351372 0.63260001
-0.050116193 0.18657716 0.634
-0.046760891 0.18755357 0.63292861
-0.04393905 0.18960001 0.63200003
0.019622479 0.18815506 0.63199997
0.022199154 0.18704869 0.6337778
-0.04697866 0.19243866 0.63374996
-0.043329172 0.19257228 0.63187504
0.019265596 0.19264774 0.63212502
0.021374859 0.19164917 0.634
-0.045630757 0.1971007 0.63400006
-0.042325277 0.19761935 0.63276923
0.018010797 0.1977029 0.63173336
0.022223175 0.19749193 0.63349998
-0.041117691 0.20214 0.63357145
-0.037860002 0.20492478 0.63100004
0.013345525 0.20330667 0.63120002
0.017126668 0.20227525 0.63288236
0.022340953 0.20106858 0.634
-0.038021058 0.20774128 0.63144445
0.012757334 0.20771162 0.6318
0.015485874 0.20714431 0.63350004
-0.037124544 0.21240105 0.63261539
-0.03425429 0.21333812 0.63100004
0.011773508 0.21248385 0.63236362
-0.03628245 0.21743432 0.63342851
-0.033195503 0.21792869 0.63163638
0.0087138098 0.21844621 0.63100004
0.010845595 0.21750227 0.63262504
-0.035855051 0.22177009 0.63379997
-0.032567542 0.22254246 0.63324994
-0.028044859 0.22279058 0.63190001
-0.065015242 0.11362477 0.63800001
-0.062866673 0.11418211 0.63840002
-0.041123815 0.11430001 0.63500005
-0.039309528 0.11430001 0.63500005
-0.031912148 0.11458072 0.63824999
-0.029750003 0.11414143 0.63750005
-0.015119049 0.11430001 0.63500005
-0.013909524 0.11430001 0.63500005
0.0027592597 0.11320836 0.63566673
0.0054571433 0.11338478 0.63666672
-0.065066196 0.11553763 0.63850003
-0.063053265 0.11692565 0.63558346
-0.057116196 0.11666286 0.63800001
-0.052337147 0.11562858 0.63900006
-0.041123815 0.11550953 0.63500005
-0.039309528 0.11550953 0.63500005
-0.031497147 0.11569144 0.63600004
-0.02767881 0.11588739 0.63875008
-0.022957144 0.11668533 0.63671434
-0.017259482 0.11594832 0.63681823
0.0054428573 0.11550953 0.63500005
-0.051485717 0.18474287 0.63600004
-0.050921097 0.18768926 0.63542867
-0.048985716 0.1874762 0.63500005
0.023585716 0.18868573 0.63500005
-0.050711434 0.19158801 0.63540006
-0.048985716 0.19110477 0.63500005
0.023283336 0.19261669 0.63500005
-0.047292382 0.19703144 0.63500005
0.023182541 0.19614446 0.63500011
-0.046142045 0.20266069 0.63628578
-0.043476332 0.20268668 0.63528574
0.019957144 0.20380478 0.63500005
0.022192193 0.20359068 0.63660008
-0.046418261 0.2071583 0.63850009
-0.042477984 0.20782454 0.63712502
0.018480295 0.2074661 0.63538474
0.022595389 0.20774749 0.63853854
-0.041774765 0.21251406 0.63800001
-0.039309528 0.21348096 0.63500005
0.013909524 0.21348098 0.63500011
0.017167415 0.21266608 0.63721442
0.020890797 0.21276043 0.6388889
-0.04077429 0.21604288 0.63900006
-0.038797144 0.21762216 0.63650006
0.013315477 0.21788645 0.63550001
0.017019942 0.21759219 0.63818753
0.020488573 0.2168543 0.63900006
-0.038307432 0.22255717 0.6364001
-0.060342859 0.11398096 0.64000005
-0.058788575 0.11390191 0.64300001
-0.052625243 0.1144262 0.64249998
-0.026716402 0.11359937 0.64244449
-0.021845024 0.11322426 0.64200002
-0.017276192 0.11320721 0.64022225
-0.060342859 0.11580953 0.64000005
-0.057428576 0.11547001 0.6415
-0.053953659 0.11584699 0.64133334
-0.026839525 0.11529 0.64050007
-0.022209117 0.11557402 0.64014292
-0.043580953 0.21302859 0.64000005
-0.042232387 0.21809971 0.6426667
0.020723812 0.21760002 0.64000005
-0.042634018 0.22086589 0.64342862
-0.057416122 0.11232813 0.64640003
-0.053328384 0.11281487 0.64659995
-0.049424767 0.11463811 0.64600003
-0.030833812 0.11346668 0.64750004
-0.02738259 0.11208246 0.64714283
-0.022512574 0.11156972 0.64580005
-0.017849844 0.11223715 0.6463334
0.0043100002 0.11205858 0.64649999
0.0073985728 0.11280644 0.64724994
0.011720818 0.11306314 0.64771432
0.015428573 0.11293715 0.648
0.022967622 0.11258668 0.64600003
-0.044912383 0.21964002 0.64600003
-0.055180002 0.10974 0.65100002
-0.054064289 0.10937096 0.65250003
-0.042911433 0.10883334 0.65300006
0.0080720652 0.10928699 0.65200007
0.012005081 0.10949397 0.65200007
0.015523811 0.10990858 0.65200001
0.022415241 0.10904214 0.65177786
0.026060002 0.10920238 0.65150005
-0.051907834 0.11188202 0.65144449
-0.047110286 0.1129922 0.65259999
-0.042135496 0.11298072 0.65253335
-0.037257504 0.11301203 0.65200001
-0.032674208 0.11249708 0.65141672
-0.027129209 0.11120731 0.65233344
-0.022388574 0.11132096 0.65300006
-0.016455714 0.11270239 0.65200001
-0.011920477 0.11324296 0.65189999
-0.0087066675 0.11287572 0.65300006
0.0037192858 0.11155501 0.65075004
0.0078412704 0.11122223 0.6500001
0.012651975 0.11138886 0.65028572
0.017471822 0.1124474 0.65105879
0.021806572 0.11238315 0.65050006
0.025793653 0.11122223 0.65000004
-0.046642862 0.11505239 0.65300006
-0.04227405 0.11594072 0.65275007
-0.037215002 0.11598453 0.65125
-0.033480003 0.11594 0.65100002
-0.0087066675 0.11505239 0.65300006
0.018018097 0.11617747 0.65233344
0.021144763 0.11629619 0.65300006
0.013152699 0.10460033 0.65766668
-0.05168286 0.10899867 0.65700001
-0.047823813 0.10896287 0.65700001
-0.04241905 0.10885477 0.65500003
-0.039300002 0.10916667 0.65500003
-0.010653334 0.10966668 0.65800005
-0.0070955558 0.10913777 0.65733337
-0.003128889 0.10913779 0.65733337
0.0028790478 0.10931601 0.65740001
0.0071211434 0.10833372 0.65600008
0.012685919 0.10729423 0.65664291
0.017346449 0.10787759 0.65592313
0.022402646 0.10688201 0.6554445
0.026844289 0.10737666 0.65550005
-0.051880322 0.11063906 0.65633339
-0.047907759 0.11124763 0.65571433
-0.042419054 0.1104143 0.65500003
-0.037469767 0.11054072 0.65575004
-0.032586668 0.11092 0.65800005
-0.028762382 0.11129096 0.65650004
-0.017498812 0.11187501 0.65625
-0.012592247 0.11154681 0.65642864
-0.0070755556 0.11205842 0.65550011
-0.0026202542 0.1122063 0.65526676
0.0017173809 0.11167596 0.65600002
0.0056142863 0.1104143 0.65500003
0.019338097 0.1104143 0.65500003
-0.004366667 0.11540477 0.65500003
0.0039946036 0.10366064 0.66233343
0.0075638099 0.10335881 0.66175008
0.010685715 0.10497144 0.66000003
-0.041674286 0.10923715 0.66300005
-0.037858099 0.10915476 0.66250002
-0.032834288 0.10923715 0.66300005
-0.027771669 0.10919596 0.66275007
-0.022598479 0.10895162 0.66280007
-0.017824525 0.10836548 0.66250008
-0.012949948 0.10799948 0.66144449
-0.0079220962 0.10802114 0.66020006
-0.0018860319 0.10879779 0.6603334
0.0023956194 0.10739849 0.66180003
0.0075627784 0.10650994 0.66175008
-0.037143812 0.11016667 0.66100001
-0.03273524 0.11058572 0.66100007
-0.02742286 0.11068163 0.6608572
-0.022650357 0.11073274 0.66062498
-0.017623693 0.11077464 0.66087496
-0.013519762 0.11035596 0.66025007
-0.002514286 0.11000001 0.66000003
-0.04186286 0.10465715 0.66600001
-0.038805719 0.10412192 0.6680001
-0.017733335 0.1045 0.66500002
-0.0063714292 0.10385429 0.66900003
-0.0019083811 0.10411411 0.66740006
0.0012671429 0.10457858 0.66550004
-0.041841909 0.10714002 0.6656667
-0.037791729 0.10670673 0.66693753
-0.032907683 0.10685475 0.66706669
-0.027848303 0.10803362 0.66671437
-0.022671789 0.10749061 0.66587496
-0.017581189 0.1065981 0.66525
-0.012505716 0.10703778 0.66766679
-0.0078553455 0.10679144 0.66877788
-0.0025477782 0.1070654 0.66850013
0.0024074288 0.10684363 0.66539997
-0.040320002 0.10368001 0.67200005
-0.03665778 0.10336318 0.67133331
-0.031946313 0.10350608 0.67087501
-0.027861429 0.10407668 0.67250007
-0.022989526 0.10408715 0.67050004
-0.01084762 0.10400953 0.67000002
-0.0082952389 0.10324382 0.67000002
-0.028174395 0.10624192 0.67066669
-0.023255514 0.10587783 0.67028582
-0.019780954 0.10528572 0.67000002
-0.011842858 0.10591906 0.67200005
-0.0073380959 0.10624287 0.67000002
-0.0038285716 0.10847619 0.67000002
-0.016071429 0.10607143 0.67500001
-0.014785715 0.10607143 0.67500001
