# .PCD v0.7 - Point Cloud Data file format
VERSION 0.7
FIELDS x y z
SIZE 4 4 4
TYPE F F F
COUNT 1 1 1
WIDTH 766
HEIGHT 1
VIEWPOINT 0 0 0 1 0 0 0
POINTS 766
DATA ascii
-0.02224762 0.12069334 0.58400005
-0.027440002 0.12264001 0.588
-0.022999048 0.12284858 0.58900005
-0.017068982 0.12188695 0.58900005
-0.016322859 0.11988859 0.59100002
0.007354286 0.11936572 0.59400004
-0.031987622 0.12353963 0.59340012
-0.027117826 0.12416001 0.59142864
-0.0224615 0.12405906 0.59171432
-0.017223639 0.12301239 0.59027284
-0.012382144 0.12382881 0.59100002
-0.0073279054 0.12401724 0.59190005
-0.0022559527 0.12352627 0.59224999
0.0020965307 0.122773 0.59250003
0.005657143 0.12219429 0.59400004
-0.031868577 0.12577716 0.59400004
-0.027264347 0.12742198 0.5933125
-0.02262108 0.12748155 0.59280002
-0.017487429 0.12748687 0.59230006
-0.01240018 0.12738127 0.59181249
-0.0073949383 0.1274575 0.59257901
-0.0024483602 0.12679037 0.59344447
0.0019234287 0.12592801 0.59400004
-0.026588574 0.13068001 0.59400004
-0.015274286 0.13237715 0.59400004
-0.012445715 0.13068001 0.59400004
-0.0090514291 0.13068001 0.59400004
-0.041294288 0.11877429 0.59600002
-0.039165717 0.11863239 0.59600008
0.0090666674 0.11956667 0.59500003
0.012101225 0.11912654 0.59685719
-0.040732004 0.12288058 0.59900004
-0.037511908 0.12276167 0.59675002
-0.034089256 0.12234885 0.59514296
0.0081879599 0.12272389 0.59578586
0.011850737 0.12278737 0.5976364
-0.037200075 0.12745884 0.598077
-0.032821704 0.12771927 0.59564298
-0.028900001 0.12920001 0.59500003
-0.022100002 0.12976667 0.59500003
-0.0062333336 0.12976667 0.59500003
-0.0020250343 0.12937443 0.59542865
0.0024232038 0.12821664 0.59545469
0.0070568635 0.12707637 0.59676468
0.010839049 0.12607525 0.59900004
-0.036510479 0.13063906 0.59900004
-0.032029882 0.13210274 0.59787512
-0.027299495 0.13301201 0.59633338
-0.022704883 0.13282417 0.59600008
-0.01783053 0.13268737 0.59538907
-0.012466668 0.13316667 0.59500015
-0.0071812705 0.13286383 0.5953334
-0.0022714881 0.13294923 0.5965625
0.0022759524 0.13256107 0.59737504
0.0057756468 0.13152942 0.59785724
-0.030805718 0.13577335 0.59900004
-0.02723543 0.13777286 0.59826672
-0.022776311 0.13779667 0.59787506
-0.017624667 0.13757212 0.59690011
-0.012482381 0.13730691 0.59575003
-0.0073853335 0.13750353 0.5966
-0.0024406125 0.1376307 0.59821433
0.0023628576 0.1361158 0.59871435
-0.026402861 0.14151081 0.59833336
-0.022746408 0.14181621 0.59845459
-0.017658954 0.14240554 0.59810001
-0.012511966 0.14218791 0.59718758
-0.0077462741 0.14230068 0.59864706
-0.0036130163 0.14128795 0.5990001
-0.017060086 0.14638288 0.59890914
-0.012773904 0.14633545 0.5988
-0.044146668 0.11982667 0.60200006
0.01402381 0.1181962 0.60100007
0.017101172 0.11793519 0.603154
-0.046420265 0.12296798 0.60309106
-0.043200105 0.12297938 0.60122228
0.01432143 0.12259287 0.60150003
0.01722995 0.12232276 0.60300004
-0.045712624 0.12678787 0.60375005
-0.042533848 0.12736738 0.60186678
-0.039450478 0.1286435 0.60033333
0.0093387309 0.12940541 0.60033339
0.012927694 0.1276395 0.60223085
0.015735051 0.12714878 0.60300004
-0.041700479 0.13187914 0.60310012
-0.037977554 0.13316546 0.6015715
-0.034300238 0.13377024 0.60025001
0.0083342874 0.13327086 0.60176927
0.012167858 0.13192689 0.60358346
-0.040841907 0.13518097 0.60400003
-0.036975753 0.13769665 0.60300016
-0.03270318 0.13748643 0.60100001
0.0025322451 0.13843349 0.60028577
0.007338197 0.1375704 0.60226321
0.011389716 0.13610135 0.60400003
-0.035443973 0.14215764 0.60350007
-0.032124463 0.14226115 0.60231256
-0.028523674 0.14245622 0.60071433
-0.022979621 0.14439106 0.60020006
-0.0055238097 0.14419049 0.60000002
-0.0019597961 0.14266375 0.60021424
0.002295 0.14221764 0.60212505
0.0064182542 0.14225429 0.60350013
-0.03506048 0.14599001 0.60350001
-0.032011297 0.14684151 0.60328579
-0.027502634 0.14702891 0.6023531
-0.022456193 0.14784418 0.6013158
-0.017719526 0.14861286 0.60016668
-0.012200478 0.1488862 0.60050011
-0.007436573 0.14760193 0.60070008
-0.0022930955 0.14766513 0.60212511
0.0019905497 0.14685798 0.60361546
-0.027030597 0.15140015 0.60387504
-0.022291029 0.15276332 0.60336846
-0.017199108 0.15249221 0.60193753
-0.012612739 0.15250844 0.602
-0.0074640485 0.15274835 0.60295004
-0.0022994049 0.15266275 0.60375005
0.00057523814 0.15186286 0.60400003
-0.021283811 0.1572492 0.60400009
-0.017242858 0.15748575 0.60350001
-0.012779709 0.15711759 0.60361546
-0.0074760639 0.15700561 0.60386676
-0.0034514288 0.15646477 0.60400003
-0.020133335 0.16049144 0.60400003
-0.017257145 0.16087493 0.60400009
0.022045318 0.11849263 0.6064167
-0.050294291 0.1231343 0.60700005
-0.048789289 0.12298167 0.60625005
0.021633811 0.12180658 0.60729998
0.027260002 0.12122001 0.60900003
-0.050679684 0.12621747 0.60700005
-0.047689151 0.12782153 0.60620004
0.018104628 0.12771469 0.60757148
0.020266669 0.12565334 0.60800004
-0.04656205 0.13224015 0.60785717
-0.044055559 0.13312858 0.60600007
0.014116667 0.1333881 0.60500002
0.015994605 0.13257779 0.60700011
-0.045820002 0.13514 0.60900003
-0.04240641 0.13740902 0.60690916
-0.039394926 0.1385543 0.60533333
0.013280781 0.13779075 0.60627276
0.016284235 0.13754222 0.60822231
-0.041112386 0.14244762 0.60800004
-0.038345024 0.14272231 0.60573334
0.0091523826 0.14272028 0.60600013
0.012579252 0.14224826 0.60821432
0.016240001 0.14094001 0.60900003
-0.037480131 0.14764218 0.60666674
-0.03341905 0.14923334 0.60500002
0.0036492066 0.14884922 0.60500002
0.0076672733 0.14757439 0.60636371
0.011523281 0.14748012 0.60833341
-0.036739636 0.15251826 0.6078462
-0.032330535 0.15241364 0.60618752
-0.027993228 0.15341526 0.60533333
-0.024776192 0.15499525 0.60500002
-0.00057619053 0.15499525 0.60500002
0.0024231751 0.15244071 0.60553336
0.0075212391 0.15271841 0.6074
0.01150939 0.15226695 0.60857147
-0.035708256 0.15711588 0.60800004
-0.032387264 0.15730701 0.60725003
-0.027844587 0.15754426 0.60593748
-0.023893336 0.15841207 0.60533333
-0.012100002 0.15960477 0.60500002
-0.0074904771 0.15960477 0.60500002
-0.0020436365 0.15825716 0.60545456
0.0024300956 0.15741044 0.60720009
0.0075338096 0.15763144 0.60850006
0.011742739 0.157873 0.60887504
-0.031853255 0.16178972 0.60809094
-0.027748693 0.16244514 0.60699999
-0.022641256 0.16291678 0.60626322
-0.017311143 0.16353592 0.60589999
-0.012706509 0.16231242 0.60650003
-0.0073700608 0.1625734 0.60693753
-0.0021793412 0.16232926 0.60723078
0.0021529254 0.16196164 0.60828578
0.0052200006 0.16182002 0.60900009
-0.030689526 0.16502859 0.60800004
-0.027297292 0.16712457 0.6078462
-0.022564953 0.16778667 0.60750014
-0.017339526 0.16761394 0.606875
-0.012735478 0.16730319 0.60784996
-0.0076294839 0.16754481 0.60837501
-0.0026804169 0.16721077 0.60856253
0.00058000005 0.16530001 0.60900003
-0.02144262 0.1718293 0.6085
-0.017072823 0.17237583 0.60846156
-0.012883739 0.17230839 0.60853851
-0.0074465941 0.1719732 0.60861552
-0.0035960004 0.17202802 0.60900003
-0.015660001 0.17574002 0.60900003
-0.038594291 0.11870667 0.61400008
-0.038594291 0.12104572 0.61400002
0.023314763 0.1235662 0.61199999
0.026103815 0.12287736 0.61211115
-0.051041272 0.1290597 0.61133337
-0.049461909 0.12976477 0.611
0.018620953 0.12860096 0.611
0.022200558 0.12745517 0.61341667
-0.051471028 0.13222259 0.61314285
-0.048997831 0.13301715 0.61142862
0.018290287 0.13280457 0.6116001
0.021527989 0.13226455 0.61346149
-0.050874289 0.13663937 0.61400002
-0.047943752 0.13776153 0.6124
-0.04480667 0.13849334 0.611
0.018651906 0.13755524 0.61199999
0.020927811 0.13667296 0.61380005
-0.04732791 0.14198183 0.6135
-0.043691427 0.14252827 0.61166668
0.013965715 0.1448943 0.611
0.017760435 0.14254539 0.61227274
-0.045806356 0.14638542 0.61400002
-0.042481914 0.14744735 0.61230773
0.013983335 0.14798547 0.61175001
0.016597688 0.14636968 0.61300009
-0.041322142 0.15156049 0.61324996
-0.038662862 0.15368001 0.61200011
0.013787408 0.1528198 0.61166668
0.015990859 0.15256003 0.61280006
-0.038355481 0.15793762 0.61250001
0.013403017 0.15616304 0.61183345
0.015762858 0.15646002 0.61300004
-0.037048019 0.16218945 0.61258334
-0.033878099 0.16380192 0.61120003
0.0034914287 0.16467907 0.611
0.0079305498 0.16267429 0.61153853
0.011657144 0.1620343 0.61200005
-0.03602159 0.16569716 0.61333334
-0.032492489 0.16752359 0.61288893
-0.029142858 0.16902858 0.61200005
-0.00058190478 0.16817048 0.611
0.002448445 0.16796175 0.61193341
0.006893842 0.16725513 0.61333334
-0.03122629 0.17203696 0.61400002
-0.027743125 0.17279637 0.61250001
-0.023285955 0.17347881 0.61125004
-0.019202858 0.17398953 0.611
-0.0081466679 0.17398953 0.611
-0.0013585186 0.17259474 0.61155558
0.002169864 0.17261831 0.61321425
0.0058476194 0.17133525 0.61400002
-0.026943063 0.17699818 0.61307138
-0.022144286 0.17715275 0.61187506
-0.017790917 0.17741367 0.61169237
-0.012697652 0.17718998 0.61160004
-0.0075759054 0.17715992 0.61190015
-0.0023323812 0.17736989 0.61262506
0.0011690478 0.17587002 0.6135
-0.021913609 0.18072942 0.61242861
-0.017397527 0.18203321 0.61300004
-0.012844048 0.18214929 0.61299998
-0.0075877621 0.18210442 0.61285001
-0.0027403666 0.18212867 0.61338454
-0.01262705 0.18624477 0.61379999
-0.0078549208 0.18572159 0.61344439
-0.0033114287 0.18565874 0.61366671
-0.041699052 0.11922222 0.61666673
-0.005274286 0.11779302 0.61533338
-0.0023503574 0.11881917 0.61762506
0.0017685716 0.11908382 0.61900002
-0.042578857 0.1204623 0.61580008
-0.0052800002 0.12026668 0.61600006
-0.0021132387 0.12134315 0.61670011
0.0014278914 0.12146762 0.6170001
0.024053335 0.12848191 0.61600006
0.026290834 0.127343 0.61687505
-0.060426671 0.13141334 0.61600006
-0.057468258 0.13276286 0.6170001
-0.053995717 0.13264121 0.6162501
0.024092382 0.13162857 0.61699998
0.025349526 0.13028477 0.61900002
-0.056982383 0.13629097 0.61683339
-0.053020962 0.13776954 0.61626667
0.023187334 0.13793859 0.61790007
0.025349526 0.13735905 0.61900002
-0.051605958 0.14308906 0.61575007
-0.049004763 0.1438905 0.61500001
0.019328572 0.14467144 0.61500001
0.021769613 0.14199664 0.61772728
-0.051431116 0.1474489 0.61600012
-0.047911905 0.14798348 0.61537498
0.018321168 0.14845388 0.61611116
0.020583335 0.14702478 0.61750007
-0.050028574 0.15244001 0.61800003
-0.046852645 0.15253226 0.61646676
-0.043269388 0.15290722 0.61514282
0.018119527 0.152684 0.6170001
0.020616669 0.15079668 0.61849999
-0.046475526 0.15695459 0.61770004
-0.042223815 0.15716358 0.61575001
0.014738096 0.15976097 0.61900002
0.018073879 0.15677674 0.61785722
-0.045271114 0.16168319 0.61733341
-0.042129267 0.16231933 0.61627787
-0.03924286 0.1634143 0.61500001
0.013707485 0.16235948 0.61800003
0.015917145 0.16094001 0.61900002
-0.041599646 0.16713323 0.61737502
-0.037707224 0.16782343 0.61541665
-0.034557145 0.16868573 0.61500001
0.0097358106 0.16808365 0.61580008
0.01199581 0.16757888 0.61740011
-0.040677145 0.1703724 0.61900002
-0.037574355 0.17234783 0.6170668
-0.033507533 0.17222303 0.6152727
0.0082520647 0.17271683 0.61586678
0.011914524 0.17238119 0.61775005
-0.037115637 0.17752406 0.61858338
-0.032848217 0.17713836 0.61587501
-0.028700002 0.17922859 0.61500001
0.0025716485 0.17764917 0.61561543
0.0073763495 0.17741342 0.61683333
0.011322331 0.17728721 0.61844444
-0.035960954 0.18157335 0.61900002
-0.032829717 0.182262 0.61773336
-0.027363284 0.18274625 0.61566669
-0.022465186 0.18381885 0.61533338
-0.019328572 0.18450001 0.61500001
-0.00058603182 0.18342796 0.61533338
0.0023494647 0.18228982 0.61643755
0.0069445083 0.18230096 0.61786675
0.010021905 0.18157335 0.61900002
-0.031924289 0.18702543 0.61883336
-0.027397826 0.18733267 0.61771441
-0.022155171 0.18772174 0.61678582
-0.017587919 0.18760079 0.61556256
-0.013276191 0.18879525 0.61500001
-0.0074047623 0.1885518 0.61536366
-0.0021195607 0.1879562 0.61569232
0.002237397 0.18730104 0.61780006
0.0053057144 0.18628953 0.61900002
-0.026865445 0.19092152 0.61900008
-0.022185823 0.19168551 0.61844444
-0.017502932 0.19242954 0.61730778
-0.012911905 0.19250645 0.61625004
-0.0076372861 0.19272472 0.61694998
-0.002306374 0.19250126 0.61753857
0.0011788097 0.19151787 0.61875004
-0.016899684 0.19631144 0.61900002
-0.012058096 0.19775613 0.61860013
-0.0072431932 0.19786395 0.61864716
-0.0031441278 0.197294 0.61900002
-0.011200953 0.20102763 0.61900008
-0.0070742862 0.20102763 0.61900002
-0.00059428578 0.11113144 0.62400001
0.0011885716 0.11113144 0.62400001
-0.041946989 0.11815842 0.62033337
-0.037253067 0.11854804 0.62371433
-0.0021331431 0.11700916 0.62239999
0.0023187015 0.11724841 0.62263644
0.0071238102 0.11754318 0.62333339
-0.047497716 0.12171087 0.62340009
-0.044571433 0.12064001 0.62400001
-0.028525718 0.12123429 0.62400001
0.0041533336 0.12044667 0.62300003
0.027752383 0.12931429 0.62
0.024209525 0.13403811 0.62
0.026698101 0.13207375 0.62019998
0.024209525 0.13521905 0.62
0.0262163 0.13725166 0.62088889
0.023658097 0.1437162 0.62100005
0.026200762 0.14190629 0.62239999
0.023101214 0.14748168 0.62190914
0.022645937 0.15222177 0.62192315
-0.050372623 0.15763977 0.62224996
-0.048773576 0.15814453 0.62075001
0.018895239 0.15883811 0.62
0.021824762 0.15718062 0.62236369
-0.047646672 0.1621884 0.62380004
0.013580954 0.16474287 0.62
0.017878924 0.16223094 0.62153333
0.020800002 0.16105144 0.62400001
-0.04629929 0.16619977 0.62325001
-0.044151194 0.16800691 0.62225002
0.01426939 0.16742586 0.62057143
0.016683675 0.16657293 0.6224286
-0.042396709 0.17232521 0.62218189
0.014348811 0.17261787 0.62125003
0.016020002 0.17206715 0.62300003
-0.041910194 0.17737363 0.62330008
-0.039561909 0.17714287 0.62
0.01392762 0.17778549 0.62225002
0.016028574 0.17631494 0.62333339
-0.041401908 0.18125717 0.62400001
-0.038106538 0.18283525 0.62100005
-0.034838099 0.18481906 0.62
0.0088571431 0.18481906 0.62
0.012369662 0.18287392 0.62257147
-0.037997074 0.18751505 0.62261546
-0.033443432 0.18848346 0.62040007
0.0041333335 0.18954287 0.62
0.0072493507 0.18755829 0.6201818
0.011273048 0.18746315 0.62290007
-0.035836194 0.1914562 0.62366676
-0.031975787 0.19243662 0.62171429
-0.027378205 0.19361861 0.62044442
-0.023280382 0.19391964 0.62040007
0.0029535934 0.19292797 0.6201818
0.0071087498 0.19220889 0.62193757
0.010327239 0.19242097 0.62320006
-0.031329643 0.19703609 0.62362504
-0.027099866 0.19773851 0.62242866
-0.022482557 0.19759803 0.62118751
-0.018442966 0.19788086 0.62022221
-0.01417143 0.19899049 0.62
-0.00059047621 0.19721906 0.62
0.0022504767 0.19750422 0.62126672
0.0061948304 0.19695839 0.62371433
-0.027040003 0.20205715 0.62400001
-0.022225205 0.202576 0.62292314
-0.017763512 0.20249328 0.62168753
-0.012909526 0.20249592 0.62014282
-0.0072509088 0.20308225 0.62036359
-0.0023670751 0.20245606 0.62157154
0.00237627 0.20216517 0.62341678
-0.026742859 0.20502858 0.62400001
-0.021977147 0.20630512 0.6236667
-0.017691303 0.20766024 0.62333339
-0.012448571 0.20746751 0.62239999
-0.0069945399 0.20758606 0.62240005
-0.0024917466 0.20735539 0.62313336
0.0010697144 0.20597945 0.62400001
-0.017234288 0.21097144 0.62400001
-0.012107034 0.21193844 0.62361544
-0.0073226197 0.21206138 0.62341678
-0.0032091432 0.21144688 0.62400001
-0.0053828573 0.1142362 0.62800002
-0.0022151703 0.11281206 0.62578571
0.0021457144 0.11379924 0.62560004
0.0059619052 0.11387239 0.62600005
-0.051436193 0.11902096 0.62800002
-0.047692511 0.11845188 0.62753344
-0.043942954 0.11713896 0.62690002
-0.03523143 0.11882763 0.62699997
-0.032379925 0.11849374 0.62575006
-0.027863812 0.11922827 0.62700003
-0.0065671005 0.11693265 0.62672728
-0.0035776193 0.11566048 0.62600005
0.0033746033 0.11573588 0.62533337
0.0071559194 0.11719171 0.62600011
0.01061012 0.11775228 0.62762499
-0.051436193 0.12021715 0.62800002
-0.045833338 0.12083334 0.625
-0.035119049 0.12083334 0.625
-0.031746037 0.12123017 0.625
-0.026358098 0.12040858 0.62900001
0.0071428576 0.12083334 0.625
0.010119048 0.12083334 0.625
0.024404764 0.15416668 0.625
0.026410958 0.15349637 0.62550002
-0.051785719 0.15892859 0.625
0.02417448 0.15755087 0.62519997
0.026694445 0.15817255 0.62750006
-0.05183778 0.1626818 0.62722224
-0.048577014 0.16359499 0.62528574
0.022834903 0.16273056 0.62621427
0.026523335 0.16172747 0.62816668
-0.050757147 0.16660097 0.62700003
-0.048009101 0.16800001 0.62577778
0.018727409 0.16840996 0.62533331
0.022520555 0.16730088 0.62775004
-0.046785403 0.17273863 0.62711114
-0.044666674 0.17330733 0.62533337
0.018477939 0.17284939 0.62583333
0.021270884 0.17298165 0.62785715
-0.046942268 0.17699988 0.62787503
-0.044257939 0.17742777 0.62516665
0.018306596 0.17786808 0.62623078
0.021543493 0.17732954 0.62833333
-0.046090003 0.18076906 0.62849998
-0.042909287 0.18236168 0.62575001
0.014880953 0.18273811 0.625
0.017647756 0.18243077 0.62657142
0.021332702 0.18042478 0.62800002
-0.041715786 0.18724777 0.62700009
0.014089948 0.18779789 0.6251111
0.017073717 0.18720478 0.62680006
-0.040492386 0.19209114 0.62833333
-0.037666246 0.19296236 0.62555557
0.013248059 0.19238375 0.62569231
0.01675405 0.19266407 0.62825
-0.037216946 0.19742553 0.62735724
-0.033256054 0.19808982 0.62514287
0.0081896428 0.19818488 0.62537497
0.012629188 0.1974217 0.62782353
0.016174287 0.19648764 0.62900001
-0.036484681 0.20177612 0.62800008
-0.032076448 0.20258628 0.62599999
-0.0277381 0.20273809 0.625
-0.024404764 0.20416668 0.625
0.0041666669 0.20416668 0.625
0.0071544051 0.20266452 0.625875
0.011129334 0.20198098 0.62820005
-0.035811812 0.20636649 0.62879997
-0.032248322 0.20763309 0.62780011
-0.027459431 0.20755076 0.62586671
-0.023363095 0.20788692 0.625
-0.00059523812 0.20892859 0.625
0.0029778357 0.20761268 0.62527275
0.0071614287 0.20764062 0.62650001
0.010175715 0.20710668 0.62849998
-0.031984288 0.21202926 0.62890005
-0.027311977 0.2124241 0.62728578
-0.022632977 0.21203262 0.62537497
-0.017994506 0.21314104 0.625
-0.013180275 0.21437076 0.625
-0.0065476196 0.21458334 0.625
-0.001918201 0.21297261 0.62522221
0.0023867858 0.21232954 0.62625003
0.0070381695 0.21243012 0.62776929
0.01018381 0.21026573 0.62900001
-0.03055143 0.2150581 0.62900001
-0.027128574 0.21734823 0.62869233
-0.022710359 0.21753487 0.6275
-0.01789245 0.21768458 0.62621433
-0.012508906 0.21801491 0.62545007
-0.0073200692 0.21782675 0.6256429
-0.0022680005 0.21743463 0.6268667
0.0023939884 0.21781626 0.62831253
0.0067731878 0.2170592 0.62892312
-0.021856904 0.22126025 0.62875003
-0.017949592 0.22256866 0.6282143
-0.012541715 0.22275935 0.62706673
-0.0070036068 0.22267285 0.6277858
-0.0025142862 0.22260852 0.6286667
0.0017971429 0.22134811 0.62900001
-0.050640002 0.11394001 0.63300002
-0.046722289 0.11403562 0.6322
-0.0072114291 0.11478191 0.63100004
0.008009797 0.11362097 0.63314289
0.012076971 0.11350347 0.63118184
0.015023811 0.11418096 0.63100004
-0.05220009 0.11748893 0.63263637
-0.048436768 0.11622419 0.63100004
-0.031131431 0.11789652 0.63266671
-0.027936723 0.11797905 0.63311106
-0.023535557 0.11888763 0.63366669
-0.018014604 0.1190089 0.63288885
0.0078371437 0.11514572 0.63300002
0.012632065 0.11630604 0.63166666
0.015023811 0.11598381 0.63100004
-0.054487623 0.12083557 0.63333338
-0.022340953 0.12015811 0.634
-0.016863812 0.12047477 0.63250005
0.023621485 0.17243715 0.63233334
0.026366351 0.17409842 0.634
-0.04875429 0.17816383 0.63200003
0.02385143 0.17694071 0.6328572
0.025922859 0.17663716 0.63300002
-0.047785822 0.1827613 0.63333338
0.01983143 0.18449239 0.63100004
0.022036763 0.18339829 0.6322
-0.046745539 0.18712839 0.63331252
-0.043921668 0.18772072 0.63175005
0.019622479 0.18815619 0.63200003
0.021980818 0.18679662 0.63357145
-0.045841597 0.19241303 0.63333333
-0.042963248 0.19278975 0.6318
0.018906478 0.19230877 0.63220006
0.021133335 0.19020002 0.634
-0.045688257 0.19543305 0.634
-0.041783959 0.19759892 0.63300002
0.018667329 0.19754264 0.63223076
0.021931006 0.19777925 0.63377774
-0.040836513 0.20237145 0.63366669
-0.03847643 0.20380358 0.63125002
0.013341144 0.20324211 0.63100004
0.016774766 0.20187886 0.63221431
0.021737143 0.20106858 0.634
-0.037909146 0.20795201 0.6318
0.012635585 0.20756757 0.63172728
0.015327239 0.20721793 0.63360006
-0.037120078 0.21237534 0.63253844
-0.033953812 0.21363859 0.63100004
0.01217238 0.21275364 0.63260007
0.01509524 0.21072954 0.634
-0.036282457 0.21743432 0.63342857
-0.032477759 0.21771754 0.63150007
-0.029446669 0.21814573 0.63100004
0.0090142861 0.21814573 0.63100004
0.010751429 0.21768042 0.6321429
-0.036134291 0.2218935 0.63385719
-0.032706082 0.22235037 0.63323075
-0.027673811 0.2225875 0.63166672
-0.023296429 0.22349286 0.63125002
0.010840636 0.22161715 0.6323334
-0.032784235 0.11362762 0.63877779
-0.029153572 0.11418691 0.63775003
-0.061253935 0.11718702 0.63837504
-0.057319529 0.11787777 0.63800007
-0.05355937 0.11702287 0.63666677
-0.033035435 0.11622401 0.63760006
-0.027614152 0.11626178 0.63628578
-0.022616271 0.11671501 0.63608348
-0.017384358 0.11658871 0.63571441
-0.048380956 0.18929049 0.63500005
0.022376193 0.18929049 0.63500005
-0.048179369 0.19191113 0.63500005
0.019957144 0.19352382 0.63500005
0.02272615 0.19264495 0.63554555
-0.046141524 0.19824934 0.63580006
-0.044147622 0.19836192 0.63500005
0.022903429 0.19546421 0.63620007
-0.04600076 0.20184155 0.63720006
-0.043461196 0.20276308 0.63600004
0.019368097 0.20335954 0.63550007
0.020861588 0.20436256 0.63800001
-0.046573445 0.2063688 0.63877779
-0.042436197 0.2076205 0.6365
0.017811526 0.20742944 0.63610011
0.020595513 0.20795198 0.63871431
-0.041963268 0.2122498 0.6385715
-0.039309528 0.21348096 0.63500005
0.017110925 0.21269672 0.63700002
0.020894287 0.21293241 0.639
-0.038789645 0.21757942 0.63637507
0.013230342 0.21765161 0.6355716
0.017141271 0.21771842 0.63820004
0.020478098 0.21633527 0.63866675
-0.038571749 0.22260457 0.6361112
-0.061399527 0.11394144 0.64150006
-0.058787622 0.11451524 0.64300001
-0.031085717 0.11276191 0.64000005
-0.027365714 0.11334688 0.64177781
-0.022090478 0.11358 0.64233339
-0.017697886 0.11289852 0.64077783
0.0036800003 0.11469334 0.64400005
0.0055200006 0.11469334 0.64400005
-0.061594605 0.11526 0.64033341
-0.057006672 0.11584637 0.6413334
-0.053981274 0.115907 0.64166665
-0.02681905 0.11520001 0.64000005
-0.022565335 0.115272 0.64040005
-0.018895239 0.11520001 0.64000005
0.0042666672 0.11520001 0.64000005
0.0054857144 0.11520001 0.64000005
-0.047580481 0.20435002 0.64050007
0.023513097 0.20367216 0.64125001
0.025068574 0.20482859 0.64200002
-0.050906669 0.20546667 0.64400005
-0.049680002 0.20546667 0.64400005
0.023161909 0.20736001 0.64000005
-0.045714289 0.21028572 0.64000005
-0.044088893 0.21272382 0.64000005
0.023161905 0.21089524 0.64000005
-0.04275772 0.21721868 0.64320004
0.020926988 0.21841273 0.64000005
-0.042320002 0.22067736 0.64400005
-0.062073745 0.11190722 0.64714289
-0.057852935 0.11226483 0.64664704
-0.053846192 0.11335953 0.6469
-0.032091431 0.11293715 0.648
-0.027062146 0.11254501 0.64574999
-0.021974286 0.11276287 0.64700001
0.0036089798 0.11273634 0.64685714
0.0070864293 0.11264452 0.64691663
0.012321427 0.11273271 0.64683336
0.015950751 0.11253444 0.64771432
0.022217143 0.1135543 0.648
-0.055986669 0.11504953 0.64600003
-0.051719528 0.11513858 0.64649999
-0.049295239 0.11522762 0.64700001
-0.043649048 0.21947002 0.64550006
-0.055821195 0.10916167 0.65125
0.012034478 0.10955868 0.65140003
0.017634152 0.10907743 0.65128583
0.022516737 0.1082385 0.65157151
0.026412001 0.1078781 0.65100002
-0.051937666 0.11212274 0.65100014
-0.047405109 0.11283274 0.65250003
-0.04203238 0.11281002 0.65262508
-0.037511908 0.11276668 0.65237498
-0.032652002 0.11260592 0.65180004
-0.027306547 0.11170631 0.65162504
-0.022773495 0.11200652 0.65216672
0.0030952382 0.11142858 0.65000004
0.0082404092 0.11067253 0.65128583
0.012380953 0.11080953 0.65000004
0.01836508 0.11246034 0.65000004
0.022116885 0.11204764 0.6500001
0.025380954 0.11142858 0.65000004
-0.045813657 0.115467 0.65300006
-0.042624384 0.11594059 0.65240002
-0.039120004 0.1161181 0.65200001
-0.05230625 0.1085725 0.65644455
-0.047748048 0.10862806 0.6567778
-0.043319434 0.10873353 0.65539998
-0.0056400006 0.10966668 0.65800005
-0.0043866672 0.10966668 0.65800005
0.0022359188 0.10903428 0.65742862
0.0078778109 0.10828964 0.65650004
0.012621145 0.1073437 0.65606672
0.017003281 0.10764793 0.65588886
0.022249207 0.10625558 0.65500009
-0.051801905 0.11047049 0.6553334
-0.047446668 0.11049858 0.65549999
-0.043042861 0.1104143 0.65500009
-0.035720002 0.11092 0.65800005
-0.032511428 0.11191762 0.65649998
-0.027782224 0.11092 0.65800011
-0.022296827 0.11147144 0.65633339
-0.017505001 0.11254214 0.65650004
-0.012533334 0.11280001 0.65800005
-0.0067142863 0.11253144 0.65800011
-0.0043866672 0.11217334 0.65800011
0.0020527893 0.11134532 0.6562857
0.0056228577 0.11058287 0.65600002
-0.020837145 0.10418572 0.66300005
0.0044200001 0.10418572 0.66300005
0.0069276202 0.10329366 0.66133338
0.010685715 0.10497144 0.66000003
-0.046514288 0.10748572 0.66000003
-0.041674286 0.10923715 0.66300005
-0.038517147 0.10923715 0.66300005
-0.030940002 0.10923715 0.66300005
-0.025888573 0.10923715 0.66300005
-0.021784287 0.10829 0.66300005
-0.018191775 0.10771474 0.66281825
-0.013078334 0.10824263 0.66175008
-0.0075594052 0.10833894 0.66137505
-0.0044033336 0.10819572 0.66050005
0.0029241561 0.1070665 0.66236371
0.0071737147 0.10623087 0.66079998
-0.040919051 0.11016668 0.66100001
-0.037762068 0.11055794 0.66083336
-0.032754172 0.11085846 0.66137511
-0.02761524 0.11058476 0.66200012
-0.022389118 0.11068164 0.6608572
-0.017623216 0.11077464 0.66087508
-0.012580954 0.11071191 0.66050005
-0.0084888106 0.11129881 0.66025001
-0.0062952386 0.11583239 0.66100001
-0.04065524 0.10481429 0.66700006
-0.038865715 0.10385429 0.66900003
-0.0069876197 0.10481429 0.66700006
0.003166667 0.10386667 0.66500002
0.0095000006 0.1045 0.66500002
-0.041227814 0.10719277 0.66600001
-0.037743241 0.10755379 0.66720009
-0.033067491 0.10775396 0.66686678
-0.02808143 0.10863972 0.66710001
-0.023036454 0.10778572 0.66681826
-0.016613144 0.10690725 0.66580003
-0.011914763 0.10675786 0.66725004
-0.0078914296 0.10640153 0.66820008
-0.0044600004 0.10512858 0.66900003
0.0019000001 0.10576668 0.66500002
-0.041081909 0.10398857 0.67400002
-0.036847081 0.10358749 0.67200011
-0.032370321 0.10349953 0.67083335
-0.028245524 0.10390878 0.671
-0.024283811 0.10416477 0.671
-0.010855715 0.10344811 0.67050004
-0.0079359198 0.10352831 0.67042857
-0.036371432 0.10528573 0.67000002
-0.031904764 0.10528572 0.67000002
-0.028160745 0.10618932 0.67033339
-0.023928571 0.10560477 0.67000002
-0.012981271 0.10576349 0.67033339
-0.0057428577 0.10656191 0.67000002
-0.0044666668 0.10720001 0.67000002
