# .PCD v0.7 - Point Cloud Data file format
VERSION 0.7
FIELDS x y z
SIZE 4 4 4
TYPE F F F
COUNT 1 1 1
WIDTH 703
HEIGHT 1
VIEWPOINT 0 0 0 1 0 0 0
POINTS 703
DATA ascii
-0.10756954 0.11102097 0.60400003
-0.1305 0.11194 0.60900003
-0.12768166 0.11313793 0.60863644
-0.12260882 0.11335382 0.60725009
-0.11729439 0.11325097 0.60670006
-0.11161551 0.11297967 0.6060909
-0.10733311 0.11368152 0.60591668
-0.1020731 0.11306375 0.60724998
-0.097108215 0.11269357 0.60776931
-0.094423577 0.11238215 0.60825002
-0.12723199 0.11580886 0.60842866
-0.12261017 0.1160451 0.60822225
-0.11736567 0.11649815 0.6078124
-0.11229546 0.11692783 0.60778582
-0.10761382 0.1174508 0.60750002
-0.10265573 0.11674334 0.60783333
-0.097526781 0.11617648 0.60810006
-0.10904001 0.12006 0.60900003
-0.13508001 0.10935048 0.61400002
-0.13391049 0.10935048 0.61400002
-0.087571435 0.10917239 0.61300004
-0.083620958 0.10935048 0.61400002
-0.13531391 0.11262514 0.61400002
-0.13251525 0.11258128 0.61250001
-0.12976477 0.11114382 0.611
-0.091834657 0.11295536 0.61175007
-0.087534763 0.11204583 0.61274999
-0.084400646 0.11285906 0.61400002
-0.13624953 0.11519811 0.61400002
-0.13277359 0.11690756 0.61325002
-0.12745599 0.11877428 0.61233336
-0.12272191 0.11903271 0.61166668
-0.11819176 0.11935556 0.61133337
-0.11463524 0.11929049 0.611
-0.10125144 0.11929049 0.611
-0.096938103 0.11909715 0.61224997
-0.092522599 0.1177478 0.61272222
-0.088591844 0.11614695 0.6137144
-0.12657715 0.12143468 0.61360008
-0.12265071 0.12265059 0.61324996
-0.11777376 0.12243828 0.61218756
-0.11298227 0.12230084 0.61150002
-0.10746799 0.12240524 0.61105561
-0.10251917 0.1223256 0.61162502
-0.097672619 0.12225603 0.61282355
-0.093211055 0.12151354 0.61400002
-0.12195429 0.12643525 0.61366665
-0.11760603 0.12740074 0.61300004
-0.11227303 0.12698011 0.61222237
-0.10730006 0.12712839 0.61231256
-0.1028555 0.12714083 0.6129334
-0.099550173 0.12604541 0.61366671
-0.11712178 0.13064505 0.61357147
-0.11247887 0.13046591 0.61320001
-0.10789795 0.13068557 0.61350006
-0.10344604 0.13033113 0.61366671
-0.077591434 0.10456477 0.61566675
-0.074040003 0.10400858 0.61700004
-0.13647144 0.10952858 0.61500001
-0.081340417 0.10881826 0.61571437
-0.077623233 0.10706601 0.61638474
-0.074627623 0.10577144 0.61700004
-0.14152513 0.11239677 0.6166001
-0.13795438 0.11247216 0.61508322
-0.082580961 0.11253537 0.61662507
-0.14120024 0.11649024 0.61775005
-0.13766208 0.11768921 0.61683339
-0.13412859 0.11890001 0.61500001
-0.086599424 0.11773994 0.61600006
-0.083667248 0.1168524 0.61780006
-0.13628559 0.12214409 0.61871427
-0.13250525 0.12201533 0.61678582
-0.12798277 0.12352907 0.6153
-0.096694611 0.12482476 0.61533338
-0.092397675 0.12339261 0.61533338
-0.087789804 0.12206144 0.61683339
-0.084301911 0.12144192 0.61900002
-0.13500096 0.12556858 0.61900002
-0.13225801 0.12695801 0.61830002
-0.12809569 0.12781872 0.61647063
-0.12352925 0.12833439 0.6153
-0.10054763 0.1290524 0.61500001
-0.097247891 0.12798299 0.61586684
-0.092687771 0.12774028 0.61683327
-0.088908508 0.12727892 0.6176154
-0.13142152 0.13201104 0.61880004
-0.12706333 0.1326519 0.61766672
-0.12235805 0.13262817 0.61618757
-0.11741201 0.13336498 0.61580008
-0.11238027 0.13316245 0.61545449
-0.10735542 0.13335595 0.61536366
-0.10225786 0.13275346 0.61575007
-0.097514592 0.13276231 0.61681247
-0.092514768 0.13252276 0.61775005
-0.088946193 0.13076904 0.61849999
-0.12733714 0.13588525 0.61900002
-0.12217185 0.13755825 0.61800015
-0.11745227 0.13742001 0.61662501
-0.11270893 0.13736418 0.61637503
-0.10740397 0.13733636 0.6162501
-0.10216216 0.13739145 0.61650002
-0.097965106 0.13757369 0.61807144
-0.093144767 0.13529572 0.61900002
-0.12085239 0.1408962 0.61900002
-0.11776214 0.14190391 0.61825001
-0.11239786 0.14211646 0.61746669
-0.10736016 0.1421897 0.61750007
-0.10221435 0.14216149 0.61681253
-0.098963544 0.14218205 0.61800003
-0.11083049 0.14561239 0.61900002
-0.10586096 0.145927 0.61866665
-0.10247753 0.14641432 0.61840004
-0.099468581 0.14537716 0.61800003
-0.076414615 0.1091943 0.6220001
-0.078120284 0.11244941 0.62142867
-0.14194381 0.11887715 0.62100005
-0.13994287 0.11986668 0.62
-0.081728838 0.11799602 0.6214546
-0.078780852 0.11701938 0.62300009
-0.14217906 0.12132246 0.6231429
-0.13807558 0.1236746 0.62133336
-0.085619055 0.12400001 0.62
-0.082602322 0.12246054 0.62231249
-0.079040006 0.1212343 0.62400001
-0.13698259 0.12761895 0.62210006
-0.13403811 0.12872382 0.62
-0.08638262 0.12780072 0.62125003
-0.083438739 0.12733461 0.62283343
-0.13597982 0.13242324 0.62239999
-0.13380192 0.13262096 0.62
-0.087490417 0.13267431 0.6216923
-0.084004775 0.13129507 0.62380004
-0.13609144 0.13609144 0.62400001
-0.13255607 0.13738179 0.62214291
-0.12764667 0.13857858 0.62049997
-0.12459049 0.13935238 0.62
-0.095539056 0.13899811 0.62
-0.092092402 0.13767606 0.62042856
-0.088946082 0.13757132 0.62262511
-0.131267 0.14275113 0.6236667
-0.12795497 0.14217186 0.6220001
-0.12291922 0.14271541 0.62050003
-0.11750478 0.14466667 0.62
-0.11337143 0.14466667 0.62
-0.096514478 0.14258726 0.62019998
-0.09250661 0.14218798 0.6220715
-0.089175433 0.14165963 0.62340003
-0.13014857 0.14560001 0.62400001
-0.12649271 0.14655282 0.6235556
-0.12241056 0.14748485 0.62230778
-0.11734741 0.14762153 0.62055552
-0.11251429 0.14807813 0.62085718
-0.10791899 0.14812176 0.6207692
-0.10274287 0.14899683 0.62
-0.097512491 0.14739594 0.62129992
-0.093486913 0.14661311 0.62325007
-0.12199588 0.1519746 0.62333345
-0.11724851 0.15281476 0.62240005
-0.11259764 0.15289642 0.62225008
-0.1075897 0.1531169 0.62261117
-0.10264798 0.15236554 0.62250006
-0.097281151 0.15097068 0.62360001
-0.12159087 0.15558401 0.62400001
-0.117429 0.15676974 0.62377781
-0.11286882 0.15682882 0.62375003
-0.10796192 0.15649524 0.62400007
-0.072484769 0.10483335 0.62900007
-0.072449774 0.10733381 0.62612504
-0.068314381 0.1072285 0.62772733
-0.075857535 0.11253639 0.62519997
-0.073319532 0.11147039 0.62590003
-0.076394387 0.11787001 0.6257
-0.074821435 0.11732001 0.62849998
-0.14720446 0.12318817 0.62688893
-0.14344727 0.12378465 0.62562501
-0.080357149 0.1232143 0.625
-0.077926248 0.12281619 0.62566668
-0.14649628 0.12771569 0.62690908
-0.14255539 0.12764356 0.62628579
-0.13948414 0.12797621 0.625
-0.080922455 0.12772381 0.62542856
-0.078113638 0.12752858 0.62684619
-0.14749399 0.13235986 0.62647378
-0.14194167 0.13238955 0.62673336
-0.13829365 0.1325397 0.625
-0.085119054 0.13392858 0.625
-0.081901766 0.13250251 0.62561536
-0.078492381 0.13267215 0.62827277
-0.14837176 0.13526319 0.62566674
-0.14131525 0.13676858 0.62819999
-0.13794211 0.13772321 0.62699997
-0.13392858 0.13869049 0.625
-0.086320877 0.13732009 0.62508333
-0.082313523 0.1371934 0.62631249
-0.079546675 0.13756192 0.62800002
-0.13693552 0.14236598 0.62736368
-0.13351022 0.14304057 0.62542856
-0.091071434 0.14464286 0.625
-0.086975701 0.14268199 0.62580007
-0.082773067 0.14214408 0.62785721
-0.079673335 0.1407762 0.62900001
-0.13642105 0.1473005 0.62770003
-0.13241819 0.147912 0.62573344
-0.12814628 0.14855443 0.625
-0.091448583 0.14830069 0.62536365
-0.087295949 0.14721252 0.62674999
-0.083913885 0.14704233 0.62871432
-0.13649303 0.15083906 0.62766671
-0.13233444 0.15262015 0.62646663
-0.12745774 0.15247312 0.62537503
-0.12440477 0.15297621 0.625
-0.10059524 0.15416668 0.625
-0.09749005 0.15348265 0.62544447
-0.092393905 0.15260135 0.62590015
-0.0880659 0.15225361 0.62827283
-0.08446572 0.15036096 0.62900001
-0.13223264 0.15691359 0.62825006
-0.12769686 0.15756188 0.62713343
-0.12317759 0.15796788 0.62590909
-0.11875001 0.15863097 0.625
-0.1125 0.15892859 0.625
-0.10714286 0.15833335 0.625
-0.10238121 0.15744725 0.62573344
-0.097843409 0.15750518 0.62643749
-0.092644006 0.15779707 0.62760001
-0.089187145 0.15802382 0.62849998
-0.12560034 0.16154319 0.62900007
-0.12213924 0.16258253 0.62781823
-0.11750141 0.16207778 0.62552941
-0.11233494 0.16191716 0.62555557
-0.10724977 0.16206774 0.62562501
-0.10253399 0.16214769 0.62593758
-0.097386628 0.16251333 0.62735003
-0.092702657 0.16204722 0.62888891
-0.12040858 0.1659362 0.62900001
-0.11671326 0.16714707 0.62791669
-0.11229638 0.16725126 0.62718755
-0.1075384 0.16728422 0.62731248
-0.1026869 0.16748735 0.62794119
-0.097970672 0.16732992 0.62853342
-0.11621524 0.17132762 0.62900001
-0.11239249 0.17171907 0.62863648
-0.10840584 0.17159323 0.62887502
-0.10240459 0.17067429 0.62880003
-0.098243818 0.17072858 0.62900001
-0.11322001 0.17552096 0.62900001
-0.06850858 0.10396477 0.63100004
-0.070311435 0.10516667 0.63100004
-0.067907631 0.10516667 0.63100004
-0.071807787 0.11352906 0.63183337
-0.073289886 0.11702345 0.63337493
-0.075719461 0.12299185 0.63171428
-0.073751025 0.12274587 0.63400006
-0.075914405 0.12773037 0.63262498
-0.073785536 0.12716229 0.634
-0.075898811 0.13252404 0.63250005
-0.14253953 0.13893001 0.63150001
-0.077102654 0.13734308 0.63250005
-0.14551811 0.14249906 0.634
-0.14215627 0.14215563 0.63193339
-0.081128575 0.14422858 0.63100004
-0.078477748 0.14222685 0.63254547
-0.14551811 0.14672574 0.634
-0.14240125 0.14722878 0.63356251
-0.13882002 0.14803462 0.63100004
-0.081424534 0.14760898 0.63174999
-0.078591056 0.1464383 0.63380003
-0.13882001 0.15083906 0.63100004
-0.086003661 0.15336525 0.63150001
-0.082652025 0.15218902 0.63276923
-0.13660857 0.15747207 0.63188893
-0.13401239 0.15865144 0.63100004
-0.086829342 0.15764511 0.63226676
-0.083688013 0.15662821 0.634
-0.1362597 0.16121715 0.634
-0.13239783 0.1624411 0.63271427
-0.12800498 0.16329832 0.63166672
-0.12439715 0.16406001 0.63100004
-0.091144457 0.16365938 0.63100004
-0.087270424 0.16258539 0.63289469
-0.13102667 0.16604763 0.634
-0.12771347 0.16750968 0.63313335
-0.1229439 0.16763231 0.63125002
-0.11958953 0.16826668 0.63100004
-0.095551431 0.16826668 0.63100004
-0.09259174 0.1671477 0.63131261
-0.088361405 0.16731045 0.6331538
-0.12720326 0.17221887 0.63359994
-0.1228016 0.17216259 0.63206255
-0.11818731 0.17267367 0.63100004
-0.11333963 0.17463678 0.63100004
-0.1069149 0.17389379 0.63100004
-0.10239778 0.17333576 0.63122225
-0.097017869 0.17238757 0.63141668
-0.092720062 0.17219639 0.63218755
-0.089216746 0.17196943 0.63357145
-0.12619621 0.17570858 0.634
-0.12261002 0.17712525 0.63366663
-0.11803913 0.17743938 0.63213336
-0.11297537 0.17805871 0.63120008
-0.10772342 0.17783169 0.63115805
-0.10234293 0.17732427 0.63286668
-0.097633995 0.17718886 0.63281244
-0.09302859 0.17725082 0.63346666
-0.1211242 0.18102209 0.634
-0.11724579 0.18250705 0.63364285
-0.11202833 0.18249804 0.63241667
-0.10712895 0.18241453 0.63276923
-0.10262715 0.18231489 0.63387489
-0.098201394 0.18185647 0.63399994
-0.094194293 0.18114287 0.634
-0.11653525 0.18536954 0.634
-0.11230858 0.18536954 0.634
-0.10712661 0.18681085 0.6338461
-0.10342396 0.18623213 0.63400006
-0.071339466 0.1176894 0.63557142
-0.069684528 0.11755691 0.63625002
-0.072149709 0.12253205 0.63663644
-0.069985718 0.12293144 0.63900006
-0.07167846 0.12747821 0.63512504
-0.073463619 0.13179925 0.63540018
-0.075595245 0.13970001 0.63500005
-0.074659057 0.13778542 0.63733339
-0.14695716 0.14393334 0.63500005
-0.076419219 0.14313637 0.63683337
-0.074854292 0.14118859 0.63900006
-0.077068008 0.147828 0.63720006
-0.080433339 0.15300477 0.63500011
-0.078025952 0.15200788 0.63758337
-0.13992001 0.15930286 0.63600004
-0.081579149 0.15749362 0.63536376
-0.079051904 0.15749618 0.63850003
-0.13748255 0.16227779 0.63500005
-0.082343102 0.16226812 0.63575006
-0.079275563 0.16220129 0.63866675
-0.13656449 0.16752087 0.63730007
-0.13263121 0.16773042 0.63541681
-0.085962586 0.16803743 0.63500005
-0.082782321 0.1673045 0.63714296
-0.13571143 0.17100859 0.63900006
-0.13240016 0.17251472 0.63685721
-0.12820953 0.1747762 0.63500005
-0.086922511 0.17302226 0.63663644
-0.084053978 0.17216033 0.63800001
-0.1314946 0.1772851 0.63822222
-0.12716842 0.17803335 0.63583344
-0.1239762 0.17961429 0.63500005
-0.090411909 0.17780001 0.63500005
-0.088508897 0.17701939 0.63800001
-0.084591433 0.17587715 0.63900006
-0.13084286 0.18074572 0.63900006
-0.12743428 0.18229145 0.6376667
-0.12258226 0.18329552 0.6351819
-0.09712477 0.18372668 0.63500005
-0.092310831 0.18280894 0.63650006
-0.089460008 0.18074572 0.63900006
-0.12697273 0.18711455 0.63845462
-0.12243613 0.18728992 0.63641679
-0.11740073 0.1879025 0.63541687
-0.11251526 0.18813066 0.63516676
-0.10905874 0.18888733 0.63500011
-0.10220478 0.18821536 0.63500005
-0.097756371 0.18748391 0.63656259
-0.092587546 0.18728119 0.63861543
-0.089460008 0.1856143 0.63900006
-0.12241577 0.19136329 0.63877779
-0.11787751 0.19219708 0.63723081
-0.11268874 0.19240151 0.63614291
-0.10770824 0.1921639 0.63535726
-0.10259382 0.19220729 0.63635719
-0.097732611 0.1916784 0.63861543
-0.093922868 0.19088858 0.63900006
-0.1170117 0.19699417 0.63880008
-0.11226419 0.19743416 0.63876927
-0.10726293 0.19711898 0.6385625
-0.10226972 0.19711623 0.63893336
-0.11562858 0.20022002 0.63900006
-0.11197715 0.20022002 0.63900006
-0.10650001 0.20022002 0.63900006
-0.10284858 0.20095031 0.63900006
-0.090160005 0.10488001 0.64400005
-0.086905956 0.10361262 0.64375007
-0.082469009 0.10426243 0.64355564
-0.077648006 0.10438933 0.64400005
-0.1127662 0.10786287 0.64350003
-0.10978667 0.10794668 0.64400005
-0.090773344 0.10672001 0.64400005
-0.087298945 0.10683271 0.64100003
-0.08303532 0.10684659 0.64108336
-0.078925863 0.1064845 0.64100009
-0.068653904 0.12206534 0.64020008
-0.070704766 0.12617144 0.64000005
-0.073982865 0.13390286 0.64200002
-0.073849052 0.13789192 0.64350003
-0.075205721 0.14429715 0.64200002
-0.074028961 0.14255241 0.64239997
-0.075088575 0.14590383 0.64100003
-0.07352747 0.14807984 0.64250004
-0.069306672 0.14904001 0.64400005
-0.076219767 0.15396503 0.64025009
-0.07289502 0.15202297 0.64258826
-0.068605721 0.15184382 0.64400005
-0.076540865 0.15723401 0.64090008
-0.072093427 0.15657249 0.64370006
-0.069306672 0.15640001 0.64400005
-0.14080001 0.16213334 0.64000005
-0.077856198 0.16262446 0.64033341
-0.080581911 0.16910192 0.64100003
-0.078591339 0.16745423 0.64169997
-0.13700743 0.17330794 0.64000005
-0.081325486 0.17252772 0.64125007
-0.079120003 0.17234668 0.64400005
-0.1380032 0.17760842 0.6424545
-0.13409525 0.17798096 0.6400001
-0.08689101 0.17845507 0.64000005
-0.082403868 0.17736624 0.64205891
-0.079120003 0.17664 0.64400005
-0.13619851 0.18278211 0.64360005
-0.13282913 0.18266486 0.64075005
-0.12982859 0.18407619 0.64000005
-0.087712578 0.18311258 0.64046675
-0.083715811 0.18201771 0.64241672
-0.13166255 0.18709621 0.64200002
-0.12921906 0.18773335 0.64000005
-0.090819053 0.18895239 0.64000005
-0.087620713 0.18808068 0.64160007
-0.084507622 0.18616381 0.64300001
-0.13064002 0.19074668 0.64400005
-0.12736639 0.19257516 0.64110005
-0.12353016 0.19362542 0.6400001
-0.096914291 0.19413334 0.64000005
-0.092341408 0.19298452 0.64015388
-0.088371441 0.19226393 0.64236367
-0.12690583 0.19697325 0.64309996
-0.12214229 0.19779348 0.64060003
-0.11885715 0.1993143 0.64000005
-0.10179048 0.19809525 0.64000005
-0.097551964 0.19754378 0.64018756
-0.092705369 0.19787453 0.64200002
-0.089044452 0.19626795 0.64333338
-0.12573335 0.20178668 0.64400005
-0.1223104 0.2025878 0.64300013
-0.11728469 0.20254168 0.64109093
-0.11229857 0.20323685 0.64083338
-0.10733944 0.20252639 0.64013338
-0.10212295 0.20286064 0.64000005
-0.097392559 0.20273815 0.64183342
-0.092000008 0.20086668 0.64400005
-0.12082668 0.20546667 0.64400005
-0.11776003 0.20730673 0.64400005
-0.1128246 0.20786655 0.6438334
-0.10775064 0.20754462 0.64283347
-0.10273093 0.20738938 0.64176929
-0.097800478 0.20703876 0.64316672
-0.11653334 0.21037334 0.64400005
-0.11285334 0.21037334 0.64400005
-0.10861716 0.10429715 0.648
-0.092183881 0.10227493 0.64613336
-0.087544776 0.10151118 0.64527273
-0.082462713 0.10153937 0.64616662
-0.077946678 0.10177287 0.64699996
-0.11504953 0.1064362 0.64600003
-0.11185743 0.10604845 0.64685714
-0.10861716 0.10676573 0.648
-0.092358574 0.10528715 0.64649999
-0.072048202 0.13436972 0.64660007
-0.072150163 0.13671747 0.64566672
-0.071783818 0.14309028 0.64544445
-0.069147632 0.14301366 0.6463334
-0.071567349 0.14691186 0.6454286
-0.07187143 0.15418574 0.6450001
-0.069414288 0.15418573 0.64500004
-0.07555715 0.15910001 0.64500004
-0.073100008 0.15910003 0.6450001
-0.069414288 0.1554143 0.64500004
-0.076235108 0.1627603 0.64628577
-0.073961437 0.16210112 0.64716673
-0.076451316 0.16770133 0.64737499
-0.077482864 0.17264423 0.64642859
-0.14138249 0.17878744 0.64600003
-0.080471434 0.17998573 0.64500004
-0.07829266 0.17706139 0.64585716
-0.14096263 0.18352976 0.64775002
-0.13852715 0.18278876 0.64550006
-0.08135318 0.18319923 0.64550006
-0.078856558 0.182358 0.64687502
-0.14070858 0.18576001 0.648
-0.13749181 0.18763468 0.64679998
-0.13365929 0.18865883 0.64525002
-0.08217752 0.18770866 0.64653844
-0.079580724 0.18753979 0.64775002
-0.13638857 0.19234289 0.648
-0.13283114 0.19228946 0.64630002
-0.086022072 0.19293573 0.64516675
-0.08261396 0.19235763 0.64735717
-0.13546287 0.19656003 0.648
-0.13254985 0.19728333 0.64733326
-0.12916307 0.19872192 0.64520007
-0.086696208 0.19803584 0.6456154
-0.083270811 0.19738412 0.64766669
-0.13162366 0.2017535 0.64783335
-0.12781377 0.20268425 0.64555556
-0.12470001 0.20455715 0.64500004
-0.091975346 0.20344028 0.64500004
-0.087441675 0.20259707 0.64658332
-0.084028773 0.20149696 0.64780003
-0.13021715 0.20736003 0.648
-0.12771487 0.20747411 0.64720005
-0.12291199 0.20772098 0.64528579
-0.11978572 0.20947145 0.64500004
-0.095951438 0.2087343 0.64500004
-0.092313401 0.20761375 0.64533347
-0.089005247 0.20678906 0.64750004
-0.087093666 0.09950763 0.65166676
-0.082436576 0.098948017 0.65180004
-0.078140169 0.099430963 0.65116674
-0.11623652 0.10359715 0.65266675
-0.11267056 0.10322764 0.65084618
-0.10903619 0.10284048 0.65050006
-0.096247628 0.1030781 0.65200001
-0.086444765 0.10012668 0.65300006
-0.11676668 0.10643333 0.65100002
-0.11452382 0.10585715 0.65000004
-0.072428577 0.13433334 0.65000004
-0.073809624 0.16726936 0.65027279
-0.075717151 0.17312211 0.65060008
-0.073440857 0.17182012 0.65130001
-0.076623499 0.17727017 0.65233338
-0.0733281 0.17586429 0.65250003
-0.14300001 0.18385716 0.65000004
-0.077658735 0.18285939 0.65233338
-0.14176191 0.1869524 0.65000004
-0.078047626 0.18754642 0.6511429
-0.14052382 0.19190478 0.65000004
-0.13866669 0.19314288 0.65000004
-0.078647375 0.19242279 0.65118188
-0.14052382 0.1962381 0.65000004
-0.1379524 0.19776191 0.6500001
-0.080921724 0.19741201 0.65060008
-0.079140246 0.19692214 0.65175003
-0.13626033 0.20253301 0.6503334
-0.1331297 0.20351255 0.65016675
-0.081818581 0.20284399 0.65166664
-0.078981914 0.20087525 0.65300006
-0.13602801 0.206708 0.65100002
-0.13322183 0.20757674 0.65061539
-0.08277344 0.20681174 0.65250003
-0.09086667 0.099640004 0.65800005
-0.088182867 0.099438101 0.6566667
-0.080594286 0.097461909 0.65600002
-0.077671304 0.097986311 0.65637505
-0.07394667 0.099640004 0.65800005
-0.13786668 0.10465334 0.65800005
-0.13297868 0.10390134 0.65800005
-0.12787724 0.10347686 0.65690011
-0.12276477 0.10341326 0.65736371
-0.11808076 0.10308573 0.65600002
-0.10590667 0.10402668 0.65800005
-0.10298223 0.10381779 0.65800005
-0.097226672 0.10222715 0.65650004
-0.090452388 0.10043334 0.65500003
-0.07548096 0.10105715 0.65500003
-0.07324636 0.10141715 0.65733337
-0.13786668 0.10590667 0.65800005
-0.13348001 0.10590668 0.65800011
-0.12620191 0.10558477 0.65600002
-0.12264001 0.10574572 0.65700001
-0.11932953 0.10558477 0.65600002
-0.071957149 0.17394859 0.65700001
-0.07548096 0.17840953 0.65500003
-0.072300613 0.17805731 0.65600008
-0.076364137 0.18234572 0.65544444
-0.072980329 0.18224603 0.65683341
-0.07616239 0.18728526 0.65550005
-0.07306122 0.18729568 0.65772736
-0.069560006 0.18612002 0.65800005
-0.07619144 0.19235288 0.65575004
-0.073478937 0.19198394 0.65662503
-0.076583721 0.19764431 0.65590006
-0.074346669 0.19742477 0.65600002
-0.080471434 0.20398572 0.65500003
-0.077368967 0.20210992 0.65620011
-0.074346676 0.20179813 0.65600002
-0.091374293 0.098934934 0.66166675
-0.077020422 0.096793465 0.66057152
-0.072577342 0.097677782 0.66113335
-0.069262862 0.098368719 0.66028577
-0.14174691 0.10367358 0.66075003
-0.13718477 0.10320215 0.66075003
-0.13245791 0.10352496 0.66040003
-0.12697144 0.10245715 0.66000003
-0.12131429 0.10245715 0.66000003
-0.11880001 0.10245715 0.66000003
-0.11110952 0.10229667 0.66100001
-0.10727941 0.10200875 0.66154552
-0.10203382 0.10140286 0.66133344
-0.097855002 0.1009993 0.66075003
-0.093603633 0.10090991 0.66140002
-0.071028575 0.10182858 0.66000003
-0.069142863 0.10182858 0.66000003
-0.071657151 0.18417144 0.66000003
-0.069771431 0.18417144 0.66000003
-0.071657151 0.1873143 0.66000003
-0.069771431 0.18542859 0.66000003
-0.072285727 0.19045715 0.66000003
-0.077314287 0.20428573 0.66000003
-0.075593337 0.094650485 0.66700006
-0.07254453 0.094085485 0.66525
-0.12072477 0.099082232 0.66833341
-0.1172343 0.098757148 0.66900003
-0.11158744 0.099117339 0.66800004
-0.10762654 0.099101916 0.66642869
-0.10219689 0.098731607 0.66727287
-0.097353764 0.098200753 0.66811115
-0.09323734 0.097942293 0.66780007
-0.081686042 0.096537471 0.66833341
-0.077500962 0.095920958 0.66700006
-0.074100003 0.095633343 0.66500002
-0.14227501 0.10098787 0.66691673
-0.1370818 0.10122394 0.66637504
-0.1327887 0.10181465 0.66712505
-0.12748232 0.10167661 0.66785723
-0.12276771 0.10125463 0.6679092
-0.11754972 0.10102797 0.66718191
-0.11324203 0.10118607 0.66612506
-0.10893334 0.10070001 0.66500002
-0.097475059 0.10052343 0.66720003
-0.10048001 0.094080009 0.67200005
-0.097135246 0.093940005 0.671
-0.094080009 0.094080009 0.67200005
-0.085373342 0.093076199 0.67400002
-0.08283253 0.093264088 0.67271435
-0.077723131 0.093431443 0.67128575
-0.074019052 0.093800008 0.67000002
-0.14592414 0.09891969 0.67300004
-0.14287308 0.098263003 0.67185718
-0.13778287 0.098833196 0.67200005
-0.13225764 0.098952867 0.67250001
-0.12803786 0.098608978 0.67171437
-0.12278809 0.097387724 0.67010003
-0.1174749 0.097044423 0.67037499
-0.11307692 0.097562149 0.67175001
-0.10732435 0.097081169 0.67211109
-0.10259601 0.096325152 0.67159998
-0.097440481 0.09552525 0.67016667
-0.092684299 0.095880479 0.67116666
-0.0816762 0.095076196 0.67000002
-0.07848572 0.095076196 0.67000002
-0.14731097 0.10119525 0.67250001
-0.13846669 0.10018097 0.67000002
-0.1324202 0.10049601 0.67040008
-0.12766691 0.10021834 0.67025006
-0.15067334 0.093120009 0.67900002
-0.14761955 0.093743347 0.67883337
-0.14136134 0.093249343 0.67900002
-0.13903335 0.093120009 0.67900002
-0.11089493 0.094164774 0.67566675
-0.10762414 0.093903176 0.67533338
-0.10386024 0.094213098 0.67525005
-0.095972382 0.092967317 0.67633337
-0.092484385 0.093516387 0.67720002
-0.089820482 0.09305048 0.67850006
-0.080357149 0.093214288 0.67500001
-0.15067334 0.095060006 0.67900002
-0.14775731 0.096818261 0.67700005
-0.14207709 0.096257232 0.67758334
-0.13735026 0.096723258 0.67708343
-0.13294645 0.097213566 0.67600006
-0.1261 0.096353337 0.67900002
-0.12282072 0.096317858 0.67875004
-0.11764976 0.096317858 0.67875004
-0.11264401 0.096124761 0.67740005
-0.10864287 0.095785722 0.67500007
-0.10097144 0.089245722 0.68400002
-0.14830478 0.092609532 0.68000001
-0.14398733 0.093041286 0.68000001
-0.13678096 0.093347952 0.68066669
-0.13303143 0.093800142 0.68328583
-0.12721509 0.093999848 0.68383336
-0.12235679 0.093719415 0.68337506
-0.11708429 0.093667857 0.68300003
-0.11190683 0.093473814 0.68316668
-0.10748573 0.093154296 0.68400002
-0.10265873 0.093397781 0.68366671
-0.097964771 0.092324562 0.68322223
-0.092747629 0.091448575 0.68099999
-0.13600001 0.09520001 0.68000001
-0.1319716 0.095842391 0.68150008
-0.12740096 0.095550008 0.68250006
-0.12202144 0.095410019 0.68150008
-0.11721905 0.095200017 0.68000001
-0.11496572 0.09548001 0.68200004
-0.10694096 0.089401528 0.68720007
-0.10322668 0.088853337 0.68600005
-0.099306673 0.089506671 0.68600005
-0.13066667 0.093426675 0.68600005
-0.12870668 0.093426675 0.68600005
-0.11663143 0.09238857 0.68800002
-0.11232736 0.091749936 0.68742865
-0.10716632 0.091483213 0.68612504
-0.10283468 0.091597341 0.68600005
-0.099306673 0.090813339 0.68600005
-0.11500001 0.091342866 0.69000006
