# .PCD v0.7 - Point Cloud Data file format
VERSION 0.7
FIELDS x y z
SIZE 4 4 4
TYPE F F F
COUNT 1 1 1
WIDTH 1165
HEIGHT 1
VIEWPOINT 0 0 0 1 0 0 0
POINTS 1165
DATA ascii
-0.0062485719 -0.15066001 0.72900003
-0.0025457144 -0.15066001 0.72900003
0.0013885716 -0.15066001 0.72900003
-0.017357145 -0.14649428 0.72900003
-0.012029208 -0.14689018 0.72866672
-0.0076263496 -0.14765875 0.72788894
-0.0027701592 -0.14747843 0.727
0.0029358983 -0.14754516 0.72838461
0.0062485719 -0.14718857 0.72900003
-0.016954152 -0.14247146 0.72871435
-0.012462263 -0.14260679 0.72687501
-0.0076034139 -0.14238581 0.72574997
-0.0027639288 -0.14236145 0.72562498
0.0026330799 -0.14249191 0.727
0.0062485724 -0.14232859 0.72900003
-0.01643143 -0.13908859 0.72900003
-0.012333018 -0.1373046 0.7274
-0.0075952387 -0.13740477 0.72499996
-0.0027621433 -0.13745216 0.72524995
0.0022938466 -0.1373954 0.72776932
-0.010877144 -0.1335343 0.72900003
-0.0074728588 -0.13325898 0.72649997
-0.0029044449 -0.13295171 0.72633332
0.0011568256 -0.13347302 0.72866672
-0.0027771429 -0.12983143 0.72900003
0.0090876194 -0.16008191 0.73400003
0.011184763 -0.16008191 0.73400003
-0.025864763 -0.15588763 0.73400003
-0.022260137 -0.15642613 0.7337144
-0.017755812 -0.15644686 0.73400003
-0.012582858 -0.15588763 0.73400003
-0.0076895244 -0.15588763 0.73400009
-0.002376762 -0.15616725 0.73400003
0.0030917008 -0.15630478 0.73314291
0.0076774615 -0.1570489 0.73288888
0.012554921 -0.15692921 0.73233336
0.016637335 -0.1570061 0.73400003
-0.026643541 -0.15257335 0.73342866
-0.022278097 -0.15246573 0.73100007
-0.017417144 -0.15258224 0.73155558
-0.012554287 -0.15274572 0.73233336
-0.0078407144 -0.15279739 0.73175001
-0.0028652912 -0.15307017 0.73166668
0.0030647621 -0.1528284 0.73140001
0.0076615876 -0.15253589 0.73133337
0.012546192 -0.15263972 0.7318334
0.017273096 -0.15265645 0.73275
-0.025847144 -0.14809573 0.7335
-0.022294525 -0.14769287 0.73150003
-0.017404763 -0.14898477 0.73100001
-0.012995556 -0.14921685 0.73100007
0.0079365708 -0.14759241 0.73100001
0.012546787 -0.1477688 0.73187506
0.016980108 -0.14785038 0.73266673
-0.021345144 -0.14257276 0.7324
-0.018797144 -0.14202288 0.73100001
0.0083586909 -0.1420949 0.73137504
0.01212433 -0.14312695 0.73309094
-0.020272382 -0.13911049 0.73400003
-0.017747197 -0.13755313 0.73233336
-0.01462 -0.13575715 0.73100001
0.0048755556 -0.13721144 0.73133337
0.0070805452 -0.13829443 0.73285717
-0.016755238 -0.1347324 0.73300004
-0.012560478 -0.13258238 0.73270005
-0.0079411436 -0.13081582 0.73140001
-0.0020885717 -0.13065176 0.73100007
0.0028549787 -0.13234866 0.7324546
-0.010485715 -0.12862477 0.73400003
-0.0075052385 -0.12792526 0.73300004
-0.0027895239 -0.12692121 0.73225015
0.0010476192 -0.12810001 0.73300004
-0.0034952383 -0.12373143 0.73400009
0.018273335 -0.17079429 0.73800004
0.02035524 -0.17056286 0.73700005
0.012668572 -0.16539524 0.73900002
0.017723205 -0.16731474 0.73900002
0.022043176 -0.16696098 0.73866671
0.027448576 -0.16539524 0.73900002
-0.027138097 -0.16156097 0.73820007
-0.022216003 -0.16212402 0.73819995
-0.017573651 -0.16238488 0.73811108
-0.013211958 -0.16221875 0.73877776
-0.0077419053 -0.16117239 0.73900002
-0.0023447622 -0.16149621 0.7383334
0.0030914291 -0.16203602 0.7378
0.0075509525 -0.1624274 0.73750007
0.012911238 -0.16237716 0.73680001
0.017561907 -0.16226329 0.73755556
0.022329956 -0.16270798 0.73900002
0.027730098 -0.1634246 0.73900002
0.030263811 -0.16258001 0.73900002
-0.031915337 -0.15703993 0.73809999
-0.02753119 -0.1579974 0.73650002
-0.02257067 -0.15883581 0.73600006
-0.017178811 -0.15881978 0.73625004
-0.012625715 -0.15852334 0.73650002
-0.0077157146 -0.15852335 0.73650002
-0.0031058507 -0.15857716 0.73628581
0.0023832384 -0.15883581 0.73600006
0.018581668 -0.15811881 0.73625004
0.021670045 -0.15756218 0.73827267
-0.031464383 -0.152676 0.73740005
-0.02873905 -0.15280762 0.73600006
0.018925715 -0.15280762 0.73600006
0.021383813 -0.1524905 0.73785722
-0.030705716 -0.149307 0.7383334
-0.027817249 -0.14703229 0.73633337
-0.024533335 -0.14509715 0.73600006
0.018089715 -0.1462581 0.73620003
0.020842858 -0.14917302 0.73766673
-0.02723155 -0.14283013 0.73787498
-0.023985906 -0.14208992 0.73640007
0.013740409 -0.14110859 0.73714292
0.017091272 -0.14305034 0.73750007
-0.022464562 -0.1375858 0.73707157
-0.018925715 -0.13528381 0.73600006
0.0081815878 -0.1362797 0.73633337
0.011475664 -0.13777408 0.73766667
-0.020410478 -0.13442762 0.73900002
-0.01716694 -0.13301431 0.73785716
-0.014389524 -0.13125476 0.73700005
0.0049066669 -0.13177906 0.73600006
0.007416191 -0.13262235 0.73766673
0.010557144 -0.13442762 0.73900002
-0.012362191 -0.12783155 0.73750001
-0.0080640484 -0.12586358 0.73625004
0.0030428574 -0.12782489 0.73700005
-0.010557144 -0.1245743 0.73900002
-0.007557977 -0.1231956 0.73812503
-0.0025749209 -0.12243799 0.7374444
0.0018259051 -0.12370858 0.73720002
0.013444763 -0.17619716 0.74300003
-0.018398097 -0.17053621 0.74300003
-0.013444763 -0.17053621 0.74300003
0.0082555572 -0.17147969 0.74300003
0.012588765 -0.17270841 0.74259996
0.017195877 -0.17337018 0.74200004
-0.036088575 -0.16629049 0.74300003
-0.03200417 -0.16709085 0.74262506
-0.027368437 -0.16714095 0.74228585
-0.02261889 -0.1675186 0.7421667
-0.017658096 -0.16740604 0.74166673
-0.012721906 -0.1675189 0.7421667
-0.0077838106 -0.16699812 0.74300003
-0.0028303575 -0.16697015 0.74287504
0.0028269049 -0.16753739 0.74225008
0.0077622226 -0.16725576 0.741
0.012920635 -0.16796824 0.74000001
0.016209524 -0.16984764 0.74000001
-0.041041907 -0.16204479 0.74300003
-0.037494984 -0.16251993 0.74281824
-0.032661177 -0.16297267 0.74176925
-0.027838096 -0.16385715 0.74000001
-0.023961905 -0.16420953 0.74000001
-0.011041272 -0.16373971 0.74000001
-0.0077593657 -0.16365272 0.74066675
-0.0032904763 -0.16381368 0.74033344
0.0014095239 -0.16420953 0.74000001
0.024666669 -0.16139048 0.74000001
0.027133334 -0.16174287 0.74000001
0.030304763 -0.16139048 0.74000001
-0.040900383 -0.15808211 0.74300003
-0.037437566 -0.15751609 0.74166667
-0.033476193 -0.15892383 0.74000001
0.024384765 -0.15772574 0.74000001
0.027400782 -0.15830937 0.74118185
0.031037463 -0.15871303 0.74066675
-0.037196096 -0.15302525 0.74250007
-0.0342701 -0.15188687 0.74040002
0.024136191 -0.15257315 0.74100006
0.026146669 -0.15476 0.74200004
-0.032440264 -0.14741792 0.74190915
0.021688985 -0.14677143 0.74142861
-0.030400321 -0.14351715 0.74233341
-0.027867382 -0.14074215 0.74075001
0.01793067 -0.14160383 0.74120003
0.020493334 -0.14486668 0.74200004
-0.026726479 -0.13815658 0.74240011
-0.024733335 -0.13638668 0.74200004
0.014120953 -0.13696858 0.74133337
0.016725082 -0.1387416 0.74200004
-0.02104724 -0.13292114 0.74160004
-0.018193144 -0.13129716 0.74040002
0.0087003177 -0.13096827 0.74066675
0.011161716 -0.13295715 0.74180007
-0.017273335 -0.12818165 0.74242866
-0.014282669 -0.12627849 0.74240011
0.0045876191 -0.12632191 0.74100006
0.0073046042 -0.1284059 0.7421667
-0.011856932 -0.12272297 0.74200004
-0.0081109526 -0.12094811 0.74050003
-0.0028195241 -0.12059572 0.74050003
0.0025255785 -0.12227688 0.74214298
-0.011321906 -0.11958763 0.74300003
-0.007496953 -0.11895716 0.74260008
-0.0028280956 -0.11809191 0.74250001
0.001273524 -0.11842325 0.74280006
0.0035619054 -0.18165715 0.74800009
0.006411429 -0.18236953 0.74800003
-0.022321273 -0.17643303 0.74800009
-0.018521905 -0.17595811 0.74800003
-0.001424762 -0.17667049 0.74800003
0.0032020637 -0.17730413 0.74716675
0.0078146039 -0.17762065 0.74599999
0.010642858 -0.17738096 0.74500006
-0.046779688 -0.17073397 0.74800003
-0.042446863 -0.17135333 0.74780005
-0.037739366 -0.17160794 0.74766678
-0.033174768 -0.17228164 0.74750012
-0.02776893 -0.17284441 0.74762505
-0.022741271 -0.17268589 0.74616671
-0.017565172 -0.17311922 0.7462858
-0.012734806 -0.17292409 0.74663639
-0.0076423814 -0.17258549 0.74650007
-0.0028441274 -0.17276303 0.74650002
0.0028382544 -0.17245319 0.74516666
0.0068587307 -0.17336033 0.74500006
-0.047708679 -0.16733535 0.74766672
-0.042630162 -0.16696255 0.74600005
-0.037875559 -0.16736159 0.74566668
-0.033347622 -0.16910319 0.74500006
-0.028380955 -0.1695762 0.74500006
-0.0078047626 -0.16957621 0.74500006
-0.0028380954 -0.1695762 0.74500006
-0.04675905 -0.16282478 0.74766678
-0.044126131 -0.16219851 0.74557149
-0.046304766 -0.15886097 0.74800003
-0.043030795 -0.15719567 0.74611115
0.028617462 -0.15585874 0.74500006
0.031260956 -0.15630382 0.74600005
-0.041120954 -0.15324059 0.74699998
-0.038759764 -0.15112644 0.74675006
0.02412381 -0.15254763 0.74500006
0.027640348 -0.15243915 0.7476365
0.030632382 -0.152687 0.74800003
-0.036765877 -0.14800875 0.74716675
-0.034324765 -0.14605556 0.74566674
0.024157144 -0.14825207 0.74600005
0.027782859 -0.14888763 0.74800003
0.030632382 -0.14888763 0.74800003
-0.03633143 -0.14461334 0.74800003
-0.032661736 -0.14247854 0.7470001
-0.029168574 -0.14015144 0.74700004
0.019195715 -0.14076716 0.74650002
0.021648301 -0.14319906 0.74699998
-0.030632382 -0.1389143 0.74800003
-0.028475717 -0.13810906 0.74750006
-0.024157144 -0.13570097 0.74600005
0.014940001 -0.13588287 0.74700004
0.017057383 -0.13716692 0.74625009
-0.023010479 -0.13244392 0.74722224
0.012372001 -0.13239563 0.74660009
-0.021364525 -0.12818548 0.74775004
-0.018326288 -0.12657277 0.74580008
0.0081001911 -0.12689069 0.74600005
0.010685715 -0.12894095 0.74800003
-0.01743643 -0.12418596 0.74725002
-0.01434762 -0.12202572 0.74580008
0.0046185716 -0.12149048 0.74600005
0.0066895247 -0.12282401 0.74720007
-0.01173143 -0.11837335 0.74650002
-0.008018232 -0.11682124 0.74600011
-0.002841905 -0.11580762 0.74600005
0.0031986905 -0.11764157 0.74637508
0.006411429 -0.11896763 0.74800003
-0.0071238102 -0.11469334 0.74800003
-0.0031537421 -0.11403892 0.74771434
0.001424762 -0.11469334 0.74800003
-0.00071714289 -0.18574001 0.75300002
0.0021434925 -0.18516445 0.75066674
-0.051634289 -0.18000287 0.75300002
-0.04733143 -0.18000287 0.75300002
-0.043745719 -0.18000287 0.75300002
-0.038725719 -0.18000287 0.75300002
-0.026534287 -0.18095905 0.75300002
-0.022948572 -0.18143715 0.75300002
-0.018645715 -0.18000287 0.75300002
-0.0060957149 -0.18107858 0.75300002
-0.0021474075 -0.18244074 0.75122225
0.0010714286 -0.18250002 0.75000006
-0.055937149 -0.17641716 0.75300002
-0.052155241 -0.17689644 0.75275004
-0.047458444 -0.17700842 0.75190908
-0.042299055 -0.17694443 0.75066674
-0.03711839 -0.17712454 0.75061542
-0.032171432 -0.17730191 0.75066674
-0.027357232 -0.17772782 0.7505455
-0.022544287 -0.17928717 0.75150007
-0.017016763 -0.17776115 0.75080007
-0.012583131 -0.17751351 0.75200003
-0.0071542859 -0.17742744 0.75119996
-0.0027161909 -0.17852421 0.75040007
0.00071428576 -0.17928572 0.75000006
-0.055578578 -0.17319 0.75300002
-0.052282758 -0.17260213 0.75199997
-0.048333339 -0.17261907 0.75000012
-0.044285715 -0.17357144 0.75000006
-0.055220004 -0.16996287 0.75300002
-0.052255619 -0.16792858 0.75159997
-0.051149905 -0.16347639 0.75220007
-0.048831433 -0.1624524 0.75033343
-0.047456313 -0.15776703 0.75212502
-0.044285715 -0.1557143 0.75000006
0.032857142 -0.15500002 0.75000006
-0.045180004 -0.15418573 0.75300002
-0.042256195 -0.15219095 0.75200003
0.029285716 -0.15214287 0.75000006
0.03255102 -0.15214287 0.75000012
-0.040768575 -0.14876857 0.75100005
-0.038870003 -0.14689288 0.7511667
0.027423656 -0.14677414 0.7511667
0.032209739 -0.14736636 0.75155556
-0.036295403 -0.14255287 0.75216675
-0.03357143 -0.14071429 0.75000006
0.022739431 -0.14172229 0.75080007
0.027380383 -0.14292172 0.75260001
0.031902619 -0.1437393 0.75275004
-0.035140004 -0.13984287 0.75300002
-0.032490477 -0.13868669 0.75140005
-0.028110346 -0.13625294 0.75128579
0.018066194 -0.13647547 0.75125003
0.021797417 -0.13845484 0.75214297
-0.026213715 -0.13278212 0.75200003
-0.02357143 -0.1307143 0.75000006
0.012891429 -0.13177904 0.75200003
0.016130716 -0.13370264 0.75275004
-0.025066668 -0.1289143 0.75200003
-0.022376737 -0.12680015 0.75100011
0.0092980955 -0.12588096 0.75100005
0.011316191 -0.12762441 0.75200003
-0.021514287 -0.12406572 0.75300002
-0.01789456 -0.12239715 0.75157154
-0.015000001 -0.12071429 0.75000006
0.0085934922 -0.12244081 0.75183338
0.010757144 -0.12406572 0.75300002
-0.015040001 -0.11960382 0.75200003
-0.011881144 -0.11696153 0.75160009
-0.0092857145 -0.11500001 0.75000006
0.0035714288 -0.1157143 0.75000006
0.0068506133 -0.11746749 0.75142866
-0.0069186245 -0.11235779 0.75144452
-0.0019412247 -0.11186124 0.75085717
0.001969524 -0.11258239 0.75174999
0.0050200005 -0.11402572 0.75300002
-0.0054958737 -0.1091962 0.75266671
-0.0021500003 -0.10893288 0.75250006
0.00071714289 -0.10972287 0.75300002
-0.010828572 -0.19130477 0.75800002
-0.0075229937 -0.19177824 0.75742859
-0.061789211 -0.18584763 0.7573334
-0.057993021 -0.18649207 0.75799996
-0.052699052 -0.18552953 0.75800002
-0.047452576 -0.1856225 0.75719994
-0.042295557 -0.18624732 0.75699997
-0.038042624 -0.18624833 0.75725001
-0.032485716 -0.18552953 0.75800008
-0.026847409 -0.18648931 0.75733334
-0.022339685 -0.18664575 0.75666666
-0.017594669 -0.18648803 0.7572
-0.012125144 -0.18721315 0.75779998
-0.0073517459 -0.18750973 0.75666672
-0.0030224766 -0.18753336 0.75560009
-0.066174611 -0.18167937 0.75800008
-0.062658839 -0.18221398 0.75622225
-0.057562228 -0.18204015 0.75550008
-0.052775387 -0.18260667 0.75614291
-0.047488574 -0.18275952 0.75550008
-0.042451911 -0.18275952 0.75550002
-0.037415244 -0.18275954 0.75550008
-0.032386035 -0.1827997 0.75566673
-0.027803175 -0.18287778 0.75500005
-0.021930955 -0.18299763 0.75500005
-0.016977906 -0.18230344 0.75540012
-0.012236615 -0.1821069 0.75577784
-0.0077326191 -0.1826988 0.75525004
-0.065982103 -0.1774442 0.75800002
-0.062834866 -0.17769203 0.75660002
-0.058242865 -0.1779643 0.75500005
-0.053928576 -0.17904288 0.75500005
-0.061841529 -0.17399088 0.75680006
-0.05842356 -0.17251968 0.75563639
-0.056413814 -0.168277 0.7561667
-0.053928576 -0.16610001 0.75500005
-0.055440005 -0.16488001 0.75600004
-0.052952118 -0.16234967 0.75571436
-0.051736515 -0.1590597 0.75800008
-0.049117524 -0.15656821 0.75620002
-0.046570323 -0.15339287 0.7561667
-0.043545958 -0.15150884 0.75575006
-0.041870479 -0.1487124 0.75800002
0.033076193 -0.14740478 0.75500005
-0.038160384 -0.14212726 0.75600004
0.027096828 -0.14075556 0.75533342
0.03255298 -0.14154227 0.75537503
-0.035775557 -0.13854001 0.75633335
-0.032394126 -0.13676938 0.75583339
0.022877907 -0.13683487 0.75540012
0.027076667 -0.13782582 0.75610006
0.031041907 -0.13932763 0.75800002
-0.031495877 -0.13439621 0.7573334
-0.028269762 -0.13216262 0.75625002
0.013661906 -0.13086668 0.75500005
0.017636668 -0.13185003 0.75583339
0.021752382 -0.1335015 0.75771433
0.025266668 -0.13499621 0.75800002
-0.025725719 -0.12766477 0.7573334
-0.023728574 -0.12583335 0.75500005
0.013093906 -0.12705086 0.75540012
0.0167509 -0.12798563 0.75733334
-0.025266668 -0.12488953 0.75800002
-0.022140717 -0.12221906 0.75600004
-0.018335715 -0.12044048 0.75500005
0.0093476195 -0.12008096 0.75500005
0.012246001 -0.12244773 0.75630003
0.015160001 -0.12488953 0.75800002
-0.016862288 -0.11860553 0.75660002
-0.013212064 -0.11650223 0.75666666
0.0079152388 -0.11656287 0.75550008
0.011550477 -0.11911429 0.75800002
-0.011295556 -0.11415017 0.75700009
-0.0088847633 -0.11164986 0.75633335
0.0031174605 -0.11054223 0.75533342
0.0062514292 -0.11323874 0.7573334
-0.0057654763 -0.10738501 0.75674999
-0.0021628574 -0.10670002 0.75700009
0.0018748572 -0.10822953 0.75660002
-0.025433335 -0.20128667 0.76300001
-0.022508256 -0.20183685 0.76233339
-0.01848143 -0.20112143 0.76100004
-0.050866671 -0.19547334 0.76300001
-0.047233336 -0.19547336 0.76300001
-0.032700002 -0.19547336 0.76300001
-0.026679048 -0.19671908 0.76300007
-0.022653768 -0.19780391 0.76281828
-0.017607188 -0.19738817 0.76172733
-0.013080001 -0.19692668 0.76300001
-0.057291906 -0.19146335 0.76150006
-0.052085634 -0.19229759 0.76245457
-0.047150798 -0.19223145 0.76166672
-0.042817786 -0.19231579 0.76200002
-0.037716277 -0.19221058 0.76158333
-0.03264286 -0.19223145 0.76166672
-0.027550716 -0.19212644 0.76125002
-0.022304954 -0.19220099 0.76040012
-0.01759599 -0.1924227 0.76078582
-0.012599523 -0.19289935 0.7603001
-0.057180956 -0.1889143 0.76000011
-0.052519169 -0.18816465 0.76062506
-0.047530167 -0.1881905 0.76000011
-0.043187305 -0.18843177 0.76000011
-0.036552384 -0.18855239 0.76000005
-0.032571435 -0.1881905 0.76000011
-0.029193653 -0.18843177 0.76000011
-0.015923811 -0.1889143 0.76000005
-0.070301913 -0.18046573 0.76100004
-0.068182863 -0.18167619 0.76000005
-0.070240319 -0.17741176 0.76033342
-0.068182863 -0.17733334 0.76000005
-0.070209526 -0.1744381 0.76000005
-0.067246407 -0.17376123 0.76157153
-0.063055046 -0.17176746 0.7610001
-0.060637146 -0.1681124 0.76250005
-0.058095433 -0.16704173 0.76060003
-0.056709938 -0.16328438 0.76200002
-0.054392859 -0.16100144 0.7615
-0.052200243 -0.15732454 0.76125002
-0.050140005 -0.15332668 0.76300001
-0.047756739 -0.15238722 0.76142865
-0.044210479 -0.15002573 0.76100004
-0.045780003 -0.14896667 0.76300001
-0.042777829 -0.14718111 0.76128584
-0.04175619 -0.14342192 0.76250005
-0.039875001 -0.14209786 0.76125002
-0.037291855 -0.13716063 0.76111114
-0.034019049 -0.13535239 0.76000005
0.028556764 -0.13610992 0.7610001
0.032783814 -0.13820167 0.76075006
-0.036169335 -0.13320021 0.76260006
-0.032623053 -0.13193944 0.76120007
-0.029676192 -0.13100953 0.76000005
0.023418892 -0.13181858 0.76050007
0.025967238 -0.13302478 0.76160002
-0.03124667 -0.12862001 0.76300001
-0.028273717 -0.12759048 0.76120013
0.018586351 -0.12623937 0.76033342
0.021615239 -0.12867276 0.76160002
-0.026464051 -0.12361263 0.76125002
-0.023901429 -0.12167953 0.76050007
0.013752382 -0.1208762 0.76000005
0.016508216 -0.12280607 0.76187503
-0.021557778 -0.11941557 0.76300001
-0.017402003 -0.11673154 0.76130009
-0.013752382 -0.11508572 0.76000005
0.0094095245 -0.11580953 0.76000005
0.012146547 -0.1172875 0.76137507
0.015260001 -0.11990001 0.76300001
-0.01622889 -0.11360222 0.76300001
-0.012328709 -0.11240084 0.76142871
-0.0094095245 -0.11074287 0.76000005
0.007976668 -0.11201192 0.76125002
0.011626668 -0.11408667 0.76300001
-0.010900001 -0.10972667 0.76300001
-0.0082699051 -0.10705811 0.76160008
0.0023832656 -0.10616504 0.76128584
0.0062340959 -0.10885926 0.76100004
-0.0056613334 -0.10348535 0.76200002
-0.0021752384 -0.10368446 0.76133341
0.0012111112 -0.10342889 0.76300001
-0.051200002 -0.20553145 0.76800001
-0.047522858 -0.20544223 0.7676667
-0.041984003 -0.20582402 0.76800007
-0.028513972 -0.20544223 0.7676667
-0.050822865 -0.20159429 0.76600003
-0.047514714 -0.20248933 0.76755559
-0.042418174 -0.20258391 0.76791668
-0.03751184 -0.20218779 0.76800007
-0.032895453 -0.20248912 0.76755565
-0.027929179 -0.20252399 0.76618177
-0.024042858 -0.20472859 0.76500005
-0.051936738 -0.19785921 0.76500005
-0.047357142 -0.19817144 0.76500005
-0.042312704 -0.19770226 0.76600003
-0.037189525 -0.1976162 0.76566666
-0.032800004 -0.19825813 0.76533341
-0.028414287 -0.19817144 0.76500005
-0.016028572 -0.19890001 0.76500005
-0.05464286 -0.19452858 0.76500005
-0.068106785 -0.17145036 0.76687509
-0.065807387 -0.16817358 0.76774997
-0.0628381 -0.16759409 0.7662223
-0.061440006 -0.16457143 0.76800001
-0.058387622 -0.16202319 0.76633334
-0.056100003 -0.15955715 0.76500005
-0.053603575 -0.15752643 0.76575005
-0.051279813 -0.15237658 0.76700008
-0.048085719 -0.15081429 0.76500005
-0.050468575 -0.14921144 0.76800001
-0.047614634 -0.14735578 0.76700002
-0.044442859 -0.14644286 0.76500005
-0.047238287 -0.14346877 0.76780003
-0.043560717 -0.14234549 0.76550007
-0.041103333 -0.13773857 0.76725006
0.032057144 -0.13624287 0.76500005
-0.037619051 -0.13294524 0.76700002
-0.034242861 -0.13041429 0.76500005
0.028329737 -0.13288277 0.76711112
0.032656934 -0.13265313 0.76577789
-0.035840001 -0.12946287 0.76800001
-0.032866787 -0.12744607 0.76687503
-0.02987143 -0.12604287 0.76500005
0.023054561 -0.12695062 0.76671433
0.025600001 -0.12873143 0.76800001
-0.031430952 -0.12426144 0.76750004
-0.027897147 -0.12239449 0.76680005
-0.024042858 -0.12021429 0.76500005
0.018846123 -0.12171688 0.76528579
0.021204526 -0.12283929 0.76775002
-0.022664767 -0.11795239 0.7676667
-0.019722858 -0.11614572 0.76700002
0.013842858 -0.11657144 0.76500005
0.016384356 -0.11781484 0.76700002
-0.017445456 -0.11216079 0.76609093
-0.013357144 -0.11050001 0.76500005
0.0094714295 -0.11001429 0.76500005
0.012407938 -0.1121508 0.76633334
-0.016611021 -0.1079177 0.76785725
-0.012408995 -0.10728604 0.76633328
0.0069804089 -0.10719947 0.76571441
0.010971429 -0.10898286 0.76800001
-0.011454287 -0.10406128 0.7676667
-0.007443238 -0.10186648 0.76620001
-0.0021857144 -0.10127144 0.76500005
0.0027370241 -0.10178394 0.76612502
0.0054823812 -0.10343001 0.76750004
-0.0054840478 -0.097613581 0.76775002
-0.0023232903 -0.098022692 0.76654547
0.0017050797 -0.098326996 0.76666677
-0.03741556 -0.20688987 0.77033341
-0.033389051 -0.20656812 0.77050006
-0.036666669 -0.20460001 0.77000004
-0.066790476 -0.16685399 0.77066672
-0.066213816 -0.16406429 0.77250004
-0.062238649 -0.16320519 0.77142864
-0.05955429 -0.16101715 0.77200001
-0.05677757 -0.15791197 0.77200001
-0.053602859 -0.15566763 0.77100003
-0.05521429 -0.15386382 0.77300006
-0.053339526 -0.15192477 0.77250004
-0.051983539 -0.1473354 0.7718572
-0.050600003 -0.14446668 0.77000004
-0.047728192 -0.141716 0.77100003
-0.044733338 -0.14006668 0.77000004
-0.043640576 -0.13797012 0.77140003
-0.040464289 -0.13389954 0.77250004
-0.038003497 -0.13166381 0.77233338
0.028600002 -0.13126667 0.77000004
0.032171428 -0.13058895 0.7712
-0.036049999 -0.12801382 0.77250004
-0.034466669 -0.12613334 0.77000004
0.024200002 -0.12540001 0.77000004
0.027473433 -0.12751992 0.77130002
0.031922191 -0.1279799 0.77229995
-0.031884003 -0.12239411 0.77140003
-0.028600002 -0.12100001 0.77000004
0.023498096 -0.12262573 0.77100009
0.026342288 -0.12317429 0.77260005
-0.030183811 -0.11999906 0.77300006
-0.026866138 -0.11815737 0.77166677
-0.023039239 -0.11577982 0.77039999
0.018515876 -0.11671673 0.77077782
0.021921907 -0.11872915 0.77240008
-0.02231238 -0.11302954 0.77233338
-0.019825716 -0.11161049 0.77100003
0.013933334 -0.11073334 0.77000004
0.016165558 -0.11241763 0.77150005
-0.021349525 -0.10969239 0.77300006
-0.018868413 -0.10707667 0.77183342
0.0091728568 -0.10640144 0.7705
0.012629353 -0.1071052 0.77172732
0.015950795 -0.1092016 0.77300012
-0.016007429 -0.10382649 0.77100003
-0.012666905 -0.10243167 0.77100003
-0.0095333336 -0.10120001 0.77000004
0.0077159526 -0.10286572 0.77149999
0.011042858 -0.10380287 0.77300006
-0.011035714 -0.098585248 0.77250004
-0.0082634529 -0.097491786 0.77112502
-0.00073333341 -0.096066676 0.77000004
0.0022050794 -0.096723184 0.7713334
0.0051500006 -0.098585248 0.77250004
-0.0064076199 -0.093794562 0.77200007
-0.0022049737 -0.093360327 0.77188891
0.0012266668 -0.094436839 0.77266669
-0.065916508 -0.16219652 0.77766675
-0.063366994 -0.16149653 0.77666664
-0.062479053 -0.15730487 0.77788895
-0.058827307 -0.15678923 0.77533334
-0.060094289 -0.15283239 0.77900004
-0.057410866 -0.15284419 0.77680004
-0.055906668 -0.14883381 0.77750003
-0.05392731 -0.14700606 0.77566671
-0.052542549 -0.14430001 0.77700007
-0.048778098 -0.1411581 0.77600002
-0.046640005 -0.13819081 0.77733344
-0.04313048 -0.13579716 0.77633333
-0.041949149 -0.13296059 0.77820003
-0.039220002 -0.1317181 0.77700007
-0.037148766 -0.127132 0.77700001
0.033615429 -0.1260124 0.77740002
0.036353335 -0.12612382 0.77900004
-0.036353335 -0.1238981 0.77900004
-0.033779688 -0.12229367 0.77666664
0.024357144 -0.12030953 0.77500004
0.027942289 -0.12256401 0.7762
0.031525526 -0.1241705 0.77700007
-0.031636432 -0.11784453 0.77700001
-0.028318416 -0.11647271 0.77566671
0.02324705 -0.11742306 0.77740002
-0.030912703 -0.11450064 0.77900004
-0.027381275 -0.11247779 0.77700007
-0.023865081 -0.11194446 0.77500004
0.019072955 -0.11339944 0.7762
0.020526033 -0.11252223 0.77900004
-0.025966669 -0.10831811 0.77900004
-0.023064505 -0.10778555 0.77663642
-0.019928573 -0.10554763 0.77500004
0.017330267 -0.10734043 0.77611113
-0.022257144 -0.10460858 0.77900004
-0.017520001 -0.10265556 0.77733338
-0.014023811 -0.10111906 0.77500004
0.0081342869 -0.10129303 0.77633333
0.012583238 -0.10214343 0.77720004
0.016311906 -0.10379953 0.77850002
-0.012277524 -0.098071821 0.77660006
-0.0095952386 -0.095214292 0.77500004
0.0036904765 -0.095952392 0.77500004
0.0077187759 -0.097467236 0.77700007
0.011128572 -0.098673336 0.77900004
-0.0077193202 -0.092077151 0.77700007
-0.002214286 -0.090785727 0.77500004
0.0024050004 -0.092255011 0.77650005
0.0066771433 -0.092923582 0.77900004
-0.0056834924 -0.089199059 0.77833337
-0.0020890911 -0.087663651 0.77827281
0.0019285716 -0.087795824 0.77860004
-0.067832388 -0.15727831 0.78266668
-0.064683817 -0.15687558 0.78066671
-0.070933335 -0.15456001 0.78400004
-0.067907728 -0.1529799 0.78355557
-0.062792808 -0.15263239 0.78177786
-0.05868572 -0.1508 0.78000003
-0.060325719 -0.14969715 0.78200006
-0.05737175 -0.14752477 0.78233337
-0.052449208 -0.14292794 0.78300011
-0.049899049 -0.14076 0.78200006
-0.05002667 -0.13813335 0.7840001
-0.047864001 -0.13672802 0.78280002
-0.045966353 -0.13317525 0.78266668
-0.042875558 -0.13110223 0.78066671
-0.039371431 -0.13000001 0.78000003
-0.04554667 -0.12842667 0.78400004
-0.042253096 -0.12749834 0.78175008
-0.03902524 -0.12673762 0.78049999
-0.041066669 -0.12469334 0.78400004
-0.037519373 -0.12274159 0.78266668
-0.034914289 -0.12108573 0.78000003
0.028337145 -0.12080477 0.78299999
0.032207623 -0.12195916 0.78244442
0.035915431 -0.12264838 0.78240007
-0.035421908 -0.11856763 0.78300005
-0.033471428 -0.11603335 0.78100002
0.024060955 -0.1158362 0.78133339
0.026418669 -0.11806134 0.78360003
-0.031711243 -0.11269867 0.7816
0.023102859 -0.11252213 0.78244448
-0.027760003 -0.10749859 0.78250003
-0.024577145 -0.10501143 0.78200006
0.021054765 -0.10787334 0.78250003
-0.020640638 -0.10320064 0.78333342
-0.017863335 -0.10122239 0.78150004
0.014114287 -0.10028572 0.78000003
0.017115558 -0.10219239 0.78133339
0.020160001 -0.10378668 0.78400004
-0.016858669 -0.09860801 0.78320009
-0.013548191 -0.097214483 0.78160006
0.012835477 -0.097282626 0.78125
0.015660001 -0.098433338 0.78300005
-0.012176086 -0.092676841 0.78266668
-0.0096571436 -0.091371432 0.78000003
0.0084295254 -0.091734931 0.78100008
0.011697779 -0.094328903 0.7840001
-0.011200001 -0.088853337 0.78400004
-0.0074438103 -0.087835059 0.78160012
-0.003714286 -0.085428581 0.78000003
0.003714286 -0.086171433 0.78000003
0.0061059049 -0.088580579 0.7816
-0.005226667 -0.08437334 0.78400004
-0.001864762 -0.083892383 0.78300005
0.0019398098 -0.083689906 0.78320009
-0.065736517 -0.15121716 0.78733337
-0.062960953 -0.15065429 0.78700006
-0.066834286 -0.14906383 0.78850007
-0.062086947 -0.14829867 0.78814292
-0.058657527 -0.14596687 0.78760004
-0.056661434 -0.14333954 0.78800005
-0.054143429 -0.14143068 0.78740007
-0.052297622 -0.13776858 0.78725004
-0.050281908 -0.13433525 0.78800005
-0.047985002 -0.13270691 0.78725004
-0.047310002 -0.12916334 0.78850007
-0.043722861 -0.12566954 0.78700006
-0.041691195 -0.12281929 0.78875005
-0.039115813 -0.12184115 0.78680009
0.033685718 -0.12052001 0.78600001
0.035931431 -0.12052001 0.78600001
-0.037625991 -0.11758953 0.78785723
0.028595431 -0.1172263 0.78600001
0.032239687 -0.11770741 0.78722233
0.035635479 -0.1181612 0.78775007
-0.03575778 -0.11427334 0.78766674
-0.032530099 -0.11137886 0.78700006
0.024702858 -0.11004001 0.78600001
0.027404236 -0.11302667 0.78711116
0.031296514 -0.11441906 0.78866673
-0.031296514 -0.10841017 0.78866673
-0.028482858 -0.10568286 0.78700006
0.023506034 -0.10727239 0.78766674
-0.026300002 -0.10444858 0.78900003
-0.022876428 -0.10256215 0.78750002
0.018714286 -0.10180572 0.78600001
0.020761907 -0.10281335 0.78800005
-0.02113973 -0.098400973 0.78871435
-0.017444627 -0.096207626 0.78657156
0.014222858 -0.095068574 0.78600001
0.017041091 -0.097418793 0.78771436
-0.017273745 -0.092804365 0.78857154
-0.014253018 -0.092267625 0.78766674
0.0097314296 -0.090577148 0.78600001
0.012751702 -0.092257284 0.78757149
0.015780002 -0.093928576 0.78900003
-0.012007144 -0.087804295 0.78800005
-0.0092406357 -0.086657785 0.78666675
0.0073476196 -0.087396003 0.78700006
0.011271429 -0.089420006 0.78900003
-0.006754763 -0.083114058 0.78800011
-0.0024372621 -0.081548221 0.78737509
0.0024640819 -0.081298098 0.78728586
0.0057587307 -0.083873659 0.78866673
-0.0007514286 -0.078900002 0.78900003
0.0007514286 -0.078900002 0.78900003
-0.066656828 -0.1466435 0.79233336
-0.062892012 -0.14614306 0.79180002
-0.070237145 -0.14425048 0.79300004
-0.068223186 -0.143747 0.7930001
-0.061677784 -0.143747 0.7930001
-0.058367431 -0.14222191 0.79180002
-0.055887625 -0.13820857 0.79300004
-0.054033972 -0.13646701 0.79166669
-0.051371839 -0.13235852 0.79157144
-0.048966669 -0.13108 0.79100001
-0.047143333 -0.12747429 0.792
-0.042966194 -0.12211572 0.79149997
-0.040027622 -0.11706191 0.79300004
-0.039173335 -0.11676668 0.79100001
0.033900004 -0.11526 0.79100001
0.035406668 -0.11526 0.79100001
-0.036668003 -0.1127183 0.79220003
-0.033900004 -0.11074001 0.79100001
0.028902542 -0.11133557 0.79166669
0.032623097 -0.11219881 0.792
0.035466354 -0.11243462 0.79233336
-0.032475241 -0.10799906 0.7930001
0.024860002 -0.10622001 0.79100001
0.027429208 -0.10845652 0.79266667
-0.027136669 -0.10327096 0.79149997
-0.024860002 -0.10094667 0.79100001
0.022710374 -0.10231736 0.79188889
-0.023132382 -0.097302854 0.79200006
0.018849209 -0.097260647 0.79166669
0.020877779 -0.098349534 0.79233336
-0.020964002 -0.093054287 0.79180002
-0.017326668 -0.091153339 0.79100001
0.014349525 -0.091383815 0.79300004
0.016350159 -0.092816196 0.79233336
-0.01705962 -0.089223824 0.79260004
-0.013192382 -0.087442391 0.79149997
0.0085880002 -0.086332008 0.79100001
0.012524763 -0.088575058 0.79220003
-0.0087272115 -0.081985988 0.79185718
0.0067926995 -0.082000643 0.79233336
-0.0057857148 -0.078729853 0.79233336
-0.0022632654 -0.077704363 0.79214299
0.0022632657 -0.077704363 0.79214293
0.0060419049 -0.079300009 0.79300004
-0.00075523817 -0.074768573 0.79300004
0.00075523817 -0.074768573 0.79300004
-0.066529058 -0.14266905 0.7968334
-0.063329525 -0.14208911 0.79688889
-0.059309527 -0.14057621 0.79500002
-0.062168002 -0.13847201 0.79800004
-0.05764322 -0.13727918 0.79637498
-0.056446992 -0.13339461 0.79733342
-0.053802229 -0.13260984 0.79566669
-0.051931705 -0.12847158 0.79685718
-0.048086859 -0.12636077 0.79640007
-0.046956386 -0.12263296 0.79780006
-0.044349052 -0.12167382 0.796
-0.046360005 -0.11932001 0.79800004
-0.04273143 -0.11757038 0.79644448
-0.041250959 -0.11362715 0.79716671
-0.038075812 -0.11119125 0.79640007
-0.036055241 -0.10854239 0.79700005
-0.032917336 -0.10664039 0.79640001
-0.029528573 -0.10524286 0.79500002
0.028567938 -0.1064308 0.79633331
0.032207862 -0.10950929 0.79575002
0.036342859 -0.10978572 0.79500002
-0.031160003 -0.10412001 0.79800004
-0.02838248 -0.10214287 0.79680008
0.024985716 -0.1022143 0.79500002
0.027161336 -0.10272324 0.79660004
-0.027194668 -0.098294489 0.79760003
-0.024985716 -0.096914291 0.79500002
0.022434834 -0.096996203 0.79657149
0.025048573 -0.099435247 0.79700005
-0.02505905 -0.093401276 0.79733342
-0.022635106 -0.091728173 0.79600012
0.017882995 -0.092228033 0.79657149
0.020507146 -0.09418048 0.79750001
-0.021646669 -0.088484287 0.79750001
-0.017680954 -0.086886674 0.7972858
-0.013905081 -0.086206675 0.79633331
0.0098428577 -0.085557148 0.79500002
0.013388256 -0.086639062 0.79566669
0.016335001 -0.087752149 0.79775006
-0.012401111 -0.08325889 0.79716671
0.0094704768 -0.082200959 0.79550004
0.012718811 -0.082951196 0.79725003
0.01596 -0.0836 0.79800004
-0.011400001 -0.079800002 0.79800004
-0.0076568834 -0.077179834 0.7966364
-0.0037857145 -0.076471433 0.79500002
0.0037857145 -0.076471433 0.79500002
0.0071617994 -0.077588677 0.79611117
-0.0058244448 -0.073182546 0.79766673
-0.0024142861 -0.072626069 0.7966364
0.0020866669 -0.073246196 0.79699999
-0.07103429 -0.14130478 0.80200005
-0.068939686 -0.14169526 0.80133337
-0.067329213 -0.13846955 0.80033338
-0.062665395 -0.13643725 0.80133343
-0.061257146 -0.134 0.80400002
-0.057534862 -0.13170172 0.80120003
-0.0557581 -0.12908381 0.80200005
-0.053083815 -0.12717238 0.80199999
-0.049523812 -0.12571429 0.80000001
-0.051239051 -0.12389049 0.80300003
-0.049204763 -0.1224381 0.801
-0.047356196 -0.11838858 0.80199999
-0.044952385 -0.11580953 0.80000001
-0.041957144 -0.11175715 0.801
-0.040481906 -0.10922477 0.80200005
-0.037783336 -0.10762811 0.80150002
-0.034371432 -0.10616953 0.80200005
0.032973811 -0.10730477 0.80050009
0.036662858 -0.10769462 0.80199999
-0.032869909 -0.1024261 0.80260003
-0.029714288 -0.10133334 0.80000001
0.029193146 -0.10224915 0.80240005
0.031851433 -0.10421842 0.80266666
-0.031316191 -0.098531432 0.80200005
-0.028906126 -0.09696763 0.80171436
0.023619048 -0.095238104 0.80000001
0.026557887 -0.097484455 0.80177784
-0.027360765 -0.093079627 0.80240005
0.01904762 -0.090666674 0.80000001
0.022152109 -0.092420422 0.80200011
0.025268573 -0.094182864 0.80400002
-0.021605715 -0.086674929 0.80066669
0.018465906 -0.087444194 0.80120003
0.021044286 -0.088384286 0.80350006
-0.021167621 -0.084413342 0.8033334
-0.017572001 -0.08296743 0.80220002
-0.013888381 -0.081339814 0.80120003
0.013342381 -0.080430955 0.80049998
0.017581772 -0.082878649 0.80257148
-0.011956826 -0.078097783 0.80133337
-0.0099171437 -0.076284766 0.801
0.0089996196 -0.076418296 0.80080003
0.011986668 -0.078292705 0.8033334
-0.007170286 -0.072148576 0.80080003
0.0033047623 -0.071424134 0.80066669
0.0063787308 -0.073222548 0.80366671
-0.0022911113 -0.068712704 0.80166668
0.0019874286 -0.068894863 0.80200005
0.0053600003 -0.069680005 0.80400002
-0.066015244 -0.13586858 0.80600005
-0.066179052 -0.13466668 0.80800003
-0.062238861 -0.13292915 0.80680001
-0.059253339 -0.13158858 0.80800003
-0.056036193 -0.12819239 0.80600005
-0.053733338 -0.12588954 0.80600005
-0.052198097 -0.12281906 0.80600005
-0.049895242 -0.1205162 0.80600005
-0.047710478 -0.11696763 0.80800003
-0.04303905 -0.11144096 0.80700004
-0.040784765 -0.10850286 0.80800003
-0.037637621 -0.10599762 0.80650002
0.034542859 -0.10516382 0.80600005
0.036845718 -0.10516382 0.80600005
-0.036747433 -0.10255239 0.80720007
-0.034542859 -0.1005581 0.80600005
0.029937144 -0.1005581 0.80600005
0.033066671 -0.10227375 0.80742866
0.036167622 -0.1031162 0.80800003
-0.032779049 -0.097567633 0.80666673
0.029425398 -0.097487628 0.80600011
0.031037463 -0.097729534 0.80800003
-0.030780954 -0.093881913 0.80800003
-0.027913652 -0.091933981 0.80666673
0.023796191 -0.091346674 0.80600005
0.026708575 -0.092612386 0.8070001
-0.02533143 -0.089811437 0.80600005
-0.023825716 -0.087616198 0.80700004
0.022801589 -0.087616831 0.8070001
-0.021507146 -0.0821862 0.80650002
-0.017655239 -0.080600008 0.80600005
0.018468572 -0.08156953 0.80800003
0.020777144 -0.0838781 0.80800003
-0.020777144 -0.07926096 0.80800003
-0.017374476 -0.078566864 0.80720007
-0.013370286 -0.077298671 0.80680007
0.013057619 -0.077192865 0.80650008
-0.011158096 -0.073489532 0.80800003
-0.0076838098 -0.071475245 0.80700004
0.008955556 -0.072412066 0.80600011
0.012051112 -0.072817467 0.80766672
-0.00538 -0.067633338 0.80700004
-0.0023044448 -0.06604223 0.80633342
0.002524354 -0.066390485 0.8065716
0.0070863501 -0.068221167 0.806889
-0.0015390477 -0.063870482 0.80800003
0.0015390477 -0.063870482 0.80800003
-0.062888384 -0.13118249 0.81120008
-0.058628574 -0.13037144 0.81000006
-0.061243813 -0.12946478 0.81400001
-0.058095243 -0.12884192 0.81333339
-0.054771431 -0.12574287 0.81000006
-0.053334482 -0.12197068 0.81160003
-0.050803494 -0.1181089 0.81233346
-0.047530003 -0.11554143 0.81150007
-0.046624385 -0.11291849 0.81320012
-0.044025719 -0.11122191 0.81100005
-0.042311113 -0.10758096 0.81266677
-0.039342858 -0.10568572 0.81000006
-0.04108762 -0.10388191 0.81400001
-0.039005715 -0.10233905 0.81099999
0.0348 -0.10053144 0.81200004
0.036346667 -0.10053144 0.81200004
-0.036656003 -0.097901724 0.8120001
-0.034742862 -0.096506678 0.81066674
0.033295561 -0.09755969 0.81299996
0.036436193 -0.098455243 0.81400001
-0.032223497 -0.092540957 0.81200004
-0.027771432 -0.090257145 0.81000006
0.028099051 -0.090995565 0.81200004
0.030763814 -0.093834296 0.81160003
-0.026626395 -0.087607093 0.81200016
-0.023914287 -0.085628577 0.81000006
0.023142859 -0.085628577 0.81000006
0.025922382 -0.0878262 0.8125
-0.025561906 -0.082881272 0.81333339
-0.023572858 -0.082308099 0.81150007
0.019333335 -0.081200004 0.81200004
0.022140194 -0.083137535 0.81280005
-0.021394288 -0.078104138 0.81200004
-0.017995648 -0.076063141 0.81142861
-0.014657144 -0.076371431 0.81000006
0.014681271 -0.076495886 0.81133336
0.017293017 -0.078718424 0.81300008
-0.01705524 -0.073647626 0.81400001
-0.012802118 -0.072433032 0.81200004
-0.0084857149 -0.070200004 0.81000006
0.013911907 -0.071875721 0.81150001
-0.010078096 -0.068996198 0.81400001
-0.0074059875 -0.067081645 0.81228578
0.0079784133 -0.066139691 0.81066674
0.011410715 -0.067492142 0.81225014
-0.0059390478 -0.063775241 0.81333339
-0.0025398643 -0.062152933 0.81142867
0.0025371432 -0.062109392 0.81085724
0.0065278923 -0.062948577 0.81314296
-0.066138096 -0.12916382 0.81700003
-0.062903389 -0.12796922 0.81766677
-0.058316331 -0.1267392 0.81642872
-0.056436341 -0.1225547 0.81814301
-0.055380005 -0.11856001 0.81900007
-0.053066861 -0.11717962 0.81700003
-0.052034054 -0.11322549 0.8185001
-0.04818286 -0.11190763 0.81599998
-0.046924286 -0.10805858 0.81775004
-0.04427905 -0.10642382 0.81566668
-0.046020001 -0.10374001 0.81900007
-0.042783096 -0.10228644 0.81675005
-0.039585717 -0.10012858 0.81500006
-0.041826352 -0.098459378 0.81833339
-0.038768578 -0.097619243 0.8174001
0.034928575 -0.096247628 0.81500006
0.036480956 -0.096247628 0.81500006
-0.036875878 -0.09270604 0.81800008
-0.034152381 -0.091590479 0.81500006
0.033008099 -0.092228346 0.81550002
0.036784451 -0.091960639 0.8160001
-0.031396195 -0.088478111 0.81733346
-0.028789526 -0.086366042 0.81700009
0.028248575 -0.087073669 0.81633341
0.031531431 -0.08914572 0.81750005
0.035100002 -0.089700006 0.81900007
-0.026844285 -0.082476199 0.81700003
0.023487432 -0.081347249 0.81660002
0.026217461 -0.083062232 0.81766677
-0.022833336 -0.077579692 0.8173334
0.018393017 -0.076418415 0.81599998
0.021929391 -0.078027897 0.81814301
-0.021060001 -0.074100003 0.81900007
-0.017896192 -0.0721016 0.81700009
-0.013989525 -0.070720002 0.81600004
0.01474762 -0.070633337 0.81500006
0.017379366 -0.072881594 0.81700009
-0.017940002 -0.069420002 0.81900007
-0.0121927 -0.067694284 0.81700009
0.01437762 -0.067222387 0.81600004
0.016380001 -0.069420002 0.81900007
0.0085380962 -0.062095243 0.81500006
-0.063334286 -0.12588668 0.82100004
-0.065056197 -0.12462572 0.82300001
-0.061837781 -0.1228907 0.82188892
-0.058642861 -0.12197715 0.82100004
-0.061920956 -0.11953095 0.82300001
-0.057138644 -0.11774246 0.82185721
-0.05565048 -0.11365239 0.82300001
-0.052431431 -0.11086065 0.82166672
-0.050906353 -0.10729367 0.82233334
-0.048869051 -0.10673001 0.82100004
-0.050947621 -0.10424668 0.82300001
-0.047474921 -0.10251271 0.82166672
-0.044568576 -0.10086572 0.82100004
-0.046244767 -0.099543817 0.82300001
-0.043360192 -0.097519815 0.82180005
-0.039877146 -0.096174292 0.82100004
-0.041491434 -0.093941912 0.82200003
-0.038976192 -0.092196763 0.82180005
-0.035185717 -0.089919053 0.82100004
-0.032402862 -0.086562485 0.82180005
0.032293573 -0.086700723 0.82200003
0.036032863 -0.088515721 0.82249999
-0.030568574 -0.083867624 0.82300001
-0.028454922 -0.082232073 0.82233334
0.028182859 -0.082199052 0.82200003
0.030568574 -0.083867624 0.82300001
-0.025802858 -0.078972384 0.82100004
-0.024239048 -0.076626673 0.82100004
0.02373746 -0.076427631 0.82166672
0.026367305 -0.0785781 0.82233334
-0.022690002 -0.073544286 0.82150006
-0.019595239 -0.071326673 0.82300001
0.019026352 -0.071674608 0.82100004
0.022199368 -0.073386669 0.82266676
-0.062126908 -0.11698048 0.82574999
-0.058404766 -0.11602382 0.82500005
-0.062322225 -0.11438891 0.82833338
-0.057496831 -0.1128908 0.82700008
-0.054214288 -0.11078572 0.82500005
-0.053132381 -0.10823048 0.82650006
-0.051195242 -0.10238858 0.82700002
-0.049540006 -0.10143779 0.82566679
-0.047611844 -0.097809128 0.82728571
-0.044298097 -0.095672071 0.82566679
-0.045002859 -0.092374295 0.82900006
-0.042531431 -0.0921508 0.82700008
-0.038500004 -0.090357147 0.82500005
-0.040265717 -0.088426672 0.82900006
-0.037029315 -0.087447517 0.82722223
-0.033785716 -0.085642859 0.82500005
0.035357144 -0.085642859 0.82500005
-0.035528574 -0.084479056 0.82900006
-0.032305177 -0.082728043 0.82728583
-0.02907143 -0.080928579 0.82500005
0.02907143 -0.080928579 0.82500005
0.03227007 -0.082641236 0.82642865
-0.031186193 -0.078557625 0.82900006
-0.027911007 -0.077427 0.82677782
-0.061806671 -0.11331049 0.83200002
-0.057844765 -0.11093334 0.83200002
-0.056326669 -0.10868667 0.83300006
-0.054124765 -0.10692859 0.83166671
-0.052360006 -0.10234001 0.83300006
-0.048277147 -0.095762864 0.83100003
-0.0472981 -0.093802236 0.83233345
-0.043528575 -0.091014288 0.83100003
-0.041575246 -0.087504767 0.83150005
0.037197147 -0.087848574 0.83100003
-0.040460002 -0.08488667 0.83300006
-0.036915623 -0.083495818 0.8318001
-0.066004768 -0.11371905 0.83500004
-0.063137561 -0.11182601 0.83614284
-0.059642863 -0.1105381 0.83500004
-0.061526671 -0.10867049 0.83900005
-0.058408577 -0.10744572 0.83724999
-0.054871432 -0.10576668 0.83500004
-0.055623181 -0.10299525 0.83833337
-0.053853657 -0.10266636 0.83566666
-0.051630955 -0.09767738 0.83725005
-0.046576668 -0.09156096 0.83600003
-0.045437146 -0.088482864 0.83700001
-0.043418098 -0.087630957 0.83650005
-0.06334953 -0.10865667 0.84200007
-0.06014286 -0.10424668 0.84200001
-0.057202861 -0.10237588 0.84200001
-0.055265717 -0.09851715 0.84100002
-0.053213656 -0.095998429 0.84233332
-0.062771432 -0.10622858 0.84500003
-0.061379053 -0.10337524 0.84800005
-0.058851909 -0.10157858 0.84650004
