# .PCD v0.7 - Point Cloud Data file format
VERSION 0.7
FIELDS x y z
SIZE 4 4 4
TYPE F F F
COUNT 1 1 1
WIDTH 1023
HEIGHT 1
VIEWPOINT 0 0 0 1 0 0 0
POINTS 1023
DATA ascii
-0.028920002 -0.14115715 0.72300005
-0.028231433 -0.13840288 0.72300005
-0.035408575 -0.1513543 0.72900003
-0.032441311 -0.15179726 0.72862506
-0.02772405 -0.15178977 0.72775
-0.022206988 -0.15197968 0.72866672
-0.017524526 -0.15182334 0.72875005
-0.014580001 -0.15066001 0.72900003
-0.03661143 -0.14731167 0.72875005
-0.032502752 -0.14729747 0.72611111
-0.027628813 -0.1471225 0.72524995
-0.022120163 -0.14724065 0.7258333
-0.017326351 -0.14763492 0.72777778
-0.012489446 -0.14779884 0.72858346
-0.0084702866 -0.14621659 0.72900003
-0.036257889 -0.14279546 0.72744453
-0.032452382 -0.14223811 0.72500002
-0.027179657 -0.1429286 0.72499996
-0.022095243 -0.14223811 0.72500008
-0.017306114 -0.14261422 0.72691673
-0.012685308 -0.14320737 0.7284286
-0.035876572 -0.13809943 0.72720003
-0.032452382 -0.13740477 0.72499996
-0.026928574 -0.13671431 0.72500002
-0.021924563 -0.1371839 0.7259286
-0.017619623 -0.13763219 0.72840011
-0.014580001 -0.13955143 0.72900003
-0.03526286 -0.1327543 0.72600001
-0.032541905 -0.13293383 0.727
-0.027831241 -0.13306007 0.7269333
-0.022860136 -0.13390478 0.72742862
-0.018745715 -0.13399716 0.72900003
-0.035360001 -0.12965333 0.72800004
-0.034020003 -0.12983143 0.72900003
-0.025864763 -0.16008191 0.73400003
-0.020971429 -0.16008191 0.73400003
-0.018874288 -0.16008191 0.73400003
-0.014680001 -0.16008191 0.73400003
-0.036700003 -0.15623716 0.73400003
-0.032359365 -0.15714413 0.73333341
-0.027712643 -0.15682934 0.73245466
-0.022309683 -0.15685828 0.73200005
-0.01742305 -0.15709391 0.73180002
-0.01256508 -0.15707269 0.73300004
-0.0078802733 -0.15670423 0.73314291
-0.0029851084 -0.15708138 0.73363644
0.0013980954 -0.15658668 0.73400003
-0.037880003 -0.15267429 0.73200005
-0.034113336 -0.15385811 0.73100001
-0.016012382 -0.15385811 0.73100001
-0.012345975 -0.1526497 0.7312727
-0.0076615876 -0.15253589 0.73133332
-0.0027870638 -0.15262249 0.73175001
0.0019209525 -0.15305763 0.73300004
-0.039245877 -0.14815795 0.73150009
-0.0070613609 -0.14828859 0.73100007
-0.0027868454 -0.14775564 0.73181254
0.00069777784 -0.14862542 0.73266673
-0.038772069 -0.14278351 0.73133337
-0.010911747 -0.14092636 0.73133337
-0.0077955849 -0.14242364 0.73209095
-0.0038414288 -0.14425477 0.7335
-0.016023334 -0.13654619 0.73150003
-0.012712309 -0.13791525 0.7322309
-0.0090876194 -0.13911049 0.73400003
-0.032024764 -0.13018763 0.73100001
-0.027429907 -0.1304661 0.73100001
-0.022106841 -0.13156694 0.73163635
-0.017677462 -0.13327429 0.73266673
-0.014680001 -0.1349162 0.73400003
-0.035578571 -0.12836048 0.73250002
-0.032758892 -0.12824431 0.7318334
-0.027894525 -0.12831788 0.73225003
-0.023068573 -0.12932383 0.73400009
-0.040117145 -0.16539524 0.73900002
-0.037301905 -0.1659583 0.73900002
-0.031952959 -0.1670844 0.73900002
-0.027448572 -0.16609906 0.73900002
-0.023225715 -0.16539524 0.73900002
-0.018299049 -0.16539524 0.73900002
-0.041914102 -0.16216725 0.73839998
-0.03719556 -0.16211578 0.73688895
-0.032274112 -0.16277364 0.73668766
-0.027636288 -0.1627323 0.73650002
-0.022729525 -0.16233316 0.73660004
-0.01734313 -0.1625105 0.73685724
-0.012450911 -0.16236953 0.73745453
-0.0077307937 -0.1623615 0.73800004
-0.0028115874 -0.16239795 0.73816675
0.002811905 -0.16239795 0.73816675
0.0077325935 -0.16238573 0.73811114
0.012380953 -0.16221125 0.73859996
0.017313717 -0.16173545 0.73900002
0.022600107 -0.16211081 0.73899996
0.027448574 -0.16258001 0.73899996
0.030263811 -0.16258001 0.73900002
-0.045716669 -0.15754715 0.73850006
-0.042694531 -0.15755993 0.73691678
-0.038151845 -0.15811485 0.73600012
-0.03434667 -0.15911619 0.73600006
-0.0070095244 -0.15911619 0.73600006
-0.00070095243 -0.15911619 0.73600006
0.0035055957 -0.1580918 0.73612505
0.0077153454 -0.15781017 0.73644447
0.012832655 -0.15749714 0.7368573
0.017551908 -0.15726271 0.73716676
0.0223701 -0.15770917 0.73860013
0.02709667 -0.15941286 0.73900002
0.030263811 -0.15976477 0.73900002
-0.045747623 -0.15413429 0.73900002
-0.042671528 -0.15257248 0.73690003
-0.03995429 -0.15491049 0.73600006
0.0041055786 -0.15210669 0.73600012
0.0077141277 -0.15287603 0.73633337
0.012433403 -0.15269873 0.73692864
0.017580211 -0.15258804 0.73833328
0.021114286 -0.15413429 0.73900002
-0.041881591 -0.14903843 0.73700011
-0.00070095243 -0.14509715 0.73600006
0.0031078232 -0.1471273 0.73664302
0.0077300007 -0.14756492 0.73783338
0.012311588 -0.14831889 0.73866671
0.016656827 -0.14944224 0.73900002
-0.038552385 -0.14089143 0.73600006
-0.0063085719 -0.14089143 0.73600006
-0.002455794 -0.14215057 0.73708344
0.0021106668 -0.14279525 0.73859996
0.0063342862 -0.14428096 0.73900002
-0.038604766 -0.13967906 0.73700005
-0.011573333 -0.13572621 0.73650002
-0.007726192 -0.13766448 0.73750001
-0.0035142861 -0.13916478 0.73800009
-0.016848415 -0.13175255 0.73716676
-0.013356873 -0.13346738 0.73814285
-0.031246906 -0.12673691 0.73725003
-0.027355716 -0.12625669 0.73650014
-0.022471113 -0.12745145 0.73733342
-0.018261749 -0.12853414 0.73750007
-0.030263811 -0.1245743 0.73900002
-0.027448576 -0.1245743 0.73900002
-0.023929525 -0.1245743 0.73900002
-0.050240956 -0.17619716 0.74300003
-0.047410481 -0.17690478 0.74300003
-0.042248834 -0.17741804 0.74272728
-0.03891905 -0.17902763 0.74300003
-0.050948575 -0.17336667 0.74300003
-0.047410481 -0.17265907 0.74300003
-0.042439353 -0.17258695 0.74268758
-0.037487149 -0.17258239 0.74266672
-0.032802768 -0.17150716 0.74230003
-0.027577937 -0.17112875 0.74250007
-0.022643812 -0.17124382 0.74300003
-0.018398097 -0.17124383 0.74300003
-0.012737144 -0.17053621 0.74300003
-0.0077838106 -0.17053621 0.74300003
-0.0028304763 -0.17053621 0.74300003
0.0028304765 -0.17053621 0.74300003
0.0080668582 -0.17110232 0.74300003
0.012737143 -0.17124382 0.74300003
0.017690478 -0.17154709 0.74300009
0.022643812 -0.17124382 0.74300003
0.027243335 -0.17089002 0.74300003
0.031842858 -0.17053621 0.74300003
-0.046988443 -0.16784368 0.74271435
-0.042540953 -0.16740434 0.74109095
-0.037403811 -0.16831334 0.74100006
-0.033123814 -0.16843812 0.74000001
-0.027217908 -0.16796534 0.74040002
-0.022344554 -0.16770074 0.74088889
-0.017447485 -0.16772343 0.74128574
-0.012713096 -0.16738771 0.74158335
-0.0077749216 -0.16750614 0.74211115
-0.0028268255 -0.16751859 0.74216676
0.0028263493 -0.16748129 0.74200004
0.0077684661 -0.16738136 0.74155551
0.012720795 -0.16748065 0.74200004
0.017682543 -0.16763113 0.74266672
0.022604685 -0.16742486 0.74175
0.027510479 -0.16718031 0.74066663
0.032486036 -0.16736844 0.74150002
0.037294697 -0.16726941 0.74285722
-0.046524197 -0.16361107 0.74240011
-0.043695241 -0.16420953 0.74000001
0.014095239 -0.16420953 0.74000001
0.01797143 -0.16385715 0.74000001
0.022335876 -0.16435747 0.74066675
0.033283431 -0.16260573 0.74040002
0.037206195 -0.16296946 0.74270004
-0.047410481 -0.15709144 0.74300003
0.024666669 -0.15575239 0.74000001
0.027709048 -0.1572493 0.74125004
0.032306496 -0.15844554 0.74181819
0.036088575 -0.1592143 0.74300003
-0.04595397 -0.15200096 0.74233341
-0.044400003 -0.1501143 0.74000001
0.019028572 -0.1501143 0.74000001
0.022051219 -0.15262625 0.74155563
0.026889525 -0.15496857 0.74300003
-0.042760834 -0.14700988 0.74212503
0.013886033 -0.14591175 0.74133337
0.01749024 -0.14733857 0.74200004
0.0209927 -0.14883588 0.74300003
-0.041096468 -0.14287362 0.74214292
0.0039980956 -0.1413143 0.74066675
0.0079482151 -0.14325085 0.74187505
0.011314287 -0.14425668 0.74250007
-0.0063428576 -0.13601905 0.74000001
-0.0023724679 -0.13673143 0.74109095
0.0021214287 -0.13785477 0.74230003
-0.012167302 -0.13181239 0.74188894
-0.0079495236 -0.13373525 0.74200004
-0.0042428575 -0.13435668 0.74250007
-0.036088575 -0.12807906 0.74300003
-0.033198737 -0.12620002 0.74166673
-0.020465717 -0.12561619 0.74100006
-0.017447485 -0.1265724 0.74128574
-0.013037551 -0.12886289 0.74285722
-0.031645238 -0.1225124 0.74250007
-0.027535239 -0.12214223 0.74133337
-0.022799483 -0.12273594 0.74181819
-0.019105716 -0.12383334 0.74300003
-0.030899366 -0.11911589 0.74300003
-0.027584447 -0.11882636 0.74266672
-0.024766669 -0.11958763 0.74300003
-0.036994286 -0.18141429 0.74700004
-0.033213969 -0.18173209 0.74733341
-0.027782861 -0.18023239 0.74800003
-0.024933334 -0.18023239 0.74800003
-0.037464287 -0.17809334 0.74575007
-0.032815304 -0.17743108 0.74580008
-0.027745083 -0.17714657 0.74700004
-0.023068955 -0.17700382 0.74760014
-0.017805558 -0.1766313 0.74783343
-0.012822859 -0.17595811 0.74800003
-0.0075449529 -0.17638686 0.74739999
-0.002542177 -0.17646791 0.74757153
0.0028467858 -0.17652322 0.74737507
0.0078180963 -0.17627746 0.74633336
0.012982338 -0.17678116 0.74600005
0.017755648 -0.17643622 0.74571437
0.022758814 -0.17637548 0.74675006
0.02758643 -0.1770869 0.74750006
0.032742027 -0.17652321 0.74737507
0.037739366 -0.17659208 0.74766672
0.04168972 -0.17629199 0.74700004
-0.052239288 -0.17092596 0.74625003
-0.03121905 -0.17383334 0.74500006
-0.027671432 -0.17383334 0.74500006
-0.022704763 -0.17383334 0.74500006
-0.017188763 -0.17316858 0.74580008
-0.012788572 -0.17335716 0.74600011
-0.0078088897 -0.17320161 0.74533337
-0.0028383336 -0.17318216 0.74524999
0.0028380952 -0.17312384 0.745
0.0074500004 -0.17347857 0.74500006
0.012771429 -0.17383334 0.74500006
0.017738096 -0.17383334 0.74500006
0.022704765 -0.17383334 0.74500006
0.02795524 -0.17326573 0.74500006
0.032895345 -0.17299059 0.74544448
0.037672065 -0.17272414 0.74633342
0.042450134 -0.17258088 0.7462728
0.046180956 -0.1719362 0.74600005
-0.051445395 -0.16792414 0.74677789
-0.04900096 -0.16688606 0.74566674
0.03831429 -0.1695762 0.74500006
0.042571437 -0.16744761 0.74499995
0.046828575 -0.16744763 0.745
-0.050579052 -0.16384763 0.74800003
-0.048593652 -0.16213271 0.74666679
0.039058737 -0.16120479 0.74566674
0.042636674 -0.16201371 0.74612498
0.047156829 -0.1618453 0.74644452
0.050579052 -0.16028573 0.74800003
-0.048615556 -0.15864669 0.7470001
0.029090479 -0.15538572 0.74500006
0.032968305 -0.15611307 0.74557149
0.037522268 -0.15790941 0.74687511
0.041318096 -0.15886097 0.74800003
0.024382543 -0.15197271 0.74566674
0.027458003 -0.15250848 0.74690008
0.032287784 -0.15407732 0.74783337
-0.04684354 -0.14825144 0.74685711
-0.044740003 -0.14700286 0.74566674
0.01870127 -0.14605556 0.74566674
0.022986112 -0.14726771 0.74641675
0.026358098 -0.14888763 0.74800003
-0.046304766 -0.14461334 0.74800003
-0.043924648 -0.14190584 0.74687505
0.0081657153 -0.1409343 0.74550003
0.012855459 -0.14206117 0.74669242
0.017319685 -0.14353463 0.74733341
0.020659048 -0.14461334 0.74800003
-0.042296313 -0.13861156 0.74637502
-0.03831429 -0.13906667 0.74500006
0.0040266667 -0.13664763 0.74600005
0.0073499475 -0.13805303 0.74677783
0.010685715 -0.1389143 0.74800003
-0.0074500004 -0.13161668 0.74500006
-0.0028425397 -0.1322062 0.74633348
0.0018514286 -0.13399811 0.74760002
-0.036234289 -0.12646382 0.74600005
-0.03476667 -0.12558572 0.74500006
-0.01631905 -0.12558572 0.74500006
-0.01255016 -0.1266816 0.74588901
-0.0079520354 -0.12820192 0.74672735
-0.0049866671 -0.12894095 0.74800003
-0.036185715 -0.12345715 0.74500006
-0.034501527 -0.12196058 0.74540007
-0.021314288 -0.12078001 0.74600005
-0.017943176 -0.12244371 0.74700004
-0.012822858 -0.12466668 0.74800003
-0.0092609534 -0.12466668 0.74800003
-0.031976987 -0.11796334 0.74616671
-0.027726194 -0.11659541 0.74650002
-0.023268573 -0.11858151 0.74685729
-0.019234287 -0.11896763 0.74800003
-0.030632382 -0.11469334 0.74800003
-0.027782861 -0.11469334 0.74800003
-0.019362858 -0.19004287 0.75300002
-0.0078885723 -0.19004287 0.75300002
-0.026749209 -0.18605304 0.7523334
-0.022019643 -0.18671632 0.75187504
-0.017758202 -0.18674554 0.75255555
-0.013625715 -0.18574001 0.75300002
-0.0080934707 -0.18737921 0.75300002
0.032988571 -0.18574001 0.75300002
0.035857148 -0.18574001 0.75300002
-0.031190481 -0.18309526 0.75000012
-0.027177623 -0.18310143 0.75099999
-0.022156402 -0.18225165 0.75044453
-0.017171115 -0.18246716 0.75133336
-0.012394288 -0.18242723 0.75285727
-0.0072331605 -0.18265343 0.75263643
-0.0023286906 -0.18254109 0.75237501
0.0021500001 -0.18203382 0.75250006
0.0074048671 -0.18225928 0.75244451
0.012177039 -0.18265663 0.75211114
0.017481999 -0.18241574 0.75230008
0.021997552 -0.18222016 0.75200003
0.027203178 -0.18254957 0.75166667
0.032214288 -0.18254954 0.75166672
0.036449313 -0.18225123 0.75044447
-0.021428574 -0.17928572 0.75000006
-0.017163811 -0.17952478 0.75100005
-0.012564899 -0.1786743 0.75085717
-0.0071555562 -0.17912826 0.75133342
-0.002145397 -0.17960446 0.75133342
0.0021428573 -0.17928573 0.75000012
0.0071428572 -0.17928572 0.75000006
0.010714286 -0.17928572 0.75000006
0.017857146 -0.17928572 0.75000006
0.022142857 -0.17928573 0.75000012
0.02714286 -0.17928572 0.75000006
0.032142859 -0.17928573 0.75000012
0.037142858 -0.17928572 0.75000006
0.04071429 -0.17928572 0.75000006
-0.055146672 -0.16758859 0.75200003
-0.053571433 -0.16714287 0.75000006
-0.055220004 -0.1620743 0.75300002
-0.052484956 -0.16274361 0.75080007
-0.051941335 -0.15896839 0.75120008
0.038184002 -0.15573677 0.75080007
0.042230058 -0.15722837 0.75155556
0.047364514 -0.15754956 0.75126672
0.050748099 -0.1572462 0.75050008
0.029285716 -0.15142858 0.75000006
0.032371979 -0.15184954 0.75057155
0.03651987 -0.15313268 0.75185722
0.050849527 -0.15398096 0.75200003
-0.048766103 -0.14715545 0.75080007
0.022857144 -0.14500001 0.75000006
0.027390122 -0.1476887 0.75187504
0.03227143 -0.14988288 0.75300002
-0.046968576 -0.14328668 0.75100005
0.017871838 -0.14163838 0.75057149
0.021743812 -0.14312573 0.75266671
0.0078612706 -0.13577428 0.75033343
0.012286494 -0.13709569 0.75081825
0.016471334 -0.13820583 0.75189996
-0.0014285715 -0.1307143 0.75000006
0.0023526535 -0.13203457 0.75171435
0.0069672731 -0.13262427 0.75200003
0.011230478 -0.13356827 0.75266671
-0.0379581 -0.12676382 0.75200003
-0.0059596831 -0.1261197 0.75100011
-0.002624921 -0.12864654 0.75183338
-0.037255004 -0.1225093 0.75225002
-0.015965715 -0.12129779 0.75066674
-0.012678009 -0.12243438 0.75099999
-0.0082897963 -0.12271893 0.75228584
-0.03552286 -0.11896668 0.75100005
-0.033070859 -0.11638935 0.75160003
-0.025000002 -0.1157143 0.75000006
-0.022007622 -0.1164812 0.75150001
-0.016870342 -0.11871743 0.75157148
-0.012908572 -0.11976287 0.75300002
-0.03175889 -0.11294366 0.75216669
-0.027396366 -0.1125162 0.75163645
-0.023187621 -0.11354762 0.75300002
-0.030837145 -0.10972287 0.75300002
-0.027968572 -0.10972287 0.75300002
-0.0018023811 -0.1958681 0.75750005
-0.016545398 -0.19063178 0.75533342
-0.01222381 -0.19126669 0.75500005
-0.0066152378 -0.19212952 0.75500005
-0.0021610584 -0.19241038 0.75666666
0.0018769525 -0.1918823 0.75800002
0.0067859055 -0.19159354 0.75800002
0.012272383 -0.1920267 0.75800002
0.017181335 -0.19159354 0.75800002
0.022379048 -0.19130477 0.75800002
0.027432382 -0.19202667 0.75799996
0.032048166 -0.19239812 0.75742859
-0.015586669 -0.18871367 0.75533342
-0.012044048 -0.18785119 0.75500005
-0.0058961906 -0.18738382 0.75500005
-0.0021573547 -0.18772687 0.75522232
0.0021635981 -0.18819746 0.75711107
0.0072126999 -0.18825273 0.7573334
0.012248996 -0.1880596 0.75655556
0.01728167 -0.18794183 0.75608343
0.02232963 -0.18800393 0.75633335
0.027344685 -0.18781704 0.75558347
0.032157555 -0.18811813 0.75514293
0.035233337 -0.18767144 0.75500005
-0.011504762 -0.18479525 0.75500005
-0.006471429 -0.18479525 0.75500005
-0.00071904768 -0.18479525 0.75500005
0.0021571431 -0.18479525 0.75500005
0.006471429 -0.18479525 0.75500005
0.015819049 -0.18479525 0.75500005
0.023009526 -0.18479525 0.75500005
0.043861907 -0.15603334 0.75500005
0.045300003 -0.15603334 0.75500005
0.037983812 -0.15153304 0.75566673
0.042513099 -0.15275533 0.75658339
0.047550477 -0.15346017 0.75650012
-0.051142544 -0.14766319 0.75633335
-0.049712859 -0.14553478 0.75650001
0.028771669 -0.14673406 0.7552501
0.032288574 -0.14716253 0.75645459
0.037221909 -0.14816134 0.75739998
0.041148573 -0.1487124 0.75800002
-0.048848893 -0.14317779 0.75800008
0.02278032 -0.14123525 0.75533342
0.027240891 -0.14282808 0.75666684
0.031041907 -0.14293715 0.75800002
0.01848032 -0.13703907 0.75600004
0.022170002 -0.13788144 0.75699997
0.026421716 -0.13875011 0.75800002
-0.038828574 -0.13014762 0.75500005
0.0021571431 -0.13014762 0.75500005
0.0076243817 -0.13046972 0.75520009
0.012422501 -0.13214061 0.75612503
0.016232859 -0.13454621 0.75750005
-0.041148573 -0.12777716 0.75800008
-0.039547622 -0.12727144 0.75500005
-0.0016784128 -0.12684762 0.75533342
0.0021609527 -0.1274581 0.75611115
0.0069213333 -0.12789582 0.75699997
0.011309843 -0.1287397 0.75800008
-0.041672658 -0.12213852 0.75628579
-0.039068259 -0.12175874 0.75500005
-0.010785715 -0.12008096 0.75500005
-0.0063162972 -0.12162573 0.75566673
-0.0023060001 -0.12297686 0.75690001
0.0018047621 -0.12452857 0.75800002
-0.041501909 -0.1177889 0.75566673
-0.037632648 -0.117215 0.75590914
-0.01727262 -0.1166012 0.75575006
-0.012431906 -0.11765501 0.75674999
-0.0076926993 -0.11852827 0.7573334
-0.040985718 -0.11432858 0.75500005
-0.03672494 -0.1125291 0.75609094
-0.033220004 -0.11116476 0.75500005
-0.026604764 -0.11037382 0.75500005
-0.022008996 -0.11180773 0.75633335
-0.018020434 -0.11291274 0.75690913
-0.036512386 -0.10785525 0.75666666
-0.032251906 -0.10756501 0.75674999
-0.027700411 -0.1082245 0.75685716
-0.023341589 -0.10852636 0.75800008
-0.01949143 -0.10900763 0.75800002
0.018166669 -0.20128667 0.76300001
0.0018828573 -0.19678305 0.76020002
0.0077358736 -0.19698095 0.76133341
0.012331746 -0.19803463 0.76166672
0.017424762 -0.19820797 0.76233339
0.02231116 -0.19789106 0.76271433
0.027388833 -0.1980602 0.76227278
0.031164763 -0.19641049 0.76100004
0.0025333334 -0.19434287 0.76000005
0.0075483005 -0.19408438 0.76000011
0.012304763 -0.19470477 0.76000011
0.017484762 -0.19419417 0.76042867
0.022450751 -0.19378057 0.76042867
0.027504763 -0.19470477 0.76000005
0.047387432 -0.15085565 0.76080006
-0.052894861 -0.14650744 0.7608
0.034019049 -0.14548573 0.76000005
0.038197305 -0.14625636 0.76150006
0.042959262 -0.14789811 0.76166672
0.047032859 -0.14762773 0.7621001
0.050140005 -0.14678667 0.76300001
-0.051939767 -0.14328763 0.76275003
0.029676192 -0.14114286 0.76000005
0.033107836 -0.14201218 0.7612223
0.036560006 -0.14357463 0.7626667
0.019542858 -0.13535239 0.76000005
0.022800002 -0.13571429 0.76000005
0.027827904 -0.13710618 0.76090008
0.031676512 -0.13903397 0.76166672
-0.042105954 -0.1313974 0.76225001
-0.039137147 -0.13263144 0.76100004
0.013752382 -0.13100953 0.76000005
0.01734557 -0.13212536 0.76130766
0.022308573 -0.13294239 0.7617501
0.025895556 -0.13383144 0.76233339
-0.042817146 -0.12700191 0.76200002
0.0077244448 -0.12575653 0.76033342
0.012326396 -0.12729485 0.76128572
-0.0014476192 -0.1208762 0.76000005
0.0023533334 -0.12218262 0.76025009
0.0066966144 -0.12302148 0.76233339
-0.011942858 -0.11544763 0.76000005
-0.0069560963 -0.1163803 0.76090008
-0.0023202857 -0.11792182 0.76150006
0.002177143 -0.11901622 0.76200002
0.0050866669 -0.11990001 0.76300001
-0.015791431 -0.11198876 0.76060003
-0.012331112 -0.11243483 0.76166672
-0.0087200003 -0.11336 0.76300001
-0.035489999 -0.10574524 0.76050007
-0.034041431 -0.10574524 0.76050007
-0.02678651 -0.10642302 0.76016676
-0.02213873 -0.10666869 0.76077783
-0.01798743 -0.10763849 0.76160008
-0.013080001 -0.10972667 0.76300001
-0.035513334 -0.10364096 0.76100004
-0.032224905 -0.10371716 0.76157153
-0.027760869 -0.10359395 0.76163644
-0.022526667 -0.10355 0.76300001
0.018214287 -0.20181429 0.76500005
0.022877144 -0.20123143 0.76500005
0.026228573 -0.20181429 0.76500005
0.044442859 -0.14644286 0.76500005
0.037659686 -0.14164701 0.76533341
0.041956987 -0.14362413 0.76616669
0.047419053 -0.14444478 0.76600003
0.050337147 -0.14444476 0.76600003
0.029910479 -0.13569048 0.76600003
0.032356512 -0.13720922 0.76633334
0.037254289 -0.13952097 0.76700008
-0.043346863 -0.13382801 0.76620007
0.018942859 -0.13041429 0.76500005
0.022988334 -0.13099168 0.76625001
0.027752545 -0.13340366 0.76683331
-0.042985719 -0.12750001 0.76500005
0.013842858 -0.12677145 0.76500005
0.017154051 -0.12761295 0.76641667
0.021929048 -0.12937859 0.76750004
0.0085041281 -0.1212381 0.76533341
0.01228762 -0.12293248 0.76709098
0.015360001 -0.12361144 0.76800001
-0.001457143 -0.11584286 0.76500005
0.0018977143 -0.11689963 0.76620001
0.0062832385 -0.11848287 0.76700002
-0.010928572 -0.11001429 0.76500005
-0.0069592213 -0.11194763 0.76554543
-0.0026087079 -0.1134528 0.76714289
-0.015890857 -0.10686382 0.76540005
-0.012404869 -0.10726964 0.7662223
-0.0090168267 -0.10844794 0.7676667
-0.032848418 -0.10122557 0.7665
-0.027776193 -0.10087097 0.7675001
-0.022888575 -0.10177811 0.76700008
-0.017767938 -0.10345344 0.76677781
-0.013409525 -0.10410668 0.76800001
-0.050797146 -0.14061239 0.77300006
-0.049324766 -0.14061239 0.77300006
0.043147262 -0.14118847 0.77112502
0.04737974 -0.14213645 0.77214301
0.050797146 -0.14355715 0.77300006
-0.047439288 -0.13643119 0.77225006
-0.044358738 -0.13700065 0.77200007
0.034122385 -0.13685477 0.7705
0.037301905 -0.13762762 0.77175003
0.040490478 -0.13914001 0.77300006
-0.046956953 -0.13292114 0.77280003
-0.044733338 -0.13126667 0.77000004
0.027658731 -0.13119143 0.77100003
0.03235966 -0.13237804 0.77221447
0.036073335 -0.13472286 0.77300006
-0.046350002 -0.12801382 0.77250004
-0.044830166 -0.12860921 0.77166671
0.018700002 -0.12576666 0.77000004
0.022922287 -0.12738954 0.77139997
0.026579184 -0.12805893 0.77214295
0.030183811 -0.12883334 0.77300006
0.013933334 -0.12100001 0.77000004
0.017639717 -0.12273649 0.77169997
0.021349525 -0.1244162 0.77300006
0.0025690477 -0.11557477 0.7705
0.007593228 -0.11716086 0.77155554
0.012503811 -0.11859453 0.77225006
0.016196191 -0.11999906 0.77300006
-0.0051333336 -0.11073334 0.77000004
-0.001616762 -0.11178591 0.77120006
0.0016186668 -0.11313792 0.77240002
0.0051533338 -0.11410953 0.77300006
-0.0071001593 -0.10700619 0.7713334
-0.0025015241 -0.10904668 0.77260005
-0.022 -0.10046668 0.77000004
-0.018071432 -0.10123716 0.77140003
-0.012120715 -0.10356644 0.77125007
-0.0088280961 -0.10373572 0.77250004
-0.031407025 -0.09752275 0.77137494
-0.027156826 -0.097616516 0.77066666
-0.022768786 -0.097686678 0.77122223
-0.019377779 -0.098852083 0.77266669
-0.031615239 -0.094845727 0.77200001
-0.027239051 -0.09496858 0.77300012
-0.024294287 -0.09496858 0.77300006
-0.052540004 -0.14134 0.77700001
0.049240954 -0.1410581 0.77750003
0.051679052 -0.1411145 0.77740002
-0.051785 -0.13759501 0.77675003
-0.048566669 -0.13802384 0.77500004
0.038660638 -0.13567971 0.77566671
0.042315245 -0.13743576 0.77700013
0.046697062 -0.13793154 0.77827281
-0.051704574 -0.13289164 0.77780002
-0.04875683 -0.13223207 0.77566671
0.034690477 -0.13064286 0.77500004
0.037581194 -0.13272977 0.77750003
0.040804766 -0.13428476 0.77900004
-0.048124004 -0.12808363 0.77740002
0.028453812 -0.1263762 0.77600002
0.032560006 -0.12764749 0.77700013
0.036816828 -0.12922762 0.77833337
0.019190477 -0.12104763 0.77500004
0.022637336 -0.12280554 0.7768001
0.026887303 -0.12382478 0.77700007
0.008857144 -0.11588096 0.77500004
0.012564762 -0.11639953 0.77600002
0.017040318 -0.11779293 0.77788889
0.02003143 -0.11870477 0.77900004
0.0029600002 -0.11173746 0.77700007
0.0074095237 -0.11373525 0.778
0.012607621 -0.11420413 0.77866668
0.015580001 -0.11499525 0.77900004
-0.005166667 -0.10554763 0.77500004
-0.0022180956 -0.10696001 0.77633333
0.0011114287 -0.10884809 0.77750003
-0.015500001 -0.10185716 0.77500004
-0.012832699 -0.10142159 0.77733338
-0.0072611435 -0.10355716 0.77780002
-0.0037095239 -0.10460858 0.77900004
-0.022142859 -0.095214292 0.77500004
-0.017683379 -0.097431421 0.77663642
-0.031228004 -0.092793725 0.77700007
-0.027365187 -0.092444979 0.77655566
-0.023167755 -0.092989817 0.7775715
-0.018530479 -0.094141275 0.77833337
0.049318738 -0.1365543 0.78066671
0.052021906 -0.13748668 0.7803334
0.039421909 -0.13090953 0.78100002
0.042597756 -0.13239343 0.78218186
0.04711413 -0.13313667 0.78316677
0.050896384 -0.13328573 0.78360003
-0.051257145 -0.12851429 0.78000003
-0.046888098 -0.12689954 0.78150004
0.033428576 -0.12554286 0.78000009
0.038206428 -0.12728882 0.78275001
0.04156445 -0.12867557 0.7840001
0.04554667 -0.12917334 0.78400004
-0.046175241 -0.12288572 0.78200006
0.024081906 -0.12089843 0.78200006
0.027576329 -0.12148327 0.78257149
0.031835921 -0.12340001 0.78257149
0.035840005 -0.12469334 0.78400004
0.017828573 -0.11514287 0.78000003
0.022534363 -0.11736221 0.78261548
0.026631113 -0.11822224 0.7840001
0.0077493885 -0.111363 0.78028578
0.012634604 -0.11147588 0.7803334
0.017130371 -0.11245821 0.78200006
0.0208981 -0.1126981 0.78366673
-0.00074380956 -0.10562 0.78100002
0.0025663495 -0.10669462 0.78222227
0.0075276196 -0.10830061 0.78327274
0.012503096 -0.10841833 0.78375
0.016800001 -0.10938668 0.78400004
-0.011157144 -0.10115715 0.78100002
-0.0071928054 -0.10144846 0.78133339
-0.0024010586 -0.10258521 0.78244448
0.0018661906 -0.10334715 0.78350008
-0.015620002 -0.096694291 0.78100002
-0.012663282 -0.097589836 0.78222227
-0.0080266669 -0.098373339 0.78399998
-0.0037333337 -0.099306673 0.78400004
-0.030496191 -0.09074381 0.78100002
-0.021065399 -0.091200642 0.78066671
-0.017122963 -0.09207578 0.7817778
-0.013813334 -0.093706675 0.78400004
-0.031113906 -0.087983251 0.78160006
-0.027666327 -0.088000178 0.78127283
-0.022632955 -0.088304579 0.78180009
-0.018153019 -0.088280007 0.78333342
0.048657145 -0.13100001 0.78600001
0.050902858 -0.13100001 0.78600001
-0.051043652 -0.12685606 0.7881667
-0.048719049 -0.12591906 0.78700006
0.038925715 -0.12501144 0.78600001
0.043038312 -0.12678139 0.78666675
0.047059897 -0.12751874 0.78711116
0.050695878 -0.12911239 0.78666675
-0.051097147 -0.12398572 0.78900003
-0.048780955 -0.12382858 0.78800005
0.029194288 -0.12052001 0.78600001
0.032521524 -0.12124153 0.78680009
0.037258524 -0.12277472 0.78766668
0.042429052 -0.12353145 0.78850007
0.045837145 -0.12398572 0.78900003
0.028220952 -0.11712572 0.78666675
0.031797148 -0.11842477 0.78866673
0.023391429 -0.11200535 0.78720009
0.02727381 -0.11384556 0.7881667
0.0073360004 -0.10584801 0.78600001
0.013109049 -0.10599001 0.78650004
0.01744036 -0.10707774 0.78762507
0.021480191 -0.10830077 0.78860009
-0.00074857147 -0.10105715 0.78600001
0.0025481908 -0.10175886 0.78680009
0.0069233873 -0.10317693 0.78822231
0.012764128 -0.10436033 0.78833342
-0.011228573 -0.095068574 0.78600001
-0.0069332146 -0.096140839 0.78712511
-0.002249524 -0.098239735 0.78742862
0.0018783335 -0.099532627 0.78875005
-0.01572 -0.090577148 0.78600001
-0.012310206 -0.091960825 0.78685725
-0.0086383335 -0.0935231 0.78875005
-0.032188572 -0.086085722 0.78600001
-0.026200002 -0.086085722 0.78600001
-0.022483811 -0.086195245 0.78700006
-0.016948383 -0.087437533 0.78740001
-0.013071239 -0.088796206 0.78880006
-0.031270482 -0.08380191 0.78800005
-0.027760571 -0.082979433 0.78780001
-0.02312053 -0.083718635 0.78877783
-0.018785715 -0.084911436 0.78900003
0.048966669 -0.12656 0.79100001
0.050473336 -0.12656 0.79100001
-0.051226668 -0.12204 0.79100001
0.038420003 -0.12128668 0.79100007
0.042239048 -0.12143873 0.792
0.047580004 -0.1241108 0.7930001
0.032909848 -0.11631303 0.79133332
0.036771674 -0.11861025 0.79200006
0.040782861 -0.11857239 0.79300004
0.028285239 -0.11238763 0.792
0.032475241 -0.11404096 0.7930001
0.023142224 -0.10740541 0.79233336
0.0082902042 -0.10109048 0.79128575
0.012635001 -0.10201643 0.79200006
0.016971907 -0.10446811 0.792
0.020391431 -0.1049781 0.79300004
-0.0018833334 -0.096050009 0.79100001
0.0022632654 -0.097319335 0.79214299
0.0072287084 -0.098288856 0.7930001
-0.0069764289 -0.092210717 0.79200011
-0.0022631749 -0.093570165 0.79233336
0.0015104762 -0.094404764 0.79300004
-0.032393336 -0.085126676 0.79100001
-0.016335556 -0.085700646 0.79166669
-0.012822858 -0.086490482 0.79200006
-0.008906858 -0.088921718 0.7926001
-0.032056671 -0.082216196 0.79200006
-0.027873334 -0.080606669 0.79100001
-0.021854017 -0.081496745 0.79128569
-0.018102858 -0.082970485 0.79200006
-0.014349525 -0.083831437 0.79300004
-0.026913336 -0.078729853 0.79233336
-0.023790002 -0.078922391 0.79300004
0.044166669 -0.12089048 0.79500002
0.047528382 -0.1225402 0.79720008
0.050728574 -0.12492858 0.79500002
0.037502859 -0.11629429 0.79550004
0.042474408 -0.11755965 0.79637504
0.046360005 -0.11932001 0.79800004
0.02880762 -0.11068096 0.796
0.032639686 -0.11157853 0.79700005
0.037021786 -0.11334036 0.79737496
0.040280003 -0.11476 0.79800004
0.02347143 -0.10574763 0.79500002
0.027242225 -0.10736159 0.79700005
0.031160003 -0.10868001 0.79800004
0.014385715 -0.10070001 0.79500002
0.017643096 -0.10224857 0.79675001
0.021730861 -0.10348592 0.79780006
0.0037857145 -0.096157148 0.79500002
0.00833889 -0.096256994 0.79583335
0.012763551 -0.097341053 0.79681814
0.016460001 -0.099011749 0.79766673
-0.0053000003 -0.090100005 0.79500002
-0.0022714287 -0.090857148 0.79500002
0.0024265717 -0.09204258 0.79610008
0.0069669271 -0.093052998 0.7967273
0.011400001 -0.093480006 0.79800004
-0.034071431 -0.085557148 0.79500002
-0.011357144 -0.085557148 0.79500002
-0.0071281912 -0.087072194 0.79640001
-0.0024679764 -0.08752083 0.79737502
0.0019758097 -0.088289715 0.79780006
-0.035675239 -0.084254295 0.79700005
-0.033622541 -0.081654929 0.79633331
-0.016816573 -0.081963621 0.79540008
-0.012713334 -0.082545243 0.79699999
-0.0083582317 -0.083476335 0.79785717
-0.0038000003 -0.084360003 0.79800004
-0.031640321 -0.077960007 0.79733342
-0.027798962 -0.076636374 0.79672718
-0.021849718 -0.076926485 0.79659998
-0.017975081 -0.078736991 0.79750007
-0.014440001 -0.079800002 0.79800004
-0.027029525 -0.073055379 0.79785717
-0.022800002 -0.073720008 0.79800004
0.049015876 -0.1216508 0.80000007
0.052447621 -0.12262858 0.80100006
0.04345572 -0.11588144 0.80050004
0.048013017 -0.11729081 0.8023333
0.052161902 -0.11827192 0.80250001
0.037714288 -0.11085715 0.80000001
0.041820478 -0.11247002 0.80199999
0.045942858 -0.11409143 0.80400002
0.029714288 -0.10666667 0.80000001
0.032973811 -0.10730477 0.80050004
0.03724834 -0.10792072 0.80225003
0.040582858 -0.10949715 0.80400002
0.022716573 -0.10138325 0.80039996
0.026854375 -0.10290321 0.80145454
0.014476191 -0.095238104 0.80000001
0.01789291 -0.097090803 0.80133337
0.021730343 -0.098599471 0.80257154
-0.040481906 -0.090893336 0.80200005
-0.038238097 -0.091772385 0.80300003
0.0087680956 -0.091104291 0.80049998
0.012984763 -0.092419334 0.80200011
0.016080001 -0.094182864 0.80400002
-0.040940478 -0.088386193 0.80350006
-0.037459049 -0.087912388 0.80266672
-0.033862226 -0.088856518 0.80200005
-0.00076190481 -0.086095244 0.80000001
0.0026733335 -0.086691439 0.80200005
0.0076473816 -0.08868406 0.80274999
0.011485715 -0.089588575 0.80400002
-0.041429121 -0.083403006 0.80342859
-0.037409142 -0.082448766 0.8016001
-0.034285717 -0.080000006 0.80000001
-0.012190477 -0.080000006 0.80000001
-0.0070298412 -0.081229635 0.80044454
-0.0022903406 -0.083254158 0.80200011
0.00076571433 -0.084994294 0.80400002
-0.035988573 -0.077337146 0.80400002
-0.033761144 -0.076838486 0.80200005
-0.017029207 -0.076507941 0.80066669
-0.01316762 -0.077285722 0.80150008
-0.0081600007 -0.078292705 0.8033334
-0.031718574 -0.072988108 0.80250001
-0.027900575 -0.071197338 0.80039996
-0.021907486 -0.072047353 0.80114293
-0.018106669 -0.073191755 0.8033334
-0.014548573 -0.074274294 0.80400002
-0.027106289 -0.069373719 0.80400002
-0.022971429 -0.069680005 0.80400002
0.043808572 -0.11067334 0.80700004
0.047286056 -0.11182287 0.80672735
0.050898511 -0.11224056 0.80800003
0.033036195 -0.10525081 0.80666673
0.037674289 -0.10584953 0.80733341
0.04201556 -0.10811143 0.8070001
0.046171434 -0.10850286 0.80800003
0.029016003 -0.10147925 0.80600005
0.032846805 -0.10271292 0.80742866
0.036167622 -0.10388572 0.80800003
0.022644764 -0.096336193 0.80600005
0.026716907 -0.097830243 0.80725008
0.031037463 -0.098242551 0.80800003
0.014602859 -0.090690479 0.80700004
0.01749024 -0.092640251 0.80725008
0.021931428 -0.094266675 0.80800003
0.025394287 -0.094651438 0.80800003
-0.042986669 -0.087508582 0.80600005
0.0030752383 -0.085311435 0.80700004
0.007352653 -0.086143412 0.80657154
0.012610857 -0.087197922 0.80740005
0.016160002 -0.088495247 0.80800003
-0.04221905 -0.081367627 0.80600005
-0.039148573 -0.080600008 0.80600005
-0.001919524 -0.081033818 0.80650008
0.0019233334 -0.083441436 0.80750006
0.0069257147 -0.0838781 0.80800003
0.01000381 -0.0838781 0.80800003
-0.040683813 -0.079064764 0.80600005
-0.037920382 -0.078143619 0.80600005
-0.011514287 -0.07599429 0.80600005
-0.0071695237 -0.076568902 0.80666673
-0.0038476193 -0.078491434 0.80800003
-0.033546671 -0.072982863 0.80666673
-0.017366478 -0.071150862 0.80680007
-0.012632383 -0.073492259 0.80742866
-0.0076952381 -0.074643813 0.80800003
-0.031011431 -0.068429843 0.80733341
-0.027333882 -0.067291982 0.80685729
-0.022512382 -0.067754835 0.80714297
0.039342858 -0.10568572 0.81000006
0.042867623 -0.10620192 0.81099999
0.047377147 -0.10701144 0.81171435
0.051361591 -0.10814192 0.81300008
0.034313016 -0.10087302 0.81266677
0.037931051 -0.10217829 0.81280005
0.042104445 -0.10358065 0.8136667
0.028578097 -0.095774293 0.81100005
0.031746671 -0.097364292 0.81300008
0.01877143 -0.090771437 0.81000012
0.022585001 -0.091690719 0.81075001
0.026910478 -0.092590906 0.81244451
0.030234288 -0.093803816 0.81400001
0.014657144 -0.085628577 0.81000006
0.017799729 -0.087446541 0.81257147
0.022464765 -0.089079373 0.81333339
0.0026278098 -0.081737906 0.81120008
0.0069514289 -0.081871435 0.81100005
0.012374477 -0.082745142 0.8120001
0.016280001 -0.084500961 0.81400001
-0.037377782 -0.075528897 0.81200004
-0.0020093336 -0.077002488 0.8118
0.0018085715 -0.078783184 0.8136667
0.0065895244 -0.07946191 0.81400001
-0.03639143 -0.072781906 0.81300002
-0.03439286 -0.071488105 0.81150007
-0.016240001 -0.070373341 0.81200004
-0.011796905 -0.071360245 0.81225008
-0.0069621438 -0.072713576 0.81225002
-0.0033593653 -0.073130801 0.81400001
-0.032001909 -0.066938296 0.81160015
-0.027771432 -0.065571435 0.81000006
-0.021360001 -0.066139691 0.81066674
-0.017785398 -0.067278735 0.8120001
-0.013179048 -0.068110213 0.81400007
-0.030234288 -0.064344764 0.81400001
-0.026881669 -0.062851191 0.81225008
-0.022438519 -0.062672593 0.81244457
-0.018751239 -0.063072763 0.81360006
0.053039685 -0.10685556 0.81500006
0.055109527 -0.10789049 0.81500006
0.039585717 -0.10012858 0.81500006
0.043226033 -0.10120445 0.81533337
0.047273718 -0.10309716 0.81640005
0.052262861 -0.10312287 0.81659997
0.034540478 -0.096635722 0.81500006
0.038127515 -0.097260214 0.81700003
0.042017147 -0.098818101 0.81700003
0.028719049 -0.090814292 0.81500006
0.032097381 -0.092397392 0.81700003
0.035591431 -0.093783185 0.81833339
0.019404763 -0.086157151 0.81500006
0.02235643 -0.086507864 0.81650007
0.026725084 -0.088477463 0.8173334
0.030420002 -0.089700006 0.81900007
0.014265081 -0.080661282 0.81700009
0.017897461 -0.083514929 0.81700003
0.0028485716 -0.076386988 0.81566668
0.0071957149 -0.076811433 0.81675005
0.011851959 -0.078455344 0.81744444
-0.037257146 -0.072185718 0.81500006
-0.0062095243 -0.070633337 0.81500006
-0.0018114288 -0.071697161 0.81533337
0.001817778 -0.072911128 0.8173334
0.0070200004 -0.074100003 0.81900012
-0.011332382 -0.066597156 0.81500006
-0.0069939694 -0.067619368 0.81611115
-0.0029620954 -0.068450108 0.81860012
0.048478097 -0.10086572 0.82100004
0.051605716 -0.10086572 0.82100004
0.043289121 -0.097426265 0.8221429
0.047812384 -0.099543825 0.82300007
0.05173143 -0.099543817 0.82300001
0.037803382 -0.092193 0.82227278
0.042064451 -0.09431842 0.82300007
0.024239048 -0.085227624 0.82100004
0.027899683 -0.086304769 0.82133341
0.032110158 -0.087975353 0.8223334
0.018306097 -0.08120095 0.82139999
0.022482859 -0.082660548 0.8221429
0.027433336 -0.083867632 0.82300007
0.012986858 -0.076194488 0.82139999
0.017785987 -0.077963144 0.8221429
-0.038313337 -0.072717145 0.82100004
0.0033882544 -0.071674608 0.82100004
0.007043493 -0.071993023 0.82166672
0.011946429 -0.073436901 0.82249999
0.044785716 -0.095071435 0.82500005
0.047993973 -0.096771337 0.8261112
0.051677778 -0.097846672 0.8263334
0.038500004 -0.091928579 0.82500005
0.042287625 -0.091662869 0.82733339
0.046187147 -0.09355858 0.82900006
0.033 -0.085642859 0.82500005
0.036999892 -0.087377466 0.82655555
0.040265717 -0.089216195 0.82900006
0.02357143 -0.080928579 0.82500005
0.027534604 -0.081812382 0.82600009
0.032079052 -0.083177559 0.82728583
0.036054924 -0.08395271 0.82900012
0.018857144 -0.076214291 0.82500005
0.052234292 -0.096554294 0.83100003
0.047505081 -0.092106044 0.83133334
0.041629147 -0.088165149 0.83100003
0.045220003 -0.089646675 0.83300006
0.052609526 -0.095655248 0.83700001
