# .PCD v0.7 - Point Cloud Data file format
VERSION 0.7
FIELDS x y z
SIZE 4 4 4
TYPE F F F
COUNT 1 1 1
WIDTH 876
HEIGHT 1
VIEWPOINT 0 0 0 1 0 0 0
POINTS 876
DATA ascii
-0.067517966 -0.14683363 0.72871435
-0.06656 -0.14490667 0.72800004
0.01363143 -0.15623716 0.73400003
0.017476192 -0.15623716 0.73400003
0.020272382 -0.15588763 0.73400003
0.0040544765 -0.15309143 0.73400003
0.0080002127 -0.1526254 0.73400009
0.012394287 -0.15255578 0.73246169
0.017433444 -0.15272108 0.73222226
0.0222061 -0.15217945 0.73320013
-0.064745717 -0.1468962 0.73100001
0.012987429 -0.14873372 0.73320001
0.017449314 -0.14867051 0.73288888
0.020957619 -0.14809668 0.7335
-0.027448576 -0.16117239 0.73900002
-0.022088572 -0.16136669 0.73860008
-0.017813336 -0.16196541 0.73833334
-0.012809335 -0.16145392 0.73900002
-0.0077419053 -0.16117239 0.73900002
-0.0025806352 -0.16117239 0.73900002
0.0028152382 -0.16117239 0.73900002
0.0077419053 -0.16117239 0.73900002
0.013137779 -0.1616416 0.73900002
0.017595239 -0.16117239 0.73900002
0.020410478 -0.16117239 0.73900002
-0.065838292 -0.15624478 0.73700005
-0.06252604 -0.15666763 0.73766667
-0.0574941 -0.15645716 0.73799998
-0.052502621 -0.15645644 0.73750001
-0.047793653 -0.15673843 0.73800009
-0.042240094 -0.15662988 0.73809087
-0.0372454 -0.1571836 0.73788887
-0.032280374 -0.15794456 0.73807698
-0.027399048 -0.15807271 0.73766667
-0.022522787 -0.1577628 0.7372309
-0.01740667 -0.15764859 0.73700005
-0.012596639 -0.15748234 0.73753351
-0.0077261915 -0.15733477 0.73750007
-0.0029499049 -0.15745355 0.73740017
0.0028084922 -0.15801898 0.73741668
0.0077160853 -0.15783398 0.73655564
0.0120975 -0.15832108 0.73637503
0.017538095 -0.15868516 0.7366001
0.022751335 -0.1579944 0.73729998
-0.065910295 -0.15247944 0.73780006
-0.062506355 -0.15240477 0.73744446
-0.057654526 -0.15327406 0.73825002
-0.052724496 -0.15295009 0.73814285
-0.047746591 -0.15236422 0.73725009
-0.042295329 -0.1521478 0.73681825
-0.037305459 -0.15260121 0.73654556
-0.032322485 -0.15281886 0.73673356
-0.027365005 -0.15296264 0.73675007
-0.022400513 -0.15277739 0.73653352
-0.017657578 -0.15267248 0.73627281
-0.01268689 -0.15251313 0.73692322
-0.0077209533 -0.15231334 0.73700005
-0.0026450551 -0.15246513 0.73669243
0.00223039 -0.15250762 0.73609096
0.0067758737 -0.15210667 0.73600006
0.024533335 -0.15350859 0.73600006
0.02593524 -0.15280762 0.73600006
-0.065277144 -0.14950572 0.73700005
-0.063256189 -0.14970857 0.73800004
-0.046175562 -0.149307 0.7383334
-0.042171434 -0.14900477 0.73800004
-0.037057556 -0.14873213 0.73814285
-0.03211122 -0.14883779 0.73833334
-0.027285907 -0.14810096 0.73839998
-0.022492066 -0.1483016 0.73800009
-0.017881166 -0.14812286 0.73788893
-0.012664525 -0.14915691 0.73874998
-0.0077419062 -0.14890599 0.73900002
-0.0024343592 -0.14802353 0.73823088
0.0030090478 -0.1477707 0.73735732
0.0077225408 -0.14743111 0.73716676
0.012391112 -0.14611937 0.73644447
0.017535714 -0.14589667 0.73650014
0.022757143 -0.14693515 0.73627281
0.017595239 -0.14428096 0.73900002
0.021797143 -0.14415079 0.7383334
-0.036088575 -0.17053621 0.74300003
-0.033258099 -0.17053621 0.74300003
-0.065808579 -0.16699812 0.74300003
-0.062506355 -0.16676226 0.74300003
-0.057317149 -0.16629049 0.74300003
-0.050948575 -0.16629049 0.74300003
-0.047410481 -0.16699812 0.74300003
-0.042457148 -0.1674227 0.74300003
-0.037503812 -0.16770574 0.74300003
-0.032525163 -0.1675747 0.74241674
-0.027572382 -0.16755588 0.74233335
-0.022565892 -0.16747516 0.74254549
-0.018080682 -0.16737513 0.74242866
-0.013034967 -0.16683309 0.74271435
-0.0077838106 -0.16629049 0.74300003
-0.0028304763 -0.16629049 0.74300003
0.0031337417 -0.16689704 0.74300009
0.0075771441 -0.16720548 0.74257147
0.013013335 -0.16733316 0.74260008
0.017690478 -0.16730139 0.74300009
0.022630718 -0.16761217 0.74258339
0.026158415 -0.1675559 0.74233341
-0.066303052 -0.1624364 0.74220008
-0.062273338 -0.16310778 0.74238467
-0.057265718 -0.16331397 0.74233341
-0.052282065 -0.16320494 0.74183339
-0.04731831 -0.16314393 0.74155563
-0.042404212 -0.16325913 0.74208331
-0.037448153 -0.16321619 0.74188894
-0.032463495 -0.16302127 0.74099994
-0.027510479 -0.16365272 0.74066675
-0.022872929 -0.16373226 0.74057144
-0.017163811 -0.16388765 0.74066675
-0.012589117 -0.16366886 0.74028575
-0.007765715 -0.16380003 0.74133343
-0.0029024342 -0.16356488 0.74133337
0.0028228574 -0.16372667 0.74100006
0.0077628577 -0.16372669 0.74100006
0.012220636 -0.16381368 0.74033332
0.017631907 -0.16361573 0.74049997
0.022766756 -0.16308814 0.74072725
0.026076192 -0.16350478 0.74000001
-0.0663381 -0.1594905 0.74100006
-0.062723815 -0.15998097 0.74000001
-0.058025401 -0.15951112 0.74000001
-0.052575242 -0.15969907 0.74000001
-0.047219049 -0.15998098 0.74000001
-0.042144768 -0.15969907 0.74000001
-0.038057145 -0.15998097 0.74000001
0.021847621 -0.15998097 0.74000001
-0.066952385 -0.15293334 0.74000001
-0.060690477 -0.15031716 0.74100006
-0.057533067 -0.15103565 0.74057144
-0.05241048 -0.15065177 0.74033344
-0.048628576 -0.1501143 0.74000001
-0.065808579 -0.14789239 0.74300003
-0.062185716 -0.14839904 0.74199998
-0.057160608 -0.14730486 0.74263644
-0.052320119 -0.14705966 0.74237502
-0.04748641 -0.14682792 0.7421819
-0.042385958 -0.14622882 0.74175
-0.037865877 -0.14628398 0.7408334
-0.032721091 -0.14648981 0.74000007
-0.028190479 -0.14588572 0.74000001
-0.022552382 -0.14588572 0.74000001
-0.016589286 -0.14613071 0.74125004
-0.012690714 -0.14663976 0.74024999
-0.0077573336 -0.14652839 0.74040002
-0.0044711116 -0.14661843 0.74133343
0.0014095239 -0.14588572 0.74000001
-0.050240956 -0.14364667 0.74300003
-0.041041907 -0.14364667 0.74300003
-0.03708531 -0.14359091 0.74271435
-0.032521274 -0.14351717 0.74233335
-0.027434722 -0.14295508 0.742091
-0.022608414 -0.14341953 0.74183333
-0.018025478 -0.14314692 0.74225008
-0.012280607 -0.1435757 0.74263644
-0.0077809533 -0.14307882 0.74272728
-0.0031119999 -0.14385164 0.74260008
0.0030208661 -0.14366885 0.74245465
0.007901039 -0.14291957 0.74190903
0.012718751 -0.14273234 0.74193746
0.017654764 -0.14222448 0.74150002
0.021748217 -0.14233585 0.74262506
-0.046304766 -0.17595811 0.74800003
-0.04203048 -0.17595813 0.74800003
-0.037756197 -0.17595813 0.74800003
-0.034194291 -0.17595811 0.74800003
-0.022083811 -0.17595813 0.74800003
-0.018521905 -0.17595811 0.74800003
0.013122722 -0.17650153 0.74771434
0.017519811 -0.17648096 0.74780005
0.020659048 -0.17595811 0.74800003
-0.066251434 -0.17168382 0.74800003
-0.062245913 -0.17135334 0.74780005
-0.057683576 -0.17180499 0.7477501
-0.05264521 -0.17217913 0.74776936
-0.047701377 -0.17300637 0.74755561
-0.042667463 -0.1728013 0.74666679
-0.037833095 -0.17282453 0.74599999
-0.03264901 -0.17294495 0.74672735
-0.027749207 -0.17290436 0.7471112
-0.022752067 -0.17276239 0.74650002
-0.017941549 -0.17249775 0.74612504
-0.013052699 -0.17253166 0.74755567
-0.0078303711 -0.17250617 0.74744451
-0.0028470638 -0.17293599 0.74725008
0.0028453176 -0.17289804 0.74708337
0.0078249741 -0.17285292 0.74688894
0.012782857 -0.17256984 0.74566674
0.017764553 -0.17267272 0.74611121
0.022193545 -0.17240754 0.74633336
0.026358098 -0.17168382 0.74800003
-0.065985717 -0.1695762 0.74500006
-0.062580012 -0.1690086 0.74500006
-0.057471432 -0.16851193 0.74500006
-0.052626539 -0.16801892 0.74528581
-0.047538102 -0.16957621 0.74500006
-0.042571433 -0.1695762 0.74500006
-0.023414288 -0.1695762 0.74500006
-0.01631905 -0.16886668 0.74500006
-0.012345715 -0.16929238 0.74500006
-0.0075209527 -0.16872478 0.74500006
-0.0028380952 -0.16886666 0.745
0.0024123811 -0.16929239 0.74500006
0.008514287 -0.1695762 0.74500006
0.011352382 -0.1695762 0.74500006
0.017738096 -0.1695762 0.74500006
-0.066251434 -0.14746286 0.74800003
-0.062606916 -0.1465538 0.74700004
-0.058890481 -0.1454524 0.74500006
-0.061620958 -0.14425714 0.74800003
-0.057626355 -0.14299567 0.74700004
-0.052598581 -0.14251238 0.74633336
-0.047649764 -0.14223596 0.74675012
-0.042876944 -0.14193802 0.74678582
-0.037894018 -0.14111309 0.74671435
-0.032681908 -0.14067334 0.74600011
-0.028668258 -0.14049938 0.74633336
-0.02273524 -0.14067334 0.74600011
-0.017039526 -0.14128906 0.74550009
-0.01389728 -0.14130247 0.74557155
-0.0078047626 -0.14119525 0.74500006
-0.0021288437 -0.14145158 0.74528581
0.0024859526 -0.1409812 0.74575007
0.0063857147 -0.14119525 0.74500006
0.02412381 -0.14119525 0.74500006
-0.041318096 -0.1389143 0.74800003
-0.037756193 -0.13891432 0.74800003
-0.032342099 -0.13862935 0.74800009
-0.027548304 -0.13834722 0.74714291
-0.022780955 -0.13810904 0.74750006
-0.018188301 -0.13870044 0.74685729
-0.012093453 -0.13870418 0.74687499
-0.0078178579 -0.13787597 0.74625009
-0.0033972489 -0.13882309 0.74666679
0.0028447625 -0.13872762 0.74699998
0.0078230957 -0.13796853 0.74675006
0.012804464 -0.13800329 0.74693757
0.017783552 -0.13819206 0.74690926
0.022587813 -0.13794808 0.74586672
-0.060957149 -0.18000287 0.75300002
-0.057772007 -0.18105392 0.75260007
-0.052351438 -0.18143716 0.75300002
-0.04733143 -0.18143715 0.75300002
-0.04231143 -0.18143716 0.75300002
-0.038486671 -0.18191525 0.75300002
-0.02725143 -0.18000287 0.75300002
-0.02223143 -0.18000287 0.75300002
-0.018645715 -0.18000287 0.75300002
-0.0071714288 -0.18036143 0.75300002
-0.0021514287 -0.18143716 0.75300002
0.0021514287 -0.18143716 0.75300002
0.0071714288 -0.18143715 0.75300002
0.012188414 -0.18211412 0.75283337
0.016901227 -0.18201743 0.75285715
-0.06508667 -0.17594954 0.75100005
-0.062087856 -0.1766043 0.75150001
-0.057060707 -0.17719047 0.75080007
-0.052313525 -0.17766707 0.75040001
-0.048084527 -0.17821454 0.75075001
-0.043132704 -0.17849271 0.75066668
-0.037179288 -0.17875072 0.75075001
-0.031996433 -0.178215 0.75075001
-0.02714286 -0.17714286 0.75000006
-0.022142857 -0.17785716 0.75000012
-0.016918732 -0.17730097 0.75066674
-0.012444382 -0.17666495 0.75100005
-0.0071487622 -0.17728554 0.75060004
-0.0021447621 -0.1780165 0.75066668
0.0021447621 -0.17801651 0.75066674
0.0071492074 -0.17801651 0.75066674
0.011800953 -0.17916763 0.75100005
0.017608 -0.17938249 0.75160003
0.022381226 -0.17751594 0.75114292
0.026487304 -0.17682256 0.75166672
-0.065000005 -0.17357144 0.75000006
-0.06214286 -0.17357144 0.75000012
0.026857145 -0.17367621 0.75200003
-0.06595239 -0.14547621 0.75000012
-0.066636086 -0.14258423 0.75233334
-0.062384527 -0.14210549 0.75075006
-0.057142857 -0.14071429 0.75000006
-0.052857146 -0.14071429 0.75000006
-0.065977149 -0.13984287 0.75300002
-0.062364452 -0.13978097 0.75266671
-0.057020552 -0.13912205 0.75242865
-0.05227096 -0.13890907 0.75183338
-0.04753878 -0.1385271 0.75142866
-0.042992704 -0.13788034 0.75100005
-0.037229605 -0.13674504 0.75175011
-0.032401789 -0.13658893 0.75187504
-0.027212027 -0.13605276 0.75187504
-0.022172382 -0.1358943 0.75100005
-0.01709778 -0.13623324 0.75155556
-0.012707144 -0.13656643 0.75175011
-0.0067295241 -0.13557373 0.75160003
-0.0019664285 -0.13638501 0.75075001
0.002145 -0.13638501 0.75075001
0.006437778 -0.1358943 0.75100011
0.01217524 -0.13536 0.75200003
0.017312001 -0.13550173 0.75120002
0.022183493 -0.13524 0.75133342
0.025748571 -0.1358943 0.75100005
-0.021926859 -0.13342516 0.7524001
-0.018205525 -0.13346076 0.75260001
-0.010757144 -0.13410573 0.75300002
-0.0054980959 -0.13362764 0.75300002
-0.0021514287 -0.13338858 0.75300002
0.002151429 -0.13338858 0.75300002
0.0071675 -0.13332179 0.75262499
0.012183335 -0.13329953 0.75250006
0.01768524 -0.13359794 0.75283337
0.022226829 -0.1333589 0.75283337
0.025817147 -0.13267145 0.75300002
-0.051255241 -0.19130477 0.75800002
-0.047645718 -0.19130477 0.75800002
-0.041148573 -0.19202667 0.75800002
-0.03753905 -0.19130477 0.75800002
-0.032457143 -0.19113652 0.7573334
-0.027072111 -0.19156139 0.75657147
-0.022349527 -0.1917724 0.75699997
-0.018017527 -0.19157791 0.7568
-0.012262858 -0.19113652 0.7573334
-0.0079409536 -0.19130477 0.75800008
0.0036095241 -0.19130477 0.75800002
0.0072190482 -0.19130477 0.75800002
0.012994287 -0.19130477 0.75800002
0.015160001 -0.19130477 0.75800002
-0.061907053 -0.18658666 0.75760001
-0.057726312 -0.18693103 0.75692314
-0.052491955 -0.18723033 0.75690913
-0.047771025 -0.18768725 0.75671446
-0.042517889 -0.18808658 0.75666666
-0.037459925 -0.18802468 0.75641668
-0.032256003 -0.18763201 0.75600004
-0.027413214 -0.18737741 0.75613356
-0.022344604 -0.18740779 0.75683343
-0.017347939 -0.18728751 0.75693351
-0.012252065 -0.1873651 0.75666666
-0.0072069056 -0.18738741 0.75675005
-0.0021628572 -0.18744956 0.75700009
0.0021631171 -0.18766859 0.75709087
0.0070383884 -0.1878141 0.75646168
0.012247196 -0.18803135 0.75644445
0.017287303 -0.18800321 0.75633335
0.022476193 -0.1877322 0.75640005
0.025657145 -0.18679558 0.75533342
-0.065693341 -0.18119811 0.75800002
-0.062852032 -0.18243107 0.75637501
-0.057523813 -0.18335715 0.75500005
-0.052490484 -0.18335716 0.75500005
-0.046977784 -0.1838365 0.75500005
-0.042423815 -0.18407619 0.75500005
-0.036991008 -0.18367673 0.75500005
-0.032536905 -0.1831774 0.75500005
-0.027243916 -0.18287778 0.75500005
-0.022290481 -0.18263809 0.75500005
-0.01698724 -0.18240058 0.75580007
-0.012234603 -0.18208033 0.75566667
-0.00750313 -0.18284492 0.75542867
-0.0021571431 -0.18335716 0.75500005
0.0021571431 -0.18371668 0.75500005
0.0074986406 -0.18397349 0.75500005
0.01222381 -0.18479525 0.75500005
0.017688572 -0.18450764 0.75500005
0.022296766 -0.18268612 0.75520009
0.026613574 -0.18269835 0.7552501
-0.065693341 -0.1797543 0.75800002
-0.063995242 -0.17904288 0.75500005
-0.069388106 -0.14129287 0.75500005
-0.067257054 -0.13768087 0.75610006
-0.062603392 -0.13743854 0.75555563
-0.057789002 -0.13691874 0.75533342
-0.052502386 -0.13664907 0.75516671
-0.047765311 -0.13651635 0.75500005
-0.042423815 -0.13590001 0.75500005
-0.062805727 -0.13499621 0.75800008
-0.05719588 -0.13433683 0.75699997
-0.052629527 -0.13409619 0.75700009
-0.047582861 -0.13409619 0.75700003
-0.042499371 -0.13397874 0.75633335
-0.037295621 -0.13348649 0.75600004
-0.032277051 -0.13299762 0.75650001
-0.027362801 -0.13248911 0.75606263
-0.022513065 -0.13127361 0.75557154
-0.016821127 -0.13175881 0.7560001
-0.012364849 -0.13221923 0.75563639
-0.0075823455 -0.13199744 0.75546163
-0.0021585715 -0.13095286 0.75550008
0.0021585717 -0.13095286 0.75550008
0.0071952385 -0.13095286 0.75550008
0.012231905 -0.13095286 0.75550008
0.01697867 -0.13136706 0.75540012
0.022300001 -0.13092414 0.75533342
0.025885716 -0.13014762 0.75500005
-0.025266668 -0.12922096 0.75800002
-0.022379048 -0.12922096 0.75800008
-0.018038098 -0.12857525 0.75760001
-0.012272382 -0.12922096 0.75800008
-0.0064971428 -0.12922096 0.75800002
-0.0014438096 -0.12922096 0.75800002
0.0021657145 -0.12922096 0.75800008
0.007700318 -0.1287397 0.75800002
0.012272382 -0.12864344 0.75800002
0.017748574 -0.12886402 0.75760001
0.02234512 -0.12776633 0.75687504
0.026248984 -0.12732844 0.75657153
0.023822859 -0.12488953 0.75800002
0.026978096 -0.12291373 0.75739998
0.027673017 -0.11863302 0.75800008
-0.060076196 -0.19036192 0.76000005
-0.056710638 -0.19161066 0.76016676
-0.053320639 -0.19229208 0.76000011
-0.047771435 -0.19325715 0.76000005
-0.042994287 -0.19296764 0.76000005
-0.038120639 -0.1937397 0.76000011
-0.03329524 -0.19325715 0.76000005
-0.01664762 -0.19108573 0.76000005
-0.0050666672 -0.19180954 0.76000005
-0.0021714289 -0.19180954 0.76000011
0.0014476192 -0.19180954 0.76000005
0.010857143 -0.19180954 0.76000005
-0.065866672 -0.18312383 0.76000005
-0.067373976 -0.13547114 0.76066673
-0.067259327 -0.13316926 0.76171434
-0.062356826 -0.13268763 0.76133341
-0.057587095 -0.13168256 0.7611112
-0.052861586 -0.1317908 0.76033342
-0.047771428 -0.13173334 0.76000011
-0.042704768 -0.13173334 0.76000011
-0.037888099 -0.13152081 0.76016676
-0.03329524 -0.13100953 0.76000005
-0.055880003 -0.1291762 0.76200002
-0.052178308 -0.12895294 0.76211119
-0.047192063 -0.12850638 0.76233339
-0.042694289 -0.12822706 0.76240009
-0.037743695 -0.12774488 0.76212513
-0.032636195 -0.12763985 0.76150006
-0.027675876 -0.12736732 0.76073337
-0.022457778 -0.12677714 0.76066679
-0.017073164 -0.12689222 0.76136369
-0.01232635 -0.12688701 0.76133341
-0.0074187554 -0.12745304 0.76138473
-0.0023216193 -0.12727174 0.76190007
0.00217418 -0.12685038 0.7611112
0.0069523822 -0.12644307 0.76040012
0.012311702 -0.1263237 0.76042867
0.017200261 -0.12673032 0.76118195
0.021964764 -0.12575653 0.76033342
-0.032700002 -0.12426001 0.76300001
-0.028097782 -0.12377556 0.76300001
-0.022526667 -0.12426001 0.76300001
-0.018651113 -0.12377556 0.76300001
0.0021800003 -0.12426001 0.76300001
0.0072666677 -0.12426001 0.76300001
0.011626668 -0.12426001 0.76300001
0.023206193 -0.12401572 0.7615
0.025366668 -0.11958572 0.76100004
-0.068191819 -0.13127145 0.76660007
-0.062657148 -0.13041429 0.76500005
-0.066458575 -0.12853542 0.76683342
-0.061927766 -0.12834573 0.76757151
-0.057852861 -0.12756597 0.7665
-0.052623816 -0.12614799 0.76645464
-0.047357142 -0.12604287 0.76500005
-0.043714289 -0.12604287 0.76500005
-0.0065571433 -0.12604287 0.76500005
-0.047511905 -0.12426144 0.76750004
-0.042355239 -0.12413977 0.76675004
-0.037023336 -0.12347025 0.76600003
-0.032822385 -0.12253255 0.76583338
-0.027228415 -0.12228969 0.76583338
-0.022615239 -0.12255906 0.76600003
-0.017029367 -0.12236827 0.76633346
-0.012407303 -0.12261065 0.76633334
-0.0073035117 -0.12268758 0.76681262
-0.0021883333 -0.12251818 0.76575005
0.0021876192 -0.12177621 0.76566666
0.0072951592 -0.12181579 0.76591671
0.012555716 -0.12219973 0.7665
0.017520776 -0.12264756 0.76656246
0.022468954 -0.12212076 0.76599997
0.025533335 -0.12255906 0.76600003
0.024137145 -0.11849144 0.76800001
0.026331432 -0.11849144 0.76800001
-0.066790476 -0.12624191 0.77066672
-0.062692195 -0.12611698 0.77080005
-0.057933342 -0.12540001 0.7700001
-0.066404395 -0.12294382 0.77300006
-0.062549844 -0.12436255 0.77266669
-0.056858733 -0.12376445 0.77200001
-0.05214588 -0.12338557 0.77116674
-0.047446478 -0.12206858 0.77120006
-0.042616196 -0.12196904 0.77150011
-0.037875954 -0.12172025 0.77225006
-0.032321669 -0.12119643 0.77125001
-0.027203811 -0.1213143 0.77200001
-0.022751749 -0.12110478 0.77066672
-0.019851429 -0.12131429 0.77200001
-0.065520957 -0.11999906 0.77300006
-0.040490478 -0.11999906 0.77300006
-0.031656191 -0.11999907 0.77300012
-0.026944572 -0.11941011 0.77300006
-0.022806508 -0.11918557 0.77250004
-0.017333742 -0.11923525 0.77214295
-0.012507143 -0.11918525 0.77250004
-0.0071105827 -0.1189144 0.77233332
-0.0022061907 -0.11855619 0.77200001
0.0022037039 -0.11825261 0.77122229
0.0073492071 -0.11832032 0.77166677
0.012498017 -0.11762374 0.77191663
0.017788002 -0.11775295 0.77180004
0.022471525 -0.11720563 0.77109998
0.0264 -0.11586668 0.77000004
0.027133334 -0.11366668 0.77000004
-0.06569048 -0.12326191 0.77500004
-0.062773652 -0.12185472 0.77544451
-0.057955813 -0.12167753 0.7762
-0.052472383 -0.12120287 0.77600002
-0.047680955 -0.12060477 0.77500004
-0.042809527 -0.12030953 0.77500004
-0.037642859 -0.12030953 0.77500004
-0.034690477 -0.12030953 0.77500004
-0.065944761 -0.11855143 0.778
-0.062568575 -0.11846737 0.77814299
-0.057508171 -0.11872314 0.77842867
-0.052439053 -0.11803334 0.7782501
-0.047320958 -0.11755781 0.77633345
-0.042107623 -0.11745683 0.77566671
-0.03769641 -0.11752413 0.77611113
-0.032525241 -0.11753257 0.7761668
-0.027531024 -0.11697811 0.77528578
-0.022880955 -0.11661905 0.77500004
-0.017970478 -0.11693154 0.77544451
-0.012563812 -0.11676858 0.77600002
-0.0077081635 -0.1166845 0.7761429
-0.0022185715 -0.11647429 0.77649999
0.002214286 -0.11588096 0.77500004
0.0073809531 -0.11588096 0.77500004
0.015500001 -0.11588096 0.77500004
-0.046740007 -0.11499526 0.77900004
-0.041891433 -0.11455049 0.77850002
-0.037820321 -0.11420414 0.77866668
-0.032396801 -0.11348633 0.7779091
-0.027246097 -0.11298116 0.77739996
-0.022820525 -0.11289377 0.77754551
-0.017861271 -0.11384287 0.77788895
-0.012612383 -0.11425334 0.77900004
-0.0076213861 -0.11364633 0.7790001
-0.0022244446 -0.11344584 0.77855569
0.0022228574 -0.11410572 0.77800006
0.0078842426 -0.11326918 0.77827281
0.012588732 -0.11255064 0.77750009
0.017492237 -0.11298849 0.77776933
0.022554558 -0.11245321 0.77828586
0.025966669 -0.11276953 0.77900004
0.025966669 -0.10906 0.77900004
-0.062560953 -0.11618239 0.78200006
-0.057249531 -0.11598414 0.78066671
-0.053114291 -0.11551429 0.78000003
-0.049771432 -0.11514287 0.78000003
-0.062208004 -0.11382476 0.78320009
-0.05742 -0.11334762 0.78299999
-0.05250939 -0.11322069 0.78285718
-0.047136672 -0.11308857 0.78250003
-0.042624526 -0.11223499 0.78175002
-0.037901275 -0.11147588 0.7803334
-0.033131432 -0.11098286 0.78000003
-0.028228574 -0.11068572 0.78000003
-0.02154286 -0.11068573 0.78000009
-0.016796574 -0.11133677 0.78040004
-0.012640002 -0.11152317 0.78066671
-0.0069828578 -0.11098286 0.78000003
-0.0022304766 -0.11078032 0.78066671
0.0022314289 -0.11157049 0.78100008
0.0063912384 -0.11163391 0.78040004
0.017085716 -0.11068572 0.78000003
-0.041066669 -0.10901334 0.78400004
-0.037069615 -0.10822529 0.78272736
-0.031908195 -0.10780115 0.78280002
-0.027588228 -0.10757196 0.78290915
-0.022154016 -0.1076811 0.78285712
-0.017453715 -0.10770744 0.78320003
-0.012683176 -0.10892001 0.78333342
-0.0075291013 -0.1084853 0.78200006
-0.0026090478 -0.10917667 0.78250003
0.0022400001 -0.10976001 0.7840001
0.0077866674 -0.10912001 0.78400004
0.012678942 -0.10814265 0.78311116
0.017141128 -0.10752105 0.78254557
0.022335716 -0.10720883 0.78175002
0.026066668 -0.10650097 0.78200006
0.024640001 -0.10378668 0.78400004
0.026133334 -0.10378668 0.78400004
-0.062418334 -0.11152644 0.78725004
-0.057725877 -0.11095192 0.78716677
-0.05249881 -0.11099905 0.78750002
-0.047568575 -0.11089163 0.78780001
-0.043417145 -0.11004001 0.78600001
-0.065374292 -0.10895715 0.78900003
-0.062368579 -0.10895716 0.78900003
-0.057860002 -0.10895716 0.78900003
-0.052600004 -0.10895715 0.78900003
-0.04733032 -0.1081827 0.78883338
-0.042978577 -0.10716334 0.78825003
-0.037917335 -0.10595544 0.78680009
-0.032937147 -0.10554858 0.78600001
-0.027697144 -0.10554858 0.78600001
-0.023954287 -0.10554858 0.78600001
-0.01572 -0.10629715 0.78600001
-0.012725716 -0.10629715 0.78600001
-0.007381225 -0.10622858 0.78628582
-0.0020590478 -0.1069262 0.7865001
0.002249524 -0.10722604 0.78733337
0.0072419057 -0.1066362 0.78666675
0.012725716 -0.10554858 0.78600001
0.017217144 -0.10554858 0.78600001
-0.035317145 -0.10444858 0.78900003
-0.031560004 -0.10444858 0.78900003
-0.027778734 -0.10436033 0.78833342
-0.02268724 -0.10412153 0.78880006
-0.017253019 -0.10427207 0.78766674
-0.012774287 -0.10444858 0.78900003
0.0077584134 -0.10385936 0.78833342
0.012758097 -0.10281334 0.78800011
0.016857859 -0.103775 0.78675002
0.022511905 -0.10280049 0.78790009
0.026283335 -0.10212906 0.78850007
-0.062578097 -0.10781747 0.79166669
-0.05800667 -0.10772668 0.79100007
-0.052448574 -0.10715771 0.79157144
-0.047460001 -0.10622001 0.79100007
-0.050600957 -0.1049781 0.79300004
-0.047580004 -0.10497811 0.7930001
-0.042796832 -0.1044746 0.7930001
-0.037270669 -0.10396592 0.79220003
-0.032446668 -0.10388287 0.79233336
-0.027907621 -0.10295953 0.79200006
-0.022614764 -0.10289429 0.79150003
-0.01733762 -0.10289429 0.79150003
-0.012839048 -0.10346763 0.7930001
-0.0077594565 -0.10292315 0.79214299
-0.0020472109 -0.103749 0.79185718
0.002261905 -0.10386153 0.79139996
0.007625503 -0.10164562 0.79188901
0.012806668 -0.10019334 0.79100007
0.017526429 -0.101575 0.79149997
0.022158287 -0.10054534 0.79140007
0.026366668 -0.10019334 0.79100001
-0.0098180957 -0.0989362 0.79300004
0.0090628583 -0.0989362 0.79300004
0.012536953 -0.09833201 0.79300004
0.017370477 -0.0989362 0.7930001
0.023110287 -0.09833201 0.79300004
0.027188573 -0.0989362 0.79300004
-0.066120006 -0.10640001 0.79800004
-0.062623404 -0.10625307 0.79771435
-0.057301097 -0.10626002 0.79614288
-0.053000003 -0.10524286 0.79500002
-0.060800005 -0.10412001 0.79800004
-0.057000004 -0.10412001 0.79800004
-0.0521947 -0.10297838 0.79757148
-0.047793549 -0.1024126 0.79655552
-0.042150285 -0.10203848 0.79600006
-0.037146673 -0.10158381 0.796
-0.032808576 -0.10189021 0.79585719
-0.028027622 -0.10135639 0.79540008
-0.022613471 -0.10138518 0.79528582
-0.017422287 -0.10135639 0.79540008
-0.012877462 -0.10149938 0.79533339
-0.0060571432 -0.10070001 0.79500002
-0.0025777144 -0.10145772 0.7962001
0.0022738778 -0.10210654 0.79585725
0.0053000003 -0.10070001 0.79500002
-0.047576003 -0.09895201 0.79800004
-0.041792795 -0.098673619 0.79785717
-0.037437148 -0.098420829 0.79757148
-0.032515716 -0.097698577 0.79769999
-0.027171647 -0.09775833 0.79761547
-0.022026192 -0.097218111 0.79750001
-0.017772859 -0.097522005 0.79749995
-0.012718572 -0.098136671 0.79725003
-0.0074143596 -0.097322211 0.7969231
-0.0022791538 -0.098012276 0.79777777
0.0022792066 -0.098779216 0.79783338
0.0077387625 -0.097423919 0.7967
0.01288 -0.096228577 0.79560006
0.017632144 -0.09649621 0.79624999
0.021766532 -0.096926816 0.79600006
0.026815429 -0.09681125 0.79540008
-0.017480001 -0.093480006 0.79800004
0.013921905 -0.094413981 0.79733342
0.016460001 -0.093946993 0.79766673
0.022537146 -0.093693659 0.79766673
0.027176924 -0.092867918 0.79776931
-0.066691436 -0.10209411 0.80120003
-0.062804908 -0.10194803 0.80142868
-0.057254393 -0.10152868 0.80155557
-0.053632386 -0.10090858 0.80066669
-0.05742858 -0.09877716 0.80400008
-0.052407619 -0.098101169 0.80266666
-0.047623709 -0.096519798 0.80222225
-0.0428215 -0.096646808 0.80085725
-0.037028577 -0.095847622 0.80000001
-0.033523813 -0.095238104 0.80000001
-0.028190479 -0.095238112 0.80000007
-0.016000001 -0.096000008 0.80000001
-0.013333335 -0.09561906 0.80000001
-0.0076190485 -0.095238104 0.80000001
-0.0022857145 -0.095238112 0.80000007
0.0022857145 -0.096000008 0.80000007
0.0064761909 -0.09561906 0.80000001
-0.045942858 -0.094182864 0.80400002
-0.042114288 -0.093417153 0.80400002
-0.037488889 -0.092573337 0.80333328
-0.033086434 -0.092755012 0.80325001
-0.027314464 -0.09264227 0.80272728
-0.022139046 -0.092367627 0.80155563
-0.017778507 -0.09238749 0.8017143
-0.012988784 -0.09244445 0.80222225
-0.0076366677 -0.09239921 0.80183339
-0.0022905821 -0.092368044 0.80155557
0.0022905821 -0.092368886 0.80155557
0.0076307948 -0.092343174 0.80133337
0.012785714 -0.092170954 0.80150002
0.017760273 -0.091852255 0.80085719
0.021800764 -0.091321535 0.80039996
0.02514286 -0.090666674 0.80000001
-0.021440001 -0.089588575 0.80400002
-0.018377144 -0.089588575 0.80400002
-0.0053600003 -0.089588575 0.80400002
-0.0019138097 -0.089150004 0.80350006
0.0019893334 -0.088886857 0.80320007
0.0079123825 -0.089588575 0.80400008
0.014548573 -0.089588575 0.80400002
0.017611429 -0.089588575 0.80400008
0.022186033 -0.0895143 0.8033334
0.026688892 -0.088453978 0.80066669
-0.068318099 -0.10362858 0.80600005
-0.06581334 -0.09859176 0.80666673
-0.062229212 -0.098335885 0.80666679
-0.057595879 -0.096759699 0.80633348
-0.053733338 -0.095952384 0.80600005
-0.057714291 -0.094651438 0.80800003
-0.052620418 -0.093485191 0.80742866
-0.047374394 -0.09261588 0.80666673
-0.042271432 -0.090690486 0.8070001
-0.03151143 -0.090690479 0.80700004
-0.029937144 -0.091346674 0.80600005
-0.016120002 -0.091346674 0.80600005
-0.03761334 -0.089811437 0.80600011
-0.03377524 -0.089811437 0.80600005
-0.027634287 -0.089811437 0.80600005
-0.022686193 -0.088824295 0.8075
-0.017304286 -0.088824295 0.80750006
-0.0126283 -0.089059331 0.80714297
-0.0076796832 -0.089080326 0.80633342
-0.0023034923 -0.087836199 0.80666673
0.0026909525 -0.087286197 0.80750006
0.0072988095 -0.087973103 0.80675006
0.012472822 -0.087193422 0.80692309
0.017460411 -0.087302059 0.80714291
0.022283051 -0.0877482 0.80680007
0.026099049 -0.086740956 0.80600005
-0.065571435 -0.096428581 0.81000006
-0.062485717 -0.096428588 0.81000012
-0.065625399 -0.093418419 0.81066674
-0.062601432 -0.092739522 0.81150019
-0.057929337 -0.092220381 0.81099999
-0.052807078 -0.090950206 0.81028575
-0.048085719 -0.090771429 0.81000012
-0.06279429 -0.089152388 0.81400001
-0.056902479 -0.088842295 0.81400007
-0.051877141 -0.088267624 0.81300008
-0.047023572 -0.087659769 0.8127501
-0.042556189 -0.087432809 0.81244451
-0.037904132 -0.087408468 0.8122223
-0.032480322 -0.087384775 0.81200004
-0.027037464 -0.087289743 0.81111109
-0.022399049 -0.086505726 0.81100005
-0.01777143 -0.08654096 0.81133336
-0.01237024 -0.086585961 0.81175005
-0.0069514299 -0.086505726 0.81100005
-0.0026262861 -0.086372584 0.81119996
0.0023142858 -0.085628584 0.81000012
0.006942858 -0.085628584 0.81000012
0.018514287 -0.085628577 0.81000006
0.022412859 -0.086172864 0.81150007
0.026293335 -0.085840009 0.81200004
-0.032560002 -0.084500961 0.81400001
-0.026823241 -0.083880775 0.81400007
-0.022481907 -0.083725721 0.81400007
-0.018605715 -0.083725721 0.81400001
-0.011628572 -0.084500961 0.81400001
-0.0069771437 -0.084500961 0.81400001
-0.0019380953 -0.084113345 0.81400001
0.0023228575 -0.083621912 0.81300008
0.0069625401 -0.082790695 0.81244451
0.012357461 -0.082643494 0.81100023
0.017578779 -0.083245724 0.81257159
0.022481909 -0.083725721 0.81400007
0.026358096 -0.083725721 0.81400001
0.0085276198 -0.079849526 0.81400001
-0.061727624 -0.086366042 0.81700009
-0.057577908 -0.086366288 0.81700003
-0.052523337 -0.085978575 0.81700003
-0.048900004 -0.086157151 0.81500006
-0.056160003 -0.083460003 0.81900007
-0.051897716 -0.084000967 0.81820011
-0.047541276 -0.083390795 0.81833345
-0.04283921 -0.082559854 0.81783342
-0.037708439 -0.082310759 0.81757158
-0.032189336 -0.081793718 0.81640005
-0.027447622 -0.081306666 0.81566668
-0.02284286 -0.080957532 0.81580001
-0.017495714 -0.081648581 0.81650001
-0.012495176 -0.08227893 0.8166002
-0.0069914288 -0.081565402 0.81566674
-0.0025278574 -0.081453577 0.81650001
0.0023314287 -0.080821916 0.8160001
0.018903177 -0.081047952 0.81566668
0.022537146 -0.080821916 0.81599998
0.026882097 -0.080957532 0.81580001
-0.036660001 -0.07878001 0.81900012
-0.031980004 -0.07878001 0.81900012
-0.02726667 -0.079071902 0.81800002
-0.022204287 -0.079071902 0.81800002
-0.018720001 -0.078780003 0.81900007
-0.0070199999 -0.078390002 0.81900007
-0.0023400001 -0.078780003 0.81900007
0.0023400001 -0.07878001 0.81900012
0.0070058508 -0.078612939 0.81728578
0.012445002 -0.079339765 0.81675011
0.01770762 -0.078414768 0.81725001
0.022188572 -0.078245714 0.8175
0.025740001 -0.078780003 0.81900007
-0.063334286 -0.085227624 0.82100004
-0.061631434 -0.082369529 0.82175004
-0.05736205 -0.08173728 0.82185721
-0.052409526 -0.081350796 0.82133335
-0.047696196 -0.080536202 0.82100004
-0.05565048 -0.079164766 0.82300001
-0.050947621 -0.079164766 0.82300001
-0.047453146 -0.078460775 0.8222
-0.042848576 -0.077673815 0.82175004
-0.0378327 -0.076969422 0.82188892
-0.032058097 -0.076626673 0.82100004
-0.027400002 -0.076719061 0.82200003
-0.022702858 -0.076719061 0.82200003
-0.017784899 -0.077067904 0.8221429
-0.012523653 -0.077485874 0.82183337
-0.0070371437 -0.076470293 0.82100004
-0.002346803 -0.077014565 0.82157153
0.0023488891 -0.076688901 0.82166672
0.0066461908 -0.076235719 0.82100004
0.01251762 -0.076672859 0.82150006
0.017983813 -0.075844765 0.82100004
0.022988001 -0.076470293 0.82100004
0.027106479 -0.077872194 0.82260001
-0.035271432 -0.074461907 0.82300001
-0.032920003 -0.074461907 0.82300001
-0.0070542861 -0.074461907 0.82300007
-0.0031352383 -0.074461907 0.82300001
0.0020379049 -0.073834859 0.82300007
0.0067407624 -0.073834859 0.82300007
0.013011239 -0.074148379 0.82300007
0.018020321 -0.073647939 0.82266665
0.022416953 -0.073834859 0.82300007
-0.061078101 -0.078414291 0.82750005
-0.057609845 -0.077364132 0.82611114
-0.053035878 -0.077322654 0.82566667
-0.04832143 -0.076607153 0.82500005
-0.044785716 -0.076214291 0.82500005
