# .PCD v0.7 - Point Cloud Data file format
VERSION 0.7
FIELDS x y z
SIZE 4 4 4
TYPE F F F
COUNT 1 1 1
WIDTH 1169
HEIGHT 1
VIEWPOINT 0 0 0 1 0 0 0
POINTS 1169
DATA ascii
-0.0061971433 -0.13633716 0.72300005
-0.0036144052 -0.13683012 0.72287506
-0.0041314289 -0.13427144 0.72300005
-0.0069428575 -0.15066001 0.72900003
-0.0025457144 -0.15066001 0.72900003
-0.020134289 -0.14695716 0.72900003
-0.017634859 -0.14691088 0.72900003
-0.012262329 -0.14737536 0.72877783
-0.0076296306 -0.14772616 0.72822231
-0.0027720637 -0.14761432 0.72766662
0.0027767462 -0.14748532 0.72874999
0.0062485724 -0.1464943 0.72900003
-0.01717536 -0.14242893 0.72862506
-0.012462264 -0.14260679 0.72687495
-0.007602382 -0.14236969 0.72566664
-0.0027636909 -0.14233704 0.72550005
0.0026323814 -0.14247951 0.7269333
0.0062485724 -0.14232859 0.72900003
-0.01643143 -0.13908857 0.72900003
-0.012470069 -0.13744138 0.72728574
-0.0079897968 -0.13760206 0.72500002
-0.0010359525 -0.13779691 0.72525007
0.0025750343 -0.13745531 0.72735715
0.0062485719 -0.13955143 0.72900003
-0.010747144 -0.13381191 0.72800004
-0.0074728578 -0.13325897 0.72649997
-0.0027143592 -0.13271891 0.72669238
0.0013885716 -0.13399716 0.72900003
0.01188381 -0.16008191 0.73400009
-0.021670476 -0.15588763 0.73400009
-0.017476192 -0.15623716 0.73400003
-0.012582858 -0.15588763 0.73400003
-0.0083885714 -0.15588763 0.73400003
-0.0018171429 -0.15636192 0.73360008
0.0028704763 -0.1566309 0.7331112
0.0076755569 -0.15700127 0.73266673
0.012558255 -0.15696491 0.73250008
0.016637335 -0.15700611 0.73400003
-0.02654032 -0.15225399 0.73333335
-0.022297066 -0.15258802 0.73158336
-0.017414711 -0.15255927 0.73144448
-0.012554286 -0.15274572 0.73233342
-0.0078704767 -0.15313417 0.73228574
-0.0028663492 -0.15311693 0.73188889
0.0027854766 -0.15251833 0.73124999
0.0076615876 -0.15253587 0.73133332
0.012544843 -0.15262216 0.73175001
0.016760716 -0.15223597 0.73325002
-0.026116192 -0.14817487 0.73320001
-0.02277033 -0.14770809 0.73130774
-0.016012382 -0.14898476 0.73100001
-0.013227621 -0.14968096 0.73100007
0.0048733335 -0.14968096 0.73100001
0.0081222225 -0.14782445 0.73100001
0.012549287 -0.14779368 0.73200011
0.016628573 -0.14769755 0.73360002
-0.025864763 -0.14470287 0.73400003
-0.021739207 -0.14263001 0.73233336
-0.018797144 -0.14132668 0.73100001
0.0083617857 -0.14214276 0.73162502
0.011348334 -0.14298263 0.73325008
-0.020272382 -0.13911049 0.73400003
-0.017606311 -0.13770798 0.73212504
-0.01462 -0.13575715 0.73100001
0.0041771429 -0.13575715 0.73100001
0.0072085722 -0.13786478 0.73233336
-0.016034286 -0.13454857 0.73200005
-0.01255762 -0.13254677 0.73250002
-0.0079411436 -0.13081582 0.73140007
-0.0023670478 -0.1304661 0.73100001
0.0028450554 -0.13236491 0.73238468
0.006291429 -0.1349162 0.73400003
-0.010485715 -0.12862477 0.73400003
-0.0075021437 -0.12788121 0.73275
-0.002929016 -0.12706366 0.73226684
0.0010476192 -0.12810001 0.73300004
0.0077419053 -0.16539524 0.73900002
0.011964764 -0.16539524 0.73900002
0.019002859 -0.16750668 0.73900002
0.021805398 -0.16732647 0.73855555
0.026744764 -0.16539524 0.73900002
-0.027448576 -0.16117239 0.73900002
-0.022033652 -0.16149621 0.7383334
-0.017752858 -0.16224001 0.73825002
-0.012742752 -0.16206235 0.73877776
-0.0077419053 -0.16117239 0.73900002
-0.0028142859 -0.16176715 0.7385
0.0030012988 -0.16217379 0.73772734
0.0077216942 -0.16216594 0.73711115
0.012866032 -0.16258372 0.73688895
0.017553547 -0.16219018 0.73722225
0.022666451 -0.1626606 0.73838472
0.02716705 -0.16314307 0.73900002
0.030263811 -0.16258001 0.73900002
-0.032056101 -0.15689915 0.73809999
-0.02737492 -0.15792944 0.73700005
-0.022674603 -0.15825365 0.73633337
-0.017528191 -0.15859869 0.73620003
-0.012624002 -0.15808116 0.73640007
-0.0075159189 -0.15823811 0.73657155
-0.003506395 -0.15837689 0.73628581
0.0025701588 -0.15911619 0.73600006
0.018588096 -0.1581724 0.73650002
0.021799684 -0.15751112 0.7383334
-0.031299055 -0.15289545 0.73755556
-0.02845867 -0.15322821 0.73600006
0.018925715 -0.15280762 0.73600006
0.021095872 -0.15258826 0.7383334
-0.030705716 -0.149307 0.7383334
-0.028149391 -0.14695621 0.73628581
0.014720001 -0.14509715 0.73600006
0.018139048 -0.14661172 0.73657149
0.020346034 -0.14803557 0.73666668
-0.027083175 -0.14243662 0.73755556
-0.024191193 -0.14199072 0.73625004
0.013694406 -0.1420306 0.73737508
0.016642224 -0.14368162 0.7383334
-0.022415387 -0.13777731 0.73723084
-0.018458415 -0.13575113 0.73600006
0.0085540963 -0.13644211 0.73620003
0.011244406 -0.13773489 0.73787504
-0.017180001 -0.13311717 0.73842865
-0.014399525 -0.13134381 0.73750007
0.0049066669 -0.13107811 0.73600006
0.0074129105 -0.13256235 0.73733336
0.010557144 -0.13442762 0.73900002
-0.012097566 -0.12776299 0.73755556
-0.0080666672 -0.1259062 0.73650002
-0.00070095243 -0.12547049 0.73600006
0.0030898096 -0.12762354 0.73710006
-0.0073318374 -0.12322382 0.73814285
-0.0028091273 -0.12292883 0.7375834
0.0018264763 -0.12380896 0.73780006
0.013444763 -0.17619716 0.74300003
-0.018398097 -0.17053621 0.74300003
0.0035380959 -0.17053621 0.74300003
0.0077838106 -0.17124383 0.74300003
0.012871558 -0.17242548 0.74260008
0.017483335 -0.17289977 0.74175
0.020438097 -0.17125715 0.74000001
-0.032241363 -0.16686507 0.74285722
-0.027379051 -0.16720547 0.74257153
-0.022623494 -0.16755587 0.74233335
-0.017839883 -0.16727656 0.74187505
-0.013013336 -0.16733317 0.74260008
-0.0077806353 -0.16692351 0.74266672
-0.0025929103 -0.16713452 0.74255562
0.0028256353 -0.1674628 0.74191666
0.0077642864 -0.16799891 0.74116671
0.01292381 -0.16754898 0.74022222
0.016914286 -0.16773334 0.74000001
0.021847621 -0.16632381 0.74000001
-0.040900383 -0.16176173 0.74300003
-0.037352573 -0.1622844 0.74280006
-0.032667473 -0.16300653 0.74192315
-0.02752286 -0.16372669 0.74100006
-0.023033336 -0.16381367 0.74033344
-0.016209524 -0.16420953 0.74000001
-0.012450795 -0.16420953 0.74000001
-0.0077523813 -0.16350478 0.74000001
-0.0028190478 -0.16420953 0.74000001
0.00070476194 -0.16420953 0.74000001
0.027485717 -0.16139048 0.74000001
0.030304763 -0.16139048 0.74000001
-0.040900383 -0.15808211 0.74300003
-0.037426773 -0.1574685 0.74144447
-0.03312381 -0.1592762 0.74000001
0.024683334 -0.15797192 0.74050003
0.027528895 -0.15811318 0.74116671
0.031037463 -0.15871303 0.74066675
-0.037186384 -0.15298353 0.74230003
-0.034079053 -0.15182637 0.74033344
0.023728846 -0.15297131 0.74214292
0.027585398 -0.15489905 0.74266672
0.030427622 -0.15496857 0.74300003
-0.032440264 -0.14741793 0.74190915
0.021435875 -0.14651492 0.7420001
-0.030400321 -0.14351715 0.74233341
-0.028190479 -0.14095239 0.74000001
0.014800001 -0.14024763 0.74000001
0.017826192 -0.14224857 0.74125004
-0.026726475 -0.13815658 0.74240011
-0.023780636 -0.13585368 0.74166673
0.014111905 -0.13758239 0.7408334
0.016739683 -0.13886666 0.74266672
-0.02110354 -0.13318056 0.74214292
-0.018208573 -0.13140363 0.74100006
0.0087003177 -0.13096827 0.74066675
0.011542223 -0.13332351 0.7420001
-0.017403049 -0.12889336 0.74280006
-0.014371907 -0.1267554 0.7421667
0.0049466668 -0.12649333 0.74200004
0.0072087622 -0.12847124 0.74200004
-0.011537672 -0.12298129 0.74166667
-0.0083211428 -0.12142515 0.74040002
-0.0028190478 -0.1205143 0.74000001
0.0025238097 -0.122206 0.74171436
-0.011321906 -0.11958763 0.74300003
-0.0076045245 -0.11830906 0.74275005
-0.0028255559 -0.11798525 0.74183333
0.0012735239 -0.11842325 0.74280006
0.0038468575 -0.18108726 0.74800009
0.0078361919 -0.18070732 0.74800003
-0.022796191 -0.17595811 0.74800003
-0.018521905 -0.17595811 0.74800003
-0.001424762 -0.17595811 0.74800003
0.0031315237 -0.17693268 0.74730009
0.0076708579 -0.1771469 0.74579996
0.010652382 -0.17683081 0.74566674
-0.046304766 -0.17097144 0.74800003
-0.042182755 -0.1713419 0.74788898
-0.037750799 -0.17165852 0.74788892
-0.032996111 -0.17269516 0.74775004
-0.027766563 -0.17300637 0.74755561
-0.022738654 -0.17266646 0.74608344
-0.017565172 -0.1731192 0.74628574
-0.013084668 -0.17252468 0.74669999
-0.0076517863 -0.17278656 0.74737507
-0.0028439686 -0.17272447 0.74633336
0.0026017991 -0.17293917 0.74522227
0.0078047626 -0.17383334 0.74500006
-0.047722649 -0.16738489 0.74788898
-0.042663258 -0.16709328 0.74658346
-0.037807859 -0.16702834 0.74550009
-0.032638099 -0.16922143 0.74500006
-0.028380955 -0.1695762 0.74500006
-0.01631905 -0.1695762 0.74500006
-0.011352382 -0.1695762 0.74500006
-0.0078047626 -0.16957621 0.74500006
-0.0035476196 -0.16957621 0.74500006
-0.046577338 -0.1628063 0.74779999
-0.043887626 -0.16257572 0.74625009
-0.046304766 -0.15886097 0.74800003
-0.042999763 -0.15742287 0.74624997
0.031484131 -0.15647081 0.74566674
-0.041132193 -0.15328191 0.74720007
-0.039111115 -0.15146478 0.74666679
0.024157144 -0.15133142 0.74600005
0.027736908 -0.1521931 0.74675
0.031344764 -0.152687 0.74800009
-0.037154168 -0.14825654 0.74662507
-0.034324765 -0.14605556 0.74566674
0.024055241 -0.1478792 0.74600005
0.027782861 -0.14888763 0.74800003
0.031344764 -0.14888763 0.74800003
-0.03633143 -0.14461334 0.74800003
-0.032661799 -0.14290202 0.74733341
-0.029168574 -0.14086287 0.74700004
0.019182857 -0.14067334 0.74600005
0.02173852 -0.14283758 0.74700004
-0.028476669 -0.13811001 0.74750006
-0.024900002 -0.13588287 0.74700004
0.014900001 -0.13551906 0.74500006
0.017073812 -0.13730429 0.74700004
-0.023125358 -0.13234679 0.74712509
0.013040478 -0.13276939 0.74683344
-0.021124763 -0.12840858 0.74766672
-0.017973334 -0.1268177 0.74628586
0.0080488902 -0.12711778 0.74566674
0.010666667 -0.12870923 0.74666679
-0.017441906 -0.12422715 0.74750006
-0.014317008 -0.1219426 0.74628574
0.0046185716 -0.12149048 0.74600005
0.0064028576 -0.12236334 0.7470001
-0.011798286 -0.11811297 0.74620003
-0.008175239 -0.11624001 0.74650002
-0.0028385716 -0.11573 0.74550009
0.003199524 -0.11766119 0.74650007
0.006411429 -0.11896763 0.74800003
-0.0071238102 -0.11469334 0.74800003
-0.0031527893 -0.11401702 0.74757159
0.00071238098 -0.11469334 0.74800003
-0.00071714289 -0.18574001 0.75300002
0.0021485717 -0.18549335 0.75200003
-0.051634289 -0.18000287 0.75300002
-0.047331434 -0.18000287 0.75300002
-0.043745719 -0.18000287 0.75300002
-0.038725719 -0.18000287 0.75300002
-0.02725143 -0.18143715 0.75300002
-0.02223143 -0.18095905 0.75300002
-0.018645715 -0.18000287 0.75300002
-0.0054958737 -0.18135685 0.75266671
-0.0021495242 -0.18271017 0.75233334
0.0016669843 -0.18246256 0.75033343
0.0050000004 -0.18357144 0.75000006
-0.055918813 -0.1763588 0.75275004
-0.052290481 -0.17692605 0.75211114
-0.047647621 -0.17685524 0.75119996
-0.042506821 -0.17690475 0.75061542
-0.03711839 -0.17712454 0.75061542
-0.032168575 -0.17771487 0.75060004
-0.027363986 -0.17816086 0.75072736
-0.022452954 -0.17861982 0.75080007
-0.017016763 -0.17776115 0.75080007
-0.012328573 -0.17698129 0.75166672
-0.0071563809 -0.17747447 0.75139993
-0.0023485716 -0.17840192 0.75057149
0.0014285715 -0.17928572 0.75000006
-0.055764001 -0.17302573 0.75260001
-0.052229315 -0.17242277 0.75122225
-0.048265304 -0.17234696 0.75000012
-0.044523813 -0.17309526 0.75000012
-0.055220004 -0.16996287 0.75300002
-0.052134119 -0.16772236 0.75172728
-0.050917145 -0.16279146 0.75300002
-0.0487298 -0.16273634 0.75085717
-0.04752212 -0.15768784 0.7522223
-0.04404762 -0.15595239 0.75000012
-0.045180004 -0.15418573 0.75300002
-0.042237781 -0.15248224 0.75166672
0.031428576 -0.15214287 0.75000006
-0.040768575 -0.14876857 0.75100005
-0.038756192 -0.1462983 0.75080007
0.027364681 -0.14656954 0.75072736
0.031484447 -0.14668763 0.75133342
-0.036263339 -0.14242619 0.75150007
-0.033095241 -0.14119048 0.75000012
0.023095241 -0.14119048 0.75000012
0.027170047 -0.14275499 0.75254548
0.031533338 -0.14333285 0.75250006
-0.035140004 -0.13984287 0.75300002
-0.032000549 -0.13852763 0.75142866
-0.028099732 -0.13620096 0.75100011
0.018504221 -0.13668627 0.75142866
0.022019643 -0.13837942 0.75187504
-0.026213719 -0.1327821 0.75200003
-0.02357143 -0.1307143 0.75000006
0.013589525 -0.13160287 0.75100005
0.015050001 -0.13329953 0.75250006
-0.025066668 -0.12963049 0.75200003
-0.022355357 -0.12697488 0.75112504
0.0088177789 -0.12558731 0.75066674
0.011936827 -0.12772001 0.75200003
-0.021275241 -0.12358763 0.75300002
-0.018072143 -0.12220667 0.75150001
0.0084434291 -0.12262515 0.75120002
0.010757144 -0.12406572 0.75300002
-0.016494287 -0.11928477 0.75300002
-0.012446858 -0.11718515 0.75120008
-0.0092857145 -0.11500001 0.75000006
0.0030984129 -0.11557843 0.75066674
0.0068564629 -0.1177841 0.75214297
-0.006918625 -0.11235779 0.75144446
-0.0019414969 -0.11190397 0.75114286
0.0016722223 -0.11294365 0.75216675
-0.0057371436 -0.10972287 0.75300002
-0.0021514287 -0.10972288 0.75300002
0.00071714289 -0.10972287 0.75300002
-0.010828572 -0.19130477 0.75800002
-0.0075284359 -0.19192357 0.75800002
-0.061920002 -0.18504001 0.75600004
-0.057752386 -0.18625143 0.75799996
-0.054142863 -0.18552953 0.75800002
-0.046923812 -0.18552953 0.75800008
-0.042147145 -0.18552335 0.75650001
-0.037911624 -0.18552457 0.75680006
-0.032485716 -0.18552953 0.75800008
-0.026847407 -0.18648933 0.75733334
-0.022339683 -0.18664575 0.75666666
-0.017594669 -0.18648802 0.7572
-0.012125144 -0.18721317 0.75779998
-0.0073489542 -0.18744345 0.75640011
-0.002637302 -0.18747351 0.75516671
-0.070652381 -0.18095906 0.75700003
-0.067421511 -0.18168002 0.75657147
-0.062640004 -0.18216 0.75600004
-0.05758699 -0.18212113 0.75583339
-0.052815113 -0.18274547 0.75671428
-0.047488574 -0.18275955 0.75550008
-0.042442229 -0.18271905 0.75533342
-0.037415244 -0.18275952 0.75550008
-0.032378573 -0.18275952 0.75550008
-0.027323812 -0.18335715 0.75500005
-0.021930953 -0.18299761 0.75500005
-0.016986288 -0.18240058 0.75580007
-0.012236615 -0.1821069 0.75577784
-0.0077522756 -0.1824524 0.75522226
-0.070715241 -0.17775017 0.75766671
-0.067005888 -0.17778547 0.75799996
-0.062800959 -0.17759828 0.75620002
-0.058242865 -0.1779643 0.75500005
-0.07079874 -0.17399937 0.75600004
-0.068400003 -0.17424002 0.75600004
-0.061841525 -0.17399088 0.7568
-0.058585435 -0.1724426 0.75570005
-0.056290478 -0.16829163 0.75580007
-0.053928576 -0.16610001 0.75500005
-0.055440005 -0.16488001 0.75600004
-0.052903339 -0.16266598 0.75575006
-0.051736515 -0.1590597 0.75800008
-0.049320474 -0.15623859 0.75600004
-0.046523623 -0.15368745 0.75620002
-0.043171428 -0.15181907 0.75550008
-0.041148573 -0.14799048 0.75800002
-0.038366355 -0.1421943 0.75533342
0.02747505 -0.14053908 0.75520009
0.032378573 -0.1410262 0.75550008
-0.036595359 -0.13772348 0.75712496
-0.032653715 -0.13651125 0.75520009
0.02266524 -0.13634954 0.75550008
0.02710543 -0.13797115 0.75690001
0.031041907 -0.13932763 0.75800002
-0.031874668 -0.13398744 0.75719994
-0.028404977 -0.13193829 0.75611115
0.017586399 -0.13224833 0.75585723
0.021647938 -0.13349304 0.75766671
-0.025797529 -0.12782954 0.75660008
-0.023728574 -0.12583335 0.75500005
0.013302382 -0.12691192 0.75500005
0.016408334 -0.12783121 0.75724995
-0.025266668 -0.12416762 0.75800002
-0.022500955 -0.12203978 0.75600004
-0.019414287 -0.12008096 0.75500005
0.0093476195 -0.12151906 0.75500005
0.012376364 -0.12224633 0.75627279
0.015160001 -0.12488953 0.75800002
-0.016990205 -0.11790396 0.75685716
-0.013188573 -0.11629715 0.75533342
0.0083988896 -0.11685351 0.75583339
0.011309843 -0.11863303 0.75800008
-0.011900716 -0.11430834 0.75725007
-0.0088847633 -0.11164986 0.75633335
0.0030224763 -0.11125257 0.75560009
0.0059494055 -0.11302656 0.75712496
-0.0060718376 -0.10752573 0.75628579
-0.0021587303 -0.10721631 0.75555563
0.001751701 -0.10762681 0.75700009
-0.0050533335 -0.10467619 0.75800002
-0.0021657145 -0.1046762 0.75800008
-0.025433335 -0.20201334 0.76300001
-0.022331193 -0.20242596 0.76250005
-0.01848143 -0.20112143 0.76100004
-0.032700002 -0.19547336 0.76300001
-0.02667905 -0.19671907 0.76300007
-0.022526667 -0.19765338 0.76300001
-0.017700953 -0.19719604 0.76180005
-0.013080001 -0.19692668 0.76300001
-0.051842671 -0.19227107 0.76240009
-0.047192071 -0.19239968 0.76233333
-0.04264953 -0.19219717 0.76225007
-0.037753653 -0.19239968 0.76233339
-0.03264286 -0.19223146 0.76166677
-0.027550716 -0.19212645 0.76125002
-0.022451008 -0.19192235 0.76044452
-0.017599255 -0.19245858 0.76092869
-0.012597905 -0.19287391 0.76020014
-0.056457147 -0.1889143 0.76000005
-0.052401271 -0.18795367 0.76066673
-0.047778931 -0.18785964 0.7601251
-0.043017145 -0.18843468 0.76040006
-0.03734871 -0.18840043 0.76042867
-0.032578893 -0.18823192 0.76016676
-0.029193653 -0.18843177 0.76000011
-0.015923811 -0.1889143 0.76000005
-0.065866672 -0.18457144 0.76000005
-0.070209526 -0.17878096 0.76000005
-0.067442864 -0.17283355 0.76144451
-0.063078769 -0.17183439 0.76130003
-0.060797781 -0.1688289 0.76300001
-0.057981592 -0.16741906 0.76100004
-0.056376673 -0.16307828 0.76216668
-0.054392859 -0.16100144 0.7615
-0.05223405 -0.15742691 0.76175004
-0.05007429 -0.1538505 0.76200002
-0.047351703 -0.15220886 0.76157153
-0.044181429 -0.15065096 0.76050007
-0.045780003 -0.14896667 0.76300001
-0.042941801 -0.14735068 0.76133335
-0.041756194 -0.14342192 0.76250005
-0.039896827 -0.14145112 0.76166672
-0.03731405 -0.13620976 0.76075
0.028037779 -0.13607271 0.76133341
0.0328006 -0.13826917 0.76112509
-0.03613124 -0.13306001 0.76179999
-0.033092916 -0.13180488 0.76088893
0.023079867 -0.13216586 0.76071441
0.025895556 -0.13383144 0.76233339
-0.031205717 -0.1291762 0.76200002
-0.028415032 -0.12742117 0.76066673
0.018741092 -0.12683226 0.7610001
0.021045715 -0.1291762 0.76200002
-0.026561907 -0.12293563 0.76200002
-0.023885716 -0.1208762 0.76000005
0.016204923 -0.12310176 0.76183343
-0.021380002 -0.11849667 0.76100004
-0.017705444 -0.11627198 0.7610001
0.0094095245 -0.11508572 0.76000005
0.012088413 -0.11700556 0.76150006
0.015260001 -0.11990001 0.76300001
-0.016340002 -0.11364858 0.76250005
-0.012511429 -0.11222953 0.76150006
-0.0094095245 -0.11074287 0.76000005
0.008393879 -0.1122143 0.76157153
0.010900001 -0.11408667 0.76300001
-0.010900001 -0.10972667 0.76300001
-0.0088127907 -0.10709336 0.76200002
0.0036238097 -0.1065381 0.76100004
0.0060471427 -0.10859065 0.76183343
-0.0059468574 -0.10340438 0.76139998
-0.0021728573 -0.10284811 0.76050007
0.0013053333 -0.10398382 0.76140004
-0.041925561 -0.20597446 0.76783341
-0.038278099 -0.2065067 0.76800001
-0.03145143 -0.20553145 0.76800001
-0.029238574 -0.20539764 0.76750004
-0.051032864 -0.20121762 0.76550001
-0.047459688 -0.20152414 0.76666665
-0.042418025 -0.20258391 0.76791668
-0.037302863 -0.20260572 0.76800007
-0.032890692 -0.20245981 0.76744455
-0.028044939 -0.20253642 0.76572734
-0.016028572 -0.20035715 0.76500005
-0.051000006 -0.19744287 0.76500005
-0.047370482 -0.19750066 0.76522225
-0.042330798 -0.19778828 0.76633334
-0.037189528 -0.19761619 0.76566678
-0.032785717 -0.19817147 0.76500005
-0.028414287 -0.19817144 0.76500005
-0.016028572 -0.19890001 0.76500005
-0.044442859 -0.19452858 0.76500005
-0.066713147 -0.17065068 0.76640004
-0.065584771 -0.16847239 0.76800001
-0.062232867 -0.16753359 0.7665
-0.059014291 -0.16538572 0.76500005
-0.060708575 -0.16457143 0.76800001
-0.058451273 -0.16220018 0.76716661
-0.056100003 -0.15955715 0.76500005
-0.053655718 -0.15768 0.76650006
-0.051279813 -0.15237658 0.76700008
-0.048085719 -0.15081429 0.76500005
-0.050468575 -0.14921144 0.76800001
-0.047608837 -0.1473382 0.76690912
-0.04703524 -0.14305398 0.7676667
-0.043560721 -0.14234547 0.76550001
-0.041034292 -0.13813688 0.76742864
0.033112194 -0.13580096 0.7658
-0.037203811 -0.13277048 0.76600003
0.024042858 -0.13041429 0.76500005
0.027944157 -0.13281551 0.76663643
0.032871433 -0.13270383 0.76700002
-0.035840001 -0.12946287 0.76800001
-0.032866787 -0.12744609 0.76687509
-0.02987143 -0.12604287 0.76500005
0.022798099 -0.12728974 0.76666671
0.025600001 -0.12946287 0.76800001
-0.031430952 -0.12426144 0.76750004
-0.02830548 -0.12235358 0.76700008
-0.024042858 -0.12021429 0.76500005
0.018582329 -0.12211588 0.76677781
0.021183811 -0.12491143 0.76700002
-0.025600001 -0.11922286 0.76800001
-0.022893175 -0.11763097 0.76716673
-0.019671429 -0.11584286 0.76500005
0.013842858 -0.11730002 0.76500005
0.015834287 -0.1186324 0.76733339
-0.02121143 -0.11483429 0.76800001
-0.017513907 -0.11193772 0.76620007
-0.013114287 -0.11001429 0.76500005
0.0094714295 -0.11001429 0.76500005
0.012228571 -0.11278453 0.76650006
-0.016457144 -0.10861715 0.76800001
-0.012408995 -0.10728604 0.7663334
0.007616736 -0.10734055 0.76671433
0.010971429 -0.10898286 0.76800001
-0.011454287 -0.10406128 0.7676667
-0.0073791537 -0.10209493 0.7663334
-0.0021857144 -0.10127144 0.76500005
0.0023715477 -0.10178393 0.76612508
0.0051200008 -0.10313144 0.76800001
-0.0051200003 -0.098742865 0.76800001
-0.0020077382 -0.098746784 0.76662505
0.0014628572 -0.098742865 0.76800001
-0.036422223 -0.20655558 0.7700001
-0.033733338 -0.20680001 0.77000004
-0.066782318 -0.16700821 0.77057147
-0.063800007 -0.16646668 0.77000004
-0.06621477 -0.16406429 0.77250004
-0.062450271 -0.16334827 0.77144456
-0.05955429 -0.16101715 0.77200001
-0.05677757 -0.15791196 0.77200007
-0.053533338 -0.15620001 0.77000004
-0.05521429 -0.15386382 0.77300006
-0.053287387 -0.15287834 0.77175003
-0.051417861 -0.14764026 0.77125007
-0.050600003 -0.14446668 0.77000004
-0.048046671 -0.14149545 0.77140003
-0.044733338 -0.14006668 0.77000004
-0.046320003 -0.13896 0.77200001
-0.043605719 -0.13786249 0.77080005
-0.040490478 -0.13472286 0.77300006
-0.038075238 -0.13245355 0.77180004
0.028600002 -0.13126667 0.77000004
0.031833652 -0.13051365 0.7713334
-0.036049999 -0.12801382 0.77250004
-0.034466669 -0.12613334 0.77000004
0.024200002 -0.12540001 0.77000004
0.02717267 -0.12778085 0.77109998
0.031888258 -0.12828699 0.77266669
-0.032444086 -0.12252872 0.77171433
-0.028600002 -0.12100001 0.77000004
0.02276434 -0.12262509 0.77100003
0.026485717 -0.12359953 0.77250004
-0.030183811 -0.11999906 0.77300006
-0.027040849 -0.11771832 0.77200013
-0.023732066 -0.11572191 0.77066672
0.017860319 -0.11718921 0.77066672
0.021331113 -0.11842509 0.77233338
-0.025766669 -0.11410953 0.77300006
-0.022620358 -0.11272917 0.77237511
-0.019800002 -0.11146668 0.77000004
0.013444446 -0.11122223 0.7700001
0.016175874 -0.11249048 0.77200007
-0.021349525 -0.10969239 0.77300006
-0.017871538 -0.10697609 0.77111119
0.0088114291 -0.1057362 0.77100003
0.012496383 -0.10731582 0.77180004
0.015460001 -0.10969239 0.77300006
-0.015808096 -0.10366715 0.77200007
-0.012699049 -0.10275049 0.77142864
-0.0090444451 -0.10095557 0.7700001
0.0036666668 -0.10046668 0.77000004
0.00753131 -0.10284918 0.771375
0.011042858 -0.10380287 0.77300006
-0.011042858 -0.099385723 0.77300006
-0.0073454292 -0.097672299 0.77109998
-0.0025666668 -0.096433342 0.77000004
0.0022038098 -0.097456515 0.7713334
0.0051500006 -0.098585248 0.77250004
-0.0063268575 -0.09430629 0.77240008
-0.0022049737 -0.09336032 0.77188891
0.0012266668 -0.094436839 0.77266669
-0.066600956 -0.16279906 0.77700001
-0.06313201 -0.16100591 0.7762
-0.062685721 -0.15737697 0.77800006
-0.058827307 -0.15678923 0.77533334
-0.060094289 -0.1535743 0.77900004
-0.057143439 -0.1527739 0.77719998
-0.053880956 -0.15130953 0.77500004
-0.055642862 -0.14912286 0.77900004
-0.053504132 -0.1474416 0.77666676
-0.051060002 -0.14430001 0.77700001
-0.049580004 -0.14134 0.77700001
-0.04627905 -0.13772714 0.77750003
-0.04283762 -0.13589668 0.77550006
-0.045256194 -0.13428476 0.77900004
-0.041773748 -0.13271961 0.77728575
-0.039169528 -0.13154954 0.77600002
-0.040804766 -0.12909144 0.77900004
-0.037741091 -0.1275966 0.77700007
0.02882286 -0.12563714 0.77600002
0.032857146 -0.1262425 0.77700007
0.036353335 -0.12612382 0.77900004
-0.036353335 -0.1238981 0.77900004
-0.033670954 -0.12172905 0.77700007
0.023650479 -0.12046477 0.77600002
0.027380003 -0.12259334 0.77700007
0.031160003 -0.1238981 0.77900004
-0.031398233 -0.11787036 0.77700007
-0.028785717 -0.11661905 0.77500004
0.019928573 -0.11588096 0.77500004
0.022484764 -0.11786065 0.77833337
-0.030912703 -0.11450064 0.77900004
-0.027380764 -0.11247849 0.77700001
-0.024388574 -0.1108562 0.77600002
0.018767431 -0.11274915 0.77580005
0.020526033 -0.11351144 0.77900004
-0.025966669 -0.10906 0.77900004
-0.022770267 -0.10776097 0.7767778
-0.019928573 -0.10628572 0.77500004
0.014023811 -0.10554763 0.77500004
0.017026288 -0.1076221 0.77719998
-0.021515239 -0.10460858 0.77900004
-0.017520003 -0.10265557 0.77733338
-0.013567938 -0.10088541 0.77700007
0.0081342869 -0.10129303 0.77633333
0.012422329 -0.1022581 0.77744454
0.016074605 -0.10411398 0.77900004
-0.011698477 -0.097877152 0.77740002
-0.0096076196 -0.096075244 0.77600002
0.0036904765 -0.095952392 0.77500004
0.0077178241 -0.097449675 0.77685726
0.011128572 -0.098673336 0.77900004
-0.0074828574 -0.092309095 0.7767778
-0.002214286 -0.090785727 0.77500004
0.0024030954 -0.092195958 0.77600002
0.0061803176 -0.093192391 0.77866668
-0.0056834924 -0.089199059 0.77833337
-0.0022216933 -0.088108689 0.77744448
0.0020390479 -0.0883862 0.7782501
-0.068265155 -0.16136459 0.78080004
-0.0671845 -0.15768139 0.78257149
-0.064711437 -0.15619907 0.78100002
-0.067946672 -0.15456001 0.78400004
-0.061629057 -0.15230191 0.78200006
-0.05868572 -0.15154287 0.78000003
-0.057179287 -0.14788073 0.78225005
-0.054367624 -0.14522858 0.78200006
-0.052529261 -0.14330859 0.78314292
-0.049899049 -0.14076 0.78200006
-0.050400004 -0.13850668 0.78400004
-0.047933653 -0.1370924 0.78233337
-0.046073526 -0.13285145 0.78280002
-0.043513335 -0.13128193 0.78100002
-0.04554667 -0.12842667 0.78400004
-0.042405445 -0.12721416 0.78114289
-0.038876195 -0.1260381 0.78000009
-0.041066669 -0.12469334 0.78400004
-0.037517462 -0.12273969 0.78266668
-0.034914289 -0.12108573 0.78000003
0.028053336 -0.12114604 0.78200006
0.03234572 -0.12223182 0.78260005
0.036027305 -0.12224254 0.78266668
-0.035048574 -0.11931334 0.78300005
-0.033514287 -0.11692508 0.78200006
0.024040002 -0.11697525 0.78066671
0.026857778 -0.11812064 0.7833333
-0.031633813 -0.11275953 0.78150004
-0.02897143 -0.11068572 0.78000003
0.022593653 -0.11245905 0.78200006
-0.027360719 -0.1075812 0.78175008
-0.024545716 -0.10562 0.78100002
0.020763269 -0.10743049 0.78257149
-0.021237619 -0.1035862 0.78250003
-0.017875239 -0.10128668 0.78200001
0.014114287 -0.10102858 0.78000003
0.017121589 -0.10273176 0.78166676
0.020160001 -0.10378668 0.78400004
-0.016426668 -0.099306673 0.78400004
-0.013548191 -0.097214483 0.7816
0.012662043 -0.097562723 0.78200012
0.01568 -0.099306673 0.78400004
-0.011819048 -0.092735521 0.78257149
-0.0096695246 -0.09074381 0.78100002
0.0083707152 -0.091887861 0.78125
0.011200001 -0.094080009 0.78400004
-0.0071978844 -0.087607205 0.78177786
-0.0022285718 -0.085428581 0.78000009
0.0026023812 -0.085854769 0.78049999
0.0055833338 -0.088569053 0.78149998
-0.0018661906 -0.083946198 0.78350008
0.0022393651 -0.084301591 0.78333342
-0.071295246 -0.15835048 0.78800005
-0.068868577 -0.15794858 0.78600001
-0.065862857 -0.15324955 0.78714293
-0.06321048 -0.15115336 0.78700006
-0.06168991 -0.14844345 0.78800005
-0.058856908 -0.14620215 0.78725004
-0.056915052 -0.14371353 0.78840011
-0.054340959 -0.14165905 0.78700006
-0.05257355 -0.13755366 0.78733337
-0.050782859 -0.1338343 0.78800005
-0.048120193 -0.13236515 0.78700006
-0.047820956 -0.12944128 0.78866673
-0.043759048 -0.12577558 0.78766674
-0.041328575 -0.12398572 0.78900003
-0.039125908 -0.12187182 0.78700006
0.033685718 -0.12052001 0.78600001
0.03518286 -0.12052001 0.78600001
-0.036748305 -0.1177396 0.78742862
0.028445717 -0.11677715 0.78600001
0.032248784 -0.11774065 0.78744453
0.035287306 -0.11787398 0.78833342
-0.035803176 -0.11441906 0.78866673
-0.032520957 -0.11182 0.78800005
0.024224764 -0.11063239 0.78666675
0.027407939 -0.11304222 0.78722233
0.030808574 -0.11496858 0.78900003
-0.03154048 -0.1088881 0.78850007
-0.028720003 -0.10613716 0.78666675
0.023501113 -0.10749953 0.78750008
-0.026300002 -0.10444858 0.78900003
-0.022887502 -0.10261156 0.787875
0.018246986 -0.1017289 0.78733343
0.020780321 -0.1029016 0.78866673
-0.021286193 -0.098916993 0.78883338
-0.017391907 -0.09699934 0.78710014
-0.014222858 -0.095068574 0.78600001
0.013723811 -0.095567629 0.78600001
0.016829526 -0.097864643 0.78785723
-0.017279729 -0.092838377 0.78885722
-0.013880239 -0.091904528 0.78775007
0.0097561907 -0.090807624 0.78800005
0.012451811 -0.092560768 0.78760004
-0.011620715 -0.088095002 0.78725004
-0.0092406366 -0.086657785 0.78666675
0.0075004771 -0.087749705 0.78750008
-0.0067551523 -0.083028406 0.78800005
-0.0024372621 -0.081548214 0.78737497
0.0020638097 -0.081962384 0.78775012
0.0060080956 -0.084857628 0.78850007
-0.0022542858 -0.078900002 0.78900003
0.0007514286 -0.078900002 0.78900003
-0.070060007 -0.15217334 0.79100001
-0.068051115 -0.15192223 0.79100007
-0.067074291 -0.14922255 0.79133338
-0.063025996 -0.14684288 0.79185712
-0.070237145 -0.14425048 0.79300004
-0.061929528 -0.14425048 0.79300004
-0.058338102 -0.14215067 0.79140007
-0.05664286 -0.13820858 0.79300004
-0.054993335 -0.13710669 0.79100001
-0.052036878 -0.13240668 0.79185718
-0.047501273 -0.12792414 0.79166669
-0.042240322 -0.12219334 0.79200006
-0.040531114 -0.1180689 0.7930001
-0.038922228 -0.11726891 0.79100007
0.033146672 -0.11526 0.79100001
0.035406668 -0.11526 0.79100001
-0.036668003 -0.1127183 0.79220003
-0.033900004 -0.11074001 0.79100001
0.028902542 -0.11133557 0.79166669
0.032421276 -0.11309461 0.79166669
0.035969846 -0.11293811 0.79233336
-0.031945717 -0.10790826 0.79233336
0.024860002 -0.10622001 0.79100001
0.027418096 -0.10841112 0.79233336
-0.026776668 -0.10258096 0.792
-0.024860002 -0.10094667 0.79100001
0.022925336 -0.10225487 0.79179996
-0.022999763 -0.097083814 0.79175001
0.018468574 -0.096863821 0.79149997
0.020756193 -0.097740956 0.79250002
-0.021381272 -0.093319051 0.79233336
-0.017326668 -0.091153339 0.79100001
0.013823177 -0.091732383 0.79166669
0.01622762 -0.093212388 0.79250002
-0.017363176 -0.089080326 0.79266667
-0.013115239 -0.08758191 0.79139996
0.0090452386 -0.086687148 0.79149997
0.012398777 -0.088513888 0.79242867
-0.009204763 -0.081935056 0.79220003
0.0037666669 -0.080606669 0.79100001
0.0063574156 -0.082417563 0.79185718
-0.0062885722 -0.078226358 0.79233336
-0.0022621769 -0.077217832 0.79157144
0.0024504764 -0.07747715 0.79175001
0.0057901591 -0.078796521 0.7930001
-0.0015104762 -0.074768573 0.79300004
0.0022657146 -0.074768573 0.7930001
-0.070591435 -0.14801431 0.79700011
-0.06744349 -0.1470089 0.79566669
-0.070547149 -0.14261001 0.79650003
-0.067534059 -0.14265376 0.79675001
-0.063129432 -0.1421902 0.79670006
-0.059814289 -0.14082858 0.79500002
-0.066626668 -0.13857335 0.79800004
-0.061994296 -0.13799429 0.79800004
-0.058145404 -0.13727207 0.79633331
-0.056423496 -0.13333906 0.79700005
-0.053757146 -0.13174286 0.79500002
-0.055480003 -0.12996002 0.79800004
-0.051931702 -0.12847158 0.79685718
-0.047770001 -0.12637445 0.79616678
-0.044783812 -0.12524286 0.79700005
-0.046740003 -0.12274001 0.79800004
-0.044404291 -0.12182716 0.79700005
-0.042868219 -0.11740822 0.79662508
-0.04083715 -0.11340058 0.79700005
-0.038075812 -0.11119125 0.79640001
0.032557145 -0.11130001 0.79500002
0.036342859 -0.11130001 0.79500002
-0.036055241 -0.10854238 0.79700005
-0.032857306 -0.10691223 0.79616678
-0.029528573 -0.10524286 0.79500002
0.028562386 -0.10640874 0.79616666
0.032465398 -0.1083579 0.79688895
0.036342859 -0.10978572 0.79500002
-0.031160003 -0.10412001 0.79800004
-0.0288327 -0.10242763 0.79666674
0.024985716 -0.10221429 0.79500002
0.026500002 -0.1022143 0.79500002
-0.027585242 -0.098443024 0.79716676
-0.024985716 -0.096157148 0.79500002
0.022895239 -0.097490288 0.79600006
0.025586668 -0.099053346 0.79800004
-0.025064286 -0.092661433 0.79750001
-0.022851432 -0.091728181 0.79600012
0.017873336 -0.092178382 0.79614288
0.020991748 -0.094334617 0.79666674
-0.022005081 -0.088771433 0.79666674
-0.01716762 -0.086748198 0.79760009
-0.013905081 -0.086206675 0.79633331
0.0098428577 -0.085557148 0.79500002
0.013484383 -0.086508766 0.79540008
0.016335001 -0.087752141 0.79775
-0.012401111 -0.083258897 0.79716671
0.0092470488 -0.082308009 0.79580003
0.01271881 -0.082951196 0.79725003
0.01596 -0.082840003 0.79800004
-0.011400001 -0.079800002 0.79800004
-0.0083473474 -0.077069536 0.79671437
0.0076918369 -0.077880964 0.79614294
-0.0062266672 -0.073644958 0.79720008
-0.0024285717 -0.072392963 0.79680002
0.0020873812 -0.072297871 0.79700005
0.0053000003 -0.074957147 0.79500002
-0.063343503 -0.13635239 0.80133343
-0.060901593 -0.13428572 0.80266666
-0.058013815 -0.13205573 0.80149996
-0.0557581 -0.12908381 0.80200005
-0.053083811 -0.12717238 0.80200005
-0.049523812 -0.12571429 0.80000001
-0.051302861 -0.12404572 0.80400002
-0.049098417 -0.12210605 0.80133343
-0.046885721 -0.11823176 0.80266666
-0.044190481 -0.11580953 0.80000001
-0.041977149 -0.11218922 0.80133337
-0.040582858 -0.10949715 0.80400002
-0.037712768 -0.10733639 0.80159998
-0.034285717 -0.10590477 0.80000001
0.033269845 -0.1064127 0.80000007
0.036601909 -0.10751684 0.80066669
-0.035988573 -0.10413715 0.80400002
-0.032991864 -0.10216381 0.8021819
0.029007619 -0.1022843 0.80150002
0.031878732 -0.10430541 0.8033334
-0.032120954 -0.098654293 0.80300003
-0.028747305 -0.096413337 0.80133337
0.023619048 -0.095238104 0.80000001
0.026734425 -0.09700273 0.80199999
-0.026735239 -0.092803814 0.80199999
0.01904762 -0.090666674 0.80000001
0.021906352 -0.09245874 0.80233335
0.025268573 -0.094182864 0.80400002
-0.02138762 -0.087073334 0.80200005
-0.01904762 -0.086095244 0.80000001
0.018466668 -0.087444201 0.80120003
0.020648573 -0.088713333 0.80300003
-0.021184763 -0.084483825 0.80400008
-0.01738262 -0.083470248 0.80225003
-0.013888381 -0.081339814 0.80120003
0.013342382 -0.080430962 0.80049998
0.017120274 -0.082978234 0.80142862
-0.012230001 -0.077956669 0.80250001
-0.0099047627 -0.076190479 0.80000001
0.0090045724 -0.076456003 0.80120003
0.011986668 -0.078292698 0.8033334
-0.0074765729 -0.072150104 0.80080003
0.003809524 -0.070857145 0.80000001
0.0059699053 -0.073012196 0.80360001
-0.0053600003 -0.068148576 0.80400002
-0.0020992858 -0.06814643 0.80175
0.0019532277 -0.067844443 0.80244446
0.005346667 -0.069506668 0.80200005
-0.065247625 -0.13586858 0.80600005
-0.065328576 -0.13373239 0.80700004
-0.062560961 -0.13318191 0.80600005
-0.059253339 -0.13158858 0.80800003
-0.056036193 -0.12819239 0.80600005
-0.053800955 -0.12604667 0.80700004
-0.052262858 -0.12220191 0.80700004
-0.050019052 -0.1192762 0.80800003
-0.04788826 -0.1165181 0.80666673
-0.045401908 -0.11465906 0.80800003
-0.043040004 -0.11144191 0.80700004
-0.041503813 -0.10836858 0.80700004
-0.03866921 -0.10576256 0.80666673
0.034542859 -0.10516382 0.80600005
0.036078099 -0.10516382 0.80600005
-0.037654422 -0.10220192 0.80685729
0.032749716 -0.10255238 0.80720007
0.036167622 -0.10388572 0.80800003
-0.036167622 -0.099268578 0.80800003
-0.032733332 -0.097276583 0.80680007
0.029425398 -0.097487628 0.80600011
0.031037463 -0.097729534 0.80800003
-0.031550478 -0.094651438 0.80800003
-0.028419528 -0.09255477 0.80650002
0.023796191 -0.092114292 0.80600005
0.026676469 -0.092760831 0.80685729
-0.02533143 -0.089811437 0.80600005
-0.023825716 -0.087616198 0.80700004
0.022474524 -0.087781675 0.80675006
-0.02152 -0.082236201 0.80700004
-0.018039048 -0.080983818 0.80600005
0.019190477 -0.083670482 0.80600005
0.020777144 -0.0838781 0.80800003
-0.020777144 -0.07926096 0.80800003
-0.017382478 -0.078606091 0.80760002
-0.013442382 -0.077193812 0.80650002
0.013370286 -0.077298671 0.80680007
-0.012312382 -0.074643813 0.80800003
-0.0076838098 -0.071091436 0.80700004
0.0088824499 -0.072704494 0.80600011
0.011758641 -0.072418779 0.80771434
-0.0053866669 -0.066179052 0.80800003
-0.0026890479 -0.065671906 0.80650002
0.0033263497 -0.065759376 0.80600011
0.0067470903 -0.067727409 0.8071112
-0.0023071431 -0.063446194 0.80750006
0.0019992383 -0.06319163 0.80720007
-0.062177148 -0.13129714 0.81000006
-0.058628574 -0.13037144 0.81000006
-0.061243813 -0.12946478 0.81400001
-0.058095243 -0.12884192 0.81333339
-0.054771431 -0.12574287 0.81000006
-0.053919371 -0.12202731 0.81266677
-0.051082544 -0.11764192 0.81266677
-0.048720002 -0.11522667 0.81200004
-0.047010008 -0.11297429 0.81250006
-0.044080004 -0.11058667 0.81200004
-0.045739051 -0.10930858 0.81400001
-0.042552065 -0.10727906 0.81233346
-0.04108762 -0.10388191 0.81400001
-0.039537147 -0.1015562 0.81400001
0.034371432 -0.10118001 0.81099999
0.036316827 -0.10122096 0.81133336
-0.036732383 -0.097437143 0.81200004
-0.034742862 -0.096506678 0.81066674
0.033079732 -0.097244643 0.81314296
0.036436193 -0.098455243 0.81400001
-0.032353021 -0.092411749 0.81200016
-0.027771432 -0.090257145 0.81000006
0.027824288 -0.091196671 0.81150001
0.03013524 -0.093493983 0.81133336
0.037211433 -0.093803816 0.81400001
-0.030234288 -0.089152388 0.81400001
-0.026883572 -0.087606438 0.81225002
-0.023914287 -0.085628577 0.81000006
0.023142859 -0.085628577 0.81000006
0.025890002 -0.087716676 0.81150007
-0.025551431 -0.083621904 0.81300002
-0.023587622 -0.082360007 0.81200004
0.018803177 -0.081648894 0.81133336
0.022150477 -0.083178297 0.8132
-0.021413971 -0.078172073 0.81266677
-0.018001361 -0.076090075 0.81171435
-0.014657144 -0.076371431 0.81000006
0.014693335 -0.075786673 0.81200004
0.017306985 -0.078008577 0.8136667
-0.01705524 -0.073647626 0.81400001
-0.012627937 -0.072585613 0.81177783
-0.0085066669 -0.070373341 0.81200004
0.013920953 -0.071920961 0.81200004
-0.0077438103 -0.067361593 0.81300008
0.0084961914 -0.066423818 0.81100005
0.011421906 -0.067555241 0.81300008
-0.0065828576 -0.063878097 0.81300008
-0.0023196191 -0.061680388 0.81160003
0.002704286 -0.061441436 0.81150007
0.0067474847 -0.063147493 0.81285721
-0.062756114 -0.12742089 0.81718189
-0.058521278 -0.12688065 0.81566668
-0.060060006 -0.12402001 0.81900007
-0.056675237 -0.12277852 0.81766677
-0.055380005 -0.11856001 0.81900007
-0.053234763 -0.11695857 0.81600004
-0.05216286 -0.11288435 0.8174445
-0.048123814 -0.11099525 0.81500006
-0.047327381 -0.10789715 0.81800008
-0.044297144 -0.10569048 0.81600004
-0.04282286 -0.10238095 0.81750011
-0.039585717 -0.10012858 0.81500006
-0.041860007 -0.098540008 0.81900012
-0.038937148 -0.097339377 0.81766677
0.034928575 -0.096247628 0.81500006
0.036480956 -0.096247628 0.81500006
-0.037380323 -0.092667632 0.81766677
-0.034928575 -0.090814292 0.81500006
0.032894712 -0.092466146 0.81588894
0.036898863 -0.091702677 0.8174001
-0.035100002 -0.089700006 0.81900007
-0.031913608 -0.087953888 0.81728578
-0.028789526 -0.086368576 0.81700003
0.028248575 -0.087073654 0.81633341
0.031571429 -0.089255244 0.81850004
-0.027234424 -0.082811035 0.81700009
0.02346381 -0.081268013 0.81580013
0.026217461 -0.083062232 0.81766671
-0.025740001 -0.078780003 0.81900007
-0.023009392 -0.077473879 0.81700009
0.018377779 -0.077132389 0.81533337
0.021921499 -0.078000411 0.81785721
-0.021562859 -0.073519692 0.81833339
-0.017888255 -0.072072074 0.81666672
-0.013218096 -0.070748895 0.81633341
0.01474762 -0.070633337 0.81500006
0.017379366 -0.072881594 0.81700003
-0.017940002 -0.069420002 0.81900007
-0.012240435 -0.06783542 0.81700009
0.014368572 -0.067180954 0.81550002
0.016380001 -0.069420002 0.81900007
0.0077619054 -0.061319053 0.81500006
-0.064898096 -0.12588668 0.82100004
-0.065056197 -0.1230581 0.82300001
-0.06234191 -0.12285748 0.82166672
-0.058642861 -0.12119525 0.82100004
-0.06223448 -0.11929581 0.82300007
-0.057586536 -0.1179664 0.82185715
-0.055582859 -0.1142962 0.82200003
-0.051605716 -0.11024858 0.82100004
-0.051245715 -0.1075762 0.82150006
-0.048738733 -0.10607843 0.82100004
-0.047299191 -0.10275933 0.82185721
-0.044568576 -0.10086572 0.82100004
-0.047028575 -0.099543817 0.82300001
-0.043338481 -0.097472198 0.82140011
-0.042128574 -0.093495429 0.8222
-0.039117623 -0.092319526 0.82150006
-0.032058097 -0.085748896 0.82100004
0.032092113 -0.086881511 0.82185721
0.036011431 -0.089244768 0.82200003
-0.030568574 -0.083867624 0.82300001
-0.028432701 -0.08112286 0.82166672
0.028182859 -0.082199052 0.82200003
0.030568574 -0.083867624 0.82300001
-0.026367305 -0.077534288 0.82233334
-0.024239048 -0.075844765 0.82100004
0.02373746 -0.076427624 0.82166672
0.026367305 -0.0785781 0.82233334
-0.023021145 -0.072509147 0.8222
-0.019547621 -0.071153335 0.82100004
0.019026352 -0.071674608 0.82100004
0.022406667 -0.073798671 0.82260007
-0.061974838 -0.11686355 0.8267144
-0.058142863 -0.11550001 0.82500005
-0.062372386 -0.11448096 0.82900012
-0.057497282 -0.11262845 0.82700008
-0.054214288 -0.11078572 0.82500005
-0.056056194 -0.10974382 0.82900006
-0.053590961 -0.10796811 0.82749999
-0.051195242 -0.10396381 0.82700002
-0.049580004 -0.1015197 0.8263334
-0.047612384 -0.097134568 0.82728583
-0.044785716 -0.095857151 0.82500005
-0.046581909 -0.093163818 0.82900006
-0.043004133 -0.091514289 0.82600009
-0.038500004 -0.090357147 0.82500005
-0.040759683 -0.0886181 0.82833338
-0.037028469 -0.087447084 0.82722223
-0.033785716 -0.085642859 0.82500005
0.033785716 -0.085642859 0.82500005
0.035442859 -0.086636201 0.82700002
-0.035528574 -0.084479056 0.82900006
-0.032294016 -0.082700007 0.82700002
0.02907143 -0.080928579 0.82500005
0.032280639 -0.082928576 0.82666671
-0.031092381 -0.077808574 0.82860005
-0.028594606 -0.077122547 0.8263334
0.02783048 -0.077186048 0.82700008
-0.061880004 -0.11344668 0.83300006
-0.058706671 -0.11106667 0.83300006
-0.056326669 -0.10868667 0.83300006
-0.05388286 -0.10618001 0.83200002
-0.052298099 -0.10301048 0.83200002
-0.046806671 -0.092820004 0.83300006
-0.042367619 -0.087901436 0.83150005
0.037286669 -0.088060006 0.83300006
-0.036934286 -0.08353658 0.83220005
0.035657145 -0.083991431 0.83200002
-0.066004768 -0.11371905 0.83500004
-0.06320259 -0.11194 0.83700007
-0.059642863 -0.1105381 0.83500004
-0.061526671 -0.10946953 0.83900005
-0.058211844 -0.10764994 0.83728576
-0.054871432 -0.10576668 0.83500004
-0.055578098 -0.10291207 0.83766669
-0.05331286 -0.10224857 0.8355
-0.051815379 -0.098047502 0.83700007
-0.047770478 -0.092357151 0.83600003
-0.045437146 -0.089278102 0.83700001
-0.06252382 -0.10821366 0.8416667
-0.06014286 -0.10424668 0.84200001
-0.057202868 -0.10237589 0.84200001
-0.055397145 -0.097948581 0.84300005
-0.052525245 -0.095827155 0.84200001
-0.06303969 -0.10596032 0.84500003
-0.061379053 -0.10337524 0.84800005
-0.058747623 -0.1014 0.84500003
