# .PCD v0.7 - Point Cloud Data file format
VERSION 0.7
FIELDS x y z
SIZE 4 4 4
TYPE F F F
COUNT 1 1 1
WIDTH 936
HEIGHT 1
VIEWPOINT 0 0 0 1 0 0 0
POINTS 936
DATA ascii
-0.039001148 0.00678781 0.60400003
-0.070180006 -0.0011600001 0.60900003
-0.066910103 -0.0010438096 0.60880005
-0.062588573 -0.0011595238 0.60850006
-0.057693969 -0.0014498413 0.60883343
-0.05195979 -0.0013523811 0.60844445
-0.047481909 -0.0017384128 0.6080001
-0.04255566 -0.0023177976 0.60793763
-0.037610695 -0.0021233864 0.60755569
-0.033206828 -0.0013515875 0.60816669
-0.066618502 0.0023172225 0.60825008
-0.062486432 0.0023142858 0.60750002
-0.057530265 0.0021845505 0.60744447
-0.052311324 0.0024377783 0.60655558
-0.047345128 0.0023085715 0.60624999
-0.042677917 0.002306012 0.60556251
-0.037501048 0.0023073338 0.60579997
-0.032995153 0.0026836367 0.60781819
-0.066004001 0.0061480007 0.60900003
-0.062394354 0.0067034704 0.60821432
-0.057721432 0.0074705714 0.60790014
-0.052367102 0.0072578355 0.60727286
-0.047341716 0.0075066672 0.60620004
-0.042673808 0.0074976198 0.60549998
-0.037087388 0.0076718577 0.60565001
-0.032559466 0.0070029171 0.6064375
-0.046967469 0.011596985 0.60883331
-0.042705908 0.012617017 0.60760003
-0.038892385 0.012001907 0.60725009
-0.033391751 0.017178414 0.60800004
-0.0415181 -0.011110477 0.61400002
-0.039179049 -0.011110477 0.61400002
-0.080502227 -0.0056526987 0.61400002
-0.07683029 -0.0061889528 0.61300004
-0.072362863 -0.0070045236 0.61275005
-0.067874826 -0.0070807738 0.6130625
-0.062967218 -0.0055881641 0.61300009
-0.057003271 -0.0057591842 0.61342859
-0.052230988 -0.0069629215 0.61253339
-0.047580678 -0.0076411781 0.61247629
-0.042314898 -0.0073202602 0.61245459
-0.037330147 -0.0075851912 0.61245006
-0.034064289 -0.0066185719 0.61316669
-0.086795397 -0.0017542859 0.61400008
-0.082485154 -0.0019871115 0.61366665
-0.077289522 -0.0023323812 0.61222237
-0.072457165 -0.0024956465 0.61142862
-0.067689531 -0.0029113423 0.61127275
-0.06260106 -0.00356127 0.61177778
-0.056830622 -0.0035783676 0.61157155
-0.052620821 -0.0035745581 0.611
-0.047716197 -0.0040733335 0.611
-0.04480667 -0.0040733335 0.611
-0.035496194 -0.0040733335 0.611
-0.032595716 -0.0025226988 0.61116672
-0.081048004 0.0010525716 0.61400002
-0.076955177 0.0022196826 0.61306673
-0.072223753 0.0023299404 0.61156255
-0.069246672 0.0023276191 0.611
-0.031422857 0.0011638096 0.611
-0.029677145 0.0017457145 0.611
-0.076603815 0.0052628573 0.61400002
-0.07148248 0.0057140957 0.61220008
-0.068047225 0.0075834128 0.61241674
-0.063233659 0.0095044449 0.61100006
-0.057026669 0.0098923817 0.611
-0.054117147 0.0098923817 0.611
-0.061300006 0.011092382 0.61300004
-0.057039898 0.011875874 0.61322224
-0.052506614 0.012836371 0.61256254
-0.04810524 0.013511906 0.61150002
-0.042479053 0.01454762 0.611
-0.036991537 0.013280847 0.61222225
-0.034444764 0.01284381 0.61300004
-0.051459052 0.015788572 0.61400002
-0.047645312 0.016271159 0.61328572
-0.042283051 0.017000893 0.61266673
-0.037371315 0.017519167 0.61312497
-0.034463495 0.017719368 0.61333334
-0.071332395 -0.015917145 0.61900008
-0.06720572 -0.015917145 0.61900002
-0.06260743 -0.016152954 0.61900002
-0.057773337 -0.015917145 0.61900002
-0.051962323 -0.016254015 0.61900008
-0.04735842 -0.016310161 0.61900002
-0.04224921 -0.015917145 0.61900008
-0.037722025 -0.016503453 0.61887503
-0.032858931 -0.016356073 0.61887497
-0.11024096 -0.010021905 0.61900002
-0.10670382 -0.010021905 0.61900008
-0.10257715 -0.010021905 0.61900002
-0.097507253 -0.010257716 0.61900002
-0.092260748 -0.011016923 0.61884618
-0.087167382 -0.012369448 0.61841667
-0.082509018 -0.012831811 0.61793345
-0.077550411 -0.01270211 0.61821437
-0.072733842 -0.013041176 0.61735302
-0.067406267 -0.012828622 0.616579
-0.062337741 -0.012940358 0.61750001
-0.057599049 -0.012931786 0.61712503
-0.052827444 -0.012914584 0.61631256
-0.047531098 -0.012912144 0.61614996
-0.042311437 -0.013035874 0.61646676
-0.037425209 -0.013024064 0.61593336
-0.032180782 -0.012670302 0.61745465
-0.028886668 -0.010021905 0.61900002
-0.11083049 -0.0070742858 0.61900002
-0.10729334 -0.0070742853 0.61900008
-0.10247394 -0.0070680948 0.618375
-0.097634122 -0.0070591075 0.61756247
-0.092796974 -0.0070494656 0.61668754
-0.087407082 -0.0076277032 0.61595654
-0.082472019 -0.0078185713 0.6156112
-0.077675633 -0.009035239 0.61600012
-0.072628573 -0.0099571431 0.61500001
-0.066353068 -0.0092877559 0.61500007
-0.061995506 -0.0083214613 0.61526662
-0.057563886 -0.0086104777 0.61530769
-0.053534295 -0.0094885724 0.61500001
-0.047442861 -0.0099571431 0.61500001
-0.043928575 -0.0099571431 0.61500001
-0.031888455 -0.0077877389 0.61725014
-0.027471811 -0.0081354296 0.61900002
-0.024170477 -0.0088428576 0.61900002
-0.10670382 -0.004126667 0.61900008
-0.10221844 -0.0025231973 0.61835712
-0.097585246 -0.0023511904 0.61724997
-0.092693694 -0.0023459527 0.61600012
-0.088589214 -0.0027989422 0.61511117
-0.083757155 -0.0041000005 0.61500001
-0.031666428 -0.0035188098 0.61575007
-0.029673813 -0.0032333338 0.61700004
-0.096826673 0.00098222238 0.61866665
-0.092393115 0.0019624608 0.6179167
-0.087742627 0.0023491667 0.61625004
-0.082930148 0.0026780271 0.61507142
-0.079071432 0.0041000005 0.61500001
-0.031042859 0.0029285715 0.61500001
-0.02987143 0.0035142861 0.61500001
-0.090713814 0.005301429 0.61849999
-0.086520828 0.0059703407 0.61800003
-0.082060829 0.0067986399 0.61671436
-0.077366903 0.0073350007 0.616
-0.072989218 0.0082500316 0.61573339
-0.068528578 0.009957144 0.61500001
-0.077785954 0.01031262 0.61874998
-0.072292797 0.011698504 0.61857146
-0.067229614 0.012154049 0.61741674
-0.062377807 0.013326229 0.61653852
-0.057678234 0.014147621 0.61528575
-0.035844766 0.012925715 0.61699998
-0.034136191 0.01294762 0.61800003
-0.061081275 0.016301589 0.61866671
-0.056999683 0.01645397 0.6170001
-0.052840769 0.017981844 0.61693341
-0.047566097 0.018558096 0.61660004
-0.042780958 0.019339049 0.61533338
-0.050109528 0.020633334 0.61900002
-0.046572383 0.020633336 0.61900008
-0.042129148 0.02153562 0.61780006
-0.037551988 0.021711035 0.61608338
-0.034557145 0.021085715 0.61500001
-0.070720002 -0.020800002 0.62400001
-0.067846291 -0.02103105 0.62379998
-0.064182863 -0.020800002 0.62400001
-0.056160003 -0.021097144 0.62400001
-0.051888488 -0.021976452 0.62363642
-0.047576021 -0.021871431 0.62372732
-0.042765714 -0.021977462 0.62366676
-0.03752416 -0.022653086 0.62331569
-0.03223199 -0.022456082 0.62335289
-0.028228574 -0.021097144 0.62400001
-0.11588572 -0.016045716 0.62400001
-0.11232001 -0.016342858 0.62400001
-0.10753105 -0.016634857 0.62380004
-0.10207441 -0.016617024 0.62312508
-0.097365603 -0.016623929 0.623375
-0.092189059 -0.017293494 0.62250012
-0.087698162 -0.017780179 0.62218744
-0.082583711 -0.017893486 0.62289459
-0.077359237 -0.017787084 0.62243742
-0.072591841 -0.018023947 0.62185717
-0.067450725 -0.018343095 0.62125015
-0.062436275 -0.018546116 0.62141669
-0.057431653 -0.01835678 0.62169236
-0.052521739 -0.018440347 0.62090909
-0.04720315 -0.018575145 0.62110007
-0.042601913 -0.018142419 0.62061542
-0.037806433 -0.018903097 0.62024999
-0.032223336 -0.018625876 0.62083334
-0.027904367 -0.017812461 0.62341672
-0.12094572 -0.010942858 0.62100005
-0.11726256 -0.012063157 0.62168413
-0.11257961 -0.012560853 0.62163156
-0.10774438 -0.012839722 0.62099999
-0.10266611 -0.013108685 0.62058818
-0.097617544 -0.013112438 0.62076461
-0.092343919 -0.013979895 0.62022221
-0.087390482 -0.014761906 0.62
-0.080895245 -0.014761906 0.62
-0.07912381 -0.014761906 0.62
-0.027146716 -0.012562256 0.62184215
-0.023725716 -0.012456762 0.62280011
-0.12190764 -0.0072386088 0.62161535
-0.11726645 -0.00719888 0.62094116
-0.11337143 -0.0070857145 0.61999995
-0.03129524 -0.0064952387 0.62
-0.027070999 -0.0066197407 0.62163645
-0.023892701 -0.0077009532 0.6220001
-0.11762215 -0.0041583339 0.62374997
-0.11237597 -0.0033558731 0.62211114
-0.10766891 -0.0020687305 0.62116665
-0.10451429 -0.0011809524 0.62
-0.10518858 0.00059428578 0.62400001
-0.10146394 0.0013351191 0.62212503
-0.097449012 0.0029651953 0.62218183
-0.093492076 0.0037396827 0.62
-0.092296839 0.0067869849 0.62255555
-0.088117577 0.0079647619 0.62188894
-0.083983809 0.0088714287 0.62100005
-0.086765721 0.010102858 0.62400001
-0.082180642 0.010875238 0.62277782
-0.077039815 0.012820954 0.62320006
-0.072431006 0.014013229 0.62166667
-0.067476206 0.01453524 0.62040007
-0.071257621 0.01603286 0.62349999
-0.067424767 0.016975619 0.62320012
-0.062868282 0.018101979 0.62230778
-0.058207203 0.018353228 0.62155563
-0.061211433 0.020800002 0.62400001
-0.057051431 0.020800002 0.62400001
-0.052081905 0.021795982 0.62222224
-0.047551215 0.022934213 0.62230778
-0.043045085 0.023893971 0.6220001
-0.037790481 0.024209525 0.62
-0.034247622 0.024209525 0.62
-0.042418864 0.025783811 0.62379998
-0.037285801 0.026605796 0.62308341
-0.034102622 0.026394049 0.62275004
-0.05211715 -0.031236058 0.62900001
-0.047449742 -0.031477887 0.62888891
-0.042403962 -0.031538613 0.62846166
-0.037287623 -0.030973066 0.62714291
-0.032808576 -0.030421909 0.62633336
-0.10663047 -0.026358096 0.62900001
-0.10207772 -0.026477907 0.62900007
-0.09724541 -0.027056983 0.62900007
-0.092318378 -0.026266668 0.62885714
-0.087184347 -0.026534814 0.62844449
-0.082750589 -0.026520951 0.62811118
-0.077861078 -0.026352976 0.62887502
-0.072691783 -0.026517749 0.62890917
-0.066882119 -0.026553227 0.62888891
-0.062122427 -0.027411051 0.62840015
-0.057417151 -0.027513813 0.62800002
-0.052528333 -0.027459769 0.62675005
-0.047724172 -0.02744334 0.62637502
-0.042770252 -0.027544932 0.62629408
-0.037393734 -0.02730161 0.62531585
-0.032161787 -0.027398337 0.62537497
-0.027469585 -0.027472682 0.62706256
-0.023470955 -0.027183905 0.62870008
-0.11561619 -0.020966668 0.62900001
-0.11224332 -0.022430992 0.62869245
-0.10773256 -0.022744225 0.62843752
-0.10266729 -0.02282762 0.62782359
-0.097769521 -0.02272369 0.62787509
-0.092439197 -0.0226006 0.62705266
-0.087053046 -0.022659346 0.62606251
-0.082257628 -0.022652261 0.62587506
-0.077604838 -0.022687204 0.62681252
-0.072947815 -0.022805968 0.62680006
-0.067748658 -0.023480084 0.62675011
-0.062237881 -0.022758093 0.62588245
-0.057471432 -0.023127936 0.62533331
-0.053214289 -0.023928573 0.625
-0.047500007 -0.02416667 0.625
-0.042857144 -0.024404764 0.625
-0.027107699 -0.023137225 0.62558329
-0.023637976 -0.023340596 0.62837505
-0.11702763 -0.01744939 0.62557149
-0.11287628 -0.018394068 0.62607694
-0.10731526 -0.019078573 0.62599999
-0.10244274 -0.019059407 0.62537497
-0.097638458 -0.019051548 0.62512499
-0.093750007 -0.019345239 0.625
-0.025605479 -0.017864048 0.62524998
-0.023474669 -0.018113144 0.62560004
-0.11845239 -0.014880953 0.625
-0.12341144 -0.0053657144 0.62600005
-0.12249373 -0.0024900795 0.62791681
-0.11770503 -0.0017903897 0.62736368
-0.1129275 -0.0011073471 0.6264286
-0.11561619 0.00059904763 0.62900001
-0.11234409 0.0016872732 0.62836373
-0.10758422 0.0023927893 0.62757146
-0.10303429 0.0034302382 0.62625003
-0.10603143 0.0053914287 0.62900001
-0.10223228 0.0064523816 0.6285556
-0.097811885 0.0070488271 0.62700003
-0.093841538 0.0084659047 0.62600005
-0.09173926 0.011110055 0.6286667
-0.087193049 0.012841369 0.6270625
-0.082448758 0.013824158 0.62609094
-0.078305483 0.014589287 0.62524998
-0.086262867 0.016174287 0.62900001
-0.082603812 0.016161431 0.62849998
-0.077338278 0.017338615 0.62772733
-0.072971657 0.018049894 0.62684619
-0.068327308 0.019266985 0.62566674
-0.063690484 0.019642858 0.625
-0.070687622 0.020966668 0.62900001
-0.066896938 0.021989841 0.62777776
-0.062301755 0.02206048 0.62600005
-0.057333738 0.023293734 0.62708336
-0.052863177 0.024046987 0.62600005
-0.056909531 0.025759049 0.62900007
-0.052448057 0.026794722 0.62772733
-0.047733657 0.026852228 0.62650001
-0.042966861 0.028049333 0.62660003
-0.038019326 0.028833201 0.62514287
-0.033928573 0.029166669 0.625
-0.04051429 0.030934606 0.62866664
-0.037060123 0.03108369 0.62762499
-0.034064285 0.03107762 0.62750006
-0.081514291 -0.040455241 0.634
-0.082721911 -0.038643811 0.634
-0.076080002 -0.037436195 0.634
-0.07306096 -0.036832385 0.634
-0.06641905 -0.035624765 0.634
-0.06279619 -0.035624765 0.634
-0.057943333 -0.036214527 0.63375002
-0.053861905 -0.036028385 0.63260001
-0.11164572 -0.031381905 0.63366675
-0.10779636 -0.031172542 0.63350004
-0.10213779 -0.031164443 0.63333338
-0.097526163 -0.031852212 0.63318181
-0.092895098 -0.032172754 0.63369226
-0.087648205 -0.032390956 0.63372213
-0.082134441 -0.032176487 0.63376921
-0.077101856 -0.032458544 0.63346666
-0.072407208 -0.032584112 0.63356239
-0.067520961 -0.032555237 0.63300002
-0.06262923 -0.032520179 0.63231254
-0.057799947 -0.032514226 0.63218755
-0.053379901 -0.033337358 0.63133335
-0.048436768 -0.033292767 0.63100004
-0.043268576 -0.033052385 0.63100004
-0.11611029 -0.026887432 0.63300002
-0.11245468 -0.02774407 0.63233334
-0.10784215 -0.028063735 0.63141674
-0.10263322 -0.028701309 0.63112503
-0.096753336 -0.029146193 0.63100004
-0.092528678 -0.028660953 0.63133335
-0.08807607 -0.028958235 0.63157147
-0.082427859 -0.029030953 0.63175005
-0.077554055 -0.028857384 0.63125002
-0.072156794 -0.028863214 0.63137501
-0.067610346 -0.028951567 0.6314286
-0.064301908 -0.029446669 0.63100004
-0.11664915 -0.023715049 0.63200003
-0.11444192 -0.024251429 0.63133335
-0.022836192 -0.021634286 0.63100004
-0.12148906 -0.00060142862 0.63150001
-0.12151824 0.0019821771 0.63300008
-0.11749885 0.002273187 0.63269228
-0.11237811 0.0042066667 0.63100004
-0.10997429 0.0042066667 0.63100004
-0.11152913 0.0066319732 0.63300008
-0.10748948 0.0073441905 0.63193339
-0.10306877 0.0085392389 0.63140005
-0.10216524 0.010659207 0.63350004
-0.097290926 0.011728865 0.63269228
-0.093254164 0.013150206 0.63171428
-0.092644908 0.015599186 0.63342857
-0.087933756 0.017213335 0.63288891
-0.08249706 0.018668139 0.63227272
-0.07875596 0.019238334 0.63125002
-0.07391715 0.01983143 0.63100004
-0.081048109 0.021921432 0.6335001
-0.077176116 0.022309763 0.63308334
-0.072367109 0.02273576 0.63272727
-0.067832872 0.024283653 0.63216668
-0.062574051 0.024668334 0.63174999
-0.06760072 0.025953572 0.63374996
-0.062507518 0.026731854 0.63311106
-0.05795078 0.028119419 0.63230771
-0.053295244 0.029234288 0.63160002
-0.047521528 0.029474666 0.63160002
-0.05703786 0.031084049 0.63375002
-0.052266844 0.031536106 0.63345456
-0.04703556 0.0319608 0.63316661
-0.042525358 0.032879639 0.63299996
-0.037339404 0.033727262 0.632375
-0.034014605 0.034014605 0.634
-0.041662861 0.035624765 0.634
-0.038040005 0.035624765 0.634
-0.11136858 -0.04077429 0.63900006
-0.10041429 -0.04077429 0.63900006
-0.096627623 -0.041991431 0.639
-0.092524253 -0.042469781 0.63886672
-0.087721616 -0.042153705 0.63861543
-0.083171166 -0.04154259 0.63742858
-0.077440239 -0.040535003 0.63525009
-0.072798103 -0.040646669 0.63700002
-0.11111975 -0.037794016 0.63857144
-0.10731578 -0.037551966 0.63822216
-0.10226541 -0.037818927 0.63840002
-0.097455896 -0.037648994 0.63756251
-0.092298381 -0.037470587 0.63635296
-0.087231375 -0.037560418 0.63606262
-0.08217068 -0.037326872 0.63507158
-0.078619055 -0.037495241 0.63500005
-0.072525382 -0.037603337 0.63535726
-0.068166308 -0.037696119 0.6360001
-0.064709529 -0.036890477 0.63500005
-0.11214652 -0.033946827 0.63650006
-0.10752469 -0.03354124 0.63570011
-0.10314896 -0.033535998 0.63560015
-0.098396771 -0.034251243 0.6354
-0.093334936 -0.03447143 0.63500011
-0.08648096 -0.03447143 0.63500005
-0.082046047 -0.03447143 0.63500011
-0.079223812 -0.03447143 0.63500005
-0.12174859 0.0042400002 0.63600004
-0.11853334 0.0042333337 0.63500005
-0.12177834 0.0057707145 0.63775003
-0.11761143 0.0065696975 0.63745463
-0.11347213 0.0078903399 0.6371429
-0.11076 0.010345715 0.63900006
-0.10668223 0.011810901 0.6376667
-0.10288013 0.012881073 0.63637507
-0.099434927 0.013513653 0.63533342
-0.10041429 0.015214287 0.63900006
-0.096857741 0.01655012 0.63762504
-0.092710957 0.018028097 0.63625002
-0.087154768 0.01936762 0.63550007
-0.09155453 0.020379288 0.63875008
-0.087741725 0.021510098 0.63800001
-0.083538584 0.022859525 0.63716668
-0.077777624 0.024912383 0.63800001
-0.073176198 0.02479524 0.63500011
-0.076680005 0.026168574 0.63900006
-0.072459295 0.026888097 0.63800007
-0.067974694 0.028526431 0.63725007
-0.063183546 0.029128032 0.63528579
-0.065725721 0.031037144 0.63900006
-0.062014166 0.031919405 0.63837498
-0.057382543 0.03311101 0.63722229
-0.052421231 0.034053884 0.63685721
-0.047171429 0.03447143 0.63500005
-0.03245556 0.033665083 0.63500011
-0.051404528 0.036195956 0.63875008
-0.047339052 0.03641548 0.63725001
-0.042317908 0.036985718 0.63660008
-0.037638649 0.037944369 0.63741672
-0.033712521 0.037182726 0.63700002
-0.10577715 -0.045857146 0.64200002
-0.10272001 -0.045857146 0.64200002
-0.097753346 -0.045821432 0.6415
-0.11058239 -0.041544288 0.6415
-0.10731342 -0.042614091 0.64178574
-0.1027143 -0.042870354 0.64120001
-0.098657973 -0.043528713 0.64114296
-0.092038102 -0.04449524 0.64000005
-0.12235896 0.0081825731 0.64110005
-0.11712096 0.0091500003 0.64050007
-0.12205334 0.010917334 0.64400005
-0.11750965 0.011017263 0.64262503
-0.11261766 0.012379268 0.64238471
-0.10857639 0.013313524 0.64120001
-0.11101334 0.015333334 0.64400005
-0.10711801 0.016527716 0.64270008
-0.10277843 0.017233782 0.64160007
-0.098642871 0.018101906 0.64066672
-0.10181334 0.020240001 0.64400005
-0.09708517 0.020886535 0.64228576
-0.092788473 0.022197569 0.6414445
-0.087943576 0.02381786 0.64125001
-0.0816762 0.024990479 0.64000005
-0.091386676 0.025146669 0.64400005
-0.086345717 0.025720954 0.64300001
-0.082218423 0.026524451 0.6426667
-0.077420287 0.027965052 0.64110005
-0.073162071 0.029061748 0.64016676
-0.076666676 0.030462226 0.64400005
-0.072131217 0.032021806 0.64244443
-0.067274615 0.033028256 0.64216673
-0.062572256 0.03429715 0.64142859
-0.058560479 0.034770004 0.64050007
-0.062154293 0.036409527 0.64360005
-0.057464171 0.036679167 0.64187503
-0.05339548 0.036919761 0.64075005
-0.0472854 0.038927622 0.64200002
-0.043059811 0.0394 0.64040011
-0.035961907 0.039619051 0.64000005
-0.033523813 0.039619051 0.64000005
-0.046000004 0.041093335 0.64400005
-0.042375479 0.041763332 0.64250004
-0.03785421 0.042129442 0.64108336
-0.03368032 0.042255774 0.64300001
-0.11091429 -0.043749526 0.64700001
-0.12193982 0.013166859 0.64600003
-0.11772308 0.013597144 0.64566666
-0.12126859 0.015737144 0.648
-0.11669779 0.016377779 0.64755553
-0.11231043 0.017517213 0.64692855
-0.10837525 0.018643176 0.64533341
-0.10693089 0.020858506 0.64685714
-0.10213001 0.021841668 0.64600003
-0.097688228 0.023230838 0.64612508
-0.093985721 0.023957144 0.64500004
-0.096891433 0.025302861 0.648
-0.092689812 0.02650143 0.64710003
-0.08751794 0.027158966 0.64672726
-0.083251581 0.028044496 0.6461429
-0.082374863 0.031199245 0.64740002
-0.077888422 0.032531433 0.64649999
-0.072690479 0.033785716 0.6450001
-0.076525718 0.035177145 0.648
-0.072318487 0.035358861 0.64679998
-0.067521907 0.03645429 0.64600003
-0.063060008 0.038258918 0.64642859
-0.057810239 0.038745001 0.64575005
-0.052600823 0.039252795 0.6454286
-0.04914286 0.039928574 0.64500004
-0.066034287 0.040114287 0.648
-0.06294857 0.040114287 0.648
-0.057765927 0.040909633 0.64755553
-0.053198624 0.041695982 0.64700001
-0.048204597 0.042606495 0.64663631
-0.043434668 0.043682668 0.64600003
-0.037493523 0.044870675 0.64539999
-0.033222862 0.044912383 0.64600003
-0.045668576 0.045051433 0.648
-0.041965716 0.045668576 0.648
-0.037386861 0.046518292 0.64780003
-0.03394286 0.046285719 0.648
-0.12203307 0.01796422 0.65042865
-0.11829035 0.01849143 0.65028572
-0.11776654 0.021033471 0.65228575
-0.1127962 0.021072619 0.65075004
-0.10707072 0.022967858 0.65175003
-0.10288072 0.023861192 0.65075004
-0.10180553 0.026477525 0.65260005
-0.097767696 0.027723743 0.6513077
-0.091999531 0.028808098 0.65050006
-0.089142859 0.02909524 0.65000004
-0.095773339 0.030473335 0.65300006
-0.091715381 0.031341501 0.6525715
-0.087663166 0.032117661 0.65138459
-0.083429381 0.033661112 0.65050006
-0.085200958 0.035448574 0.65300006
-0.081767626 0.036410671 0.65240002
-0.077191651 0.037045188 0.65188891
-0.072131626 0.037619244 0.65180004
-0.068487816 0.038269147 0.65020007
-0.07027524 0.04042381 0.65300006
-0.067063101 0.041604526 0.65200001
-0.062027719 0.042801432 0.65130001
-0.057469368 0.043618258 0.65116674
-0.052619051 0.043952387 0.65000004
-0.05592905 0.04536429 0.65250003
-0.051494699 0.045999188 0.65142858
-0.04732348 0.047413681 0.65135717
-0.042420954 0.048004005 0.65120006
-0.036910206 0.048417144 0.65057147
-0.032679528 0.047858573 0.65050006
-0.042289525 0.050374288 0.65300006
-0.036871593 0.050750323 0.65250003
-0.032926988 0.050944768 0.65233338
-0.12159716 0.021483494 0.65700006
-0.11768119 0.02316024 0.65725005
-0.11228763 0.023672927 0.65657151
-0.10843787 0.02406262 0.65625
-0.1112816 0.026098099 0.65766668
-0.10723381 0.026078574 0.65716672
-0.10328215 0.028282147 0.65625006
-0.10175668 0.030996667 0.65750003
-0.097440615 0.032481823 0.65700006
-0.092917025 0.033574883 0.65587503
-0.095880009 0.035720002 0.65800005
-0.092287436 0.035938099 0.65740001
-0.087272711 0.036868889 0.65611112
-0.082844138 0.038923815 0.65566665
-0.07738167 0.039315 0.65525007
-0.073325485 0.039003097 0.65525001
-0.081624538 0.04096929 0.65675002
-0.077326201 0.041667532 0.65690005
-0.072534584 0.042405941 0.65700006
-0.067960642 0.043986674 0.6566667
-0.064350478 0.044358097 0.65600002
-0.067655005 0.045729287 0.65775001
-0.062330771 0.046686385 0.65710008
-0.057738576 0.047818717 0.65692854
-0.052957144 0.048377041 0.65588897
-0.057026669 0.050760008 0.65800011
-0.052580718 0.050702147 0.65725005
-0.047029685 0.05098366 0.65550005
-0.042360529 0.053051602 0.65672731
-0.037758481 0.05338819 0.65640002
-0.033137619 0.053770959 0.65650004
-0.037600003 0.055773336 0.65800005
-0.031939734 0.056631975 0.65757149
-0.12182268 0.024062669 0.66140002
-0.11722644 0.024579287 0.66175002
-0.12312858 0.026520003 0.66300005
-0.11688429 0.026658334 0.66250008
-0.11212815 0.028104937 0.66109103
-0.10775865 0.028670479 0.66057146
-0.11050001 0.030940002 0.66300005
-0.10662029 0.031634696 0.66242862
-0.10255874 0.033673868 0.66155559
-0.099314287 0.03394286 0.66000003
-0.10130643 0.036293574 0.66275007
-0.097415887 0.036740955 0.66133338
-0.092118479 0.037932958 0.66160005
-0.088066667 0.039001431 0.66050005
-0.086629212 0.041843176 0.66233337
-0.082681775 0.042917691 0.66128582
-0.078139625 0.044166293 0.66060007
-0.074171439 0.044628575 0.66000003
-0.075714767 0.046690002 0.66250002
-0.072444856 0.047362946 0.66145468
-0.067826152 0.048366755 0.66109091
-0.063341275 0.049287945 0.6606667
-0.066931434 0.051145718 0.66300005
-0.061997145 0.051910162 0.66200012
-0.05816561 0.052706562 0.66144449
-0.052687306 0.053109106 0.66122228
-0.048125528 0.053795051 0.66140002
-0.044628575 0.054685719 0.66000003
-0.046492066 0.056589842 0.66266674
-0.042841431 0.056700483 0.66150004
-0.03758743 0.058400769 0.66220009
-0.033254605 0.058734823 0.66155559
-0.032095771 0.062301483 0.66077781
-0.12137382 0.027889049 0.66550004
-0.11824872 0.028906126 0.66600007
-0.11463334 0.029766669 0.66500002
-0.12042001 0.031220002 0.66900003
-0.11703715 0.031711053 0.66860008
-0.11275429 0.032240003 0.66699994
-0.10803143 0.033595785 0.66557145
-0.11022572 0.03504286 0.66900003
-0.10696048 0.036290001 0.66850007
-0.10277985 0.037856672 0.66616672
-0.097644053 0.038676906 0.66575003
-0.09250167 0.039598335 0.66525
-0.10123001 0.040428575 0.66850007
-0.097092383 0.040428575 0.66850007
-0.092626132 0.041898102 0.66766673
-0.088393725 0.043245524 0.66580003
-0.08296667 0.044966668 0.66500002
-0.087349057 0.045583021 0.66783345
-0.082472548 0.046431273 0.66783345
-0.077787392 0.047784999 0.66675007
-0.07645715 0.05033429 0.66900003
-0.072550207 0.050811984 0.66571426
-0.066956006 0.052978862 0.66700006
-0.063607946 0.053465083 0.6656667
-0.062255718 0.055265717 0.66700006
-0.056717623 0.05608191 0.66724998
-0.052221432 0.057390284 0.66635716
-0.047561232 0.058251843 0.66585714
-0.042476516 0.058959052 0.6656667
-0.051608574 0.060528576 0.66900003
-0.046159051 0.060801908 0.66850007
-0.041924767 0.061580427 0.66811115
-0.037466478 0.062237341 0.66680002
-0.034911908 0.062207147 0.66650003
-0.12273277 0.03228591 0.67259997
-0.11774744 0.033368763 0.67119998
-0.11421905 0.03381905 0.67000002
-0.1200362 0.035304762 0.67400002
-0.11701834 0.035586432 0.67325002
-0.11240382 0.036694378 0.6716364
-0.10779978 0.038169526 0.67075002
-0.10704042 0.041113067 0.6730001
-0.10251239 0.042732231 0.67133331
-0.097420208 0.04308591 0.67120004
-0.093161911 0.044028573 0.67000002
-0.097127639 0.045804959 0.67360002
-0.091959134 0.047153734 0.67208338
-0.087713748 0.048284359 0.67085719
-0.083314709 0.048638508 0.67071432
-0.079761907 0.049133338 0.67000002
-0.09050858 0.050710481 0.67400002
-0.086208582 0.050956197 0.67299998
-0.081957258 0.0517672 0.67288888
-0.077428728 0.05288792 0.67276919
-0.072339222 0.053774446 0.67216671
-0.068310797 0.054265082 0.67033339
-0.072535239 0.055845719 0.67400002
-0.067566536 0.056229666 0.67199999
-0.062091552 0.057932504 0.67212498
-0.057973336 0.058610715 0.67075002
-0.057244927 0.06130334 0.67283332
-0.052248679 0.061919153 0.67177778
-0.047633659 0.06319239 0.67133343
-0.042561274 0.064054295 0.67033339
-0.038285717 0.064447626 0.67000002
-0.046217147 0.066116191 0.67400002
-0.042251274 0.066364288 0.67216671
-0.036877286 0.066526264 0.67257148
-0.032542862 0.065723822 0.67000002
-0.1237043 0.034147143 0.67650002
-0.12216026 0.037242517 0.67736369
-0.1176398 0.038312193 0.67720002
-0.11322714 0.039243333 0.67550004
-0.12092668 0.040740002 0.67900002
-0.11575334 0.040740002 0.67900002
-0.11219144 0.041761775 0.67757148
-0.10876358 0.042476431 0.67575002
-0.1010781 0.045710478 0.67600006
-0.097693019 0.048311222 0.67633331
-0.094118103 0.049095877 0.67533338
-0.095706671 0.051733337 0.67900002
-0.092181772 0.052216057 0.67685723
-0.087999456 0.053403579 0.67691678
-0.082755566 0.054241277 0.67533338
-0.087300003 0.056260005 0.67900008
-0.082432732 0.05732156 0.67763638
-0.077295244 0.057329219 0.67633337
-0.072053343 0.057900481 0.67550009
-0.067189261 0.059285317 0.67557156
-0.064102858 0.058958098 0.67533338
-0.081480004 0.060140003 0.67900002
-0.077600002 0.060140003 0.67900002
-0.072175883 0.060541596 0.67866671
-0.067204133 0.062681116 0.67850006
-0.062294006 0.06268163 0.6771
-0.058106292 0.06326019 0.67640001
-0.052928574 0.064071432 0.67500007
-0.065960005 0.065313339 0.67900002
-0.062064927 0.065728419 0.67883337
-0.057510953 0.065911904 0.67850006
-0.052909765 0.066137858 0.67750001
-0.047737978 0.067739412 0.67737502
-0.042247385 0.068371668 0.67725003
-0.037761334 0.068691626 0.67660004
-0.032858573 0.068295717 0.67650002
-0.037344765 0.070683055 0.67840004
-0.032931432 0.070382863 0.67800009
-0.12087049 0.043201637 0.68285722
-0.11751255 0.043216355 0.68233335
-0.11333843 0.043909207 0.68133342
-0.10825969 0.044729527 0.68066669
-0.11660572 0.046251431 0.68400002
-0.11188249 0.04675905 0.68380004
-0.10754318 0.047226984 0.6834445
-0.1031144 0.047696617 0.68188888
-0.1022187 0.051109411 0.68362504
-0.097933501 0.052650958 0.68250006
-0.093904771 0.053752385 0.68000001
-0.09658128 0.055778101 0.68366671
-0.091667265 0.056724411 0.682625
-0.08764413 0.058429532 0.68166673
-0.0848381 0.058933336 0.68000001
-0.085988581 0.061234288 0.68400002
-0.082521126 0.062559575 0.68227279
-0.077757664 0.062478539 0.68169236
-0.072823718 0.063218392 0.68150014
-0.07227397 0.065762229 0.68366671
-0.067614704 0.066688992 0.6817143
-0.062762864 0.067701906 0.68220001
-0.056347813 0.068841152 0.68320006
-0.052747816 0.068817914 0.68040007
-0.04921905 0.069295242 0.68000001
-0.043483336 0.069448099 0.68150002
-0.051867884 0.072095245 0.68309098
-0.047484763 0.072204135 0.68300003
-0.04300797 0.072114468 0.68327278
-0.037747104 0.073545374 0.68227273
-0.03354599 0.073318511 0.68300003
-0.037782863 0.076217145 0.68400002
-0.020194286 0.10878858 0.68400002
-0.018240001 0.10878858 0.68400002
-0.11748039 0.047805715 0.68760008
-0.11297366 0.048635881 0.68700004
-0.10910667 0.049000002 0.68600005
-0.11180001 0.050818101 0.68850005
-0.10756219 0.051117558 0.68685716
-0.10324706 0.053521343 0.68700004
-0.099306673 0.05422667 0.68600005
-0.10090762 0.055695243 0.68800002
-0.096283093 0.057642147 0.68774998
-0.093616195 0.058267623 0.68740004
-0.08735811 0.062474288 0.68760008
-0.084648579 0.064962864 0.68900001
-0.081250481 0.066179052 0.68800002
-0.076973066 0.066686533 0.68742865
-0.071902104 0.067975245 0.68760008
-0.067996673 0.068650007 0.68650007
-0.062720001 0.06925334 0.68600005
-0.058800004 0.06925334 0.68600005
-0.067458101 0.070076518 0.68766677
-0.061919533 0.070438579 0.68800002
-0.057366099 0.072166473 0.68760008
-0.054305717 0.073934294 0.68700004
-0.04246667 0.073826671 0.68600005
-0.052117284 0.075883545 0.68771434
-0.046936616 0.076190382 0.68766671
-0.04236982 0.077437222 0.6876924
-0.037705928 0.077955455 0.68655568
-0.034006353 0.077822864 0.68666673
-0.040683813 0.080711432 0.68900001
-0.037365399 0.080633335 0.68833339
-0.034121908 0.080711432 0.68900001
-0.12235381 0.048379526 0.69350004
-0.1185443 0.04939286 0.69150007
-0.12270001 0.052552231 0.69266671
-0.11724941 0.051378455 0.69162506
-0.11277762 0.053203654 0.69250005
-0.10783036 0.053915359 0.69037503
-0.11037906 0.056180958 0.69400001
-0.10722583 0.057466675 0.69355553
-0.10280308 0.057438631 0.69144452
-0.097999431 0.058536958 0.69060004
-0.10509144 0.060146671 0.69400001
-0.10239907 0.060117781 0.6936667
-0.097312771 0.06113372 0.69320005
-0.092256755 0.062603109 0.6919167
-0.088714294 0.063742861 0.69000006
-0.092048906 0.065843493 0.6936667
-0.087590963 0.065857939 0.69150007
-0.083060011 0.066841595 0.69033337
-0.077767149 0.068871431 0.69200003
-0.073600009 0.069000006 0.69000006
-0.076413661 0.071128577 0.6936667
-0.072174698 0.071957067 0.69208336
-0.06719882 0.07312993 0.69174999
-0.0626956 0.073227979 0.69112504
-0.059361905 0.073819056 0.69000006
-0.061169147 0.076494478 0.6936
-0.057141792 0.076903932 0.691625
-0.052867834 0.078753121 0.69100004
-0.047606129 0.078967489 0.69014293
-0.051554289 0.081297152 0.69400001
-0.047503576 0.081811681 0.69274998
-0.042147864 0.082323343 0.69150007
-0.037591908 0.083101436 0.69250005
-0.034980003 0.082500003 0.69300002
-0.12112858 0.054276194 0.69500005
-0.11821621 0.053879052 0.69500011
-0.11384763 0.0549381 0.69500005
-0.11691382 0.055468101 0.69749999
-0.11188271 0.057710957 0.69650006
-0.10921429 0.058909528 0.69500005
-0.11101525 0.060493339 0.69800001
-0.10710799 0.061514646 0.69637507
-0.10238053 0.063167892 0.69681823
-0.098097011 0.063096464 0.69528586
-0.097284056 0.066073097 0.69725001
-0.092831194 0.067636907 0.69625008
-0.087701075 0.069098458 0.69762498
-0.082470857 0.069188192 0.6972
-0.08084096 0.071538739 0.69766665
-0.077841334 0.072538473 0.69620007
-0.073471434 0.074353978 0.69500005
-0.07572905 0.075064287 0.69749999
-0.071027622 0.076338097 0.69700003
-0.067162618 0.077113822 0.69650006
-0.062690482 0.077921912 0.69533342
-0.058909528 0.078766674 0.69500005
-0.061468814 0.080739766 0.69774997
-0.057436954 0.08078324 0.69640005
-0.053175058 0.082351431 0.69620007
-0.047153652 0.084344141 0.69733334
-0.043749526 0.084182866 0.69600004
-0.035080954 0.084061913 0.69500005
-0.033190478 0.082976192 0.69700003
-0.046533339 0.08575429 0.69800001
-0.041994169 0.086477742 0.69712502
-0.03767154 0.086624146 0.69666672
-0.12111373 0.058217715 0.70260006
-0.11753563 0.058100004 0.70120013
-0.11408143 0.058709051 0.70050001
-0.12073684 0.061371751 0.70300007
-0.11713827 0.061465245 0.70150006
-0.11234213 0.062297251 0.70166671
-0.10782143 0.064425714 0.70100003
-0.11062858 0.065036193 0.70400006
-0.10705125 0.066856958 0.70340008
-0.10250695 0.066653609 0.70085722
-0.097717151 0.068309531 0.70180005
-0.094000004 0.068666674 0.70000005
-0.095878102 0.070400007 0.70400006
-0.092182674 0.071980573 0.70240009
-0.087675445 0.07259658 0.70059997
-0.083345436 0.072677247 0.70009995
-0.079333335 0.074000008 0.70000005
-0.090514295 0.075763814 0.70400006
-0.086904958 0.0761922 0.70300001
-0.082599059 0.076107085 0.70185721
-0.077766962 0.077099912 0.7015
-0.072127625 0.078140713 0.70125008
-0.068049058 0.079390004 0.70050001
-0.064666674 0.079333335 0.70000005
-0.070400007 0.081127621 0.70400006
-0.067191914 0.081232384 0.70200002
-0.063098103 0.08249747 0.70233339
-0.05742937 0.083472542 0.70116675
-0.052056432 0.084757388 0.70074999
-0.032741908 0.084421277 0.70166671
-0.047553338 0.087768301 0.70042861
-0.043666668 0.088333338 0.70000005
-0.035777781 0.088222228 0.70000005
-0.12052667 0.063966669 0.70700002
-0.11800239 0.063540481 0.70599997
-0.1148143 0.063785717 0.70500004
-0.12069715 0.065405719 0.708
-0.11685564 0.065638483 0.7076
-0.11239365 0.067079164 0.70666671
-0.10807937 0.068840325 0.70633334
-0.10205714 0.069157146 0.70500004
-0.10781048 0.070750006 0.70749998
-0.10241906 0.071424283 0.70749998
-0.097587317 0.072463289 0.70666665
-0.09413334 0.073962867 0.70600003
-0.095074289 0.076194294 0.708
-0.092210211 0.07740286 0.70671427
-0.087858103 0.078220963 0.70600003
-0.082921438 0.078892864 0.70500004
-0.077214293 0.079900011 0.7050001
-0.073857144 0.079900004 0.70500004
-0.031970717 0.079087861 0.70674998
-0.11745106 0.067869343 0.7112
-0.11392096 0.069843814 0.71200001
-0.030578572 0.067952856 0.71350002
-0.028520003 0.067225724 0.71300006
-0.11696 0.070040002 0.71400005
-0.11223742 0.072464913 0.71300012
-0.10764175 0.073114768 0.71083343
-0.10278096 0.073704764 0.71000004
-0.018514287 0.052800003 0.72000003
