# .PCD v0.7 - Point Cloud Data file format
VERSION 0.7
FIELDS x y z rgb
SIZE 4 4 4 4
TYPE F F F F
COUNT 1 1 1 1
WIDTH 428
HEIGHT 1
VIEWPOINT 0 0 0 1 0 0 0
POINTS 428
DATA ascii
-0.21806574 -0.042900003 0.81900012 1.9636226e-38
-0.21138002 -0.042900003 0.81900007 2.1392941e-38
-0.20800003 -0.043940004 0.81900012 1.8899011e-38
-0.22230002 -0.038220003 0.81900012 1.9180651e-38
-0.21770224 -0.038708258 0.81833351 2.2222738e-38
-0.22077303 -0.046767306 0.82300007 2.0834776e-38
-0.21688916 -0.047316331 0.8221429 2.1389748e-38
-0.21221882 -0.047574289 0.82225001 2.0554951e-38
-0.20777884 -0.047588337 0.82249999 2.0643887e-38
-0.20322077 -0.046849336 0.82260001 1.8615209e-38
-0.19752 -0.046244767 0.82300001 1.760789e-38
-0.19360097 -0.046244767 0.82300001 1.70457e-38
-0.18654668 -0.047028575 0.82300001 1.778542e-38
-0.18262765 -0.046244767 0.82300007 1.6496149e-38
-0.17870858 -0.046244767 0.82300001 1.6404312e-38
-0.17478953 -0.046244767 0.82300001 1.7243776e-38
-0.22624573 -0.042275243 0.82200003 1.4109533e-38
-0.22311525 -0.04286167 0.82200003 1.7883428e-38
-0.21564935 -0.04300477 0.82100004 2.120427e-38
-0.21241747 -0.042744137 0.82100004 2.0652532e-38
-0.20719336 -0.042127814 0.8222 1.6292108e-38
-0.20273302 -0.043050054 0.82188892 1.9914608e-38
-0.19814318 -0.0430746 0.8223334 2.092838e-38
-0.19262019 -0.043065555 0.82216668 1.8991842e-38
-0.18733048 -0.043109525 0.82300001 1.7980258e-38
-0.18262765 -0.043109525 0.82300001 1.7335264e-38
-0.17792477 -0.043109525 0.82300001 1.6777738e-38
-0.17439763 -0.043109525 0.82300001 1.8068417e-38
-0.22667652 -0.038084447 0.82166672 1.4752376e-38
-0.22284286 -0.036749527 0.82100004 1.9825662e-38
-0.21690157 -0.036775626 0.82160008 2.1387595e-38
-0.21219699 -0.03758302 0.82216668 1.9263866e-38
-0.20823489 -0.039015051 0.82260001 1.5065773e-38
-0.20379049 -0.039974287 0.82300001 1.7153807e-38
-0.19752 -0.039974287 0.82300001 2.2036898e-38
-0.19281715 -0.039974287 0.82300001 2.2033632e-38
-0.18419525 -0.039974287 0.82300001 1.5112938e-38
-0.17478953 -0.039974287 0.82300001 1.8348252e-38
-0.22597049 -0.033621907 0.82100004 1.5399198e-38
-0.2218181 -0.033703811 0.82300001 2.1305474e-38
-0.21772128 -0.033153974 0.82233334 2.0466363e-38
-0.21398002 -0.033703811 0.82300001 1.8340131e-38
-0.22652097 -0.029000955 0.82300001 1.6599165e-38
-0.22106668 -0.056056194 0.82900006 2.1567986e-38
-0.21711907 -0.056056194 0.82900012 1.8714627e-38
-0.21238193 -0.056056194 0.82900012 1.8529866e-38
-0.20922382 -0.056056194 0.82900006 1.9081599e-38
-0.22817239 -0.051319055 0.82900012 1.7244938e-38
-0.22236425 -0.052248579 0.82585728 2.1573424e-38
-0.21753888 -0.052852571 0.82580006 1.8533499e-38
-0.21257554 -0.052686673 0.82566673 1.7702679e-38
-0.20753239 -0.052582949 0.82627285 1.8157911e-38
-0.20285882 -0.052638337 0.82800007 1.8063918e-38
-0.19896001 -0.051319052 0.82900006 1.96459e-38
-0.19106477 -0.051319052 0.82900006 2.0658316e-38
-0.18711716 -0.051319052 0.82900006 2.1483755e-38
-0.18080096 -0.051319052 0.82900006 2.2683006e-38
-0.22774597 -0.048071008 0.82744449 1.6969039e-38
-0.22297144 -0.048472386 0.82533348 2.277088e-38
-0.21764287 -0.049500003 0.82500005 2.3417656e-38
-0.21292858 -0.049500003 0.82500005 2.3417659e-38
-0.20585716 -0.049500003 0.82500005 2.2859431e-38
-0.20171145 -0.04889543 0.82540005 2.0733508e-38
-0.1970358 -0.048895106 0.82614297 2.0367272e-38
-0.19229478 -0.048273101 0.82750005 1.8985052e-38
-0.18778928 -0.048272524 0.82699996 1.9444231e-38
-0.18232614 -0.04870436 0.82671434 2.0363333e-38
-0.17678572 -0.048377559 0.82499999 2.0460928e-38
-0.17325002 -0.047535717 0.82500005 1.9164044e-38
-0.22838859 -0.043634288 0.82550007 1.5214064e-38
-0.22392859 -0.044785716 0.82500005 1.998849e-38
-0.20192859 -0.040071432 0.82500005 2.3142183e-38
-0.19092858 -0.040071432 0.82500005 2.0379881e-38
-0.18778573 -0.040071435 0.82500005 1.7617647e-38
-0.18228573 -0.040071432 0.82500005 1.373939e-38
-0.17835715 -0.040071435 0.82500005 1.5957028e-38
-0.17246431 -0.042035714 0.82499993 1.9082236e-38
-0.20700686 -0.036780003 0.82520002 1.5372093e-38
-0.20209177 -0.036957148 0.82566667 2.1114974e-38
-0.19737367 -0.036957148 0.82566673 2.2590449e-38
-0.19265556 -0.036957145 0.82566667 2.1852519e-38
-0.18750226 -0.036841303 0.82627285 1.8628904e-38
-0.18234229 -0.037191998 0.82740003 1.6239753e-38
-0.17697789 -0.03696752 0.82588893 1.9087339e-38
-0.17207146 -0.036928575 0.82499993 2.0467356e-38
-0.22578859 -0.03191524 0.82750005 1.7424639e-38
-0.22253749 -0.031977784 0.82566679 2.093489e-38
-0.2169088 -0.03098686 0.82580006 1.9263151e-38
-0.21227863 -0.032098312 0.82655561 1.7788381e-38
-0.20765957 -0.032667201 0.8276667 1.814775e-38
-0.20274511 -0.033132702 0.82833338 1.8252921e-38
-0.19779381 -0.032734524 0.82825005 2.2865597e-38
-0.19248764 -0.033395875 0.82833338 2.2314575e-38
-0.18790668 -0.033949528 0.82900006 2.2311654e-38
-0.17606382 -0.033949528 0.82900006 1.9359933e-38
-0.17369525 -0.033160001 0.82900006 2.0194402e-38
-0.22664891 -0.027546987 0.8263334 1.6687052e-38
-0.22206497 -0.028250858 0.82860005 2.1304397e-38
-0.21734411 -0.028505446 0.82814294 1.9539021e-38
-0.21343462 -0.028686035 0.82900012 1.6957568e-38
-0.22864287 -0.024357144 0.82500005 1.705509e-38
-0.21737334 -0.06108667 0.83300006 2.2945124e-38
-0.21340668 -0.06108667 0.83300006 2.2666382e-38
-0.22701858 -0.056654766 0.83200008 1.9818786e-38
-0.22226334 -0.057843816 0.83200002 2.211969e-38
-0.21781749 -0.058613341 0.83166665 2.1563289e-38
-0.21273378 -0.058760416 0.83214295 2.1930621e-38
-0.20760286 -0.057844769 0.83200002 2.1103392e-38
-0.20271143 -0.057267625 0.83225 2.1474686e-38
-0.19785735 -0.056961335 0.83300012 2.1753777e-38
-0.19246268 -0.056961335 0.83300012 2.1749481e-38
-0.18802002 -0.056326669 0.83300006 2.1573734e-38
-0.18246669 -0.056326669 0.83300006 2.0927272e-38
-0.17691335 -0.056326669 0.83300006 2.1294978e-38
-0.23086001 -0.053153336 0.83300006 1.6502327e-38
-0.22789466 -0.054079819 0.83260012 1.9184582e-38
-0.22451335 -0.054740004 0.83300006 2.1577729e-38
-0.20075905 -0.054080956 0.83100003 1.8883981e-38
-0.19698596 -0.053256437 0.83149999 1.9442543e-38
-0.19260995 -0.053496744 0.83128577 2.0174732e-38
-0.18756859 -0.053477965 0.83100003 2.1285726e-38
-0.18269219 -0.053392071 0.83122224 2.248461e-38
-0.17768541 -0.053069528 0.83166665 2.221266e-38
-0.17490573 -0.052234292 0.83100003 1.9907025e-38
-0.20814572 -0.030865716 0.83100003 1.7153093e-38
-0.20339715 -0.030865718 0.83100003 1.493893e-38
-0.19706574 -0.030865718 0.83100003 2.1850715e-38
-0.19192144 -0.031261429 0.83100003 2.213019e-38
-0.18734246 -0.031996332 0.83100003 2.1668444e-38
-0.18263428 -0.032312576 0.83160001 2.0006732e-38
-0.17807144 -0.032448575 0.83100003 1.9821622e-38
-0.1741143 -0.030865716 0.83100003 2.0564253e-38
-0.22608477 -0.026644764 0.83100003 1.5954537e-38
-0.22239146 -0.026117144 0.83100003 2.1117498e-38
-0.21764287 -0.026117144 0.83100003 1.9450765e-38
-0.21228153 -0.027057553 0.83214295 1.6200193e-38
-0.20778383 -0.027720954 0.83166665 1.9356727e-38
-0.20252235 -0.027861044 0.83154553 1.7964453e-38
-0.19738193 -0.027743177 0.83233339 1.9447447e-38
-0.19262573 -0.027743177 0.83233345 2.1853956e-38
-0.18786889 -0.028536512 0.83233345 2.2129459e-38
-0.18246669 -0.028560005 0.83300012 2.1117391e-38
-0.17710701 -0.028019367 0.83266681 2.0747147e-38
-0.17398953 -0.028777463 0.83166671 2.1114912e-38
-0.23030573 -0.02295143 0.83100003 1.6962878e-38
-0.22732094 -0.022969842 0.83166671 1.585873e-38
-0.22274828 -0.022986986 0.83233339 2.0563954e-38
-0.218318 -0.023451569 0.83271438 1.9074095e-38
-0.21308935 -0.024276003 0.83300012 1.53762e-38
-0.22661543 -0.018528953 0.83140004 1.3922661e-38
-0.22451335 -0.01904 0.83300006 1.7062724e-38
-0.23092477 -0.061526671 0.83900005 1.5397382e-38
-0.22196192 -0.062467307 0.83733338 2.2852605e-38
-0.21749097 -0.062938571 0.83650005 2.3128093e-38
-0.21263881 -0.063175954 0.83700001 2.2942938e-38
-0.20777769 -0.062891968 0.83588886 2.257636e-38
-0.20276812 -0.06268239 0.83574998 2.2121899e-38
-0.19769323 -0.062714823 0.83588886 2.2578507e-38
-0.19256535 -0.062063817 0.83700007 2.2758933e-38
-0.18777621 -0.062325723 0.83900011 2.2850041e-38
-0.18298194 -0.062325723 0.83900011 2.239016e-38
-0.17818764 -0.062325716 0.83900011 2.1651147e-38
-0.23125112 -0.059207939 0.83633339 1.6136372e-38
-0.22780573 -0.059013657 0.83733338 1.9632225e-38
-0.2245324 -0.059928574 0.83900005 2.2484162e-38
-0.20596668 -0.059642863 0.83500004 2.2300142e-38
-0.20199049 -0.059642863 0.83500004 2.0456959e-38
-0.19761668 -0.059245244 0.83500004 2.1929539e-38
-0.19244763 -0.059112705 0.83500004 2.1469648e-38
-0.18710479 -0.058919054 0.83599997 2.2300098e-38
-0.18232763 -0.058919054 0.83600008 2.2113899e-38
-0.17762193 -0.058942229 0.83633327 2.1470702e-38
-0.19006191 -0.02624286 0.83500004 2.2774124e-38
-0.18688095 -0.02624286 0.83500004 2.2315295e-38
-0.18210953 -0.02624286 0.83500004 2.1578756e-38
-0.17754859 -0.026274288 0.83600003 2.1301442e-38
-0.1745743 -0.026305716 0.83700001 2.0747949e-38
-0.21710002 -0.021471431 0.83500004 1.8046332e-38
-0.2123286 -0.022266667 0.83500004 1.4636462e-38
-0.20763527 -0.022945141 0.83660001 2.0098126e-38
-0.20247316 -0.023114858 0.83700007 1.4360917e-38
-0.19742447 -0.023114603 0.83700007 2.2034728e-38
-0.1925665 -0.023291241 0.83760005 2.268156e-38
-0.18758437 -0.023603674 0.83814299 2.1482997e-38
-0.18283591 -0.023951747 0.83833337 2.1297841e-38
-0.17818764 -0.023971429 0.83900011 2.0747933e-38
-0.1741924 -0.024770478 0.83900005 1.8718197e-38
-0.22625287 -0.015932858 0.83650005 1.3831913e-38
-0.22231399 -0.017526984 0.83666676 2.1393713e-38
-0.21775001 -0.017544286 0.83749998 1.9435683e-38
-0.21274224 -0.017742345 0.83807689 1.6772082e-38
-0.20707527 -0.018727938 0.83877784 2.1849982e-38
-0.20193078 -0.018834693 0.83900011 1.3068294e-38
-0.19736478 -0.019976191 0.83900011 1.982421e-38
-0.19416858 -0.019976191 0.83900005 2.2497183e-38
-0.22692955 -0.01238524 0.83900005 9.4104451e-39
-0.22293429 -0.013583811 0.83900011 2.0287363e-38
-0.21814001 -0.013583811 0.83900011 1.675695e-38
-0.21494383 -0.01358381 0.83900005 1.1781312e-38
-0.18626288 -0.066637151 0.84300005 2.2757499e-38
-0.22693652 -0.06274128 0.84100002 2.137819e-38
-0.22346573 -0.064877145 0.84100002 2.322208e-38
-0.21812604 -0.064343177 0.84100002 2.331248e-38
-0.19142763 -0.064877145 0.84100002 2.2941529e-38
-0.18742287 -0.064877145 0.84100002 2.275856e-38
-0.19222859 -0.020023812 0.84100002 2.0930203e-38
-0.18730846 -0.020710342 0.84100002 1.8712759e-38
-0.18181621 -0.020824764 0.84100002 1.8435079e-38
-0.17690139 -0.021181636 0.84157151 1.6404654e-38
-0.17314288 -0.021641588 0.8416667 1.5019571e-38
-0.21145144 -0.015218096 0.84100002 2.056359e-38
-0.20784715 -0.015618572 0.84100002 2.2957066e-38
-0.20334688 -0.015888574 0.84259999 1.8413918e-38
-0.19764534 -0.017529389 0.84214288 1.8160743e-38
-0.19202574 -0.017456669 0.84275001 1.9268119e-38
-0.18648015 -0.017076872 0.84242857 1.8154484e-38
-0.18224858 -0.017662859 0.84300005 1.7410773e-38
-0.1777526 -0.017823432 0.84300005 1.6764056e-38
-0.17261429 -0.017662859 0.84300005 1.6219168e-38
-0.22626907 -0.011213334 0.84100002 1.1626362e-38
-0.22186384 -0.011213334 0.84100002 2.0004638e-38
-0.21705812 -0.011213334 0.84100002 1.3798736e-38
-0.21269758 -0.012483675 0.84185719 2.0005387e-38
-0.20796517 -0.012986858 0.84180003 2.2032246e-38
-0.20392573 -0.013648572 0.84300005 2.0007161e-38
-0.22560287 -0.0088314293 0.84300005 1.4848541e-38
-0.22239146 -0.0088314293 0.84300011 1.8530932e-38
-0.2175743 -0.0088314293 0.84300011 1.7319033e-38
-0.18268096 -0.065185718 0.84500003 2.257489e-38
-0.20038573 -0.015290477 0.84500003 1.7227223e-38
-0.19716668 -0.015290478 0.84500003 1.9172707e-38
-0.19314286 -0.015290477 0.84500003 1.9357753e-38
-0.18911906 -0.01609524 0.84500003 1.8709907e-38
-0.18268096 -0.015290478 0.84500003 1.7499766e-38
-0.17701069 -0.015623239 0.84560007 1.6766933e-38
-0.17302382 -0.015826985 0.84500003 1.6769117e-38
-0.2116524 -0.010461906 0.84500003 2.1116745e-38
-0.20664763 -0.011113144 0.84560007 1.9545472e-38
-0.20206299 -0.011884168 0.84612513 1.926591e-38
-0.19763334 -0.012098095 0.847 1.9078296e-38
-0.19279337 -0.012098095 0.84700012 1.9265919e-38
-0.18795334 -0.012098095 0.84700006 1.8895687e-38
-0.18268321 -0.012256709 0.84772736 1.8151294e-38
-0.1768686 -0.012114285 0.84800005 1.7971555e-38
-0.17252478 -0.012090001 0.84650004 1.8430393e-38
-0.23070161 -0.0072495244 0.84600008 5.3434145e-39
-0.22764634 -0.0070491675 0.84612513 8.5843025e-39
-0.2226381 -0.0064523811 0.84700012 1.8622727e-38
-0.21759963 -0.0065726535 0.84757155 1.8158147e-38
-0.21259387 -0.0076205302 0.84733337 1.871205e-38
-0.20797321 -0.0078017469 0.84750003 1.9172284e-38
-0.20271239 -0.0080761909 0.84800005 1.8799913e-38
-0.19786668 -0.0088838097 0.84800005 1.8895672e-38
-0.19302098 -0.0088838097 0.84800005 1.9451037e-38
-0.18817525 -0.0088838097 0.84800005 1.8893498e-38
-0.22532573 -0.0040380955 0.84800005 1.4575073e-38
-0.22048001 -0.0040380955 0.84800005 1.512182e-38
-0.21724954 -0.0040380955 0.84800005 1.5761044e-38
-0.18052383 -0.01052381 0.85000002 1.786962e-38
-0.1732381 -0.012142858 0.85000002 1.8984635e-38
-0.21290478 -0.0056666671 0.85000002 1.8339362e-38
-0.20696828 -0.0062063499 0.85000008 1.9727239e-38
-0.20319049 -0.0056666671 0.85000008 1.9541034e-38
-0.19758214 -0.006477857 0.85025001 1.8987492e-38
-0.19200699 -0.0064806356 0.8506667 1.9077553e-38
-0.18695728 -0.0068288445 0.85085714 1.9354139e-38
-0.18242818 -0.0072950274 0.85133338 1.8706279e-38
-0.17775485 -0.007757552 0.85114294 1.8527597e-38
-0.17313716 -0.0071019055 0.85250002 1.8893497e-38
-0.23071431 -0.0040476192 0.85000002 2.0031982e-40
-0.22767858 -0.0022261906 0.84999996 1.1258295e-38
-0.22282144 -0.0022261906 0.84999996 1.1719216e-38
-0.21757208 -0.0020694183 0.8506667 1.3742142e-38
-0.21229374 -0.0024297149 0.85080004 1.9822011e-38
-0.20745398 -0.0024317459 0.85200006 1.9357729e-38
-0.20236914 -0.0025942856 0.85200006 1.8708031e-38
-0.19733228 -0.0024344975 0.8526668 1.9079325e-38
-0.19273715 -0.0026390478 0.8530001 1.9816918e-38
-0.1877327 -0.0032501591 0.85333341 1.8527291e-38
-0.18300001 -0.0036600004 0.85400003 1.0693253e-38
-0.17974667 -0.0040666671 0.85400003 1.300417e-38
-0.22557525 0.0016247621 0.852 1.2081899e-38
-0.22274506 0.001974422 0.85314298 1.1348603e-38
-0.21751381 0.0018285715 0.8530001 1.1343969e-38
-0.21260536 0.0014640001 0.85400003 1.6223499e-38
-0.20902668 0.00081333338 0.85400003 1.8154905e-38
-0.20414668 0.00081333338 0.85400003 1.7410507e-38
-0.22638859 0.018662859 0.85200006 1.198794e-38
-0.22421621 0.018684763 0.85300004 1.3461289e-38
-0.22692001 0.020333335 0.85400003 1.1713155e-38
-0.17772192 -0.005706667 0.85600007 1.8987493e-38
-0.19158097 -0.00081523816 0.85600007 1.9908832e-38
-0.18701564 -0.0011413334 0.85600007 1.6864209e-38
-0.18155695 -0.0014678098 0.85640013 1.0783904e-38
-0.17699809 -0.0024461376 0.85644442 1.5117816e-38
-0.17296509 -0.0024463495 0.85666668 1.7234061e-38
-0.22690795 0.0035326988 0.85600013 1.3738561e-38
-0.22174478 0.0040761908 0.85600007 1.6322145e-38
-0.21685335 0.0040761908 0.85600007 1.4744031e-38
-0.21189678 0.0037520004 0.85640013 1.4649684e-38
-0.20725122 0.0026530954 0.85675001 1.5477999e-38
-0.20222096 0.0026319579 0.8573333 1.4191575e-38
-0.19766696 0.0022171431 0.85714293 1.5942556e-38
-0.19261964 0.0024497143 0.85699999 1.6779198e-38
-0.18746641 0.0015170069 0.85742861 2.0194357e-38
-0.18222289 0.0016342858 0.85799998 1.9081124e-38
-0.17764686 0.0014708572 0.85799998 1.4104e-38
-0.17323428 0.00081714289 0.85800004 1.4838805e-38
-0.22582099 0.0073371432 0.85600013 1.3929474e-38
-0.22267514 0.0073417998 0.85644448 1.7707683e-38
-0.21789421 0.0073460327 0.85688889 1.6229295e-38
-0.21272954 0.0068095238 0.85799992 1.4933072e-38
-0.20673716 0.0063737147 0.85799998 1.0877544e-38
-0.20224288 0.0061285715 0.85800004 1.014033e-38
-0.19693145 0.0057200002 0.85800004 1.4740813e-38
-0.22634858 0.011440001 0.85800004 1.3463813e-38
-0.22308001 0.010622858 0.85800004 1.5403182e-38
-0.22690001 0.01632381 0.85699999 1.2172696e-38
-0.19739048 0.0040952382 0.86000001 1.6397068e-38
-0.18770604 0.004098413 0.86066669 1.5858684e-38
-0.18264763 0.0040952386 0.86000001 1.7514192e-38
-0.17732382 0.0036857144 0.86000001 1.7506567e-38
-0.17363811 0.0032761905 0.86000001 1.5572055e-38
-0.21213335 0.0090095242 0.86000001 1.521554e-38
-0.20746097 0.0086104767 0.86100006 1.291634e-38
-0.20197716 0.0083542867 0.86000007 1.2814034e-38
-0.19754288 0.0081974613 0.86066669 1.4740034e-38
-0.19281191 0.0071800002 0.86150002 1.5574845e-38
-0.18829858 0.0061538098 0.86150002 1.3991791e-38
-0.18307239 0.0057466677 0.86200011 1.6764776e-38
-0.17814669 0.0057466677 0.86200011 1.8336726e-38
-0.17404191 0.0065676197 0.86200005 1.9636898e-38
-0.22576192 0.012314286 0.86200005 1.5494996e-38
-0.22202235 0.01230313 0.86114293 1.539813e-38
-0.21763097 0.012102857 0.86150002 1.2908523e-38
-0.21286125 0.011845172 0.86200011 1.502757e-38
-0.20770097 0.010672382 0.86200011 1.9084458e-38
-0.20332256 0.011219684 0.86200011 1.9360691e-38
-0.19867049 0.010672382 0.86200005 1.732585e-38
-0.22523811 0.017200001 0.86000001 1.4660923e-38
-0.19194764 0.0090619056 0.86500007 1.3912458e-38
-0.18700479 0.0082380958 0.86500013 1.4092863e-38
-0.18206191 0.0082380958 0.86500013 1.7684615e-38
-0.17744859 0.0084028579 0.86500007 2.0192264e-38
-0.17382382 0.0090619056 0.86500007 2.0656164e-38
-0.22737144 0.014004763 0.86500007 1.4114566e-38
-0.22490002 0.014004763 0.86500007 1.8161805e-38
-0.21666192 0.014004763 0.86500007 1.2360726e-38
-0.21130717 0.013592859 0.86500007 1.4845341e-38
-0.20710574 0.013345716 0.86500007 1.7703764e-38
-0.20206875 0.012827893 0.86500013 1.9826013e-38
-0.19668454 0.012563096 0.86500013 1.8988305e-38
-0.19204584 0.01236434 0.8654446 1.7233292e-38
-0.18734065 0.012381059 0.86655563 1.8897201e-38
-0.18238975 0.01238106 0.86655563 2.2495362e-38
-0.17739208 0.01237746 0.86633343 2.2128756e-38
-0.17402478 0.011547619 0.86600006 2.0934173e-38
-0.22579589 0.017327938 0.86633343 1.6321513e-38
-0.22274931 0.017326429 0.8662501 1.5398158e-38
-0.21744289 0.017165802 0.86572737 1.40127e-38
-0.21237177 0.017354602 0.86766666 1.4202122e-38
-0.20736097 0.017350581 0.86744452 1.770447e-38
-0.20224859 0.017337674 0.8667779 1.9270711e-38
-0.19724414 0.01733196 0.86655563 1.9731343e-38
-0.19263759 0.017363492 0.86811119 2.0376697e-38
-0.18897304 0.016276509 0.86900008 2.1669579e-38
-0.18207622 0.015724763 0.86900002 2.1116415e-38
-0.1779381 0.015724763 0.86900008 2.093382e-38
-0.22676763 0.020690478 0.86900002 1.5675023e-38
-0.22208858 0.021092383 0.86849999 1.6133195e-38
-0.21795145 0.021092381 0.86850005 1.5663563e-38
-0.2126981 0.020690478 0.86900002 1.5851529e-38
-0.20690477 0.020690478 0.86900002 1.4938951e-38
-0.20276669 0.020690478 0.86900008 1.5293015e-38
-0.19780098 0.020690478 0.86900008 1.493361e-38
-0.18753758 0.018149799 0.87185729 1.9448649e-38
-0.18249527 0.017834764 0.87100017 1.8899419e-38
-0.17702042 0.018415429 0.87100011 2.0099038e-38
-0.22699907 0.023414668 0.87180007 1.337374e-38
-0.22314192 0.023226667 0.87100005 1.6032375e-38
-0.21726276 0.023375651 0.87214297 1.6955721e-38
-0.21230765 0.022644525 0.87250012 1.612703e-38
-0.2076181 0.022977781 0.8720001 1.6035938e-38
-0.20263526 0.023254288 0.8720001 1.6771684e-38
-0.1973286 0.023139184 0.87214297 1.7514308e-38
-0.19266954 0.021593336 0.8720001 1.5851214e-38
-0.18779382 0.020773809 0.87250006 1.5483556e-38
-0.1817503 0.02145086 0.87300009 1.7243115e-38
-0.17709431 0.021617144 0.87300009 1.9181394e-38
-0.22710383 0.02641581 0.87220013 1.1619907e-38
-0.22199145 0.026605718 0.87300009 1.0056582e-38
-0.21700287 0.025774289 0.87300003 1.6051072e-38
-0.21201429 0.025774287 0.87300003 1.7522943e-38
-0.20702574 0.025774289 0.87300003 1.7521864e-38
-0.19250003 0.02416667 0.87500012 2.0004647e-38
-0.18750003 0.023333333 0.87500012 1.9454732e-38
-0.18307453 0.023770714 0.87575006 2.1297178e-38
-0.17790382 0.024221908 0.87700003 1.9732026e-38
-0.22708334 0.028750002 0.87500006 1.0877595e-38
-0.22250001 0.029166669 0.87500012 8.3693364e-39
-0.21774763 0.028366668 0.87600011 1.3182949e-38
-0.21281226 0.02801905 0.87628585 1.6414456e-38
-0.20785573 0.028383335 0.87650007 1.6967985e-38
-0.20273143 0.027533336 0.87600011 1.7704467e-38
-0.19787557 0.027554287 0.87666672 1.8165458e-38
-0.19330384 0.027103813 0.87757158 1.9548378e-38
-0.1880348 0.026743334 0.87750006 2.0839096e-38
-0.18312573 0.026758095 0.87800014 1.715346e-38
-0.17835985 0.026990637 0.87650007 7.8385021e-39
-0.22744381 0.03093905 0.87800002 1.2531341e-38
-0.22288144 0.031722382 0.87650013 9.3985494e-39
-0.2185802 0.031608004 0.87800008 9.4871746e-39
-0.21322858 0.031775244 0.87800014 1.0410549e-38
-0.20854592 0.031608004 0.87800008 1.2261698e-38
-0.20486668 0.03093905 0.87800002 1.594989e-38
-0.19192383 0.029333334 0.88000005 1.8445985e-38
-0.18689525 0.029333334 0.88000005 1.5494289e-38
-0.18270478 0.029333334 0.88000005 1.1221337e-38
-0.17848381 0.029466668 0.88400006 4.6875606e-39
-0.2276663 0.033722669 0.88080007 1.2903047e-38
-0.22209525 0.034361906 0.88000005 1.1701966e-38
-0.21706668 0.03394286 0.88000005 1.1603987e-38
-0.21203813 0.034361906 0.88000005 1.0867508e-38
-0.20686173 0.033722669 0.88080007 1.1149958e-38
-0.20218456 0.032720003 0.88088894 1.3369138e-38
-0.19734985 0.032752171 0.88177776 1.3744377e-38
-0.19245653 0.032777358 0.8824445 1.2537951e-38
-0.18750836 0.032794286 0.88288891 1.1244237e-38
