# .PCD v0.7 - Point Cloud Data file format
VERSION 0.7
FIELDS x y z rgb
SIZE 4 4 4 4
TYPE F F F F
COUNT 1 1 1 1
WIDTH 462
HEIGHT 1
VIEWPOINT 0 0 0 1 0 0 0
POINTS 462
DATA ascii
-0.011440001 -0.07599429 0.85800004 2.3234019e-38
-0.0089885723 -0.07599429 0.85800004 2.3142183e-38
-0.016751431 -0.071500011 0.85800004 1.4586301e-38
-0.012241694 -0.072632812 0.85688889 2.0567132e-38
-0.0073443395 -0.072632812 0.85688889 2.1302564e-38
-0.0024501588 -0.072688475 0.85755551 2.0565717e-38
0.0024514287 -0.072725721 0.85799992 1.9093413e-38
0.0057200002 -0.071091436 0.85800004 1.9278207e-38
-0.020396827 -0.067718737 0.85666674 1.365179e-38
-0.017151112 -0.067788154 0.85755551 1.8261888e-38
-0.012238519 -0.067717038 0.85666668 2.1670276e-38
-0.0073458203 -0.06775175 0.8571111 2.1302242e-38
-0.0026557143 -0.068027146 0.85799992 1.7678979e-38
0.0020428572 -0.069048576 0.85800004 1.6957934e-38
-0.020380953 -0.063588575 0.85600007 1.5127287e-38
-0.015525715 -0.064554289 0.85800004 2.2223829e-38
-0.013074286 -0.064554289 0.85800004 2.2958513e-38
0.033502858 -0.062920004 0.85800004 1.622961e-38
0.035740193 -0.063157342 0.85680008 1.5669256e-38
-0.01558 -0.077080958 0.86100006 2.2040158e-38
-0.01230889 -0.078234613 0.8616668 2.1848552e-38
-0.0073809531 -0.077080958 0.861 2.3141452e-38
-0.0024600003 -0.077080958 0.86100006 2.3139996e-38
0.0024628574 -0.076348573 0.86200011 2.2131634e-38
0.0057466673 -0.076348573 0.86200005 2.1672816e-38
0.020523811 -0.076348573 0.86200005 2.0662566e-38
-0.017544383 -0.07394743 0.86080009 1.7158771e-38
0.0075761909 -0.073100001 0.86000007 2.0105453e-38
0.01230836 -0.073027946 0.86155558 1.7344587e-38
0.017240001 -0.073064759 0.86200005 1.6883923e-38
0.022165716 -0.073064767 0.86200005 1.7071169e-38
0.027091432 -0.072859533 0.86200005 1.6886772e-38
0.031548031 -0.073299333 0.86200011 1.7248736e-38
-0.00081904768 -0.06634286 0.86000001 1.4714674e-38
0.0027847621 -0.066998102 0.86000007 1.79796e-38
0.0073756617 -0.068015248 0.86044455 2.1301502e-38
0.012305186 -0.068085514 0.86133337 1.9001579e-38
0.017005444 -0.068608165 0.86200011 1.6886378e-38
0.022165716 -0.068960011 0.86200011 1.5966553e-38
0.032005988 -0.068117015 0.86171442 1.641893e-38
0.036080003 -0.067240953 0.86100006 1.5670697e-38
-0.020476192 -0.061428577 0.86000001 1.5590403e-38
-0.01741524 -0.062897623 0.86050004 2.0839451e-38
-0.012055239 -0.062619053 0.86028588 2.1852519e-38
-0.0075847628 -0.063343816 0.86100006 1.8615994e-38
-0.0027881907 -0.064138293 0.86120003 1.5930076e-38
0.0024628574 -0.06485524 0.86200011 1.7600756e-38
0.0073885722 -0.06485524 0.86200011 2.2958151e-38
0.012314286 -0.06485524 0.86200005 2.1577358e-38
0.032017145 -0.064034291 0.86200005 1.7063241e-38
-0.020523813 -0.058287621 0.86200011 1.4207503e-38
-0.015598096 -0.059108578 0.86200005 2.3050348e-38
-0.01340889 -0.05938223 0.86200011 2.2586493e-38
0.033659048 -0.059929527 0.86200005 1.5584607e-38
0.035300955 -0.059108578 0.86200005 1.5215111e-38
-0.015724763 -0.085244767 0.86900002 2.0662492e-38
-0.012083239 -0.085906863 0.86900008 2.0754341e-38
-0.0078623816 -0.08565858 0.86900002 2.1029844e-38
-0.0024828571 -0.085244767 0.86900002 2.0938046e-38
0.0041380953 -0.085244767 0.86900002 2.1305385e-38
0.0082761906 -0.085244767 0.86900002 2.2040068e-38
-0.016264446 -0.081871435 0.86833334 2.0753307e-38
-0.01237143 -0.082477152 0.86600006 1.7070514e-38
-0.0074301595 -0.082572073 0.8670001 1.3389226e-38
-0.0022444902 -0.082326949 0.8681429 1.4128589e-38
0.0024798943 -0.081851751 0.86811113 1.3665104e-38
0.0074428585 -0.081872709 0.86833334 1.2659187e-38
0.012404763 -0.081872702 0.86833334 1.32073e-38
0.017366666 -0.081872694 0.8683334 1.6336992e-38
0.022320002 -0.08101429 0.86800003 2.0567551e-38
0.027289843 -0.081045084 0.86833334 2.2315256e-38
0.032240003 -0.08101429 0.86800003 1.7429879e-38
-0.01765505 -0.078040957 0.86620009 2.0012197e-38
-0.014004763 -0.079909526 0.86500007 2.1019518e-38
-0.0070023816 -0.07949762 0.86500007 1.8722878e-38
-0.0032952384 -0.079909526 0.86500007 1.7243765e-38
0.0024714288 -0.078261912 0.86500013 2.3323998e-38
0.007751429 -0.077675246 0.86580008 2.2957733e-38
0.012366033 -0.077498421 0.86566675 2.2590738e-38
0.017312698 -0.077498421 0.86566681 2.2039758e-38
0.022583431 -0.077639058 0.86540002 2.2223788e-38
0.027195558 -0.077468261 0.86533344 2.2040089e-38
0.032128572 -0.077438101 0.86500013 1.8813881e-38
0.035423812 -0.07661429 0.86500007 1.4656884e-38
0.027185716 -0.071259521 0.86500007 1.6429347e-38
0.033776194 -0.071671441 0.86500013 1.5952275e-38
0.036247622 -0.072495244 0.86500013 1.5120024e-38
0.012357144 -0.065080956 0.86500007 2.0933792e-38
0.017637525 -0.065770105 0.86540014 1.7160804e-38
0.022252066 -0.065929852 0.86533344 1.6333895e-38
0.027199263 -0.066762015 0.86544454 1.5965826e-38
0.030480955 -0.065904766 0.86500007 1.6792288e-38
-0.018123809 -0.060138099 0.86500007 2.0748326e-38
-0.010709524 -0.060138099 0.86500007 1.9167353e-38
-0.0070023816 -0.060550001 0.86500007 1.8800367e-38
-0.0022387758 -0.061394975 0.86614299 1.7327388e-38
0.0024769313 -0.061910585 0.86677784 1.760217e-38
0.0074337572 -0.061941911 0.86722231 2.2958513e-38
0.012391218 -0.061958209 0.86744446 2.1392979e-38
0.01759932 -0.062481504 0.8681429 1.7530377e-38
0.022526907 -0.062205482 0.86800003 1.6518264e-38
0.027283069 -0.062006671 0.86811113 1.6151303e-38
0.031197144 -0.061568197 0.86660004 1.5961213e-38
-0.017352698 -0.0572927 0.86766672 2.1484467e-38
-0.012183334 -0.056781907 0.86725003 2.0280188e-38
-0.0076776878 -0.057520691 0.8681429 1.8888214e-38
-0.0024812701 -0.057910796 0.86866665 1.6777805e-38
0.0024828573 -0.057933342 0.86900008 1.7596733e-38
0.0074485717 -0.058760956 0.86900008 2.2773031e-38
0.028139051 -0.058760956 0.86900002 1.6334308e-38
0.032277148 -0.058760956 0.86900008 1.5864041e-38
-0.015797144 -0.090625718 0.87300003 2.102989e-38
-0.012128192 -0.091207817 0.87220001 2.093801e-38
-0.0074793659 -0.091422543 0.87266678 2.112166e-38
-0.0024942858 -0.091457151 0.87300009 2.0937668e-38
0.002494286 -0.091290869 0.87300009 2.2131622e-38
0.0074828579 -0.091457151 0.87300009 2.1305001e-38
-0.017112954 -0.086886674 0.87220001 2.0754332e-38
-0.01285762 -0.088344291 0.87100005 2.066251e-38
-0.0071339058 -0.088095441 0.87100011 2.1397161e-38
-0.0024885717 -0.087574027 0.87100017 2.0937672e-38
0.0022819047 -0.087332867 0.87125015 2.1213167e-38
0.0072287079 -0.08757402 0.87100017 2.1029478e-38
0.012452383 -0.087167934 0.87166679 2.1213456e-38
0.017200138 -0.086712249 0.87185729 2.1488685e-38
0.022422861 -0.08637049 0.8720001 2.1213164e-38
0.027080193 -0.086223818 0.87220001 2.1671982e-38
0.031594288 -0.085637152 0.87300003 1.7709729e-38
-0.020785715 -0.080648579 0.87300003 1.8535664e-38
-0.018441716 -0.082567826 0.87220013 2.0844044e-38
0.022397146 -0.08378192 0.87100005 2.0750118e-38
0.027374288 -0.08378192 0.87100005 2.2037953e-38
0.031521909 -0.083781913 0.87100005 1.7613254e-38
-0.021617144 -0.078154296 0.87300003 1.687865e-38
0.016590476 -0.060555242 0.87100005 1.9005172e-38
0.020738097 -0.060555242 0.87100005 1.6886682e-38
-0.018249525 -0.055578098 0.87100005 2.0656518e-38
-0.0066361912 -0.055578098 0.87100005 1.8120396e-38
-0.0024885717 -0.055578098 0.87100005 1.9175574e-38
0.0024885717 -0.055578098 0.87100005 1.9999498e-38
0.0074657146 -0.056407623 0.87100017 2.0100776e-38
0.012452383 -0.057279687 0.87166679 2.2130547e-38
0.017437778 -0.057294291 0.871889 2.0290189e-38
0.02240508 -0.058088578 0.87133348 1.7069757e-38
0.026959525 -0.057651911 0.87100005 1.6885714e-38
0.032351434 -0.057237148 0.87100005 1.6047725e-38
-0.01744307 -0.052326247 0.8721112 2.1394435e-38
-0.012442857 -0.052260004 0.87100017 1.9903868e-38
-0.0074705831 -0.052299157 0.87166679 1.4733349e-38
-0.0024911112 -0.052312065 0.871889 2.0468778e-38
0.0024939685 -0.053190794 0.87266672 1.7598131e-38
0.0074828579 -0.053211432 0.87300009 2.055736e-38
0.011640001 -0.053211428 0.87300003 2.277412e-38
-0.017460002 -0.048389144 0.87300009 2.1301883e-38
-0.01247143 -0.048222866 0.87300009 2.2030054e-38
-0.0083142864 -0.049054287 0.87300003 1.4071437e-38
0.0041809524 -0.096161909 0.87800002 2.2315521e-38
0.0075152381 -0.096052393 0.87700003 2.1856268e-38
0.012530478 -0.096052393 0.87700003 2.1672587e-38
-0.025921907 -0.09114477 0.87800002 1.7334551e-38
-0.022577144 -0.09114477 0.87800002 1.7065831e-38
-0.017530002 -0.091823816 0.87650001 2.0570315e-38
-0.014166668 -0.092500009 0.87500006 2.1305361e-38
-0.0058533335 -0.09448953 0.87800002 2.1029897e-38
-0.0025085716 -0.094489537 0.87800002 2.1213561e-38
0.0025007143 -0.09383072 0.87575001 2.2591166e-38
0.0075000003 -0.094166681 0.87500012 2.1672696e-38
0.012514288 -0.09260761 0.87600011 2.0662479e-38
0.017214669 -0.091751441 0.87740004 2.0478811e-38
0.022577144 -0.09114477 0.87800002 2.0111447e-38
0.027594289 -0.09114477 0.87800002 2.0386988e-38
0.03177524 -0.09114477 0.87800002 1.6783135e-38
-0.026479369 -0.086685084 0.87800002 1.8446268e-38
-0.022534922 -0.087635241 0.87633336 1.8265089e-38
-0.018633019 -0.08871302 0.87600011 1.9927088e-38
0.018333334 -0.089166671 0.87500006 2.0846181e-38
0.022500001 -0.089166671 0.87500012 1.9927788e-38
0.027941668 -0.088826433 0.87575001 2.1304252e-38
0.031720951 -0.088486195 0.87650001 1.7335196e-38
-0.022739405 -0.08281441 0.8761251 1.9920727e-38
0.022500001 -0.055833336 0.87500012 1.7620444e-38
0.027500004 -0.055833336 0.87500012 1.780659e-38
0.03261143 -0.056024767 0.87800002 1.6137416e-38
0.0025000002 -0.050833337 0.87500012 1.4444153e-38
0.0075000003 -0.050833337 0.87500012 1.9828191e-38
0.013176382 -0.051868197 0.87560004 2.2498615e-38
0.017520001 -0.052558102 0.87600011 2.1486946e-38
0.022368096 -0.052889049 0.87800014 2.0291603e-38
0.027259812 -0.05368343 0.87800008 2.0290842e-38
0.03177524 -0.054352384 0.87800002 1.7059017e-38
-0.016964447 -0.046441272 0.87600011 2.2865954e-38
-0.012500001 -0.045833342 0.87500012 2.0560326e-38
-0.0072684363 -0.047068708 0.87585723 1.6131646e-38
-0.002502857 -0.047552388 0.87599999 2.3231455e-38
0.0022963097 -0.047808692 0.87687504 1.3990057e-38
0.007525715 -0.048499055 0.87800014 1.8259091e-38
0.012208383 -0.048666291 0.87800008 2.1851443e-38
0.017560001 -0.049335241 0.87800002 1.9643014e-38
0.020904763 -0.049335241 0.87800002 1.7706897e-38
-0.01588762 -0.043481909 0.87800002 2.2958513e-38
-0.012751906 -0.042854764 0.87800014 1.7511416e-38
-0.00794381 -0.043900002 0.87800002 1.5287552e-38
-0.0025085716 -0.044318099 0.87800002 2.3325854e-38
0.0075473022 -0.098131441 0.88066673 1.891528e-38
0.010895239 -0.098057151 0.88000005 1.8911719e-38
0.017614607 -0.09645398 0.88066673 2.2223606e-38
0.022679999 -0.096600011 0.88200009 2.1488964e-38
0.027739685 -0.096673027 0.88266677 2.0291114e-38
-0.027992381 -0.092358105 0.88000005 1.797956e-38
-0.022628574 -0.093028575 0.88000005 1.6975812e-38
-0.019276192 -0.093028575 0.88000005 1.9193137e-38
0.01801905 -0.094285727 0.88000005 2.1213494e-38
0.022645082 -0.093938425 0.88066673 2.0662482e-38
0.027678099 -0.093938425 0.88066667 1.9740157e-38
0.031044763 -0.093974292 0.88100004 1.7239444e-38
-0.028215876 -0.088558733 0.88000005 1.7792298e-38
-0.026829526 -0.083002225 0.88033336 1.8073962e-38
-0.026560638 -0.079120636 0.88066673 1.751934e-38
-0.024304764 -0.078780957 0.88000005 1.77988e-38
0.024304764 -0.051123813 0.88000005 2.0473168e-38
0.028092859 -0.051571909 0.88050008 2.1852143e-38
0.032957006 -0.052370891 0.88085723 1.6501548e-38
0.036038097 -0.052800007 0.88000005 1.4474669e-38
-0.019276192 -0.046095241 0.88000005 1.8633965e-38
0.0041904766 -0.046095241 0.88000005 1.3592116e-38
0.0075428579 -0.046095245 0.88000005 1.7059077e-38
0.012990477 -0.046514288 0.88000005 2.0560682e-38
0.017620003 -0.046985716 0.88100004 1.6045261e-38
0.022864288 -0.047614764 0.88099998 1.5220164e-38
0.027721273 -0.047878731 0.88199997 2.1390453e-38
0.032826457 -0.047976088 0.88377774 1.6132401e-38
-0.017657524 -0.042879622 0.88280004 2.1668846e-38
-0.010895239 -0.041066669 0.88000005 1.1156694e-38
-0.0072076204 -0.041737147 0.88000005 1.8260079e-38
-0.0025145242 -0.042544998 0.88025004 2.3234016e-38
0.0025185188 -0.042805929 0.88133341 1.9999919e-38
0.0075646564 -0.042859469 0.88244438 1.7979894e-38
0.012616296 -0.042892694 0.88311112 1.6226001e-38
0.017439459 -0.043418236 0.884 1.5951607e-38
0.022723494 -0.043762229 0.88366669 1.8161027e-38
0.027782857 -0.043779053 0.884 1.8428675e-38
0.032593742 -0.04341824 0.884 1.5484469e-38
-0.016533334 -0.038948573 0.88266677 2.0560688e-38
-0.012604083 -0.038290076 0.88228583 1.5851843e-38
-0.0075592394 -0.038806479 0.88200009 2.0195127e-38
-0.0025206353 -0.039509844 0.88266677 2.2865955e-38
0.0025257147 -0.039569527 0.88400006 2.1297531e-38
0.0067352382 -0.039569527 0.88400006 2.2864122e-38
0.018584764 -0.041393336 0.88700002 1.6222476e-38
0.022808572 -0.041393336 0.88700002 1.9724083e-38
0.027877145 -0.041393336 0.88700002 1.8150262e-38
0.033790477 -0.041393336 0.88700002 1.4842714e-38
-0.017780002 -0.038100004 0.88900012 1.8442349e-38
-0.01267143 -0.036324766 0.88700002 1.6044149e-38
-0.0076028574 -0.036747146 0.88700002 1.9272129e-38
-0.0025342859 -0.037169531 0.88700002 2.249789e-38
0.0025355557 -0.03719683 0.8876667 1.9631949e-38
0.0078515653 -0.037566673 0.88785726 2.2496797e-38
0.012680952 -0.038041592 0.8876667 1.5752805e-38
0.017753333 -0.038041588 0.8876667 1.0973058e-38
0.022831852 -0.038051117 0.88788891 1.7883762e-38
0.027900718 -0.038256668 0.88775003 1.7607129e-38
0.032473069 -0.038267352 0.88728583 1.5580287e-38
-0.016086668 -0.034713335 0.88900006 1.6316674e-38
-0.012683703 -0.032977462 0.88788897 1.1439779e-38
-0.0076200003 -0.033020001 0.88900006 1.0889905e-38
-0.0028786671 -0.034035999 0.88900006 2.2220945e-38
0.0029633336 -0.034290001 0.88900006 2.0558556e-38
0.0076200003 -0.034713335 0.88900012 2.2682999e-38
0.012700001 -0.034713335 0.88900012 1.7139685e-38
0.017780002 -0.034713335 0.88900012 1.3916735e-38
-0.012700001 -0.029210003 0.88900006 8.2997016e-39
-0.019517144 -0.042428575 0.89100003 1.8999864e-38
-0.021285716 -0.03661143 0.89400005 1.3654694e-38
-0.018951431 -0.037054293 0.89100003 1.6142538e-38
0.028002858 -0.036488574 0.89100003 1.6420774e-38
-0.021285716 -0.034908574 0.89400005 1.3280873e-38
-0.018064288 -0.032937143 0.89250004 1.5672115e-38
-0.0021214287 -0.03182143 0.89100003 2.0468869e-38
0.0022062859 -0.032076005 0.89099997 2.0193353e-38
0.0076500005 -0.032298572 0.8925001 2.2130907e-38
0.012758095 -0.032317147 0.89300001 1.8248583e-38
0.017860956 -0.032317147 0.89300007 1.7609292e-38
0.022950001 -0.033998579 0.8925001 1.7600258e-38
0.027827758 -0.033658784 0.89314294 1.613841e-38
0.031502858 -0.033205718 0.89400005 1.438282e-38
-0.016744763 -0.029232383 0.89400005 1.2716765e-38
-0.012736 -0.027002288 0.89160007 4.6176722e-39
-0.0076457155 -0.028032383 0.89200002 1.1989315e-38
-0.0025507936 -0.028064447 0.89300007 1.9081927e-38
0.0025542858 -0.028948573 0.89400005 1.7975618e-38
0.0072371433 -0.029374287 0.89400005 1.8067493e-38
0.01277143 -0.029800003 0.89400005 2.010504e-38
0.017880002 -0.029800003 0.89400005 1.714794e-38
-0.011920001 -0.024691431 0.89400005 1.1719231e-38
-0.0076628579 -0.024691431 0.89400005 1.6882456e-38
-0.004257143 -0.024691431 0.89400005 2.1115948e-38
-0.021919368 -0.046399366 0.89666671 1.4847476e-38
-0.021796668 -0.04145667 0.89750004 1.5954514e-38
-0.022488257 -0.037859686 0.89666671 1.5398468e-38
-0.021933971 -0.033328258 0.89733338 1.3922263e-38
0.023040002 -0.031573337 0.89600009 1.8349699e-38
0.029013336 -0.031573337 0.89600003 1.60415e-38
-0.017930001 -0.027748097 0.89649999 1.3259872e-38
0.0025600004 -0.026453337 0.89600009 1.7135055e-38
0.0080213342 -0.027136004 0.89600003 1.520833e-38
0.012800001 -0.027306668 0.89600003 1.872069e-38
0.017920002 -0.027306667 0.89600003 1.7974427e-38
0.023057144 -0.028179685 0.89666677 1.853338e-38
0.028160002 -0.028160002 0.89600003 1.6784167e-38
-0.016249524 -0.023946669 0.89800006 1.6958448e-38
-0.013048436 -0.022559186 0.89628577 1.6780316e-38
-0.0076843547 -0.022565987 0.89657146 1.8172571e-38
-0.0023488095 -0.022844527 0.89675009 1.9544687e-38
0.002561905 -0.023055876 0.89666665 1.6668623e-38
0.0074795247 -0.023291431 0.8975001 1.3536895e-38
0.012828574 -0.023946669 0.89800012 1.5483111e-38
0.017960001 -0.023946669 0.89800012 1.4569765e-38
0.023519048 -0.024374288 0.89800006 1.5117157e-38
0.027880764 -0.02377562 0.89800006 1.3183552e-38
-0.012400953 -0.019242859 0.89800006 1.4846429e-38
-0.0017104764 -0.019670477 0.89800006 1.9640868e-38
0.0017104764 -0.019670477 0.89800006 1.9352394e-38
-0.027490478 -0.045529529 0.90200007 1.7058689e-38
-0.024312701 -0.046051115 0.90100002 1.6412612e-38
-0.027090002 -0.042570002 0.90300006 1.715196e-38
-0.024198286 -0.042389907 0.90100002 1.6595181e-38
-0.02745905 -0.036040004 0.90100002 1.7978483e-38
-0.024884766 -0.036898099 0.90100002 1.6873216e-38
-0.022336192 -0.030926669 0.90200007 1.4935661e-38
-0.021500001 -0.027520001 0.90300006 1.5587084e-38
-0.019736191 -0.02745905 0.90100002 1.5314378e-38
-0.021500001 -0.024080001 0.90300006 1.5590084e-38
-0.0185166 -0.022930207 0.90128577 1.8813676e-38
0.0094390484 -0.021452382 0.90100002 1.4473935e-38
0.012871429 -0.021452382 0.90100002 1.3916829e-38
0.01802 -0.021452382 0.90100002 1.225872e-38
0.022845143 -0.022157906 0.9018001 1.5483374e-38
0.02745905 -0.021452382 0.90100002 1.6783538e-38
0.030033335 -0.021452382 0.90100002 1.4115614e-38
-0.017364763 -0.018739238 0.90260011 1.80772e-38
-0.013214667 -0.016990287 0.90100002 1.512084e-38
-0.0077262437 -0.018028043 0.90144455 1.5586861e-38
-0.002822177 -0.017550886 0.902143 1.7798832e-38
0.002824354 -0.017562315 0.90271437 2.0374515e-38
0.0072412249 -0.01828694 0.902143 1.7700768e-38
0.0129 -0.019780001 0.90300006 1.3266384e-38
0.018060002 -0.019780001 0.90300006 1.1052359e-38
0.023220001 -0.019780001 0.90300006 1.9821636e-38
0.027520001 -0.019780001 0.90300006 2.120533e-38
0.030673336 -0.018633334 0.90300006 1.4196311e-38
-0.0129 -0.01376 0.90300006 1.5390963e-38
-0.008879683 -0.014035873 0.90233344 1.5488919e-38
-0.028537145 -0.041508574 0.90800005 1.7335622e-38
-0.026719049 -0.038785718 0.90500003 1.7426388e-38
-0.025078097 -0.030266669 0.90800005 1.6779959e-38
-0.02327143 -0.030166669 0.90500003 1.5672177e-38
-0.025078099 -0.026807621 0.90800011 1.6137454e-38
-0.02327143 -0.027580954 0.90500003 1.5948396e-38
-0.025078097 -0.023348574 0.90800005 1.622642e-38
-0.022859763 -0.022858335 0.90575004 1.5489232e-38
-0.02159524 -0.018138096 0.90700006 1.5773376e-38
-0.018961906 -0.017238095 0.90500003 1.8719688e-38
0.0094809532 -0.017238095 0.90500003 2.0643782e-38
0.012928572 -0.017238095 0.90500009 1.8983518e-38
0.018110953 -0.017247144 0.90550011 2.0096091e-38
0.023284286 -0.017247144 0.90550011 2.2314228e-38
0.027626669 -0.017265238 0.90650004 2.083803e-38
0.031028572 -0.016376192 0.90500003 1.2802264e-38
-0.017574444 -0.013539842 0.90750003 1.7700148e-38
-0.012928573 -0.011204762 0.90500009 1.6142507e-38
-0.0071825404 -0.01235397 0.90500009 1.5953832e-38
-0.0025857145 -0.012928573 0.90500003 1.8166175e-38
0.0025895245 -0.012945715 0.90633339 2.0285943e-38
0.0077669844 -0.012941588 0.90600014 2.1208609e-38
0.012957144 -0.012955238 0.90700012 2.1115336e-38
0.018159999 -0.01297143 0.90800011 2.0930944e-38
0.022483811 -0.013836191 0.90800005 2.1758906e-38
0.02637524 -0.014268572 0.90800005 2.1115319e-38
0.031097148 -0.012955239 0.90700006 8.7449418e-39
-0.01318762 -0.0079990476 0.90800005 1.7337096e-38
-0.0077776196 -0.008642382 0.90750003 1.6506573e-38
-0.0029401907 -0.0088205719 0.90800011 1.5864827e-38
0.0021619049 -0.0090800002 0.90800005 1.5130175e-38
0.0077828579 -0.0095123816 0.90800011 1.4583487e-38
0.012971429 -0.0095123816 0.90800011 1.5684437e-38
-0.026288889 -0.031488892 0.91000003 1.6965442e-38
-0.026866671 -0.026866671 0.91000003 1.6784254e-38
-0.026318414 -0.022268256 0.91100001 1.6690988e-38
-0.025188573 -0.018238097 0.91200006 1.7520005e-38
-0.023425717 -0.018218098 0.91100001 1.6684503e-38
-0.025216192 -0.013912382 0.91300005 1.761333e-38
-0.022405146 -0.013372381 0.91180003 1.7521888e-38
-0.019355558 -0.011844445 0.91000003 1.752081e-38
0.022533335 -0.011266667 0.91000003 1.8538907e-38
0.027213335 -0.011960002 0.91000003 1.9268884e-38
-0.021738097 -0.0078257155 0.91300005 1.788561e-38
-0.01823524 -0.0078136511 0.91166669 1.5585044e-38
-0.011266667 -0.0060666669 0.91000003 1.9361445e-38
-0.0078000007 -0.0060666669 0.91000003 1.8441266e-38
-0.0021666668 -0.0065000001 0.91000003 1.7334565e-38
0.0029466669 -0.0067600007 0.91000003 1.7982797e-38
0.0078000007 -0.0069333343 0.91000003 1.835123e-38
0.013015239 -0.0069400012 0.91100001 1.95494e-38
0.01802012 -0.0080313096 0.91187507 1.8170112e-38
0.022589764 -0.0086873807 0.91225004 1.7621624e-38
0.026955239 -0.0086952401 0.91300005 1.8260138e-38
0.03108781 -0.0078131435 0.91180003 3.9636988e-39
-0.018260002 -0.0043476196 0.91300005 9.7850528e-39
-0.013027621 -0.0034733335 0.91200006 1.4302608e-38
-0.0082604773 -0.0039128573 0.91300005 1.8537112e-38
-0.0026085717 -0.0043476196 0.91300005 1.8720769e-38
0.0029563811 -0.0036520001 0.91300005 1.9086676e-38
0.0078257145 -0.0039128573 0.91300005 1.973421e-38
0.012173334 -0.0043476191 0.91300005 2.1025295e-38
0.032172382 -0.0034780954 0.91300005 4.3356553e-39
-0.027014287 -0.020042859 0.91500002 1.6970085e-38
-0.027073335 -0.018340001 0.91700006 1.7336703e-38
-0.025271431 -0.011328572 0.91500002 1.7244918e-38
-0.023528572 -0.011328572 0.91500002 1.7337862e-38
-0.025271431 -0.0069714291 0.91500002 1.6230766e-38
-0.023545718 -0.0078498423 0.9156667 1.7245655e-38
0.021785717 -0.0061000003 0.91500008 2.2496801e-38
0.027014289 -0.0061000003 0.91500008 1.6592313e-38
-0.025326669 -0.004366667 0.91700006 1.6137492e-38
-0.02201 -0.0023966669 0.91525 1.4757423e-38
-0.017447621 -0.0017438096 0.91600007 2.7767065e-39
-0.013071431 -0.00087142864 0.91500008 1.0961989e-38
-0.0074942857 -0.0015685715 0.91500008 1.6967279e-38
-0.0026146034 -0.0017431746 0.91533339 1.8534944e-38
0.0021790478 -0.0013076192 0.91550004 1.8532783e-38
0.0078428574 -0.0015685715 0.91500008 1.9822814e-38
0.013325037 -0.0021165989 0.91528577 2.0102275e-38
0.017441273 -0.002614921 0.91566676 1.8903001e-38
0.021828467 -0.0026189419 0.91677773 1.3272574e-38
0.027059367 -0.0026183075 0.91655552 5.4352248e-39
0.031545717 -0.0019171432 0.91500008 3.227905e-39
-0.021542221 0.002037778 0.917 9.394595e-39
-0.017466668 0.0017466667 0.91700006 4.9832289e-39
-0.013093228 0.0026195769 0.91655552 1.023083e-38
-0.007641667 0.0024016669 0.91699994 1.1431185e-38
-0.0032022228 0.002037778 0.917 1.3275134e-38
0.0026200004 0.0017466669 0.917 1.5306324e-38
0.0078600012 0.00087333343 0.91700006 1.9914626e-38
0.013100001 0.00087333343 0.91700006 1.5583615e-38
0.018340001 0.00087333337 0.91700006 1.1331146e-38
0.028820002 0.0017466667 0.91700006 8.575501e-39
0.031265333 0.0022706669 0.917 4.8852263e-39
-0.013100001 0.0061133336 0.91700006 1.1794875e-38
-0.026285717 -0.0026285716 0.92000002 1.6597014e-38
-0.025464764 0.00087809528 0.92200005 1.7424977e-38
-0.022488892 0.0037968257 0.92000002 1.2715413e-38
-0.01752381 0.0043809526 0.92000002 9.9520427e-39
-0.0096380962 0.0043809526 0.92000002 1.2072914e-38
-0.0014603175 0.0037968257 0.92000002 1.1248972e-38
0.0026285714 0.0043809526 0.92000002 9.6816664e-39
0.0078942869 0.003509524 0.921 1.1806123e-38
0.013153652 0.0026304764 0.92066669 1.2907045e-38
0.017257145 0.0020482542 0.92133331 1.1897216e-38
0.022182861 0.002131701 0.92114288 1.2073191e-38
0.026685445 0.0028824494 0.92085725 1.2898973e-38
0.032419048 0.0043809526 0.92000002 4.2280215e-39
