# .PCD v0.7 - Point Cloud Data file format
VERSION 0.7
FIELDS x y z rgb
SIZE 4 4 4 4
TYPE F F F F
COUNT 1 1 1 1
WIDTH 552
HEIGHT 1
VIEWPOINT 0 0 0 1 0 0 0
POINTS 552
DATA ascii
-0.18762335 -0.052756671 0.83300006 1.3736758e-38
-0.18286332 -0.052756671 0.83300012 1.7052603e-38
-0.17759907 -0.052725717 0.8325001 2.1011207e-38
-0.18722668 -0.049980003 0.83300006 1.4940347e-38
-0.18275428 -0.047570955 0.8325001 1.4568698e-38
-0.17765844 -0.047964327 0.83192313 1.8531243e-38
-0.17374001 -0.049980003 0.83300006 1.8076429e-38
-0.18088001 -0.043633334 0.83300006 1.5859784e-38
-0.17770669 -0.043633334 0.83300006 1.9731947e-38
-0.20056097 -0.061526671 0.83900005 1.7234068e-38
-0.19576667 -0.061526671 0.83900005 1.8808329e-38
-0.17738858 -0.061526671 0.83900005 2.1291047e-38
-0.17499144 -0.061526671 0.83900005 2.2208619e-38
-0.20056097 -0.05833048 0.83900005 1.7983443e-38
-0.19690517 -0.057490863 0.83840007 1.6222426e-38
-0.19226445 -0.05823905 0.83766669 1.742026e-38
-0.18752711 -0.058254499 0.83788896 2.1478691e-38
-0.18278764 -0.058269951 0.83811116 2.2402466e-38
-0.17768839 -0.057901908 0.83739996 2.0926235e-38
-0.17246467 -0.057489648 0.83837503 2.0646034e-38
-0.16859905 -0.055933338 0.83900005 2.1298215e-38
-0.19614384 -0.052960958 0.83833337 1.8902945e-38
-0.19188114 -0.052435588 0.83536369 1.622851e-38
-0.18727858 -0.054076195 0.83500004 1.5760046e-38
-0.18131429 -0.054871432 0.83500004 2.1941138e-38
-0.17574763 -0.053280957 0.83500004 2.0548426e-38
-0.17218022 -0.052133527 0.83700001 1.843877e-38
-0.19191824 -0.047322862 0.83814299 1.7614407e-38
-0.18746382 -0.046722863 0.83557147 1.4019149e-38
-0.17574763 -0.046123814 0.83500004 2.1205651e-38
-0.17312524 -0.047217149 0.83675003 1.9821318e-38
-0.18715382 -0.043495718 0.838 1.6416185e-38
-0.18277349 -0.041791979 0.83700007 1.5952334e-38
-0.17747499 -0.041778099 0.83671433 2.0285138e-38
-0.17405336 -0.042315241 0.83833349 2.1852127e-38
-0.18272813 -0.037743337 0.83875012 1.6782744e-38
-0.17828071 -0.03773167 0.83850008 2.001108e-38
-0.17499146 -0.03755524 0.83900011 2.1759958e-38
-0.18138382 -0.034359049 0.83900005 1.8436527e-38
-0.17978573 -0.034359049 0.83900005 1.8813985e-38
-0.20633429 -0.065031432 0.84300005 1.8885376e-38
-0.20312288 -0.065031432 0.84300011 1.9452252e-38
-0.19991145 -0.065031432 0.84300005 2.2131993e-38
-0.20783122 -0.061787833 0.84255552 1.4656214e-38
-0.20284121 -0.061673339 0.84100002 1.5856897e-38
-0.19803526 -0.062424365 0.84185719 2.0278343e-38
-0.19245622 -0.062549531 0.84200001 2.1571265e-38
-0.18726982 -0.062424365 0.84185725 2.0738941e-38
-0.18203239 -0.062549531 0.84200013 2.0925161e-38
-0.17701051 -0.06327524 0.84100002 2.2206486e-38
-0.17260525 -0.062073812 0.84100002 2.2573448e-38
-0.16829954 -0.060908101 0.84150004 2.0181412e-38
-0.20661335 -0.057369526 0.84249997 1.1515794e-38
-0.20296265 -0.056700721 0.84150004 1.7337446e-38
-0.19943716 -0.055265717 0.84100002 1.9083063e-38
-0.16739622 -0.056957148 0.84233332 2.1850345e-38
-0.20232001 -0.053791434 0.84300005 1.7801329e-38
-0.19834459 -0.051790293 0.84180003 1.9551234e-38
-0.17060287 -0.050460003 0.84100002 1.9366842e-38
-0.16880049 -0.052524291 0.84200001 2.2131608e-38
-0.19670001 -0.048171431 0.84300005 1.9183182e-38
-0.19463144 -0.046455242 0.84100002 1.9181391e-38
-0.17130764 -0.046940003 0.84250009 1.6880062e-38
-0.16940287 -0.04897429 0.84300005 2.0477142e-38
-0.19202116 -0.042830672 0.84219998 1.9087724e-38
-0.18833573 -0.041673813 0.84150004 1.7703645e-38
-0.17200905 -0.04290048 0.84200001 1.8713898e-38
-0.18718605 -0.037704445 0.84233344 1.8072754e-38
-0.17701049 -0.036042858 0.84100002 2.2126939e-38
-0.17394446 -0.037673339 0.8416667 2.1762806e-38
-0.18546002 -0.033720002 0.84300005 1.8167484e-38
-0.18229266 -0.032424357 0.84214288 1.8441585e-38
-0.17719758 -0.032872487 0.8418889 2.1209265e-38
-0.17422001 -0.032917146 0.84300005 2.0372304e-38
-0.18144572 -0.029705716 0.84300005 1.7341057e-38
-0.17903715 -0.029705716 0.84300005 1.835303e-38
-0.21617272 -0.07080128 0.84800005 2.3047461e-38
-0.21401906 -0.070262864 0.84800005 2.3412652e-38
-0.21724956 -0.067032382 0.84800011 1.751574e-38
-0.21227486 -0.066730864 0.84619999 1.8160373e-38
-0.20747417 -0.067393064 0.84671432 2.1387581e-38
-0.20293547 -0.067376912 0.84725004 2.2674974e-38
-0.19739811 -0.065262869 0.84600008 2.0928627e-38
-0.19302098 -0.065417156 0.84800005 2.0346494e-38
-0.18817525 -0.065820962 0.84800005 2.0929486e-38
-0.18223183 -0.066016965 0.84740013 2.1931675e-38
-0.1773605 -0.066378258 0.84650004 2.2480532e-38
-0.17252277 -0.066915534 0.84650004 2.284824e-38
-0.16755894 -0.066339888 0.84687507 2.2389403e-38
-0.1626545 -0.06606324 0.84800005 2.1562574e-38
-0.15910096 -0.065417148 0.84800005 2.1018052e-38
-0.22048001 -0.062994286 0.84800005 1.6415488e-38
-0.21789566 -0.062509723 0.84800005 1.8996627e-38
-0.21326192 -0.061966673 0.84500015 1.862999e-38
-0.17221907 -0.063576192 0.84500003 2.3217369e-38
-0.16721986 -0.06280905 0.84549999 2.0825703e-38
-0.16321366 -0.061934505 0.847 2.175672e-38
-0.2156343 -0.058956195 0.84800005 1.9087374e-38
-0.21207048 -0.05724889 0.84666663 1.5761874e-38
-0.20843334 -0.056333337 0.84500003 1.3519206e-38
-0.16658573 -0.058747623 0.84500003 2.157414e-38
-0.16385645 -0.057441428 0.84650004 2.3049982e-38
-0.211327 -0.05357207 0.84800005 1.5946956e-38
-0.20715079 -0.052390158 0.84633338 1.5660662e-38
-0.20246175 -0.051379811 0.84560007 1.7060914e-38
-0.16660419 -0.052177981 0.84612507 2.3325847e-38
-0.16394667 -0.054110479 0.84800005 2.2958136e-38
-0.20675048 -0.049264766 0.84800005 1.5294063e-38
-0.20242156 -0.047829643 0.84762502 1.7242781e-38
-0.19855025 -0.04711929 0.84575003 1.9370105e-38
-0.1682905 -0.047363333 0.84650004 2.2130192e-38
-0.19778955 -0.042786986 0.84766674 1.7610803e-38
-0.19314286 -0.041042861 0.84500003 1.8811862e-38
-0.17128161 -0.042214926 0.84700006 1.890046e-38
-0.16929859 -0.044340476 0.84650004 2.0747252e-38
-0.19678986 -0.039034922 0.84800005 1.8532692e-38
-0.19264287 -0.037882224 0.8463335 1.973344e-38
-0.18911906 -0.036214288 0.84500003 1.8904745e-38
-0.17292716 -0.038293336 0.84650004 2.1209615e-38
-0.19194415 -0.034189209 0.84800005 1.9271766e-38
-0.18825634 -0.032813884 0.84628576 1.8167518e-38
-0.17463334 -0.032995239 0.84500003 2.0281164e-38
-0.18707411 -0.028568571 0.84740013 1.6131262e-38
-0.18250583 -0.026908228 0.84690922 1.4565428e-38
-0.17748594 -0.028041482 0.84666675 1.6777699e-38
-0.18009906 -0.023420954 0.84800005 1.2711328e-38
-0.21390668 -0.075640008 0.85400003 2.1390471e-38
-0.18137334 -0.075640008 0.85400003 2.2948716e-38
-0.17974667 -0.075640008 0.85400003 2.2935781e-38
-0.21502858 -0.073840007 0.85200006 2.3415169e-38
-0.21221124 -0.072361484 0.85155565 2.1574489e-38
-0.20723772 -0.07205715 0.85200006 1.9721578e-38
-0.20236191 -0.072331443 0.85333341 1.9636201e-38
-0.19733144 -0.072274923 0.85266674 2.147471e-38
-0.19279405 -0.072121195 0.85325009 2.1932434e-38
-0.18758422 -0.071898244 0.85371435 2.1933503e-38
-0.1829052 -0.072349854 0.85355562 2.2575987e-38
-0.17788871 -0.072293773 0.852889 2.3033343e-38
-0.17364447 -0.071024768 0.8506667 2.3032627e-38
-0.20172827 -0.068863504 0.8506667 2.0340974e-38
-0.19724356 -0.067907482 0.85028577 1.9080887e-38
-0.19185716 -0.068000004 0.85000002 2.0097549e-38
-0.18685146 -0.068226673 0.85080004 2.1838429e-38
-0.18265572 -0.06844525 0.85049999 2.2388691e-38
-0.17809525 -0.068809532 0.85000002 2.2851086e-38
-0.22100002 -0.06071429 0.85000002 1.5679018e-38
-0.21938096 -0.06071429 0.85000002 1.8088707e-38
-0.16109525 -0.062333338 0.85000002 2.2403886e-38
-0.15840465 -0.06199538 0.85171431 2.1206782e-38
-0.22237869 -0.05799086 0.85280001 1.3274737e-38
-0.21809334 -0.057307143 0.85049999 1.8722931e-38
-0.16150002 -0.057071432 0.85000002 2.2957785e-38
-0.15882859 -0.057800002 0.85000002 2.2405667e-38
-0.22122668 -0.054493338 0.85400003 1.2838233e-38
-0.21663049 -0.053140957 0.85320008 1.7605785e-38
-0.21303001 -0.052244287 0.85049999 1.5580731e-38
-0.1625541 -0.052381802 0.85200006 2.2682597e-38
-0.15913287 -0.052772857 0.85250008 2.2590345e-38
-0.21167874 -0.047911748 0.85266674 1.4653025e-38
-0.20772381 -0.047438104 0.85000002 1.566026e-38
-0.20480953 -0.046142861 0.85000002 1.4846321e-38
-0.16595238 -0.04776191 0.85000008 2.2866294e-38
-0.1630419 -0.048272386 0.85266668 2.231522e-38
-0.15860002 -0.049613338 0.85400003 2.1947073e-38
-0.20669715 -0.043614607 0.85333341 1.6685568e-38
-0.20246065 -0.042920958 0.85033339 1.6863119e-38
-0.17080954 -0.041285716 0.85000002 2.0835101e-38
-0.16755858 -0.043208096 0.85200006 2.2037942e-38
-0.20238505 -0.038200546 0.85342866 1.2164741e-38
-0.19845003 -0.037664291 0.85049999 1.7708001e-38
-0.17185982 -0.037811812 0.85200006 2.1209241e-38
-0.16958001 -0.038633335 0.85400003 2.1485828e-38
-0.20089334 -0.034973335 0.85400003 1.2992437e-38
-0.19714479 -0.033765174 0.85285723 1.835485e-38
-0.19289336 -0.03160762 0.85100001 1.7611861e-38
-0.17333953 -0.033084761 0.85250002 1.9449606e-38
-0.19151543 -0.028099811 0.85280007 1.5669925e-38
-0.18762666 -0.025529526 0.85099995 1.5754895e-38
-0.17627811 -0.02634 0.85100007 1.8987154e-38
-0.17421372 -0.02776267 0.85240012 1.9166174e-38
-0.18662986 -0.021907303 0.85200012 1.5660544e-38
-0.18250597 -0.02167262 0.85075003 1.3448966e-38
-0.17784025 -0.021924866 0.85266674 1.732977e-38
-0.18625334 -0.017893335 0.85400003 1.584852e-38
-0.18268953 -0.017272381 0.85350007 1.5660886e-38
-0.17893335 -0.017893335 0.85400003 1.6855872e-38
-0.21189444 -0.077785581 0.85714293 2.0929082e-38
-0.20735963 -0.077557333 0.85719997 2.1198835e-38
-0.20241477 -0.077539518 0.85699999 2.2392309e-38
-0.19771239 -0.077509202 0.85666668 2.2574908e-38
-0.19312 -0.077289999 0.85650003 2.2851481e-38
-0.18750477 -0.076632388 0.85600001 2.3046709e-38
-0.18342859 -0.07663238 0.85600007 2.3140296e-38
-0.17772192 -0.075817145 0.85600007 2.2941855e-38
-0.19158097 -0.074186675 0.85600007 2.267067e-38
-0.18913525 -0.074186675 0.85600007 2.2397019e-38
-0.22200477 -0.052236196 0.85699999 1.2373313e-38
-0.21875559 -0.051903497 0.85600013 1.9631208e-38
-0.22144572 -0.049845718 0.85800004 1.5040571e-38
-0.21800891 -0.04980699 0.85733336 1.7881315e-38
-0.21465811 -0.047338098 0.85700005 1.5025067e-38
-0.1612705 -0.047048256 0.85666674 2.1764491e-38
-0.1586743 -0.047084447 0.85733336 2.1764103e-38
-0.21144269 -0.043267433 0.85720009 1.3911852e-38
-0.20859113 -0.041608259 0.85666674 1.770727e-38
-0.16599762 -0.041600477 0.85650009 2.1854945e-38
-0.1631424 -0.044048101 0.85650003 2.185564e-38
-0.20657653 -0.038374607 0.85733336 1.8526166e-38
-0.20408128 -0.035598733 0.85600013 1.2902282e-38
-0.17038478 -0.035055239 0.85600007 2.0008877e-38
-0.16781279 -0.037666943 0.85714293 2.1207428e-38
-0.20510288 -0.033502858 0.85800004 1.594595e-38
-0.2018781 -0.032149337 0.85680008 1.4460286e-38
-0.19821858 -0.030996669 0.85650003 1.6876127e-38
-0.19484192 -0.030163812 0.85600007 1.7240558e-38
-0.1715223 -0.032150861 0.85680008 1.9357026e-38
-0.1961143 -0.027782859 0.85800004 1.6500453e-38
-0.19321144 -0.026902858 0.85600007 1.6132359e-38
-0.17282821 -0.026601145 0.85680008 1.8982512e-38
-0.19202858 -0.022880003 0.85800004 1.6864839e-38
-0.18995051 -0.022011429 0.85600013 1.6953787e-38
-0.1752762 -0.022011429 0.85600013 1.8708329e-38
-0.17405145 -0.022062859 0.85800004 1.8432139e-38
-0.1903943 -0.018794287 0.85800004 1.6405653e-38
-0.18709716 -0.016712382 0.85600007 1.6032941e-38
-0.18016763 -0.015489525 0.85600007 1.8981335e-38
-0.17655784 -0.016897961 0.8565715 1.8156265e-38
-0.18620048 -0.013066191 0.85750002 1.4286318e-38
-0.18203409 -0.012243176 0.8571111 1.6684028e-38
-0.17854573 -0.012665715 0.85800004 1.8799155e-38
-0.21131429 -0.081085719 0.86000001 2.165438e-38
-0.20721906 -0.081085727 0.86000001 2.3225262e-38
-0.20261779 -0.08203239 0.86133337 2.303841e-38
-0.19083811 -0.079447627 0.86000001 2.3035484e-38
-0.18785143 -0.0795708 0.86133337 2.2949038e-38
-0.22412002 -0.050078098 0.86200005 1.0052978e-38
-0.22083621 -0.047615241 0.86200005 1.9632281e-38
-0.21757367 -0.04673937 0.86100006 1.6588767e-38
-0.1613524 -0.045047622 0.86000001 2.1305307e-38
-0.15889525 -0.045047622 0.86000001 2.1578295e-38
-0.21645781 -0.042963177 0.86200011 1.5572853e-38
-0.21298745 -0.041154291 0.86080009 1.1789961e-38
-0.16273743 -0.041826941 0.86114287 2.1396823e-38
-0.15762287 -0.043510478 0.86200005 1.9552594e-38
-0.21127288 -0.037330955 0.86150002 1.8349059e-38
-0.20856906 -0.036468096 0.86049998 1.9645218e-38
-0.16624764 -0.036597338 0.86160004 2.1763097e-38
-0.16336954 -0.038584765 0.86200005 2.0203336e-38
-0.2071806 -0.032315049 0.86120003 1.8440588e-38
-0.20336097 -0.030340001 0.86100006 1.6125448e-38
-0.17118096 -0.030304763 0.86000001 1.9173346e-38
-0.16865173 -0.032229934 0.86142862 1.8437265e-38
-0.20235352 -0.028063241 0.86160004 1.668552e-38
-0.19809018 -0.026502226 0.86066669 1.6498629e-38
-0.1941143 -0.025390478 0.86000001 1.6590785e-38
-0.17131367 -0.027048256 0.86066675 1.9167937e-38
-0.16993715 -0.028733335 0.86200005 1.8711978e-38
-0.19743906 -0.023397144 0.86200005 1.6590386e-38
-0.19393048 -0.021729525 0.861 1.6775866e-38
-0.17219907 -0.022140002 0.86100006 1.8709095e-38
-0.19199193 -0.01723 0.86150002 1.6682238e-38
-0.18920001 -0.015561906 0.86000001 1.6409623e-38
-0.17404382 -0.017551621 0.86120003 1.7690634e-38
-0.19128191 -0.012314288 0.86200011 1.7509484e-38
-0.18830517 -0.01163543 0.86040002 1.3819907e-38
-0.17699622 -0.011975239 0.86120003 1.8525066e-38
-0.18758325 -0.008369524 0.86160004 1.1792675e-38
-0.18286002 -0.0081990492 0.86100006 1.4472769e-38
-0.17978859 -0.0082095247 0.86200005 1.7510194e-38
-0.22654763 -0.05272381 0.86500007 8.8255599e-39
-0.22650699 -0.047119372 0.86800003 9.5855037e-39
-0.22309859 -0.046598572 0.86600006 1.706701e-38
-0.21995716 -0.045309525 0.86500007 1.8619196e-38
-0.22639668 -0.041649051 0.86600006 1.0244167e-38
-0.22311097 -0.04223191 0.86525011 1.7705874e-38
-0.21885875 -0.041465081 0.86500013 1.8809698e-38
-0.16119207 -0.040915877 0.86500013 1.9649423e-38
-0.15758891 -0.041253969 0.86633343 1.8164996e-38
-0.15440859 -0.041285716 0.86700004 1.7885224e-38
-0.2265237 -0.037143271 0.86671436 1.1904356e-38
-0.22245218 -0.036971193 0.86750007 1.6231831e-38
-0.21734324 -0.037295055 0.86640006 1.400442e-38
-0.21336669 -0.036247618 0.86500007 1.3829709e-38
-0.16558573 -0.035423812 0.86500007 2.2220816e-38
-0.1622712 -0.036907382 0.86600012 1.9001534e-38
-0.15763059 -0.037137676 0.86655563 1.8163551e-38
-0.15417114 -0.037101272 0.86566675 1.7702971e-38
-0.21656035 -0.033380639 0.86900008 1.0786927e-38
-0.21217167 -0.031959288 0.86600012 1.7799884e-38
-0.20842382 -0.030480955 0.86500007 1.8072522e-38
-0.16639791 -0.031828001 0.86580008 1.0513935e-38
-0.16266489 -0.032202013 0.86700004 1.6785281e-38
-0.15839227 -0.032480139 0.8681429 1.8987186e-38
-0.21143273 -0.028392702 0.86833334 1.6870344e-38
-0.20722263 -0.027009765 0.86600006 1.6777398e-38
-0.20265716 -0.025538096 0.86500007 1.5947235e-38
-0.17052858 -0.026361905 0.86500007 1.8984202e-38
-0.16753197 -0.027233759 0.86655563 1.5851823e-38
-0.16345477 -0.02855286 0.86900002 1.7239026e-38
-0.20647082 -0.023430794 0.86833334 1.6773749e-38
-0.20227408 -0.022061191 0.86600012 1.6499297e-38
-0.19798891 -0.021144446 0.86500013 1.6683687e-38
-0.17066002 -0.022258732 0.86566675 1.8431378e-38
-0.16905287 -0.022732858 0.86800003 1.7966122e-38
-0.20150891 -0.01846889 0.86833334 1.6222715e-38
-0.19719525 -0.017325398 0.86633343 1.6775532e-38
-0.19359525 -0.015652383 0.86500007 1.7141776e-38
-0.17204398 -0.017098367 0.86671436 1.7871094e-38
-0.19671755 -0.012738858 0.86860001 1.5487334e-38
-0.19389367 -0.012374922 0.86633343 1.6598689e-38
-0.17547145 -0.012357144 0.86500013 1.8338856e-38
-0.17373304 -0.01240889 0.86866665 1.8061868e-38
-0.19206192 -0.0077617145 0.8670001 1.613166e-38
-0.18715017 -0.0057711117 0.86566675 1.4563879e-38
-0.18234131 -0.005775556 0.86633343 1.409609e-38
-0.17778431 -0.0076395241 0.86725003 1.6859388e-38
-0.17462763 -0.0082761906 0.86900002 1.6944784e-38
-0.19118001 -0.0041380953 0.86900002 1.3826019e-38
-0.18744692 -0.0026854766 0.86800003 1.5023067e-38
-0.18271631 -0.002479048 0.86811113 1.3545423e-38
-0.17959334 -0.0033104764 0.86900002 1.5010136e-38
-0.22715688 -0.032144628 0.87185729 1.3554578e-38
-0.22275843 -0.032374922 0.87166679 1.613526e-38
-0.21849659 -0.032019623 0.87100011 1.4914056e-38
-0.21687858 -0.028251907 0.87250006 1.6221638e-38
-0.21334955 -0.027393971 0.87166679 1.6679448e-38
-0.16507524 -0.025715239 0.87100005 1.7778899e-38
-0.16194287 -0.027127936 0.8720001 1.7879321e-38
-0.15862095 -0.02823524 0.87200004 1.7792668e-38
-0.21118286 -0.022448573 0.87300003 1.7333437e-38
-0.2085423 -0.022065336 0.87100011 1.7514551e-38
-0.16720161 -0.022422858 0.8720001 1.6576374e-38
-0.20726345 -0.017783811 0.87260008 1.5663753e-38
-0.20356517 -0.017088192 0.87100011 1.5942138e-38
-0.17005239 -0.017420001 0.87100005 1.8248118e-38
-0.16858667 -0.018269524 0.87200004 1.7418721e-38
-0.20536287 -0.013302858 0.87300003 1.1517568e-38
-0.20260973 -0.012797526 0.87260008 1.3177079e-38
-0.19950049 -0.012028095 0.87100005 1.4468856e-38
-0.17101209 -0.012451747 0.87166679 1.7966804e-38
-0.20120573 -0.0091457153 0.87300003 1.0873989e-38
-0.19717464 -0.0077530164 0.87233341 1.4009708e-38
-0.19410858 -0.0058066673 0.87100005 1.3088879e-38
-0.17606002 -0.0058133341 0.87200004 1.6105368e-38
-0.17217322 -0.0079495255 0.87214297 1.7598483e-38
-0.19538572 -0.0024942858 0.87300003 1.2349751e-38
-0.19278145 -0.0024928574 0.87250006 1.1885239e-38
-0.18996097 -0.00082952384 0.87100005 1.3355659e-38
-0.18000668 -0.00082952384 0.87100005 1.4547757e-38
-0.17739443 -0.0027282995 0.87214297 1.6301997e-38
-0.19039716 0.0016628572 0.87300003 1.4834398e-38
-0.18736234 0.0027304764 0.87214297 1.6680117e-38
-0.18245795 0.0023410392 0.87190926 1.6954539e-38
-0.17875716 0.0016628572 0.87300003 1.8624603e-38
-0.18651716 0.006928572 0.87300009 1.862967e-38
-0.18319145 0.006374286 0.87300003 1.9002043e-38
-0.22744381 -0.029266668 0.87800002 1.2268117e-38
-0.22227263 -0.028773572 0.87575006 1.4108741e-38
-0.21810454 -0.026272144 0.87575001 1.3181398e-38
-0.21416669 -0.025833335 0.87500006 1.6403926e-38
-0.16083334 -0.025833335 0.87500006 1.6588647e-38
-0.21740954 -0.023413334 0.87800002 1.0886571e-38
-0.21393946 -0.022210669 0.87680006 1.6320734e-38
-0.16611764 -0.021702383 0.87650001 1.5553595e-38
-0.16444811 -0.023371905 0.87650001 1.5749144e-38
-0.21155621 -0.018396191 0.87800002 1.5482627e-38
-0.20833334 -0.015833335 0.87500006 1.4279767e-38
-0.16778573 -0.017948097 0.87650001 1.7401799e-38
-0.22625002 -0.012083335 0.87500006 1.3094264e-38
-0.2076423 -0.01250743 0.87560004 1.0596308e-38
-0.20416668 -0.010833334 0.87500006 1.0042787e-38
-0.16889359 -0.01209262 0.87575001 1.9354873e-38
-0.2068613 -0.0086301593 0.87700003 1.1973803e-38
-0.20303647 -0.0070331981 0.87628573 1.1796992e-38
-0.19916669 -0.0058333338 0.87500006 1.1888112e-38
-0.17195953 -0.0058433339 0.87650001 2.111311e-38
-0.1686205 -0.0091823814 0.87650001 2.1301132e-38
-0.20235811 -0.0041809524 0.87800002 1.4097229e-38
-0.19824192 -0.0031729527 0.8768 1.2813295e-38
-0.19416668 -0.00083333341 0.87500006 1.00449e-38
-0.17613477 -0.0016680954 0.87650001 1.9546908e-38
-0.17419642 -0.0029230951 0.87725002 2.1112787e-38
-0.19650477 0.00083619053 0.87800002 1.2894039e-38
-0.19289716 0.0025051432 0.8768 1.4749797e-38
-0.177864 0.0025051429 0.8768 2.1577014e-38
-0.19148763 0.0058533335 0.87800002 1.9365803e-38
-0.18861113 0.0086111119 0.87500012 1.7615183e-38
-0.18204778 0.0080607943 0.87550008 2.0102991e-38
-0.1795762 0.0075190477 0.87700003 2.1206091e-38
-0.18660128 0.011403176 0.87600005 1.5950976e-38
-0.18270668 0.010845716 0.87600005 1.9458342e-38
-0.22764128 -0.026879366 0.88200009 1.1711335e-38
-0.22321272 -0.026539687 0.88000005 1.0701492e-38
-0.1600762 -0.025980955 0.88000005 1.714514e-38
-0.15756193 -0.025980955 0.88000005 1.7518215e-38
-0.22764005 -0.022680001 0.88200003 1.0512817e-38
-0.22232087 -0.022651007 0.88088894 9.5025734e-39
-0.21790478 -0.020952383 0.88000005 1.0971936e-38
-0.16510478 -0.020952383 0.88000005 1.4724201e-38
-0.16195619 -0.022655873 0.88111115 1.7419489e-38
-0.15808801 -0.023016 0.88200009 1.7887721e-38
-0.22708003 -0.018200003 0.88200009 1.0976657e-38
-0.22260001 -0.017640002 0.88200003 1.4200974e-38
-0.21728636 -0.01761651 0.88088888 1.3182102e-38
-0.21329525 -0.017180955 0.88000005 1.3271412e-38
-0.16641049 -0.017060002 0.88100004 1.7787511e-38
-0.16232382 -0.017660955 0.88311112 2.0563192e-38
-0.15900002 -0.017665397 0.88333338 1.6502674e-38
-0.22647239 -0.013470476 0.88400006 1.3918635e-38
-0.2230213 -0.013465079 0.88366669 1.3369828e-38
-0.21788953 -0.013459682 0.88333338 1.3092158e-38
-0.21267073 -0.012385476 0.88175005 1.2442411e-38
-0.16721199 -0.013083538 0.88228583 2.0836189e-38
-0.16304891 -0.013189843 0.88400006 2.1022055e-38
-0.15912001 -0.012628572 0.88400006 1.4202114e-38
-0.21172003 -0.0086926995 0.88333338 1.3282276e-38
-0.20844319 -0.006434286 0.88133347 1.4848447e-38
-0.17013334 -0.0067047626 0.88000005 2.1393359e-38
-0.16840765 -0.007004445 0.88266671 2.1392276e-38
-0.20647278 -0.0028552383 0.88200009 1.5495352e-38
-0.202408 -0.0015089525 0.8804 1.6322165e-38
-0.19862859 -0.00083809532 0.88000005 1.4738937e-38
-0.17184216 -0.002307381 0.88125008 2.0746192e-38
-0.16922286 -0.0033676191 0.88400006 1.8444562e-38
-0.20195165 0.0018502858 0.88280004 1.7061595e-38
-0.19744928 0.0029980957 0.88114291 1.687143e-38
-0.17591201 0.0028514289 0.8804 2.1298285e-38
-0.17265357 0.0023140479 0.88325 1.9456183e-38
-0.19713843 0.0070107947 0.88333338 1.5491809e-38
-0.19319277 0.0078899059 0.88120002 1.7060213e-38
-0.17734858 0.0073471433 0.88150007 2.1391198e-38
-0.17371303 0.0064546037 0.88400006 2.1025276e-38
-0.19616382 0.010944762 0.88400006 1.4469706e-38
-0.19206749 0.012373335 0.8828572 1.4567649e-38
-0.18689525 0.013577144 0.88000005 1.5299123e-38
-0.18168573 0.013054424 0.88028586 1.9917874e-38
-0.17880335 0.012201428 0.88350004 2.1669932e-38
-0.18702205 0.01741769 0.8828572 1.6140701e-38
-0.18264502 0.017445954 0.88275003 1.8538514e-38
-0.17932573 0.016838096 0.88400006 1.6875032e-38
-0.18353525 0.02104762 0.88400006 1.0518986e-38
-0.23230954 -0.029566668 0.88700002 1.2259171e-38
-0.2263962 -0.010981905 0.88700002 1.2170555e-38
-0.22217241 -0.010981905 0.88700002 1.2081262e-38
-0.21794859 -0.010981905 0.88700002 1.1253661e-38
-0.16641811 -0.010981905 0.88700002 2.2315664e-38
-0.16275749 -0.012389841 0.88700002 2.1020606e-38
-0.15966001 -0.01267143 0.88700002 1.5021817e-38
-0.22690669 -0.0093133338 0.88900006 1.0876954e-38
-0.22267334 -0.0093133338 0.88900012 1.1619914e-38
-0.21697024 -0.0078559201 0.88842869 1.1070294e-38
-0.21332225 -0.0064809527 0.8876667 1.2542581e-38
-0.16682415 -0.0073257154 0.8876667 2.120752e-38
-0.16296527 -0.007819524 0.88775003 1.9819556e-38
-0.15966001 -0.0084476192 0.88700002 1.4931433e-38
-0.21590002 -0.0042333337 0.88900006 1.1618834e-38
-0.21212333 -0.0027485716 0.88824999 1.3004284e-38
-0.20865621 -0.00084476196 0.88700002 1.4942204e-38
-0.16723102 -0.0025380955 0.88833332 1.9272847e-38
-0.16256002 -0.0025400002 0.88900006 1.262326e-38
-0.21082002 0.00084666675 0.88900006 1.4013394e-38
-0.2069962 0.0025387304 0.88833344 1.3650397e-38
-0.20358764 0.0033790478 0.88700002 1.5495027e-38
-0.17148668 0.0042238096 0.88700002 1.983573e-38
-0.16907875 0.0025368256 0.8876667 1.7601496e-38
-0.20574002 0.006773334 0.88900006 1.4010133e-38
-0.20222384 0.0076156468 0.88842857 1.4010525e-38
-0.19851907 0.0092923818 0.88700002 1.4374604e-38
-0.17590763 0.0093028583 0.88800001 2.0654727e-38
-0.17170709 0.0076131974 0.88814288 1.428992e-38
-0.20150667 0.011006667 0.88900006 1.4753455e-38
-0.1973256 0.013171567 0.88814288 1.5675753e-38
-0.17739029 0.013021524 0.88780004 1.8354488e-38
-0.17343526 0.010998413 0.88833332 1.262864e-38
-0.19642667 0.016086668 0.88900006 1.6967604e-38
-0.19218881 0.01797262 0.88800001 1.6510236e-38
-0.18162382 0.019429525 0.88700002 1.4016279e-38
-0.17816286 0.017760001 0.88800001 1.0401226e-38
-0.19177002 0.021590002 0.88900006 1.1337222e-38
-0.18687281 0.022831703 0.8878572 8.2872133e-39
-0.18217844 0.023125716 0.88833344 7.0940665e-39
-0.17929049 0.021142859 0.88800001 9.6779768e-39
-0.18542001 0.026246669 0.88900006 6.9995881e-39
-0.18372668 0.026246669 0.88900006 6.4450018e-39
-0.23630002 -0.027198572 0.89250004 9.7788156e-39
-0.23375002 -0.027198572 0.89250004 1.2167648e-38
-0.22713432 -0.0070714294 0.89100003 1.1149943e-38
-0.2231743 -0.0067885718 0.89099997 1.2721209e-38
-0.21978001 -0.0067885718 0.89100003 1.2539257e-38
-0.22648001 -0.004257143 0.89400005 1.2626871e-38
-0.22197334 -0.0028333336 0.89300007 1.3091433e-38
-0.21792242 -0.0025461907 0.8915 1.2167693e-38
-0.21468858 -0.00084857148 0.89100003 1.180681e-38
-0.16547143 -0.00084857148 0.89100003 1.5568747e-38
-0.16292572 -0.0025457146 0.89100003 1.4733324e-38
-0.2171143 0.0014190477 0.89400005 1.345301e-38
-0.21249859 0.0025519049 0.8925001 1.3362977e-38
-0.20959716 0.0025457144 0.89100003 1.3460957e-38
-0.16659954 0.0025519049 0.8925001 1.1885295e-38
-0.16339241 0.001417143 0.89200008 1.5571947e-38
-0.21115431 0.0068114288 0.89400005 1.4567972e-38
-0.20747572 0.0080614295 0.89100003 1.4286371e-38
-0.20450573 0.0093342867 0.89100003 1.4471454e-38
-0.17056286 0.0093342867 0.89100003 9.2998406e-39
-0.16915001 0.0068014292 0.89250004 9.7518126e-39
-0.20576191 0.013339049 0.89400005 1.4384005e-38
-0.20246916 0.013068001 0.89099997 1.4572334e-38
-0.17565429 0.013577144 0.89100003 1.3265763e-38
-0.17358479 0.013308573 0.89200008 1.0948687e-38
-0.20161931 0.017440716 0.89325005 1.3372727e-38
-0.19771717 0.018102858 0.89099997 1.5495365e-38
-0.17622644 0.018260717 0.89175004 8.3786115e-39
-0.17454287 0.016177144 0.89400005 8.5738559e-39
-0.20008573 0.021285716 0.89400005 9.1424832e-39
-0.19709601 0.022619432 0.89280003 9.4904312e-39
-0.19296515 0.023929715 0.89099997 9.951031e-39
-0.18923144 0.024608573 0.89100003 8.3847408e-39
-0.18074572 0.024608573 0.89100003 7.7379295e-39
-0.17793193 0.022950005 0.8925001 9.4921267e-39
-0.22638573 -0.0017076192 0.89700007 1.355096e-38
-0.2240724 -0.00085523818 0.89800006 1.2351721e-38
-0.22253297 0.001881524 0.89800006 1.0691485e-38
-0.21803926 0.0035859048 0.89640009 1.189648e-38
-0.21418668 0.0042666672 0.89600003 1.4283135e-38
-0.16469334 0.0042666672 0.89600003 2.0548288e-38
-0.2177037 0.0072040828 0.89742869 9.4968954e-39
-0.21325831 0.0083668577 0.89639997 1.2455071e-38
-0.16753444 0.0074435384 0.89685726 1.3457619e-38
-0.2124656 0.012584221 0.89800012 9.312151e-39
-0.20838402 0.012800001 0.89600003 1.3277639e-38
-0.17174974 0.012817906 0.89720005 1.2258052e-38
-0.16848192 0.011118096 0.89800006 1.5944044e-38
-0.21124382 0.016249524 0.89800006 8.1995494e-39
-0.20743644 0.017732143 0.89725006 8.4812707e-39
-0.20337781 0.019057779 0.89600009 1.0606839e-38
-0.17532381 0.017960001 0.89800006 5.9959768e-39
-0.17361334 0.017104764 0.89800006 9.4897221e-39
-0.22756414 0.002290159 0.90166676 1.3461616e-38
-0.22396287 0.0034323812 0.90100002 9.6766189e-39
-0.22584605 0.0077298423 0.90166676 1.2447139e-38
-0.22287853 0.0079740137 0.90157145 9.9412905e-39
-0.2188143 0.0094390484 0.90100002 8.846407e-39
-0.16618446 0.0088669853 0.90100002 1.8988216e-38
-0.22102001 0.01118 0.90300006 8.8439099e-39
-0.21716751 0.012875511 0.90128577 8.5666098e-39
-0.17076096 0.013729525 0.90100002 1.21623e-38
-0.16770002 0.011753334 0.90300006 1.7423469e-38
-0.16290003 0.0086190477 0.90500009 1.8522917e-38
-0.15945239 0.0086190486 0.90500003 1.6317468e-38
-0.16739237 0.014093971 0.90600008 1.4292092e-38
-0.1630199 0.012740597 0.90687507 1.8252144e-38
-0.15998097 0.012106667 0.90800005 1.6227455e-38
