# .PCD v0.7 - Point Cloud Data file format
VERSION 0.7
FIELDS x y z
SIZE 4 4 4
TYPE F F F
COUNT 1 1 1
WIDTH 323
HEIGHT 1
VIEWPOINT 0 0 0 1 0 0 0
POINTS 323
DATA ascii
0.2159317 -0.032700937 0.67771798
0.22536395 -0.033848129 0.67720991
0.23158957 -0.033925999 0.67784625
0.21755855 -0.028036229 0.67800009
0.22412114 -0.028225528 0.67800015
0.19721507 -0.040610313 0.68900007
0.20731525 -0.040754594 0.68900001
0.21601863 -0.04288112 0.68839991
0.22339234 -0.041709613 0.68646675
0.24488096 -0.041001115 0.68830007
0.19674858 -0.035427667 0.68770826
0.20505933 -0.034434438 0.68367088
0.2136763 -0.036320195 0.68290329
0.22204745 -0.038406819 0.68250006
0.23603673 -0.035148118 0.68184203
0.24216315 -0.034598216 0.6861335
0.1993092 -0.027684843 0.68888891
0.20555593 -0.025470149 0.68630975
0.2145766 -0.024499049 0.6823442
0.22504234 -0.023793153 0.68193871
0.23487954 -0.024921181 0.68574238
0.24156031 -0.026702166 0.68825001
0.20927182 -0.019101603 0.6886
0.21547842 -0.017749136 0.68752378
0.22447865 -0.017313138 0.68773675
0.23361893 -0.018227395 0.68864286
0.18842283 -0.042525142 0.69356251
0.19402218 -0.042855266 0.69183332
0.20497791 -0.043228433 0.69391882
0.213332 -0.044686124 0.69155562
0.22472367 -0.045214336 0.69320011
0.23529534 -0.044311572 0.69514298
0.24482676 -0.044602226 0.69364703
0.25222945 -0.045206539 0.69400012
0.1889867 -0.037977293 0.69500005
0.19267021 -0.033641301 0.69407314
0.24829824 -0.031604946 0.69400007
0.25176293 -0.030797236 0.69766676
0.19631074 -0.025378007 0.69499999
0.20091289 -0.022198524 0.69150007
0.24628709 -0.024228377 0.69352496
0.2511394 -0.026730714 0.69712502
0.19880642 -0.015630502 0.69766676
0.20456122 -0.015194277 0.69263768
0.2142788 -0.012800527 0.69057906
0.22566316 -0.012601815 0.6905002
0.2354833 -0.014395267 0.69241458
0.24396129 -0.015745992 0.6965127
0.20688534 -0.0062891841 0.69662225
0.21504502 -0.0047840886 0.69470507
0.22511174 -0.0050085085 0.69402713
0.2344165 -0.0058383257 0.69621158
0.24317276 -0.0086566824 0.69900006
0.21576704 0.0017404767 0.69837499
0.22465971 0.0017506621 0.69822228
0.23140611 0.00073542609 0.69900006
0.18811415 -0.051491134 0.70766664
0.19408819 -0.051046766 0.70749998
0.20419684 -0.050450955 0.70792872
0.21539102 -0.050866418 0.70800006
0.22544697 -0.050032482 0.708
0.23643401 -0.051515032 0.708
0.2461545 -0.051999215 0.70637494
0.25267196 -0.052655194 0.70511776
0.18907508 -0.048425436 0.70616668
0.19507773 -0.048223775 0.70466667
0.20553048 -0.048243172 0.70493335
0.21358302 -0.047943641 0.70340008
0.22694543 -0.048349749 0.7026667
0.23607065 -0.048755284 0.70178574
0.24483646 -0.049081732 0.70121425
0.2529431 -0.04949541 0.70040005
0.18803735 -0.033489574 0.70394117
0.1903156 -0.032949738 0.70137507
0.18824905 -0.02594801 0.70627999
0.19267315 -0.023693072 0.70328563
0.19503832 -0.015494719 0.70341671
0.2455292 -0.011289738 0.69999999
0.19704521 -0.0054575754 0.70527452
0.20305254 -0.0034874261 0.70144188
0.23795009 -0.0017473524 0.70022225
0.24476372 -0.0052716848 0.70366669
0.2505244 -0.0067889635 0.70800006
0.19873942 0.0023715075 0.70679998
0.2055665 0.0049648657 0.70476925
0.21475321 0.0061316271 0.70165473
0.22495788 0.0066973967 0.70120472
0.23506738 0.0052104644 0.70250803
0.24397069 0.0043105972 0.70697367
0.20756274 0.012804231 0.70755559
0.21481633 0.014783748 0.70611805
0.22508386 0.014660277 0.70589238
0.23289803 0.01319203 0.70612502
0.24143007 0.01002498 0.70900005
0.21706702 0.021129971 0.70800006
0.22406363 0.020812282 0.70800012
0.19373553 -0.061683178 0.71850002
0.2470821 -0.060762141 0.71700007
0.18881044 -0.054683141 0.71216673
0.19512965 -0.056088924 0.71484613
0.20484236 -0.054557666 0.71208823
0.21594018 -0.05465978 0.71321219
0.22509217 -0.054659601 0.71374983
0.23476356 -0.054858919 0.71428251
0.24498317 -0.056334544 0.71289748
0.2528863 -0.056885082 0.71109092
0.18798742 -0.021182403 0.71000004
0.18831226 -0.014829485 0.71573079
0.19189341 -0.01365247 0.71270961
0.18829851 -0.008798765 0.71860003
0.19301766 -0.0052196248 0.71372736
0.24977826 -0.0020416784 0.71099997
0.25122008 -0.002901261 0.71180004
0.19627383 0.0048330869 0.71426666
0.20118873 0.0080215083 0.71081823
0.24710904 0.0049611758 0.71066666
0.25069165 0.0026127624 0.71200001
0.19846369 0.01347297 0.71654999
0.2040163 0.015759364 0.7126779
0.21151756 0.018959554 0.71000004
0.23632787 0.017091854 0.71160007
0.24481316 0.01477717 0.71475005
0.20617776 0.023934737 0.71557903
0.21463355 0.025143936 0.71162689
0.22504491 0.0256641 0.71204245
0.23450521 0.025473852 0.71408486
0.24213929 0.023625718 0.71773338
0.20929816 0.031046674 0.71733344
0.21534656 0.033078074 0.71586686
0.22467463 0.032747969 0.71584213
0.23383662 0.032567278 0.71795452
0.23134759 -0.070436656 0.72733343
0.19851561 -0.063110478 0.72360009
0.20520644 -0.064699888 0.72725552
0.21419987 -0.063857101 0.7282052
0.22546411 -0.064224616 0.72819573
0.23450525 -0.064621992 0.72540027
0.24313977 -0.063268796 0.72328585
0.19858897 -0.059926566 0.72000003
0.20459603 -0.058511619 0.72114295
0.21436186 -0.059190869 0.72390002
0.22442266 -0.059295997 0.72150004
0.2357827 -0.059172727 0.72000003
0.24138826 -0.059172723 0.72000003
0.18710709 -0.011697056 0.72100002
0.18956603 0.0041746362 0.72460002
0.19274452 0.0060321442 0.72300017
0.19465034 0.015265351 0.72419637
0.24911486 0.019075822 0.72000003
0.2517409 0.016462512 0.72000003
0.19689873 0.024431312 0.72550023
0.20268245 0.027237024 0.72159106
0.24626446 0.025726996 0.72154278
0.19838652 0.033629503 0.72783345
0.20517184 0.034970645 0.72446895
0.21356696 0.037421785 0.7201668
0.22470304 0.037663847 0.72004563
0.23539151 0.037197124 0.72194606
0.24498153 0.035495963 0.72552001
0.25064728 0.034721307 0.72875005
0.20710306 0.044344138 0.72729993
0.21486187 0.044718239 0.723912
0.22507332 0.044802722 0.72340941
0.23492616 0.045474511 0.72629106
0.24394111 0.042319085 0.72821063
0.25054145 0.040838271 0.72900003
0.20912461 0.050760686 0.72900003
0.21583137 0.052743897 0.72745705
0.2247846 0.053199869 0.72735125
0.23183669 0.05317251 0.72833341
0.20277658 -0.070026383 0.73100001
0.19893119 -0.068240561 0.73100007
0.20098206 -0.068240553 0.73100007
0.21688722 -0.0680466 0.73233336
0.22239359 -0.068027072 0.73144448
0.18938448 0.017876949 0.73425001
0.19130576 0.017422274 0.73124999
0.18959528 0.023210587 0.73700005
0.19244567 0.025513273 0.73406261
0.19519946 0.035224043 0.73324335
0.20140408 0.039401624 0.73066676
0.19768871 0.043757752 0.73607689
0.20248602 0.0457763 0.73282051
0.24629533 0.046602879 0.73351723
0.25096032 0.046602041 0.73554552
0.19928323 0.051773705 0.73800004
0.2053887 0.055225305 0.73466659
0.21420762 0.057022914 0.73126459
0.22533451 0.058109421 0.73070002
0.23560843 0.055716272 0.73184615
0.24446557 0.0538917 0.7362752
0.25052875 0.051387358 0.73800004
0.20739929 0.063198812 0.73722231
0.21495527 0.065104455 0.73561412
0.22459766 0.065103017 0.7349031
0.23459341 0.064545989 0.73696005
0.24082316 0.061432272 0.73800004
0.2160221 0.070940986 0.73900002
0.22489975 0.072038278 0.73900014
0.23212187 0.070886277 0.73899996
0.18970214 0.026346289 0.74000001
0.19108236 0.029368635 0.74133337
0.1896006 0.0362777 0.74485725
0.19216293 0.035520829 0.74212497
0.18806921 0.04117446 0.74900001
0.19374295 0.045155272 0.74431992
0.19642803 0.054151017 0.74476475
0.2010421 0.0572607 0.74066675
0.24699163 0.058225188 0.74009085
0.25042915 0.056950081 0.74000001
0.19819939 0.063993208 0.74664992
0.20313232 0.065712638 0.74268895
0.23855379 0.069181658 0.74100006
0.24505946 0.06527397 0.7428
0.25083223 0.065708786 0.74700004
0.19988953 0.072738618 0.74900001
0.20548934 0.074627608 0.74592072
0.21470372 0.075668626 0.74214286
0.22534981 0.076489098 0.74141157
0.23523696 0.075988546 0.74277788
0.24425736 0.074009463 0.74682856
0.25063804 0.071601525 0.74900001
0.20796883 0.081890523 0.74783343
0.21568976 0.083391123 0.74575621
0.2248715 0.084903881 0.74565512
0.23375151 0.084300265 0.74667579
0.24060391 0.081691593 0.74900001
0.19408436 0.034344386 0.75400001
0.18922915 0.045455821 0.7519232
0.1909418 0.047574785 0.75100005
0.18970738 0.051801104 0.75300002
0.19237876 0.0570013 0.7535556
0.19520868 0.065026753 0.75420517
0.19695756 0.074900262 0.75367641
0.20117754 0.078385092 0.75050002
0.24786638 0.077507809 0.7509231
0.25092882 0.077166125 0.75200003
0.19877476 0.082699157 0.75746155
0.2046085 0.085919693 0.75469804
0.21404964 0.087630734 0.75061125
0.22146136 0.08991491 0.75000006
0.23731045 0.088181339 0.75083339
0.24513181 0.084818169 0.75404996
0.25097209 0.085064724 0.75750005
0.20627373 0.094262056 0.75722438
0.21468385 0.095015183 0.75334924
0.22459383 0.095073588 0.75177771
0.23482776 0.094980396 0.75386274
0.24324127 0.093509458 0.75768429
0.20841424 0.10185441 0.75900006
0.21557079 0.10433821 0.75777787
0.22481996 0.10473851 0.75701958
0.23387475 0.10407308 0.75787514
0.24088827 0.10052995 0.75900006
0.21932764 0.11006603 0.75900006
0.22461799 0.1102647 0.75900006
0.18923207 0.057693549 0.76000005
0.18922631 0.064046063 0.76409101
0.19197145 0.066053666 0.76260877
0.18985483 0.071259052 0.76900005
0.19392289 0.074183255 0.76478583
0.19670109 0.085878812 0.76358336
0.25133383 0.088328749 0.76000011
0.19809546 0.094430506 0.76449996
0.20277709 0.09804707 0.76199996
0.24694322 0.096589483 0.76261544
0.25234279 0.095188282 0.76454991
0.19887708 0.10231274 0.7676
0.20471753 0.1050721 0.76416093
0.2121689 0.10788748 0.76130784
0.23785625 0.10720075 0.7612223
0.24471852 0.1048556 0.76479417
0.25163242 0.10291636 0.76763648
0.20725283 0.11356537 0.76782775
0.21496095 0.11487026 0.76477188
0.22475921 0.11574667 0.76247984
0.23464434 0.1145796 0.76408142
0.24148117 0.11442997 0.76800007
0.21464941 0.12304483 0.76766682
0.22408162 0.12178977 0.76350003
0.23492831 0.12226457 0.76836848
0.2400167 0.12037274 0.76900005
0.18825255 0.076753885 0.77468753
0.19208644 0.076712005 0.77146679
0.18920316 0.083926082 0.7750001
0.19269468 0.084871933 0.77254838
0.19429769 0.095048361 0.77448577
0.1958165 0.10498675 0.77441686
0.20102353 0.10945542 0.77149999
0.24870001 0.10870516 0.7700001
0.25274473 0.10684878 0.77061546
0.19813794 0.11408323 0.77634633
0.20337094 0.11561505 0.77257574
0.24657689 0.11520221 0.77257597
0.25183615 0.11426309 0.77415389
0.19962239 0.12303191 0.77816671
0.20484929 0.12447176 0.77429307
0.21047927 0.12619551 0.77177781
0.23852648 0.12508589 0.771375
0.24482155 0.12516324 0.7757569
0.25092393 0.12560831 0.77900004
0.24581878 0.13141209 0.77775002
0.24785161 0.15447225 0.77522737
0.18812792 0.088838756 0.78200006
0.18858919 0.095062412 0.78236371
0.19114643 0.095936358 0.78088886
0.18845433 0.10539598 0.78335708
0.19118895 0.10493489 0.78106248
0.18875992 0.11340429 0.78577787
0.1938096 0.11550129 0.78511912
0.25280064 0.119798 0.78100002
0.19565554 0.1230638 0.78572738
0.24951391 0.12552194 0.78100002
0.25281772 0.12496032 0.78261548
0.24910304 0.13124588 0.78100002
0.25115725 0.13124588 0.78100002
0.2488223 0.14816612 0.78400004
0.25545618 0.14688869 0.78448778
0.24773145 0.15115051 0.78160006
0.25170404 0.15059793 0.78100002
0.25692397 0.13834941 0.79490918
0.25644743 0.14173256 0.79162502
0.25854337 0.13540468 0.80200005
