# .PCD v0.7 - Point Cloud Data file format
VERSION 0.7
FIELDS x y z
SIZE 4 4 4
TYPE F F F
COUNT 1 1 1
WIDTH 1420
HEIGHT 1
VIEWPOINT 0 0 0 1 0 0 0
POINTS 1420
DATA ascii
0.36643416 -0.015574972 1.0524547
0.37455368 -0.017803036 1.0520003
0.38485229 -0.018201837 1.0538183
0.3954699 -0.017906357 1.0526251
0.4040834 -0.01805599 1.0518001
0.41320011 -0.018168438 1.052
0.42935365 -0.018133897 1.0500001
0.43045834 -0.018133897 1.0500001
0.44677356 -0.018168436 1.052
0.45535132 -0.018994518 1.052
0.46479875 -0.018640485 1.052
0.47001648 -0.01926988 1.052
0.49584195 -0.019086307 1.052
0.506383 -0.019112533 1.052
-0.18386865 -0.00054793549 1.057
-0.17358202 -0.00054793549 1.057
-0.16540834 -0.00054793549 1.057
-0.1545101 -0.00054793549 1.057
-0.14539115 -0.00054793549 1.057
-0.13404363 -0.0020259046 1.05725
-0.1255298 -0.0027637619 1.0567144
-0.11484857 -0.0027629675 1.057
-0.10481308 -0.0036603424 1.0560001
-0.094748534 -0.0040229349 1.0552858
-0.084841855 -0.0041952226 1.056353
-0.074902229 -0.0038697186 1.0563334
-0.064949721 -0.0040242798 1.0555716
-0.054619964 -0.0049716458 1.0557501
-0.044169575 -0.0059868405 1.056
-0.034565575 -0.0070132827 1.0560001
-0.024340648 -0.0071725748 1.0545
-0.014923084 -0.0077875596 1.0562727
-0.0046086498 -0.0070350585 1.0545626
0.0047164853 -0.0082614636 1.0527
0.014994137 -0.0088128392 1.0527501
0.024527188 -0.0093568908 1.052
0.038113698 -0.0088128401 1.0527501
0.045067262 -0.0087093664 1.0535001
0.054091096 -0.009182211 1.0530001
0.22962116 -0.0093479957 1.051
-0.44483963 0.007759945 1.058125
-0.43468204 0.0094299791 1.059
-0.42447823 0.009051485 1.058
-0.41262147 0.0094299791 1.059
-0.40463659 0.0094299801 1.059
-0.37772518 0.0083133485 1.0580001
-0.33375701 0.0094210748 1.0580001
-0.32457381 0.0094210748 1.0580001
-0.314834 0.0094210748 1.0580001
-0.30492729 0.0094210748 1.0580001
-0.29554 0.0084304931 1.0573335
-0.28459945 0.0085215373 1.0565001
-0.27492794 0.0080790762 1.0565002
-0.26499993 0.0071055093 1.0552145
-0.25516635 0.0070213345 1.0545716
-0.24503362 0.006544237 1.0539286
-0.23491578 0.0057799756 1.053895
-0.22539294 0.0055774706 1.0545999
-0.21561001 0.0057296553 1.0536923
-0.20508373 0.0052224663 1.0539232
-0.19432388 0.0040451894 1.0534167
-0.18433474 0.0039766813 1.0533158
-0.17527397 0.0037785403 1.052143
-0.1648912 0.0030726776 1.0525001
-0.15518247 0.0030341551 1.052875
-0.14503995 0.0019559371 1.0518183
-0.13501079 0.0015331819 1.0517778
-0.12415293 0.0012881771 1.0504445
-0.11568207 0.0017773642 1.0515556
-0.50064093 0.018300159 1.059
-0.49462444 0.018300159 1.059
-0.48875642 0.01903934 1.059
-0.45217448 0.011093138 1.059
-0.44471511 0.011284616 1.0534546
-0.43528944 0.012142835 1.0539999
-0.42528135 0.012696723 1.05425
-0.41490793 0.012432362 1.0552499
-0.40440995 0.011765591 1.0554285
-0.39533898 0.012072417 1.056
-0.38449866 0.011980105 1.0558888
-0.37428519 0.013855696 1.0548637
-0.36552152 0.013137626 1.0542668
-0.35460439 0.013161009 1.0535716
-0.3451108 0.012792198 1.0551541
-0.33603847 0.013345465 1.0533001
-0.32523385 0.012583893 1.0531819
-0.31555086 0.01267753 1.0526
-0.30375317 0.011955663 1.0536667
-0.29441029 0.011983295 1.0531819
-0.28521484 0.011787575 1.0518
-0.2753396 0.010459138 1.051
-0.26686218 0.010459138 1.051
-0.25138164 0.010459138 1.051
-0.2476958 0.010459138 1.051
-0.22779223 0.010459138 1.051
-0.54473406 0.027672362 1.057
-0.53509092 0.025922468 1.0535002
-0.52528453 0.024868917 1.0531579
-0.5156334 0.024246933 1.0525717
-0.50532001 0.022798464 1.0527275
-0.49465632 0.022457452 1.0530668
-0.48556668 0.024382351 1.0531669
-0.4750084 0.025169024 1.0543002
-0.46582764 0.024243908 1.0543078
-0.45748669 0.021483524 1.052
-0.54319036 0.03138002 1.0515001
-0.53799665 0.030603927 1.0500001
0.44502893 -0.030744914 1.0680001
0.45328769 -0.030744912 1.0680001
0.46649045 -0.030744912 1.0680001
0.4737941 -0.030744912 1.0680001
0.48952505 -0.030744912 1.0680001
0.49559268 -0.031639468 1.0680001
0.53846055 -0.031274699 1.067
0.5450722 -0.031176815 1.0653638
0.5556559 -0.032054588 1.0650001
0.56559956 -0.033154935 1.0636363
0.57504159 -0.03355097 1.0635264
0.58447993 -0.033671107 1.064706
0.59588224 -0.033272889 1.0647825
0.60556495 -0.035383005 1.0635
0.61186814 -0.036846321 1.0641429
0.025836593 -0.020681154 1.0680001
0.064789414 -0.02179935 1.0680001
0.075989693 -0.021789145 1.0675001
0.087114297 -0.021316588 1.0662
0.096216165 -0.020958845 1.0658573
0.1048171 -0.021408983 1.0637274
0.11497216 -0.021627326 1.0644546
0.12471272 -0.021747952 1.0654001
0.13493103 -0.02061015 1.0643334
0.14555502 -0.02133208 1.067
0.15459047 -0.022329347 1.0666001
0.16445193 -0.021965131 1.067
0.17614552 -0.021778937 1.067
0.18559825 -0.022327308 1.0665001
0.19476922 -0.022193559 1.0654001
0.20402065 -0.021200998 1.066
0.21522161 -0.02282208 1.0661581
0.22480348 -0.022774646 1.0648572
0.23133153 -0.021380736 1.0656667
0.36903197 -0.023947813 1.0640001
0.37602064 -0.025089612 1.0651001
0.38479227 -0.025765268 1.0642501
0.39537555 -0.025936326 1.0642779
0.40504342 -0.027801678 1.064875
0.41463509 -0.025655229 1.0636923
0.42497236 -0.025699032 1.0639287
0.43561673 -0.026317166 1.0643531
0.44512483 -0.02692025 1.0626001
0.45432994 -0.026859961 1.0639232
0.46390453 -0.027297311 1.0642858
0.47429007 -0.027941635 1.0640835
0.48554429 -0.027836807 1.0651538
0.49524149 -0.027353788 1.0640557
0.50537205 -0.027951863 1.0660909
0.51528305 -0.02916454 1.066375
0.52529758 -0.028649932 1.0649002
0.53462619 -0.029035859 1.0638573
0.54477912 -0.028294977 1.0600001
0.55314326 -0.028294977 1.0600002
0.57173032 -0.028294975 1.0600001
0.58901626 -0.029404793 1.0600001
0.5937559 -0.028849881 1.0600001
-0.14490485 -0.010627337 1.069
-0.13545083 -0.01062071 1.0683334
-0.1275554 -0.010587572 1.0650001
-0.11210135 -0.010627337 1.069
-0.1049783 -0.011522732 1.0690001
-0.084283993 -0.01174658 1.0690001
-0.075061515 -0.01174658 1.0690001
-0.064871833 -0.011713615 1.066
-0.055222701 -0.011383845 1.0671539
-0.045096632 -0.01294332 1.065316
-0.035393592 -0.013420044 1.064182
-0.025015542 -0.01429919 1.0643334
-0.014840414 -0.013444952 1.0643479
-0.0049220845 -0.014247703 1.0637058
0.0056785904 -0.015499389 1.0642353
0.016080156 -0.016479166 1.0639412
0.024988025 -0.016828943 1.0637223
0.03465246 -0.016394235 1.0642858
0.044839211 -0.015741983 1.0645624
0.054189581 -0.017215354 1.0649413
0.065152787 -0.018232724 1.0647858
0.074945144 -0.018143602 1.0633334
0.084151328 -0.019245535 1.0628
0.095790789 -0.018320993 1.0608333
0.10500972 -0.0183066 1.0600001
0.11501516 -0.018155456 1.0604286
0.12355968 -0.018011713 1.0612859
0.13450736 -0.019064797 1.0610001
0.14482747 -0.01846044 1.0616668
0.15504208 -0.01833408 1.0615
0.16442616 -0.019083114 1.0620002
0.17558944 -0.018740147 1.0616363
0.18508776 -0.018634258 1.0613637
0.1941582 -0.018451804 1.0603751
0.20523743 -0.017316515 1.0610911
0.21421489 -0.017945295 1.0605001
0.22508201 -0.01812163 1.0600001
0.23202443 -0.016860334 1.0620002
-0.29113135 -0.00055311935 1.067
-0.28615969 -0.00055273052 1.0662501
-0.27403551 -0.00055260095 1.0660001
-0.2650632 -0.00055260095 1.0660001
-0.25104403 -0.0011106516 1.0660001
-0.24300635 -0.0020407364 1.0660002
-0.23565118 -0.001806454 1.064875
-0.22384679 -0.0016687023 1.0660001
-0.2134726 -0.0025615836 1.0660001
-0.20345582 -0.0034216824 1.0651429
-0.1947532 -0.0031154072 1.0633
-0.18549913 -0.0032400463 1.0633531
-0.17546134 -0.0040801303 1.0633334
-0.16526188 -0.0046888413 1.0644119
-0.15471752 -0.0055459975 1.0644763
-0.14494801 -0.0055421628 1.0636193
-0.13561326 -0.0069372873 1.063467
-0.12487956 -0.0077991532 1.0645002
-0.11545482 -0.0077230576 1.0648574
-0.10532288 -0.0084722908 1.0636667
-0.095072709 -0.0087263016 1.0644444
-0.085240439 -0.0085042017 1.0632858
-0.075533152 -0.0087179011 1.0635002
-0.065388575 -0.0089032194 1.0635003
-0.055128522 -0.0083339214 1.0620002
-0.047865894 -0.0083339205 1.062
-0.48691744 0.0083919251 1.0680001
-0.45187101 0.0047907494 1.0638001
-0.44502321 0.0039826855 1.0658002
-0.43512499 0.0062653613 1.0650002
-0.42451003 0.0065344963 1.0650716
-0.41457164 0.0060061137 1.0641669
-0.40434995 0.0053885593 1.0642779
-0.39525783 0.005851781 1.0642999
-0.38570729 0.0059336177 1.0638696
-0.3755756 0.006982761 1.0633078
-0.36556876 0.0072497628 1.0647501
-0.35508606 0.0070689414 1.0655
-0.34480736 0.0069671245 1.06445
-0.33532009 0.0060291388 1.064409
-0.32575956 0.0065004658 1.0640001
-0.31512547 0.0067283427 1.0637692
-0.30480352 0.0057903156 1.0646924
-0.29388198 0.0041105933 1.064
-0.2848134 0.0034811127 1.0630625
-0.27573097 0.0031580229 1.0636001
-0.26555058 0.0023880319 1.0631429
-0.25490239 0.0024137078 1.0630001
-0.24537659 0.0022279499 1.0625001
-0.2353245 0.0011160312 1.0615001
-0.22467676 0.0013940808 1.0626251
-0.2149912 0.0011160313 1.0615
-0.2053805 0.0012545605 1.061125
-0.19814494 0.0013002083 1.0600002
-0.54473257 0.018472962 1.069
-0.53387797 0.015896592 1.0678573
-0.5249607 0.014951582 1.0664076
-0.51534206 0.015171977 1.0660456
-0.50516546 0.015005585 1.0651906
-0.49470773 0.014333847 1.0650002
-0.48518774 0.015875045 1.0646669
-0.47522876 0.016085066 1.0656254
-0.46671215 0.017599298 1.0645716
-0.45593351 0.010949194 1.0630001
-0.39367849 0.010568606 1.062
-0.38753319 0.010568606 1.062
-0.36371058 0.010748776 1.0615001
-0.35596231 0.010884576 1.0618572
-0.34977308 0.010558655 1.0610001
-0.55222785 0.023029165 1.066375
-0.54513228 0.023341451 1.0632001
-0.53451866 0.020926392 1.0610001
-0.52496767 0.020916704 1.0605001
-0.5142051 0.020570291 1.0617144
-0.50405562 0.020566139 1.0615001
-0.49330711 0.020537077 1.0600001
-0.48536584 0.022414004 1.0613334
-0.47624603 0.022777138 1.0610002
-0.46630472 0.02168774 1.062
0.54690635 -0.040024947 1.077
0.55313838 -0.040024947 1.077
0.56548929 -0.04070152 1.077
0.5707016 -0.041152563 1.077
0.58616853 -0.041780546 1.0765716
0.59582341 -0.041032478 1.0738572
0.60502702 -0.042009927 1.0741429
0.61487716 -0.042172149 1.0742002
0.21227752 -0.031061573 1.079
0.22892728 -0.031061573 1.079
0.23233292 -0.031061573 1.079
0.37778732 -0.03327778 1.0775715
0.38494858 -0.034113675 1.0761666
0.395096 -0.033744358 1.0766876
0.40530586 -0.033245366 1.0764999
0.41501385 -0.033138692 1.0763637
0.42552358 -0.03388726 1.0763808
0.43446642 -0.033312172 1.074737
0.44400215 -0.032890666 1.0740833
0.45416877 -0.034436233 1.0757693
0.46405789 -0.033105761 1.0752728
0.47477174 -0.034407374 1.0753124
0.48572791 -0.033328231 1.075316
0.49501002 -0.035607297 1.0748572
0.50500906 -0.033854507 1.0743334
0.51474488 -0.034432497 1.074389
0.52514839 -0.034111928 1.0749376
0.53513271 -0.034868419 1.0735238
0.54463029 -0.036218844 1.0732666
0.55406123 -0.037023555 1.0739287
0.56371158 -0.037870239 1.0734
0.57536012 -0.038740821 1.0726668
0.58628035 -0.038343318 1.0720001
0.59468037 -0.037986785 1.0704
0.60481733 -0.038644511 1.0700001
-0.035090532 -0.020874798 1.0780001
-0.025790421 -0.021439128 1.0780001
-0.016263472 -0.021156965 1.0780001
-0.0046631205 -0.021843631 1.0762222
0.0054391893 -0.022453982 1.076286
0.01568279 -0.022897953 1.0743574
0.025299646 -0.024266934 1.0751177
0.034291994 -0.023405185 1.0755715
0.044993628 -0.022779774 1.0758183
0.054945227 -0.023281388 1.0752728
0.064941272 -0.024173914 1.0740001
0.074591167 -0.024170296 1.0738182
0.085434064 -0.024157559 1.0732499
0.094902851 -0.024649139 1.0736427
0.10580912 -0.025458677 1.0728333
0.11474407 -0.026574465 1.0735714
0.12478057 -0.025956605 1.0741667
0.13489093 -0.025296997 1.0738666
0.14453566 -0.025147229 1.0734999
0.15479842 -0.026454275 1.0753334
0.16512182 -0.025536338 1.0745333
0.17500268 -0.025655119 1.0740526
0.1851726 -0.026216023 1.0721428
0.19604443 -0.027503595 1.0749375
0.20519665 -0.026737921 1.0741818
0.21372966 -0.027516359 1.0728
0.22528812 -0.02707541 1.0738335
0.23198253 -0.027285723 1.0747501
0.37540734 -0.029395914 1.0731668
0.38413626 -0.029709937 1.0710001
0.39399573 -0.029709939 1.0710001
0.41723868 -0.029373145 1.0723333
0.42518359 -0.029059326 1.0718001
0.52590269 -0.029682197 1.0700001
-0.19223647 -0.012986176 1.079
-0.18503366 -0.012793175 1.0772307
-0.17516127 -0.011016862 1.0757143
-0.1646328 -0.01218648 1.0772309
-0.1548681 -0.01301356 1.0757223
-0.14529119 -0.013119849 1.0753847
-0.13453189 -0.014068114 1.0751001
-0.12461011 -0.013269371 1.0755
-0.11536174 -0.014073961 1.0753751
-0.10491957 -0.015221234 1.0770627
-0.095337659 -0.014077531 1.0757003
-0.085183859 -0.014755777 1.0761002
-0.074658543 -0.014945772 1.0759232
-0.064018831 -0.015571195 1.0752501
-0.054595269 -0.017064 1.0747223
-0.045060635 -0.018907446 1.0751001
-0.035546966 -0.018522481 1.0725001
-0.025440527 -0.018527661 1.0728
-0.015067611 -0.018220603 1.0735714
-0.0048899101 -0.018496573 1.0710001
0.0045751724 -0.018496573 1.0710001
0.036801524 -0.01961791 1.0710001
0.044501297 -0.01961791 1.0710001
-0.44573849 -0.0031067138 1.0742002
-0.435801 -0.0036334842 1.0767273
-0.42548215 -0.0022821622 1.075941
-0.41468388 -0.0020065366 1.0752858
-0.40499943 -0.0016851443 1.0755002
-0.39540949 -0.00055705913 1.0746
-0.38550183 -0.00087981333 1.0757143
-0.37884298 -0.0005583032 1.077
-0.35164839 -0.0016859216 1.077
-0.34428316 -0.0016859216 1.077
-0.33484063 -0.0014979852 1.0770001
-0.3252092 -0.00093417603 1.0770001
-0.31520009 -0.0005583032 1.0770001
-0.30390483 -0.0019922231 1.0757272
-0.29611236 -0.0018430646 1.0734288
-0.28433242 -0.0028048195 1.0727001
-0.27537203 -0.0029799116 1.0732309
-0.26461893 -0.0028072784 1.073
-0.25538337 -0.003848857 1.0727859
-0.2461414 -0.0042490736 1.0725715
-0.23456018 -0.0043344726 1.0724546
-0.22473221 -0.0050530923 1.0730002
-0.21512131 -0.0063435645 1.0720769
-0.20553596 -0.007985861 1.0723077
-0.19501503 -0.0085225161 1.0727273
-0.185523 -0.0086468123 1.0730001
-0.17605422 -0.0085863797 1.0703335
-0.16434613 -0.0068007712 1.0705715
-0.5540278 0.0092259124 1.0783334
-0.54534376 0.0087434351 1.076875
-0.53761101 0.0095724529 1.075
-0.52032083 0.0095457388 1.072
-0.50128317 0.0084351413 1.0735
-0.4952133 0.0070174448 1.0758183
-0.4842267 0.0074476856 1.0753334
-0.47489727 0.009180516 1.0730001
-0.4503943 0.00056667207 1.072
-0.44367695 0.00098763185 1.0721251
-0.4352994 0.0011277623 1.0726001
-0.42554173 0.0030353391 1.0719
-0.41459274 0.0016874798 1.0710001
-0.40490231 0.0016874798 1.0710001
-0.39391607 0.0016874798 1.0710001
-0.38318783 0.0015486926 1.0721251
-0.37496659 0.0026518931 1.0737857
-0.36505529 0.002612422 1.0731177
-0.35505539 0.0023312846 1.0733573
-0.34543866 0.001576139 1.0725001
-0.3342402 0.00098743755 1.0725
-0.32490227 0.0022501971 1.0725001
-0.31531835 0.0029137637 1.0729092
-0.30639648 0.0023309446 1.0727143
-0.29898354 0.0016874798 1.0710001
-0.25817761 0.00056561484 1.0700001
-0.56004524 0.014126921 1.079
-0.55486226 0.015321057 1.076286
-0.5458948 0.014718506 1.0751907
-0.53767782 0.013106674 1.0725
-0.50189936 0.010668123 1.072
-0.49494427 0.010668122 1.072
-0.48358124 0.011517373 1.0727501
-0.47498137 0.011341552 1.072
-0.46956769 0.011790506 1.072
0.38629839 -0.041549951 1.0874001
0.39506403 -0.04087808 1.0863335
0.40411291 -0.040860914 1.0880002
0.41614512 -0.041168384 1.0873334
0.42483756 -0.041494831 1.0859001
0.43549559 -0.040720545 1.0855001
0.44531274 -0.041225873 1.0874287
0.45337734 -0.041497059 1.0860001
0.46478269 -0.041534666 1.087
0.47841579 -0.042046398 1.0855
0.48616236 -0.042103127 1.0848573
0.49567765 -0.041212298 1.0835001
0.50546306 -0.040966913 1.0853333
0.51477617 -0.041307967 1.0833077
0.52588755 -0.041318569 1.0840001
0.53556305 -0.041398991 1.0834001
0.54489976 -0.042124283 1.0834547
0.55443668 -0.043903731 1.0836
0.56449592 -0.043084715 1.0842727
0.5756439 -0.043125339 1.0840001
0.58524919 -0.044107426 1.0837501
0.59469151 -0.046043817 1.0840003
0.60371906 -0.045580737 1.083231
0.6150862 -0.046776902 1.0836003
0.62214458 -0.048045449 1.0834286
0.008768646 -0.031320661 1.0880001
0.014778223 -0.031320661 1.0880001
0.024771394 -0.031291872 1.087
0.03615509 -0.030681215 1.0855
0.045537896 -0.030120496 1.0858001
0.056531668 -0.030592373 1.0863999
0.064252175 -0.031250261 1.0855001
0.074514762 -0.030884769 1.0860001
0.085402869 -0.031985849 1.0859091
0.095439672 -0.032225884 1.0865
0.10531628 -0.031873394 1.0856364
0.11541605 -0.032159161 1.0855
0.12478086 -0.032386776 1.0855
0.13477166 -0.032279391 1.0853636
0.14519252 -0.03401706 1.0859473
0.15459396 -0.033668779 1.0852667
0.16508548 -0.033096708 1.0858462
0.17538865 -0.03287233 1.0848889
0.18524683 -0.033962656 1.0855386
0.19464804 -0.034456749 1.0862001
0.20470595 -0.033239827 1.0855001
0.2157947 -0.034148455 1.0861768
0.22527424 -0.033948008 1.0863003
0.23260309 -0.03498809 1.0855716
0.37723252 -0.036574863 1.086
0.38319179 -0.039142918 1.0838002
0.39481699 -0.037945062 1.082
0.4053708 -0.036733087 1.0833333
0.41470537 -0.037271973 1.0833637
0.42441928 -0.037773788 1.0825
0.43560848 -0.03817163 1.082
0.44476062 -0.037999235 1.0835
0.45413423 -0.038538571 1.08275
0.46516469 -0.037564427 1.0835384
0.47465909 -0.038382869 1.0836667
0.48557621 -0.038537186 1.0812731
0.4941189 -0.038815435 1.0810002
0.50600386 -0.037909988 1.0810001
0.51254344 -0.037909992 1.0810001
0.52486438 -0.037909988 1.0810002
0.53339428 -0.037909992 1.0810001
-0.16308329 -0.021657897 1.0890001
-0.15659079 -0.021087807 1.0890001
-0.13272136 -0.021087807 1.0890001
-0.12439767 -0.021828564 1.0880001
-0.11527368 -0.022088394 1.0883335
-0.1043362 -0.022210563 1.0881001
-0.094596408 -0.022295194 1.087182
-0.084389955 -0.022637304 1.0881251
-0.075301826 -0.022966998 1.0880002
-0.065597862 -0.023334464 1.0874002
-0.054742157 -0.023791738 1.0859288
-0.044893406 -0.024415718 1.0846668
-0.034518708 -0.025206001 1.0852106
-0.024802003 -0.026681675 1.0844668
-0.015095456 -0.025550896 1.0846668
-0.0053052041 -0.026080284 1.0849234
0.0048891506 -0.027249783 1.0845625
0.01497954 -0.02794848 1.0856365
0.024174571 -0.02879592 1.0858334
0.035311013 -0.027439322 1.0819093
0.045596663 -0.026612444 1.0818002
0.054477926 -0.026729774 1.0814444
0.064153872 -0.027698083 1.08
0.075518645 -0.027773254 1.082875
0.084549814 -0.028122118 1.08
0.094853677 -0.029342823 1.08
0.10471851 -0.028828843 1.08
0.11892182 -0.028828843 1.08
0.12517127 -0.028828843 1.08
0.13464013 -0.028828843 1.08
0.14505589 -0.029281145 1.08
0.15528229 -0.029959602 1.08
0.16550866 -0.029959602 1.08
0.17505328 -0.029959602 1.08
0.18437064 -0.029959602 1.08
0.19107461 -0.0299596 1.08
-0.43293619 -0.012741722 1.0842727
-0.42964426 -0.011955359 1.0880001
-0.28057757 -0.010806282 1.087
-0.27485943 -0.010806283 1.0870001
-0.26513857 -0.010806282 1.087
-0.2558752 -0.010806282 1.087
-0.24603951 -0.011792168 1.086
-0.23490556 -0.012227168 1.0844547
-0.22493596 -0.012472182 1.0834001
-0.214159 -0.013066134 1.0854001
-0.20425041 -0.014106574 1.0858183
-0.19527398 -0.015405789 1.0853888
-0.1847968 -0.017066816 1.0870001
-0.17490369 -0.015698673 1.0852633
-0.16591488 -0.017756533 1.0855001
-0.15461908 -0.017819149 1.0842999
-0.14495793 -0.01741112 1.0871
-0.13483435 -0.017621033 1.0860001
-0.12495894 -0.018214006 1.0844547
-0.11564817 -0.018382614 1.0831429
-0.10537317 -0.019453995 1.0826666
-0.094643809 -0.01919299 1.0831429
-0.085230678 -0.018758554 1.0860834
-0.07489609 -0.018730666 1.0845
-0.066098258 -0.019145714 1.0838751
-0.057631232 -0.019801086 1.0810001
-0.4432289 -0.0060779331 1.0810002
-0.43430603 -0.007151484 1.0810002
-0.42483991 -0.0076320833 1.0846667
-0.41402268 -0.007110795 1.0837693
-0.40571624 -0.0054884506 1.0852503
-0.39566839 -0.0043820888 1.0856431
-0.38486555 -0.0044905529 1.0852729
-0.37427858 -0.0036722368 1.084
-0.36476484 -0.0033607611 1.0843848
-0.35532349 -0.0038207504 1.0845333
-0.34444278 -0.0054129194 1.0850002
-0.33454832 -0.0058569266 1.0832669
-0.32479531 -0.0052086953 1.0830001
-0.31556389 -0.0048176278 1.0831876
-0.30534992 -0.0060075209 1.0829334
-0.29494649 -0.0055553359 1.0835
-0.2858226 -0.0067531271 1.0836365
-0.27469397 -0.0071795066 1.0811539
-0.26501936 -0.0079740332 1.0816364
-0.25454327 -0.0086156381 1.0816667
-0.24482353 -0.0087745413 1.0818751
-0.23533575 -0.008483178 1.0809001
-0.22650254 -0.0092290137 1.08
-0.21741244 -0.009605933 1.08
-0.56186241 0.0085063837 1.0825
-0.5456652 0.0073690782 1.082
-0.56212145 0.01191149 1.0830001
0.48248214 -0.050002221 1.098
0.51540542 -0.050002221 1.098
0.52406943 -0.050864425 1.098
0.53215581 -0.051151827 1.098
0.56629562 -0.051105238 1.097
0.57639444 -0.051105238 1.097
0.58571327 -0.052063599 1.0956666
0.5953747 -0.052704677 1.0944169
0.60428458 -0.053593252 1.0936155
0.61461961 -0.053579461 1.0951539
0.62520713 -0.054102313 1.0936877
0.11963958 -0.040768214 1.097
0.12618864 -0.041600972 1.0962501
0.18710206 -0.041649055 1.0960001
0.19433776 -0.041591678 1.0960001
0.20024738 -0.04073105 1.0960001
0.21782267 -0.040675305 1.0945001
0.22416942 -0.041286223 1.0955001
0.23253414 -0.041878562 1.0960001
0.37874332 -0.044012364 1.092
0.3857201 -0.045304082 1.0955
0.39560154 -0.045057829 1.0951
0.40591067 -0.04547983 1.0957859
0.41508663 -0.045118719 1.0947335
0.42432711 -0.046312615 1.0945001
0.4350068 -0.045521285 1.0951999
0.44505924 -0.046360906 1.0947894
0.45520124 -0.045911454 1.0945624
0.46530443 -0.044444591 1.0931667
0.47504702 -0.044986539 1.0936314
0.4847489 -0.046100073 1.0940001
0.49534824 -0.045768648 1.0941818
0.50563556 -0.045508556 1.0940769
0.51482767 -0.046452232 1.0921873
0.52517736 -0.046628289 1.0934616
0.5349921 -0.046766352 1.0944998
0.54445136 -0.046893962 1.0943571
0.55431485 -0.048146639 1.0949999
0.56454593 -0.048151311 1.0925
0.57465684 -0.048160899 1.0923077
0.58478242 -0.048661955 1.0913635
0.59450537 -0.049067296 1.09
0.60593224 -0.04931185 1.0900002
0.61342728 -0.049067296 1.09
0.62002134 -0.049637906 1.09
-0.085832298 -0.030442283 1.0974001
-0.075004503 -0.030563714 1.0958574
-0.064584158 -0.030442283 1.0974001
-0.05430181 -0.030458927 1.098
-0.044836618 -0.030438121 1.09725
-0.034396596 -0.031732574 1.0955834
-0.024747448 -0.032302193 1.0943846
-0.014695406 -0.032382675 1.0949167
-0.0045758788 -0.033265263 1.0946842
0.0056980164 -0.034368817 1.0931765
0.015333178 -0.03500326 1.09175
0.024729123 -0.034785677 1.0931053
0.034529053 -0.034649108 1.0935295
0.045302551 -0.034084409 1.0943125
0.055003121 -0.033858594 1.093643
0.064390123 -0.035995074 1.0939287
0.075152099 -0.035068259 1.0934668
0.084390357 -0.036990341 1.0938668
0.094559185 -0.036421187 1.0928334
0.10494142 -0.03706326 1.0934376
0.11498851 -0.03750876 1.0939375
0.12506151 -0.037036173 1.0926875
0.13481554 -0.037487604 1.0928
0.14394352 -0.038412604 1.0916667
0.15504959 -0.038487803 1.0933751
0.16596399 -0.037372049 1.0946667
0.17510049 -0.037239056 1.0944999
0.18396622 -0.037336983 1.0936667
0.19490783 -0.038330823 1.0930001
0.20573092 -0.038040739 1.0944999
0.21415748 -0.038852222 1.0938572
0.22581936 -0.03914823 1.0930001
0.23336896 -0.039529365 1.0945001
-0.24744573 -0.021281449 1.0990002
-0.23524253 -0.020117059 1.09825
-0.22514582 -0.020673152 1.0972
-0.21495582 -0.020772614 1.098143
-0.20467351 -0.021732889 1.0975
-0.19544797 -0.021789044 1.0954168
-0.18531485 -0.021843221 1.0959231
-0.17476001 -0.022886245 1.0945882
-0.16496658 -0.02500206 1.0950769
-0.15445262 -0.023351012 1.0957143
-0.14461973 -0.023782918 1.0962225
-0.13536315 -0.024403159 1.0954443
-0.12540503 -0.025893541 1.0955385
-0.11559843 -0.025947766 1.0962223
-0.10535263 -0.026565155 1.0953333
-0.094738722 -0.026904598 1.0936002
-0.08526855 -0.026309524 1.0926666
-0.074861012 -0.026709531 1.0928463
-0.064327352 -0.026889209 1.0930001
-0.055588316 -0.027603129 1.0930002
-0.045417376 -0.028230002 1.0918001
-0.037885901 -0.028741708 1.0910001
-0.01186825 -0.029122468 1.0910001
-0.0072768996 -0.029122468 1.0910001
-0.4308289 -0.014844015 1.0910001
-0.42539635 -0.014236192 1.0929444
-0.41550356 -0.011894069 1.0961999
-0.40427864 -0.012169954 1.0957778
-0.39633483 -0.011757959 1.0960001
-0.38103145 -0.010915637 1.098
-0.37368163 -0.011292212 1.0973334
-0.36394754 -0.012966143 1.0963
-0.35579431 -0.013282958 1.0955834
-0.34570628 -0.012889685 1.094667
-0.33508143 -0.012046929 1.0963335
-0.32393587 -0.0118562 1.0963335
-0.31534749 -0.011781347 1.0952222
-0.30396864 -0.011921391 1.0933335
-0.2947188 -0.012710391 1.0939336
-0.28526503 -0.012995339 1.0930716
-0.27497935 -0.013687312 1.0930771
-0.26507258 -0.013727719 1.092786
-0.25482455 -0.016123161 1.0931178
-0.2452424 -0.016534304 1.093158
-0.23512422 -0.016727146 1.0936667
-0.22493879 -0.016276702 1.0912502
-0.21529143 -0.01628634 1.0918335
-0.2059458 -0.016708981 1.0915
-0.18363811 -0.018859252 1.092
-0.14170364 -0.018859252 1.092
-0.13940586 -0.018859252 1.092
-0.42336798 -0.0097037712 1.0910001
-0.40404603 -0.0077999774 1.0910001
-0.39495897 -0.0082759261 1.0910001
-0.385225 -0.0083739758 1.0933635
-0.37451008 -0.0088637415 1.092875
-0.36498433 -0.0081874076 1.09175
-0.3546125 -0.0085614957 1.091
-0.34597564 -0.0093200486 1.0906668
-0.33528787 -0.0097126663 1.0920001
-0.32459563 -0.00970555 1.0912001
-0.31460869 -0.0085536474 1.09
-0.30199406 -0.0085536474 1.09
-0.29492223 -0.0085536474 1.0900002
0.59732854 -0.060898289 1.108
0.60580558 -0.060854323 1.1072
0.6146993 -0.06076638 1.1056
0.62627149 -0.061529785 1.1074286
0.63405263 -0.062030882 1.1075
0.3978481 -0.051331867 1.1068001
0.40547052 -0.051602714 1.1053638
0.41500473 -0.052722998 1.1068183
0.42468217 -0.052873734 1.106231
0.43515426 -0.053202968 1.1055332
0.44470492 -0.054172467 1.1052105
0.4549683 -0.054165054 1.1054
0.46384543 -0.052477982 1.1056669
0.47572002 -0.051072318 1.1062001
0.48439384 -0.052920692 1.1060668
0.49328274 -0.052750401 1.1055715
0.50534904 -0.052431855 1.1064116
0.51553541 -0.053758919 1.1058002
0.52581942 -0.053480085 1.1050001
0.5355159 -0.054468416 1.1056111
0.54471743 -0.054741304 1.1049545
0.55530906 -0.054184522 1.1036956
0.56514376 -0.055278592 1.1037778
0.57521892 -0.055687003 1.10375
0.58441192 -0.057099216 1.1042222
0.59537554 -0.05754853 1.1059999
0.60411739 -0.057573512 1.1035557
0.61598665 -0.057370719 1.1015
0.62435853 -0.057782453 1.1022857
0.63187307 -0.058225688 1.1013334
-0.071569599 -0.040053051 1.1090001
-0.03070475 -0.041177008 1.108
-0.024098985 -0.040790316 1.108
-0.017049139 -0.040679835 1.108
-0.0052528917 -0.041152231 1.1073334
0.0054212809 -0.042551205 1.1059999
0.015169777 -0.042184245 1.1040001
0.025726611 -0.043300331 1.1062223
0.034025658 -0.042934485 1.1062858
0.04471745 -0.042731903 1.1072727
0.055458475 -0.04168272 1.1059999
0.065376699 -0.042607948 1.1056923
0.075145736 -0.042794678 1.1059231
0.083900183 -0.04297547 1.1051428
0.09500324 -0.043246482 1.1050001
0.10530332 -0.043344323 1.104
0.11526133 -0.043466065 1.1034374
0.1250509 -0.045379315 1.1032859
0.13444103 -0.044620551 1.103778
0.14502561 -0.044065919 1.1028
0.15572366 -0.044518739 1.1044706
0.16517943 -0.043489728 1.1034764
0.17470114 -0.043911483 1.1044738
0.18410902 -0.044425916 1.1036844
0.19553757 -0.04534867 1.1035833
0.20531087 -0.043480802 1.1032858
0.21444161 -0.043334614 1.1037692
0.22477591 -0.044396196 1.1015
0.23449016 -0.044369329 1.104
0.3887108 -0.049119569 1.1040001
0.397284 -0.04903058 1.102
0.40511003 -0.04903058 1.102
0.41487804 -0.048986092 1.1010001
0.4247241 -0.048986092 1.1010001
0.43514937 -0.048793972 1.1010001
0.44325781 -0.048986092 1.1010001
0.46826205 -0.04698066 1.1026
0.48785463 -0.047833346 1.1010001
0.4965423 -0.048409719 1.1010001
0.50465083 -0.048986092 1.1010001
0.51044261 -0.048986092 1.1010001
0.55214351 -0.048986092 1.1010001
-0.15226594 -0.032484952 1.10825
-0.14493239 -0.032714881 1.107091
-0.13581851 -0.032477029 1.1061819
-0.12501541 -0.033028744 1.107
-0.11534549 -0.032240495 1.1084287
-0.10370255 -0.032680824 1.1070001
-0.095144257 -0.032198831 1.105
-0.084919475 -0.03365298 1.1046002
-0.074760869 -0.035084009 1.1055
-0.065643556 -0.035419676 1.1053683
-0.054860793 -0.034577269 1.1046001
-0.044344697 -0.035634734 1.1055715
-0.035638101 -0.036949079 1.1050625
-0.025452605 -0.037609473 1.1053637
-0.015481231 -0.037296753 1.103
-0.0052432371 -0.03874572 1.1018181
0.0048191645 -0.039379872 1.1010001
0.015128553 -0.039764121 1.1010001
0.024641396 -0.039785791 1.1016001
0.035213705 -0.039465722 1.1018572
0.044147581 -0.039126337 1.1025
0.054628577 -0.038227126 1.1010001
0.069108054 -0.038611375 1.1010001
0.073451899 -0.038611375 1.1010001
0.097294778 -0.039764121 1.1010001
0.15700057 -0.039728004 1.1
0.2368547 -0.039728004 1.1
-0.42255029 -0.020733621 1.1066
-0.41747314 -0.021828813 1.1073334
-0.34484702 -0.020277334 1.107
-0.33582088 -0.020277334 1.107
-0.32603762 -0.020277334 1.107
-0.30321008 -0.020277334 1.1070001
-0.29498494 -0.02206328 1.1067274
-0.28573996 -0.021871001 1.107
-0.27625543 -0.021938577 1.1063334
-0.26439354 -0.022564201 1.1054001
-0.25523338 -0.022354228 1.1031429
-0.24384303 -0.02266236 1.1045001
-0.2350262 -0.023470385 1.1044
-0.22480009 -0.024440885 1.1046364
-0.21508196 -0.024322554 1.1043847
-0.20520425 -0.026400637 1.1045001
-0.19536269 -0.026562361 1.105077
-0.18466192 -0.026294652 1.104125
-0.17458439 -0.027954293 1.1050001
-0.16431628 -0.028918756 1.1050001
-0.15541093 -0.02832799 1.1045001
-0.14628088 -0.02878288 1.1030002
-0.13496809 -0.029433891 1.1026669
-0.12445074 -0.029416097 1.1020001
-0.11398209 -0.029120762 1.1032858
-0.1058289 -0.029476158 1.10425
-0.098943695 -0.029416095 1.102
-0.42376819 -0.01774323 1.1025
-0.41538298 -0.017058447 1.1046873
-0.4051789 -0.015859785 1.1033845
-0.39468676 -0.01476685 1.1048666
-0.38548645 -0.015511773 1.1046522
-0.37582082 -0.016012438 1.1037859
-0.36686453 -0.016869526 1.1037002
-0.35465461 -0.01698841 1.104
-0.34390411 -0.016542802 1.1037273
-0.33535403 -0.016371697 1.1039336
-0.32532209 -0.016511999 1.1030002
-0.31516427 -0.01630242 1.1035557
-0.30556715 -0.01710563 1.1035385
-0.29499856 -0.017880255 1.1020001
-0.2849285 -0.017772418 1.1018183
-0.27494264 -0.017880259 1.1020001
-0.26501051 -0.018237293 1.1004444
-0.2596297 -0.018997416 1.1
0.41636297 -0.060331281 1.1190001
0.42514643 -0.060762133 1.1173335
0.4333545 -0.061121922 1.118143
0.44555447 -0.060298931 1.1184
0.45547572 -0.060795769 1.11675
0.46525362 -0.061561175 1.1176668
0.47238475 -0.061939161 1.1184
0.48611775 -0.061502874 1.1190001
0.49583045 -0.061502874 1.1190001
0.50616956 -0.061447911 1.118
0.5149914 -0.061447915 1.118
0.52584976 -0.060781773 1.1165
0.5355882 -0.061115555 1.1166667
0.54503679 -0.062864251 1.1161
0.55498177 -0.063119717 1.1165
0.56503165 -0.064075977 1.1161667
0.57447511 -0.063909605 1.1163635
0.58414191 -0.063412353 1.1164999
0.59490252 -0.063450351 1.1149286
0.60467142 -0.064425468 1.11375
0.61500245 -0.065326184 1.1148667
0.62508279 -0.06527707 1.114625
0.63471007 -0.067342505 1.1145003
0.64107227 -0.067571133 1.1160002
0.0090184882 -0.050958544 1.1190001
0.014904968 -0.050958544 1.1190001
0.068410754 -0.051498275 1.118
0.075293645 -0.05204628 1.1172001
0.081937559 -0.052083548 1.118
0.094288126 -0.052083548 1.118
0.10310996 -0.052083548 1.118
0.11643624 -0.051475506 1.1175001
0.1252083 -0.051332049 1.115778
0.1355743 -0.050913002 1.118
0.14723013 -0.051813006 1.1172001
0.15492751 -0.051823199 1.1146365
0.16533054 -0.051973421 1.1156001
0.17418566 -0.052161559 1.1165
0.1842708 -0.052083548 1.118
0.19493476 -0.052052494 1.1173334
0.20571487 -0.05244267 1.1173334
0.21328482 -0.052083548 1.118
0.22496884 -0.050913002 1.118
0.23531897 -0.051294643 1.1167501
0.24169037 -0.052036963 1.1170001
0.38918981 -0.052968297 1.1120001
0.39522761 -0.05668002 1.11625
0.40439942 -0.05724778 1.1159289
0.41536567 -0.056705609 1.1142223
0.42433628 -0.056989674 1.1125715
0.43354759 -0.05706913 1.1125001
0.44183671 -0.05762535 1.1120001
0.45470595 -0.059022464 1.1120001
0.46580938 -0.057156593 1.1125716
0.4753722 -0.056344382 1.1164118
0.48440194 -0.057465669 1.1150001
0.49582031 -0.057876084 1.1167779
0.50496215 -0.058009051 1.1175002
0.51409483 -0.058399402 1.1146365
0.52442968 -0.057858832 1.1120001
0.53494972 -0.05896939 1.1110001
0.54585928 -0.059899963 1.1110001
0.55462587 -0.059899963 1.1110001
0.56510681 -0.059899963 1.1110001
0.57469165 -0.059899963 1.1110001
0.58462709 -0.05989996 1.1110001
-0.085406534 -0.040305864 1.1160001
-0.075935148 -0.041084833 1.1160001
-0.0657432 -0.04169596 1.114125
-0.053281754 -0.042292543 1.1170001
-0.044647194 -0.043053623 1.1165001
-0.035594724 -0.043945726 1.1150715
-0.024960963 -0.044256054 1.1153336
-0.014626746 -0.044374309 1.115375
-0.0048728893 -0.045834873 1.1153752
0.0051807491 -0.046753064 1.1164167
0.014924661 -0.046409216 1.1147333
0.024340665 -0.04689385 1.1151667
0.035191298 -0.047326237 1.116154
0.045319043 -0.047144182 1.114167
0.054968502 -0.047438767 1.1155294
0.065302573 -0.047940142 1.1168334
0.074629195 -0.047828697 1.1142502
0.08517772 -0.048259448 1.1156365
0.09401805 -0.048197012 1.1141819
0.10484596 -0.048819207 1.1125002
0.11478792 -0.048483916 1.1115001
0.12116644 -0.048267797 1.1110001
0.13577743 -0.048267797 1.1110001
0.14437509 -0.047825135 1.1122859
0.15412883 -0.048267797 1.1110001
0.16558385 -0.048965726 1.1110001
0.17540245 -0.049431011 1.1110001
0.18498725 -0.049431011 1.1110001
0.19480585 -0.049431011 1.1110001
0.20518255 -0.048585612 1.1123335
0.21550107 -0.048702158 1.1142502
0.22521877 -0.048398137 1.1140001
0.23570935 -0.048071995 1.114143
-0.41307637 -0.032169364 1.1175001
-0.40568095 -0.032704521 1.118
-0.24337012 -0.032155495 1.1170001
-0.23473243 -0.032155495 1.1170001
-0.22397581 -0.032247476 1.1161002
-0.2154474 -0.031788625 1.1152729
-0.20516464 -0.032035258 1.1127274
-0.19447708 -0.032672789 1.1146252
-0.18459409 -0.033384752 1.1161431
-0.17526628 -0.033297252 1.1160003
-0.16512553 -0.033104286 1.1143751
-0.15599424 -0.033668954 1.1128
-0.14528452 -0.03650935 1.1142001
-0.13452184 -0.036476739 1.1150001
-0.12474435 -0.036898416 1.1150001
-0.11536989 -0.035995528 1.1142858
-0.1050893 -0.037074786 1.1146364
-0.095258676 -0.037919503 1.1145
-0.085527226 -0.038489006 1.114125
-0.076511666 -0.039032206 1.113
-0.061288886 -0.039032206 1.113
-0.054922394 -0.038356494 1.1145
-0.046944335 -0.038740881 1.113
-0.42065483 -0.022713151 1.1126668
-0.41464105 -0.025343701 1.11552
-0.40506968 -0.02504517 1.1165555
-0.39547324 -0.023596074 1.1163077
-0.38514403 -0.022878801 1.1155455
-0.37487873 -0.022179222 1.1151
-0.36509839 -0.021291835 1.1159092
-0.35465789 -0.022054056 1.1146001
-0.34511337 -0.023313513 1.1135
-0.33569789 -0.023395028 1.1143334
-0.32492512 -0.022766611 1.1152858
-0.3147428 -0.022683023 1.1148667
-0.30496651 -0.025236554 1.1142668
-0.29500064 -0.026326105 1.1131818
-0.2852132 -0.026592759 1.1136924
-0.27509448 -0.025666727 1.1144288
-0.26447874 -0.027535804 1.1159289
-0.25442952 -0.027357662 1.1149378
-0.24504536 -0.028040562 1.114231
-0.23513755 -0.029168954 1.1125456
-0.22565398 -0.028506991 1.1115
-0.2148876 -0.028467475 1.1100001
-0.19192034 -0.028467475 1.11
-0.18491337 -0.028467475 1.11
-0.17907423 -0.028467475 1.11
-0.40465364 -0.019201206 1.1118001
-0.39612752 -0.019204659 1.112
-0.38612723 -0.019187389 1.1110001
-0.37560734 -0.019187389 1.1110001
0.51570308 -0.070326932 1.1290001
0.52817518 -0.070326932 1.1290001
0.53648984 -0.070326932 1.1290001
0.54331982 -0.070326932 1.1290001
0.56974876 -0.071508996 1.1290001
0.57471389 -0.071461499 1.1282501
0.58406079 -0.072052523 1.12825
0.59714472 -0.070725009 1.1278001
0.60506529 -0.07088612 1.1271429
0.61565602 -0.071918458 1.1251112
0.6251049 -0.073139712 1.1257778
0.63485843 -0.073422357 1.1253638
0.64385676 -0.073589608 1.1246251
0.11659653 -0.060870439 1.1290001
0.12312952 -0.060870439 1.1290001
0.18473223 -0.060816523 1.128
0.23694991 -0.060816523 1.128
0.24169695 -0.060816523 1.128
0.39788231 -0.063012615 1.125
0.40567422 -0.062619992 1.1250001
0.41512564 -0.062500872 1.1252223
0.42490667 -0.063796476 1.125
0.43594924 -0.063868761 1.1252859
0.44489786 -0.063704334 1.1256667
0.45533511 -0.06448745 1.1264546
0.46547556 -0.067239672 1.1267501
0.47527421 -0.066161111 1.1246876
0.48418927 -0.064936288 1.1251251
0.49448252 -0.065314479 1.1253124
0.5048483 -0.065429226 1.1249472
0.51550901 -0.066146292 1.1248668
0.52545136 -0.066168875 1.1257144
0.53477782 -0.066640809 1.1242354
0.54466772 -0.067332402 1.1238183
0.55481845 -0.067791969 1.1261251
0.56496847 -0.068015128 1.1265836
0.57539237 -0.068073817 1.1235001
0.58524233 -0.067608237 1.123091
0.59390974 -0.067802578 1.1238751
0.60517114 -0.068951108 1.1220001
0.61546493 -0.069853522 1.1214001
0.62515336 -0.0698286 1.1210002
0.63175797 -0.0698286 1.1210001
0.6447314 -0.0698286 1.1210001
-0.011656661 -0.050098397 1.126
-0.0045483382 -0.051231779 1.1250001
0.0053139105 -0.051548854 1.1233335
0.015151251 -0.052693933 1.1226668
0.024668112 -0.052365161 1.1240002
0.035525497 -0.052626397 1.1237694
0.045624204 -0.053063389 1.124889
0.055316336 -0.054186475 1.1233809
0.064865537 -0.055789717 1.1240478
0.074810423 -0.055325381 1.1243334
0.085659005 -0.054451551 1.1240771
0.095271662 -0.055518977 1.12525
0.10488399 -0.055883594 1.1252667
0.11471007 -0.056100044 1.1241113
0.12522632 -0.056732133 1.1245
0.13508341 -0.055176653 1.1247143
0.14452188 -0.055104576 1.1247647
0.15574081 -0.056728728 1.1235456
0.16536357 -0.056668337 1.1230001
0.17557722 -0.057497378 1.1246001
0.18464571 -0.056133933 1.1243126
0.19489413 -0.055856377 1.1250001
0.20469442 -0.05627973 1.1238002
0.21472198 -0.056419924 1.1243572
0.2251354 -0.05486859 1.1243335
0.23467734 -0.056629207 1.1225265
0.24228665 -0.055534452 1.1206667
-0.18466254 -0.041883111 1.1270001
-0.17380315 -0.042202111 1.1250001
-0.16580969 -0.042276435 1.1270001
-0.15429948 -0.041356772 1.1264286
-0.14532891 -0.041235339 1.1253999
-0.1355211 -0.041909914 1.1227694
-0.12480983 -0.042534545 1.1233335
-0.11456876 -0.042640254 1.1216251
-0.10476328 -0.042745624 1.1233077
-0.095069565 -0.043473341 1.1231178
-0.085108928 -0.045153841 1.1234443
-0.075382434 -0.04471029 1.1238334
-0.064262882 -0.044569202 1.124
-0.055345908 -0.045607097 1.1231431
-0.046023685 -0.046660956 1.1242857
-0.035814524 -0.04757097 1.1220001
-0.02505078 -0.048469972 1.1246667
-0.014792598 -0.048441008 1.1240001
-0.0066967001 -0.04952886 1.1220001
-0.41828111 -0.031124696 1.1220001
-0.40281251 -0.032396901 1.1253334
-0.39518833 -0.030588288 1.1282002
-0.35435182 -0.031281896 1.1276668
-0.34752923 -0.031291142 1.1280001
-0.3234897 -0.031318881 1.1290001
-0.31273061 -0.031902455 1.1287501
-0.30466768 -0.032279283 1.1257778
-0.29506087 -0.032279283 1.125778
-0.28508949 -0.032850035 1.126182
-0.27465868 -0.033984594 1.125867
-0.26433173 -0.035045929 1.1241114
-0.2550697 -0.03497991 1.1241114
-0.24560294 -0.035444725 1.1242311
-0.23446904 -0.035876185 1.1236002
-0.2256951 -0.0373827 1.1238184
-0.21567716 -0.037220739 1.1238669
-0.20503604 -0.036471672 1.1237502
-0.19528775 -0.037876368 1.1226366
-0.18559781 -0.038170848 1.1219001
-0.17479527 -0.038246609 1.12125
-0.16500051 -0.038743977 1.1214999
-0.15608318 -0.038530998 1.1209999
-0.1449443 -0.038105052 1.1200001
-0.11234333 -0.038105052 1.12
-0.40057433 -0.027600497 1.1220001
-0.39498445 -0.027142728 1.1238573
-0.38480964 -0.027308052 1.1247692
-0.37511107 -0.026742835 1.1253
-0.36513573 -0.026509902 1.1253529
-0.35508326 -0.026896667 1.1237274
-0.34425566 -0.027884174 1.1239001
-0.3349078 -0.027239708 1.1256155
-0.32521576 -0.027431913 1.1252859
-0.31618434 -0.027633836 1.1233
-0.30466256 -0.029362597 1.1220001
-0.29495582 -0.029923271 1.1210001
-0.28502923 -0.029923271 1.1210001
-0.27539745 -0.029923273 1.1210002
-0.26458627 -0.029923271 1.1210001
-0.25750989 -0.029923271 1.1210001
0.63702434 -0.081467494 1.136
0.64439458 -0.081665739 1.1360002
0.65216327 -0.081467494 1.136
0.40547329 -0.070887558 1.138
0.41864341 -0.070887558 1.138
0.42510876 -0.070887558 1.138
0.43447921 -0.071490116 1.1362001
0.44519085 -0.072214112 1.1370001
0.45495436 -0.072866715 1.1354001
0.464706 -0.073079482 1.1350001
0.47388464 -0.07289131 1.1347144
0.48449409 -0.071115956 1.1345
0.4961569 -0.070775442 1.1362001
0.50524634 -0.072035074 1.1354001
0.51402837 -0.072272219 1.1347778
0.52540857 -0.072180286 1.1344546
0.53420711 -0.07345482 1.1346668
0.54435939 -0.073472679 1.1358572
0.55538523 -0.071863696 1.1346
0.56472266 -0.073414892 1.1351819
0.57374632 -0.074627385 1.1349232
0.58515066 -0.07542602 1.1345556
0.59521168 -0.074998841 1.1340667
0.60498565 -0.074888587 1.1336001
0.61501402 -0.075916886 1.1338183
0.62475616 -0.07764712 1.1342224
0.63508886 -0.07783404 1.1334546
0.64518762 -0.077617109 1.1337779
0.65179485 -0.078205757 1.1346668
0.0091635576 -0.060111322 1.1370001
0.014536094 -0.06007167 1.1362501
0.024892058 -0.06085138 1.1360002
0.033357929 -0.06065315 1.136
0.045728061 -0.060058452 1.136
0.055369195 -0.061644308 1.136
0.06413386 -0.062437236 1.136
0.07504715 -0.061410137 1.1353335
0.087018512 -0.061680466 1.1352001
0.095676124 -0.062535092 1.1338183
0.10530144 -0.062329408 1.1339999
0.11492752 -0.062653705 1.1345
0.12566838 -0.06235636 1.1345
0.1355523 -0.063318104 1.1362727
0.14560542 -0.062635466 1.1360002
0.15530957 -0.063895032 1.1369091
0.16449785 -0.062898874 1.1371667
0.17543547 -0.062816426 1.1356668
0.18505031 -0.063483723 1.1350002
0.19511044 -0.062941037 1.1350002
0.20541224 -0.063084267 1.1347336
0.215377 -0.063976526 1.1355001
0.22454315 -0.06339024 1.1347145
0.23504296 -0.063862666 1.134467
0.24234152 -0.066121258 1.1350001
0.39905626 -0.066839904 1.13
0.40455922 -0.067246735 1.131143
0.41515434 -0.067359209 1.1314547
0.42491841 -0.067513123 1.1313334
0.43544373 -0.068290569 1.1322222
0.44473118 -0.067919254 1.1318182
0.45472187 -0.067659609 1.131091
0.46148765 -0.068114877 1.1315
0.4942857 -0.068203598 1.133
-0.16204026 -0.050632309 1.138
-0.15436135 -0.051262308 1.1368573
-0.14598458 -0.051262312 1.1368573
-0.13729636 -0.050632309 1.138
-0.12372714 -0.051823795 1.138
-0.11474748 -0.051823795 1.138
-0.10756376 -0.051823795 1.138
-0.094400145 -0.052775703 1.1356667
-0.084809199 -0.053327829 1.1348463
-0.075310007 -0.051384714 1.1341112
-0.06445767 -0.052216165 1.1344001
-0.054329246 -0.053501539 1.1332726
-0.044542138 -0.053701174 1.1338421
-0.034676429 -0.05350012 1.1325713
-0.024730258 -0.05381697 1.1334502
-0.014768037 -0.054802187 1.1329501
-0.0050396589 -0.056056634 1.1325002
0.004453619 -0.055512004 1.1327695
0.014412505 -0.056407996 1.1316667
0.024589628 -0.05657959 1.1312728
0.034023579 -0.057132013 1.1322
0.044293653 -0.057291772 1.133
0.054856639 -0.059372902 1.1320001
0.06668698 -0.059846979 1.1320002
0.077802733 -0.058661781 1.1320002
0.084750071 -0.058661778 1.1320001
0.092094406 -0.058661781 1.1320002
0.1061876 -0.058661778 1.1320001
0.13489005 -0.059846979 1.1320001
0.14465603 -0.059846979 1.1320001
0.15352878 -0.059846979 1.1320001
0.16533928 -0.059846979 1.1320001
0.17570418 -0.059794109 1.131
0.19593284 -0.058609955 1.131
0.21973127 -0.058609955 1.131
0.22419348 -0.059498072 1.131
-0.29160318 -0.042329073 1.1390001
-0.28484726 -0.041907486 1.1383333
-0.2746045 -0.041721351 1.1371819
-0.2646423 -0.041971769 1.1364446
-0.25528741 -0.042116314 1.1367779
-0.24552624 -0.041642517 1.1365001
-0.23401007 -0.041883409 1.1376667
-0.22444071 -0.042989351 1.1345385
-0.21497901 -0.043600645 1.1347336
-0.20559421 -0.044721834 1.1345502
-0.19505776 -0.04381441 1.1341335
-0.18479478 -0.044950318 1.1329001
-0.17524843 -0.045407802 1.1331112
-0.16466728 -0.046543796 1.1337143
-0.15468086 -0.046068773 1.1325885
-0.14471877 -0.046992965 1.1322858
-0.134268 -0.047247782 1.1336923
-0.12495535 -0.048077282 1.1339
-0.11490796 -0.048017722 1.1324999
-0.10562064 -0.047926694 1.1329091
-0.095928237 -0.048708931 1.1313751
-0.084219091 -0.049093261 1.13
-0.074708141 -0.048205931 1.13
-0.065791622 -0.047910154 1.13
-0.059847273 -0.047910154 1.13
-0.40125602 -0.035431907 1.1345
-0.39553139 -0.033449948 1.1344
-0.38510275 -0.031473022 1.1344999
-0.37502179 -0.031185683 1.1348751
-0.36473843 -0.032963589 1.1346875
-0.35478649 -0.033848662 1.1345001
-0.3447881 -0.033127021 1.1342001
-0.33483824 -0.033857558 1.13475
-0.32561666 -0.034389298 1.135125
-0.31531605 -0.036097936 1.135125
-0.30494064 -0.038028933 1.1351252
-0.29503202 -0.037937719 1.1346251
-0.28546041 -0.03786527 1.1332502
-0.27551937 -0.038513321 1.1320001
-0.26480061 -0.038513321 1.1320001
-0.25169992 -0.038513321 1.1320001
-0.24514957 -0.038513321 1.1320001
-0.23645547 -0.038750362 1.1320001
-0.21120682 -0.039698523 1.1320001
-0.20703842 -0.039698523 1.1320001
-0.37589294 -0.029057341 1.133
0.64761752 -0.09066271 1.1470001
0.44587442 -0.081126109 1.148
0.45493299 -0.081126109 1.148
0.46701103 -0.081126109 1.148
0.47908911 -0.081126109 1.148
0.48210862 -0.081126109 1.148
0.55469739 -0.081055455 1.1470002
0.56538582 -0.081398569 1.1470002
0.57559776 -0.081307709 1.1457144
0.5855962 -0.082075812 1.1463335
0.59518778 -0.082150355 1.1455001
0.60414648 -0.082943477 1.1459093
0.61501235 -0.082899638 1.1451176
0.62515509 -0.083399132 1.1436156
0.63541156 -0.08378949 1.1438668
0.64516681 -0.086022802 1.1434288
0.65485781 -0.086386062 1.1452729
0.076889403 -0.070308514 1.148
0.080512822 -0.070308514 1.148
0.10527286 -0.070308514 1.148
0.110708 -0.070308514 1.148
0.12831062 -0.070247278 1.1470001
0.1335399 -0.07024727 1.1470001
0.14078043 -0.071448177 1.1470001
0.18422361 -0.07024727 1.1470002
0.19456722 -0.070418827 1.1470002
0.20413506 -0.07024727 1.1470001
0.21415113 -0.07024727 1.1470002
0.22314145 -0.07024727 1.1470001
0.23973432 -0.07024727 1.1470001
0.24335459 -0.071448177 1.1470001
0.4051131 -0.075098842 1.1443636
0.41480193 -0.075506479 1.1447501
0.42453504 -0.076110698 1.1448126
0.43500677 -0.076118186 1.1449333
0.44486108 -0.076153226 1.1442668
0.45438302 -0.077124462 1.1435835
0.46509814 -0.077205285 1.1433002
0.47529802 -0.077279456 1.1444
0.48519862 -0.076065339 1.1455386
0.49548703 -0.075465009 1.1454285
0.50481576 -0.075820103 1.1446154
0.51501369 -0.077187181 1.1446364
0.52461058 -0.077275701 1.1443334
0.53539586 -0.079220317 1.1465002
0.54531193 -0.078232989 1.1448462
0.55504936 -0.076526448 1.1435834
0.56364816 -0.077007771 1.1433334
0.57458699 -0.078338198 1.1424001
0.58531517 -0.078310773 1.1420001
0.59528983 -0.078173622 1.1400001
0.60603988 -0.079015754 1.1406668
0.6142801 -0.079367198 1.1400001
0.62087673 -0.079367198 1.1400001
0.63167125 -0.079367198 1.1400001
-0.091075033 -0.060745742 1.149
-0.084728524 -0.060745742 1.149
-0.07445322 -0.060745742 1.149
-0.064426117 -0.061595127 1.1480001
-0.055642545 -0.062230401 1.1467779
-0.044359021 -0.062341087 1.1467144
-0.035392586 -0.062901631 1.1466002
-0.025269037 -0.063043915 1.1470002
-0.014697787 -0.064025767 1.1463846
-0.0053350064 -0.063075557 1.14575
0.0046730074 -0.063135549 1.143778
0.014768262 -0.064279921 1.1439999
0.024594836 -0.065052249 1.1453333
0.034608234 -0.064858973 1.1450667
0.044706158 -0.064599194 1.1444708
0.054615624 -0.066049822 1.1446154
0.064721107 -0.066340871 1.1439999
0.074509285 -0.065566525 1.1445715
0.084549107 -0.06541732 1.1440002
0.094220445 -0.066771768 1.1440001
0.10454109 -0.066670895 1.1418183
0.11505444 -0.067455046 1.1444
0.12546203 -0.067471176 1.1440001
0.134701 -0.067521691 1.1415001
0.14487818 -0.066689141 1.1432858
0.15469019 -0.067848839 1.1447778
0.1658289 -0.067420535 1.1455715
0.17530647 -0.067369319 1.1451539
0.18598625 -0.067608856 1.143
0.19574185 -0.067656182 1.1438001
0.2047936 -0.067224808 1.1446
0.21304354 -0.067608856 1.143
0.22600302 -0.067848444 1.1436667
0.23505895 -0.068471365 1.1454
0.24130338 -0.068805575 1.143
-0.20335115 -0.051426206 1.1442858
-0.19500996 -0.051228225 1.146
-0.18508302 -0.050988253 1.146
-0.17451303 -0.050988253 1.146
-0.163885 -0.052941062 1.1437144
-0.1550995 -0.055048816 1.1448572
-0.14404662 -0.054836959 1.144875
-0.1343708 -0.055189356 1.1459445
-0.12441462 -0.054508425 1.1443001
-0.11497249 -0.056274287 1.1453571
-0.10512824 -0.055640791 1.145474
-0.095307603 -0.057195008 1.1457274
-0.083944291 -0.057813119 1.1445
-0.074601486 -0.057128675 1.145286
-0.065838292 -0.057539757 1.1439092
-0.055327982 -0.059128169 1.141
-0.044824112 -0.059128173 1.141
-0.034740396 -0.059128173 1.141
-0.025136856 -0.059128173 1.141
-0.017213937 -0.059128173 1.141
-0.39555186 -0.041680578 1.1445715
-0.38690847 -0.041461587 1.148
-0.37506196 -0.043185383 1.1473639
-0.36561382 -0.041738529 1.146143
-0.35494557 -0.040196508 1.1462001
-0.34453782 -0.040601492 1.1463335
