# .PCD v0.7 - Point Cloud Data file format
VERSION 0.7
FIELDS x y z rgb
SIZE 4 4 4 4
TYPE F F F F
COUNT 1 1 1 1
WIDTH 797
HEIGHT 1
VIEWPOINT 0 0 0 1 0 0 0
POINTS 797
DATA ascii
0.21729431 -0.05952286 0.75300002 2.2683006e-38
0.22200696 -0.058908168 0.75300002 2.0018342e-38
0.19924574 -0.067137152 0.75800002 2.1854324e-38
0.20261653 -0.067059264 0.75711107 2.3233288e-38
0.20698223 -0.066699892 0.75666666 2.2033302e-38
0.21198402 -0.066236198 0.75760001 1.816183e-38
0.21729335 -0.065693341 0.75800008 1.5953455e-38
0.22234668 -0.065693341 0.75800002 1.8069266e-38
0.2274 -0.065693341 0.75800008 1.7423192e-38
0.23245336 -0.065693341 0.75800002 1.5484242e-38
0.23750669 -0.065693341 0.75800008 1.3816486e-38
0.19898191 -0.064164773 0.75700003 1.1083389e-38
0.20303889 -0.062927812 0.75600004 1.4582102e-38
0.20762669 -0.062446482 0.75540006 1.8818741e-38
0.21251924 -0.06244706 0.75540012 2.1302927e-38
0.21747898 -0.062726244 0.7554546 2.1938932e-38
0.22228384 -0.062585406 0.75533342 2.2403527e-38
0.22726981 -0.062494725 0.75581831 2.1389376e-38
0.23245545 -0.062834859 0.75660002 2.0282657e-38
0.23734669 -0.062495071 0.75581831 2.1568712e-38
0.24226573 -0.062669531 0.75633341 2.1660565e-38
0.24780275 -0.061951309 0.75637501 2.222311e-38
0.25253633 -0.062714927 0.75688893 1.9365083e-38
0.25772005 -0.062083818 0.75800002 1.2994985e-38
0.26132953 -0.062083814 0.75800002 1.3463782e-38
0.20376001 -0.059760004 0.75600004 1.1470048e-40
0.20778809 -0.05887834 0.75625002 6.1830067e-39
0.21279076 -0.057525329 0.75558835 9.1400239e-39
0.21787143 -0.057092387 0.75500005 8.1298657e-39
0.22218573 -0.056085721 0.75500005 9.3068849e-39
0.22740327 -0.057389785 0.75513345 1.4941533e-38
0.23250906 -0.05758699 0.75583333 1.4944749e-38
0.23736431 -0.057542153 0.7552501 1.42036e-38
0.24239932 -0.057542145 0.7552501 1.3558602e-38
0.24751486 -0.057737716 0.7559334 1.1899447e-38
0.25260049 -0.057456411 0.75630778 6.3598113e-39
0.25724891 -0.058280852 0.75755554 9.7785157e-39
0.26060763 -0.059918098 0.75800002 1.2441374e-38
0.21384001 -0.054000005 0.75600004 1.0441397e-38
0.21715051 -0.053566359 0.75666666 9.7856693e-39
0.22248003 -0.054000005 0.75600004 9.8699981e-39
0.22752002 -0.054000005 0.75600004 9.318625e-39
0.23297146 -0.054095246 0.7573334 9.6924031e-39
0.23750669 -0.054142863 0.75800008 9.2228196e-39
0.24239954 -0.054107148 0.75750005 1.8476709e-39
0.24616954 -0.054142863 0.75800002 2.0317286e-39
0.2524986 -0.054107148 0.75750005 6.8257304e-39
0.25560001 -0.054000005 0.75600004 2.5869161e-39
0.18966001 -0.076300003 0.76300001 2.3234019e-38
0.19184002 -0.076300003 0.76300001 2.2863999e-38
0.18903716 -0.072978102 0.76300007 1.5780988e-38
0.19272794 -0.072365314 0.76199996 2.1211099e-38
0.19760147 -0.072483659 0.76233339 2.1205345e-38
0.2024743 -0.071120963 0.76200002 1.9175619e-38
0.20707017 -0.070878744 0.76200002 1.9083011e-38
0.21235526 -0.070301913 0.76100004 1.9645942e-38
0.2170848 -0.070425086 0.76233339 1.9827455e-38
0.22236001 -0.070486672 0.76300001 1.6776441e-38
0.22744668 -0.07048668 0.76300001 1.8447448e-38
0.23253337 -0.070486672 0.76300001 1.9374058e-38
0.26087335 -0.070486672 0.76300001 1.1518152e-38
0.18966001 -0.06903334 0.76300001 2.4073481e-39
0.19333835 -0.068012863 0.76175004 9.7940715e-39
0.19678669 -0.067182049 0.76085722 1.4676436e-38
0.20918097 -0.068761908 0.76000005 2.028331e-38
0.21294478 -0.068182863 0.76000005 1.9548345e-38
0.21761635 -0.068193212 0.76057154 1.8902988e-38
0.22245286 -0.068112865 0.76083338 1.6777825e-38
0.22746347 -0.06809441 0.76062512 1.5584347e-38
0.23254699 -0.068098105 0.76066673 1.5580429e-38
0.23739414 -0.067931592 0.76150006 1.6225807e-38
0.24306147 -0.066752233 0.76183337 1.4902771e-38
0.24746859 -0.066766679 0.76200008 1.8166185e-38
0.25217229 -0.066930585 0.7611112 2.0009715e-38
0.25747856 -0.067453548 0.76155561 2.1297214e-38
0.2622048 -0.067329526 0.76180011 2.0470324e-38
0.26610535 -0.067870677 0.76300001 1.7333169e-38
0.19864622 -0.062909372 0.76216668 2.0314007e-39
0.20168051 -0.061107468 0.76083338 1.6615392e-39
0.24754287 -0.064419053 0.76000005 2.1488054e-38
0.25767621 -0.064419053 0.76000005 1.9371179e-38
0.26308858 -0.064503811 0.76100004 1.5111499e-38
0.20313525 -0.057865404 0.7626667 3.0508496e-39
0.2067779 -0.056949735 0.7612223 8.3109092e-39
0.21062858 -0.055733338 0.76000005 7.0380734e-39
0.2075762 -0.053573813 0.76275003 7.6652147e-39
0.21227473 -0.052825794 0.76158333 5.5404483e-39
0.21757099 -0.051248729 0.76150006 3.0551656e-39
0.22226584 -0.051392037 0.76200002 4.4391272e-39
0.22714318 -0.051808573 0.76144445 5.2727947e-39
0.23248138 -0.051404338 0.76218194 5.1755936e-39
0.23736501 -0.051823597 0.76166672 3.8837674e-39
0.24268827 -0.052884452 0.76066673 2.584461e-39
0.24826668 -0.054285716 0.76000005 2.6817293e-39
0.25004289 -0.054357145 0.76100004 3.5064327e-39
0.21872668 -0.048686668 0.76300001 5.9056813e-39
0.18797716 -0.081188574 0.76800001 2.1204562e-38
0.1916343 -0.081188574 0.76800001 1.5826031e-38
0.18764305 -0.077649094 0.76718187 2.0016882e-38
0.19262466 -0.078438222 0.76612508 2.1201605e-38
0.19757663 -0.077653445 0.76677781 2.1117792e-38
0.20217146 -0.076297693 0.76714289 2.1756368e-38
0.20772573 -0.075337149 0.76800001 1.9728779e-38
0.21284573 -0.075337157 0.76800001 1.9274293e-38
0.2172343 -0.075337157 0.76800001 2.2038e-38
0.23040001 -0.075337149 0.76800001 2.0265124e-38
0.26843432 -0.075337157 0.76800001 6.6447723e-39
0.27264526 -0.076019526 0.7675001 1.2636963e-38
0.18763335 -0.072279438 0.76660007 4.8948266e-39
0.20327145 -0.073585719 0.76500005 2.0008985e-38
0.20827955 -0.073317625 0.76600003 1.8422186e-38
0.21282738 -0.072889946 0.76642865 1.8620649e-38
0.21718632 -0.073176004 0.76680005 2.0651851e-38
0.22224537 -0.073107503 0.76762503 1.7896784e-38
0.2273262 -0.073095724 0.76750004 2.0936695e-38
0.23215145 -0.072997965 0.76757157 2.2222752e-38
0.23738857 -0.07163924 0.76600003 2.203944e-38
0.24234016 -0.071522728 0.76742864 2.1672457e-38
0.24753636 -0.071784489 0.76800007 1.4475538e-38
0.25271338 -0.07156232 0.76785725 7.2883257e-39
0.25795665 -0.072228149 0.7677778 1.0696293e-38
0.26248136 -0.072224393 0.76599997 8.122045e-39
0.26737317 -0.07235124 0.76580012 1.4664576e-38
0.27160859 -0.073041342 0.76540011 1.5399558e-38
0.18833858 -0.069350004 0.7665 4.6693647e-40
0.19235657 -0.066747427 0.76680005 7.19635e-39
0.19503716 -0.065012388 0.76700002 5.0751289e-39
0.23970002 -0.069214292 0.76500005 1.7443351e-38
0.242827 -0.069274612 0.76566672 1.7710964e-38
0.24698573 -0.069214299 0.76500005 1.7895338e-38
0.25250131 -0.069395244 0.76700008 1.5017937e-38
0.25639716 -0.069395244 0.76700002 1.401278e-38
0.26884288 -0.069214292 0.76500005 1.6405399e-38
0.19382858 -0.06290286 0.76800001 1.0711062e-38
0.19687675 -0.062177226 0.76658338 6.3690585e-39
0.19845773 -0.058645148 0.76780003 8.6756938e-39
0.20163476 -0.057157628 0.76616669 2.1213837e-39
0.20374192 -0.053309102 0.76677781 2.9532856e-39
0.20736447 -0.050866675 0.76666665 6.2758511e-39
0.21288049 -0.05030429 0.76550007 3.8792089e-39
0.21638572 -0.050271433 0.76500005 3.7902335e-39
0.22950001 -0.050271433 0.76500005 3.6958771e-39
0.23970002 -0.050271433 0.76500005 2.7717529e-39
0.24270344 -0.051225342 0.76620001 2.7724536e-39
0.24754824 -0.051739883 0.76787508 3.1394481e-39
0.25269476 -0.052026842 0.76745468 6.827894e-39
0.25619859 -0.051531434 0.76749998 1.0973373e-38
0.20992002 -0.049005717 0.76800001 2.8719752e-40
0.21297525 -0.047942594 0.76771432 4.4316554e-39
0.21753362 -0.047358524 0.76718187 5.0766535e-39
0.22263408 -0.047445077 0.7664445 5.3528887e-39
0.22707936 -0.047458418 0.76666671 4.7103877e-39
0.23193812 -0.047759242 0.76680005 4.4316428e-39
0.23735383 -0.048199847 0.76683342 4.1482204e-39
0.24210286 -0.049005717 0.76800001 3.5078648e-39
0.24502859 -0.049005717 0.76800001 2.9572022e-39
0.25307429 -0.046080004 0.76800001 1.4293893e-38
0.22747432 -0.044617146 0.76800001 5.0773878e-39
0.25380573 -0.044617146 0.76800001 1.3922962e-38
0.17866287 -0.086022861 0.77200001 1.1903034e-38
0.18225718 -0.087003812 0.77200007 2.1762856e-38
0.18731228 -0.086994149 0.77128577 2.138976e-38
0.19152954 -0.08639048 0.77200001 2.093345e-38
0.17792764 -0.083081909 0.77200001 9.220394e-39
0.18229447 -0.082325548 0.77181262 1.3288134e-38
0.1874889 -0.083355561 0.77000004 2.129355e-38
0.19307621 -0.083285719 0.7700001 1.9907457e-38
0.1974356 -0.082832739 0.771375 1.9272477e-38
0.20234762 -0.081675246 0.77260005 2.1579538e-38
0.20743823 -0.080915831 0.77237505 2.093702e-38
0.21271351 -0.080963664 0.77283335 1.6708518e-38
0.2171762 -0.080244765 0.77300012 1.6615492e-38
0.25619429 -0.080244765 0.77300006 8.3103571e-39
0.27289051 -0.080175564 0.77233338 7.0156596e-39
0.18478382 -0.078036197 0.77300006 6.660167e-39
0.18565382 -0.077782385 0.7705 1.265247e-38
0.19873334 -0.079933338 0.77000004 2.0838673e-38
0.20240001 -0.079200007 0.77000004 2.16685e-38
0.20780286 -0.077835247 0.77100009 2.1855049e-38
0.21258833 -0.077715933 0.77085716 2.1211818e-38
0.21734762 -0.077835247 0.77100009 1.9831015e-38
0.22200906 -0.076943099 0.77125001 2.0290585e-38
0.22733334 -0.076266669 0.77000004 1.8424823e-38
0.23288155 -0.076453343 0.77040005 1.2887064e-38
0.23789945 -0.076357715 0.77240008 1.3444898e-38
0.24214439 -0.076396964 0.77280003 1.4464061e-38
0.24742945 -0.076936856 0.77230018 1.1159069e-38
0.25253081 -0.076830901 0.77155566 4.7101355e-39
0.25756443 -0.077344164 0.77209091 1.273642e-38
0.26270479 -0.077034675 0.77179998 1.6508847e-38
0.26721489 -0.07755632 0.77187502 8.2999455e-39
0.27153698 -0.078275248 0.77100009 7.0160338e-39
0.18699239 -0.073619053 0.77300006 1.5833103e-39
0.23760001 -0.074066669 0.77000004 2.0107307e-38
0.24336383 -0.074259058 0.77200001 2.1395157e-38
0.24713336 -0.074066669 0.7700001 1.7409256e-38
0.25226668 -0.074066669 0.77000004 4.7980081e-39
0.25666666 -0.074066669 0.77000004 1.4313417e-38
0.18938407 -0.067295007 0.77225006 1.8455311e-39
0.19130401 -0.065921903 0.77080005 6.0961402e-39
0.18920097 -0.062576197 0.77300012 9.8774011e-39
0.1919658 -0.062274773 0.77109998 1.0436371e-38
0.19301742 -0.058945585 0.77228582 1.0530953e-38
0.19698535 -0.056700386 0.77120006 1.0896162e-38
0.2006889 -0.055488896 0.7700001 5.3585499e-39
0.19893083 -0.053227942 0.77266669 1.1171694e-38
0.20234701 -0.05217905 0.77166671 4.0656741e-39
0.2500667 -0.050600003 0.77000004 4.062119e-39
0.20772848 -0.048074711 0.7713334 3.595404e-39
0.21156669 -0.046566669 0.77000004 4.3380151e-39
0.23393334 -0.046200003 0.77000004 4.9855215e-39
0.23707303 -0.046240002 0.77066672 4.3358459e-39
0.24258287 -0.046880003 0.77085716 3.321324e-39
0.2473167 -0.047483336 0.77000004 3.8798507e-39
0.25197336 -0.047960002 0.77000004 1.1345445e-38
0.25652 -0.047960002 0.77000004 1.4200243e-38
0.2098143 -0.044907622 0.77300006 5.3510404e-39
0.21298125 -0.044235107 0.77228576 4.7039193e-39
0.21752371 -0.043723933 0.77162504 4.9815838e-39
0.22268097 -0.043358415 0.77166671 4.5241986e-39
0.22731364 -0.043111976 0.77100009 5.3521432e-39
0.23233038 -0.043525841 0.77137506 5.0755619e-39
0.23768732 -0.044152066 0.77266669 4.1525238e-39
0.2418386 -0.044539526 0.77300006 3.0476112e-39
0.24758357 -0.044260006 0.77271444 8.769358e-39
0.25149986 -0.044192385 0.77080005 1.3282953e-38
0.1847343 -0.095705718 0.77900004 1.771641e-38
0.17856859 -0.091508105 0.778 1.7339666e-38
0.18261513 -0.09233769 0.77700007 2.2220571e-38
0.18722004 -0.092502557 0.77700007 1.8727847e-38
0.19133113 -0.092086039 0.77766675 1.6526958e-38
0.1781422 -0.088385724 0.7761429 1.4294349e-38
0.18230954 -0.089309528 0.77500004 2.1579545e-38
0.18723017 -0.089309536 0.77500004 2.2130917e-38
0.19289048 -0.088686675 0.77600002 1.9742362e-38
0.19723277 -0.088188015 0.7768001 1.7167323e-38
0.20279491 -0.087760448 0.77790922 1.7812818e-38
0.20783667 -0.086877868 0.778 2.0201636e-38
0.21240002 -0.08647953 0.77775002 1.725924e-38
0.2172143 -0.08610905 0.77775002 1.3955882e-38
0.22257145 -0.085690007 0.77900004 1.4232125e-38
0.22628097 -0.08531905 0.77900004 1.4968609e-38
0.23370002 -0.08531905 0.77900004 1.0803456e-38
0.23740953 -0.08531905 0.77900004 1.1542452e-38
0.24223191 -0.085690007 0.77900004 1.0806709e-38
0.24779621 -0.08531905 0.77900004 1.1269487e-38
0.25208431 -0.085264288 0.77850002 9.2308462e-39
0.25748613 -0.085829809 0.77785718 5.818627e-39
0.26221618 -0.085824959 0.77820003 7.1046911e-39
0.26736796 -0.085173026 0.77766675 7.0117808e-39
0.27284431 -0.085264288 0.77850002 6.4614713e-39
0.27688518 -0.086165532 0.77860004 9.1353912e-39
0.20238574 -0.084290482 0.77500004 1.9281109e-38
0.20703572 -0.083773822 0.77500004 1.9645931e-38
0.21257144 -0.083404765 0.77500004 1.4872408e-38
0.21792606 -0.082738422 0.77566671 1.4140241e-38
0.22254892 -0.082070798 0.77633333 1.4782414e-38
0.22721478 -0.08203572 0.77775002 1.4966512e-38
0.23227373 -0.082120009 0.77819997 1.4594554e-38
0.23739336 -0.082176834 0.77733344 1.4862886e-38
0.24271928 -0.082141533 0.77699995 1.3301321e-38
0.24753907 -0.082268767 0.77680004 1.3389602e-38
0.2525222 -0.081891514 0.77590913 1.2374074e-38
0.25749287 -0.082509048 0.77525002 9.6861029e-39
0.26274505 -0.081853077 0.77554548 7.1940085e-39
0.26766577 -0.082000323 0.77566671 6.5511558e-39
0.27232882 -0.082643099 0.77650005 6.3685554e-39
0.27566478 -0.082774289 0.77600002 9.504538e-39
0.18305758 -0.078150891 0.77728575 2.2182597e-39
0.18526192 -0.076023817 0.77500004 1.128816e-40
0.22364287 -0.078976199 0.77500004 1.6246523e-38
0.22733335 -0.078976199 0.77500004 1.2832508e-38
0.2325 -0.078976199 0.77500004 1.5834168e-39
0.23764133 -0.078721724 0.7754001 1.7559671e-39
0.24283335 -0.078607149 0.77500004 2.3130799e-39
0.24652383 -0.078976199 0.77500004 1.0401698e-40
0.25169051 -0.078976199 0.77500004 2.4892358e-39
0.1840816 -0.074373662 0.77833337 3.0425987e-39
0.18672964 -0.071881585 0.77633333 2.4015621e-39
0.18752407 -0.067567855 0.77749997 2.953294e-39
0.18820095 -0.062980965 0.77800006 9.9721443e-39
0.18919525 -0.05986286 0.77600002 1.053205e-38
0.19215125 -0.056766246 0.77633327 1.043876e-38
0.19559525 -0.055357147 0.77500004 1.0345855e-38
0.19412859 -0.054089528 0.778 1.0344783e-38
0.19708396 -0.052730482 0.77671438 1.034516e-38
0.20184541 -0.051016193 0.77633333 6.5534301e-39
0.20350906 -0.048701908 0.77775007 4.0610176e-39
0.20742993 -0.046276003 0.77620006 7.0062289e-39
0.20942001 -0.042920001 0.77700001 4.608823e-39
0.21235859 -0.041768339 0.77625 4.6091986e-39
0.21777241 -0.041139688 0.77600002 5.163094e-39
0.22194001 -0.040990479 0.77550006 4.7986149e-39
0.22730267 -0.040911432 0.7754001 4.9833508e-39
0.23317 -0.041016668 0.77600002 4.5198728e-39
0.23778655 -0.041513614 0.77642858 4.1499987e-39
0.24285758 -0.042147353 0.77642864 3.8819807e-39
0.24610287 -0.042863812 0.77600002 8.1311394e-39
0.21366858 -0.039320953 0.77900004 4.6117307e-39
0.21774605 -0.038759686 0.77766675 4.8915378e-39
0.22251239 -0.038133811 0.77749997 5.1652436e-39
0.22737557 -0.038512386 0.77766669 4.9837166e-39
0.23168173 -0.03868705 0.77820003 4.1536014e-39
0.23765686 -0.039320953 0.77900004 4.1492868e-39
0.24111906 -0.039320953 0.77900004 3.780849e-39
0.17880079 -0.10674439 0.78160006 1.4109194e-38
0.18274668 -0.10714667 0.78399998 8.1169989e-39
0.17900145 -0.10271001 0.78150004 1.4756745e-38
0.18262224 -0.10212023 0.78266668 1.3948117e-38
0.18720086 -0.10217864 0.7831111 1.4874275e-38
0.19089779 -0.10129779 0.7840001 1.46924e-38
0.17911525 -0.097191438 0.78200006 1.7713448e-38
0.18248345 -0.097415254 0.7808001 1.9834127e-38
0.18766099 -0.097426459 0.78088892 1.4045922e-38
0.19267091 -0.09770371 0.7831111 1.4323231e-38
0.19756801 -0.096917339 0.78400004 1.4048108e-38
0.20234668 -0.096320003 0.78400004 1.5237752e-38
0.20608002 -0.096320003 0.78400004 1.9184544e-38
0.17751734 -0.093892962 0.78120005 1.5956701e-38
0.18125716 -0.094342865 0.78000003 2.32333e-38
0.19355622 -0.093928263 0.78066671 1.4138839e-38
0.19725019 -0.09304402 0.78155559 1.3864035e-38
0.20251292 -0.093026154 0.78254557 1.8272261e-38
0.20756169 -0.093058348 0.78325003 2.0569697e-38
0.21250133 -0.092437342 0.78400004 2.2315298e-38
0.21728002 -0.091840014 0.7840001 2.2314223e-38
0.22283387 -0.091571234 0.7831111 1.7352179e-38
0.22718407 -0.091507874 0.78275001 1.3948128e-38
0.23191714 -0.090978101 0.78300011 1.2849613e-38
0.23728764 -0.091035724 0.78350002 9.145105e-39
0.24246097 -0.091016516 0.7833333 9.1508671e-39
0.24714668 -0.091840014 0.78399998 1.4959842e-38
0.25226575 -0.091801606 0.78366673 1.3111302e-38
0.25727144 -0.090978108 0.78300011 7.5660042e-39
0.26208001 -0.090346679 0.7840001 5.4487781e-39
0.26778075 -0.091251202 0.78375 6.7351953e-39
0.27285182 -0.091747828 0.78319997 7.2872747e-39
0.27571669 -0.092529051 0.78350008 5.723172e-39
0.20725715 -0.089885727 0.78000009 2.1213277e-38
0.21245715 -0.089390479 0.78000009 2.0568625e-38
0.21795431 -0.089291431 0.78000003 1.5606949e-38
0.22264002 -0.087896399 0.78080004 1.2939286e-38
0.22759049 -0.087154932 0.78066677 1.4593038e-38
0.23228319 -0.087345198 0.78088892 7.5720284e-39
0.23765635 -0.087648176 0.78085726 5.0828641e-39
0.24269144 -0.087941729 0.78120005 8.2210481e-39
0.2472886 -0.087640487 0.7815001 1.3665879e-38
0.25252983 -0.087648176 0.78085726 5.0796341e-39
0.25768763 -0.088626675 0.78200006 5.9093877e-39
0.26310429 -0.08819858 0.78150004 7.0128556e-39
0.2674033 -0.087648176 0.78085726 7.011062e-39
0.27250206 -0.087860428 0.78085726 6.9199383e-39
0.27708575 -0.088400006 0.78000009 8.7680506e-39
0.22954287 -0.08394286 0.78000003 1.4411846e-38
0.17979366 -0.076840006 0.78333342 9.0426491e-39
0.18173686 -0.076363504 0.78100008 4.514447e-39
0.18412416 -0.072212383 0.7816667 4.3311711e-39
0.18442668 -0.069440007 0.78400004 7.6648364e-39
0.18581715 -0.067400955 0.78200006 6.7400452e-39
0.18662071 -0.062579766 0.78225005 1.0344483e-38
0.18916763 -0.058836196 0.78200006 1.0348386e-38
0.19073462 -0.056450166 0.78333342 9.5186141e-39
0.19355428 -0.052673023 0.78266668 1.0894026e-38
0.19686145 -0.050982386 0.78149998 1.0710718e-38
0.19854026 -0.04879643 0.78225005 1.0526694e-38
0.20260595 -0.046448469 0.78244448 5.6297096e-39
0.2065143 -0.04531429 0.78000003 5.0837847e-39
0.20416319 -0.043518096 0.78333342 3.047258e-39
0.20719656 -0.042305119 0.78181821 3.2305647e-39
0.21022859 -0.040857144 0.78000003 3.4099477e-39
0.24440001 -0.040857144 0.78000003 6.8325463e-39
0.24821717 -0.041493338 0.78266668 1.061141e-38
0.25114429 -0.041732859 0.78250003 1.1256789e-38
0.20824356 -0.038492247 0.78371435 2.4001118e-39
0.21249962 -0.037524384 0.78180009 4.0592674e-39
0.21716693 -0.036130719 0.78225011 4.6128097e-39
0.22203271 -0.035513975 0.78233337 4.6128083e-39
0.22731429 -0.036400001 0.78000003 4.3390801e-39
0.2329905 -0.036473148 0.7816 2.7710411e-39
0.23787552 -0.037596907 0.78175008 3.9638249e-39
0.24259238 -0.037721526 0.78280002 4.0595897e-39
0.24708983 -0.038463406 0.78314292 1.033667e-38
0.25013334 -0.039573334 0.78400004 1.0424563e-38
0.1866712 -0.11080072 0.78875005 6.4560805e-39
0.18414858 -0.10704572 0.78600001 3.5119678e-39
0.18794499 -0.1070764 0.78622234 7.3865819e-39
0.19283798 -0.10721584 0.78862506 1.1083985e-38
0.19725001 -0.10632715 0.78900003 1.6340834e-38
0.19296414 -0.10309746 0.78633344 1.4598767e-38
0.19729178 -0.10277367 0.78766674 1.6161485e-38
0.2020489 -0.10290287 0.78866673 2.0291662e-38
0.20736156 -0.10217823 0.78887504 2.1304755e-38
0.21265432 -0.10219429 0.78900003 1.9559156e-38
0.21716288 -0.10144287 0.78900003 1.8729381e-38
0.27427146 -0.10144287 0.78900003 1.3374912e-38
0.2757743 -0.10144287 0.78900003 8.7791713e-39
0.19807203 -0.099260584 0.78600001 1.4324024e-38
0.20301089 -0.098563001 0.78657156 1.6527113e-38
0.20792741 -0.098157391 0.78675008 1.9282192e-38
0.21232487 -0.097257592 0.78692323 2.0750147e-38
0.21750756 -0.097524263 0.78815389 1.97403e-38
0.22250232 -0.097795792 0.78814298 2.1487345e-38
0.2272446 -0.097113147 0.78800011 2.0016541e-38
0.23193499 -0.096487626 0.78885722 1.9099945e-38
0.23700058 -0.095732011 0.78900003 1.385847e-38
0.24288039 -0.096163444 0.78760004 1.3764072e-38
0.24689089 -0.096091241 0.78700006 1.2196431e-38
0.25248003 -0.096182868 0.78900003 1.3380653e-38
0.25774002 -0.095431432 0.78900003 1.8639365e-38
0.26300001 -0.095431432 0.78900003 1.6427065e-38
0.26815766 -0.096897818 0.78870004 1.2188629e-38
0.27239391 -0.097553901 0.78791666 9.873378e-39
0.27554131 -0.098354608 0.78833342 6.2802834e-39
0.21484001 -0.093571432 0.78600001 1.9008856e-38
0.21783429 -0.093571439 0.78600001 1.9459425e-38
0.22157717 -0.093571432 0.78600001 2.2131992e-38
0.23264764 -0.09380953 0.78800005 1.4960376e-38
0.23800224 -0.093849212 0.78833342 1.2936094e-38
0.24253716 -0.093571432 0.78600001 1.1367032e-38
0.25825715 -0.093571439 0.78600001 1.3764892e-38
0.26297209 -0.092902228 0.78666675 6.9278248e-39
0.2670348 -0.093256667 0.78650004 6.4453325e-39
0.27173144 -0.093571432 0.78600001 6.0022994e-39
0.1819462 -0.072515726 0.78700006 1.0332033e-38
0.18289822 -0.068657026 0.78787506 1.1347569e-38
0.18548524 -0.066083342 0.78850007 1.0250539e-38
0.18602479 -0.062342864 0.78866673 9.7923563e-39
0.18917978 -0.057805002 0.78825009 1.0709257e-38
0.1924049 -0.052507505 0.78762507 1.1718824e-38
0.19403684 -0.048321273 0.78866673 1.3102218e-38
0.19744574 -0.04676545 0.78657156 1.1356494e-38
0.19887505 -0.04337677 0.78800005 5.8198644e-39
0.20220573 -0.042406566 0.78733337 2.8599899e-39
0.20357215 -0.039437383 0.78875005 2.4930305e-39
0.20682144 -0.03715929 0.78825003 2.3082735e-39
0.21160525 -0.035579525 0.78650004 3.5997186e-39
0.22831431 -0.03518286 0.78600001 3.8734426e-39
0.23280573 -0.03518286 0.78600001 2.3111433e-39
0.23729716 -0.03518286 0.78600001 3.3195401e-39
0.24299859 -0.035624288 0.78750002 4.522014e-39
0.24682938 -0.035817526 0.78680003 7.4794137e-39
0.21415716 -0.033814289 0.78900003 3.7866279e-39
0.21784364 -0.03347943 0.78820008 4.7049983e-39
0.22266383 -0.032943267 0.78871435 4.6131586e-39
0.22753857 -0.033041432 0.78850007 4.2397084e-39
0.23236752 -0.033133473 0.78814298 3.7833769e-39
0.23780225 -0.033757146 0.78766674 3.8705517e-39
0.24271144 -0.033814289 0.78900003 5.2606482e-39
0.24631192 -0.033792861 0.78850007 6.5556862e-39
0.18956478 -0.11555143 0.79300004 6.4560889e-39
0.18845287 -0.11307192 0.79149997 6.6415536e-39
0.19200192 -0.11198032 0.79266667 5.9072353e-39
0.19560668 -0.11102001 0.79300004 4.3449571e-39
0.19762421 -0.10868591 0.79139996 1.1995619e-38
0.20265241 -0.10804229 0.79220009 1.7620145e-38
0.20742857 -0.10710953 0.792 2.2498922e-38
0.21234657 -0.10698245 0.79185712 2.1028487e-38
0.21826383 -0.10648858 0.7930001 2.2131987e-38
0.22128478 -0.10648858 0.79300004 2.0749762e-38
0.20716667 -0.10471334 0.79100007 2.2039439e-38
0.21244001 -0.10471334 0.79100001 1.9924347e-38
0.21789747 -0.10404827 0.79166669 2.0477871e-38
0.22248308 -0.10332392 0.79188895 2.0476065e-38
0.22753336 -0.1019862 0.79174995 2.1120721e-38
0.23268479 -0.10120123 0.79214293 2.075121e-38
0.23796137 -0.10094953 0.79220003 2.0201234e-38
0.24236517 -0.10059676 0.79179996 1.9282936e-38
0.24912821 -0.10155373 0.79220003 1.6709627e-38
0.25283638 -0.10213182 0.79200011 1.5239157e-38
0.25722241 -0.10243698 0.79245466 1.0440083e-38
0.26223642 -0.10175544 0.7926001 5.7217609e-39
0.2674489 -0.10242029 0.79207695 9.969877e-39
0.27227318 -0.1030981 0.79144442 1.1998109e-38
0.23353335 -0.098686673 0.79100001 2.1947939e-38
0.23760135 -0.09808401 0.79100001 1.9926121e-38
0.24182002 -0.097933345 0.79100001 1.5880609e-38
0.24784669 -0.097933345 0.79100001 1.3951986e-38
0.25236669 -0.09868668 0.79100007 9.9768835e-39
0.25764 -0.097933345 0.79099995 9.1447855e-39
0.26269811 -0.097610489 0.79100001 1.7345781e-38
0.26642892 -0.098184451 0.79100007 1.6243395e-38
0.18317573 -0.066334769 0.79149997 1.2272736e-38
0.18503335 -0.064195246 0.79300004 1.15394e-38
0.18807524 -0.057665717 0.79149997 1.1631982e-38
0.18908668 -0.054240003 0.79100001 1.3461599e-38
0.19138877 -0.051730484 0.79180002 1.2457539e-38
0.19269277 -0.047833335 0.79220003 1.107783e-38
0.19586667 -0.045953337 0.79100001 1.1263647e-38
0.19409621 -0.04455905 0.79300004 8.1401456e-39
0.19699477 -0.042602621 0.79175001 4.43876e-39
0.19963335 -0.039173335 0.79100001 1.9394854e-39
0.20242828 -0.03729916 0.79211122 2.6763455e-39
0.20641336 -0.035406668 0.79100001 2.8574872e-39
0.21270859 -0.03318762 0.792 2.8632367e-39
0.21687037 -0.031566396 0.79185718 5.3463936e-39
0.22223336 -0.030886671 0.79100007 5.8066473e-39
0.22750668 -0.030886669 0.79100001 5.3481859e-39
0.23278002 -0.030886671 0.79100007 3.9688374e-39
0.23722336 -0.032056667 0.79200006 3.9652459e-39
0.24212381 -0.03318762 0.79200006 5.1670218e-39
0.24620764 -0.032475241 0.79300004 6.5560561e-39
0.21977431 -0.029454287 0.79300004 7.2867997e-39
0.22279525 -0.029454287 0.7930001 6.7311035e-39
0.22732668 -0.029454287 0.7930001 6.5474452e-39
0.23223573 -0.029076669 0.79300004 4.5223755e-39
0.19380002 -0.1216 0.79800004 8.2166677e-39
0.19684002 -0.12122001 0.79800004 7.4737973e-39
0.19275826 -0.11762874 0.79683346 7.1057477e-39
0.19747651 -0.11772685 0.79750001 7.1043324e-39
0.20263049 -0.11732408 0.79771435 5.9090318e-39
0.20769717 -0.11736573 0.79800004 1.4579956e-38
0.21160573 -0.11758287 0.79800004 1.5576153e-38
0.21685337 -0.11678667 0.79800004 8.8531501e-39
0.26263049 -0.11613429 0.79700005 9.5081212e-39
0.19408098 -0.11382382 0.79500002 6.2767339e-39
0.19792882 -0.113075 0.79550004 5.0814361e-39
0.20260963 -0.11306699 0.79677778 3.51017e-39
0.20726743 -0.11273848 0.79659998 6.7423097e-39
0.21239123 -0.11252517 0.79741663 8.7702198e-39
0.21756861 -0.11263756 0.79757142 1.1441023e-38
0.2225405 -0.11241049 0.79750001 1.4668858e-38
0.22761101 -0.11149342 0.79736364 2.0659664e-38
0.23298696 -0.1118582 0.79789996 1.9466852e-38
0.23788002 -0.11172002 0.79799998 1.9834538e-38
0.24244002 -0.11172002 0.79799998 1.4874254e-38
0.24700001 -0.11172 0.79799998 1.5610402e-38
0.25244081 -0.11154417 0.79772729 2.0294161e-38
0.25745136 -0.11239835 0.79741669 1.919174e-38
0.26263046 -0.11233906 0.79699999 1.1532087e-38
0.26712334 -0.11185358 0.79624999 6.0969627e-39
0.27173907 -0.11006191 0.79700005 7.4759329e-39
0.2082143 -0.10978572 0.79500002 1.5872976e-38
0.21275716 -0.10978572 0.79500002 1.6888956e-38
0.21730003 -0.10827144 0.79500002 2.277482e-38
0.22310477 -0.10776667 0.79500002 1.9554127e-38
0.22821853 -0.10690763 0.79611111 2.0752663e-38
0.2328652 -0.1069526 0.79644442 2.1395867e-38
0.23738319 -0.10693747 0.79633331 2.1762458e-38
0.24220414 -0.10705578 0.7972222 1.7626512e-38
0.24747473 -0.10703772 0.79708332 2.0019038e-38
0.25241008 -0.10687779 0.7958889 2.020164e-38
0.25775275 -0.10729218 0.79522222 1.8176923e-38
0.26309621 -0.10690762 0.79611117 7.5656202e-39
0.26771885 -0.10744181 0.79633331 6.184897e-39
0.27178425 -0.10747182 0.79580003 5.8160767e-39
0.23244289 -0.10372858 0.79500002 2.1304036e-38
0.23698573 -0.10335 0.79500002 1.9648107e-38
0.2430943 -0.1033543 0.796 2.0293457e-38
0.24740668 -0.10317506 0.79540008 1.9742104e-38
0.18110725 -0.067252003 0.79700011 1.3376274e-38
0.18428345 -0.062744014 0.79760003 1.3195778e-38
0.18616033 -0.061884768 0.79566669 1.0711461e-38
0.18689971 -0.057410162 0.79666668 1.1999735e-38
0.18798491 -0.052609663 0.79728574 1.1354834e-38
0.19004287 -0.051485717 0.79500002 1.2452916e-38
0.18924001 -0.049400002 0.79800004 9.2393171e-39
0.1914116 -0.047284286 0.79650009 9.3286064e-39
0.1933593 -0.043685958 0.79775006 4.443062e-39
0.19614059 -0.041413337 0.79640007 1.8508742e-39
0.19861569 -0.037422724 0.7972858 2.6763413e-39
0.20165239 -0.035630479 0.796 2.4919445e-39
0.2033416 -0.033172384 0.79766667 2.399753e-39
0.20739229 -0.03276905 0.79650003 2.3993803e-39
0.21168588 -0.031942181 0.79585725 3.6879499e-39
0.23850001 -0.031042859 0.79500002 2.7717389e-39
0.24262059 -0.031672001 0.79560006 5.9035149e-39
0.24679303 -0.03113397 0.79733342 8.2087532e-39
0.20786001 -0.029260002 0.79800004 2.397951e-39
0.21251677 -0.027971987 0.79741669 4.9858816e-39
0.21731453 -0.027094221 0.7966429 5.8127738e-39
0.22256429 -0.026699716 0.79650003 6.7325483e-39
0.22762774 -0.026554955 0.7967 5.8113221e-39
0.23249088 -0.027145717 0.79619998 4.4287505e-39
0.23728043 -0.028507078 0.79671437 2.4962184e-39
0.24244003 -0.029640002 0.79800004 6.8247243e-39
0.21286859 -0.12634286 0.80400002 7.280093e-39
0.21822858 -0.12634286 0.80400002 9.8676425e-39
0.19885716 -0.12114286 0.80000001 7.0128556e-39
0.20361906 -0.1224762 0.80000007 6.6447878e-39
0.2080036 -0.12259214 0.80075002 1.1251273e-38
0.21247557 -0.12290731 0.80155557 1.3193453e-38
0.21732631 -0.12309696 0.80179995 1.7059154e-38
0.22240572 -0.12230058 0.80360001 1.0419011e-38
0.22741717 -0.12021716 0.80400008 6.3725183e-39
0.23201144 -0.12021716 0.80400008 5.5413339e-39
0.23752458 -0.12052345 0.80400002 6.4725976e-39
0.25842857 -0.12136572 0.80400002 1.3943717e-38
0.26110858 -0.12251429 0.80400002 1.3003184e-38
0.20419049 -0.11961906 0.80000001 7.1979601e-39
0.20723811 -0.11961906 0.80000001 1.6065469e-38
0.21409525 -0.11885715 0.80000001 1.7423267e-38
0.21752383 -0.11923811 0.80000001 1.5208097e-38
0.22234583 -0.11816171 0.80044454 6.5479328e-39
0.22768 -0.11676785 0.80133343 7.7582609e-39
0.23258096 -0.11692933 0.80244452 9.51317e-39
0.23753431 -0.11716288 0.80299997 1.3121556e-38
0.24259683 -0.11709037 0.80355549 1.5059033e-38
0.24719945 -0.11679982 0.80260003 1.4784545e-38
0.25261375 -0.11698172 0.80280012 1.4784209e-38
0.2576707 -0.11751071 0.80177778 1.5606792e-38
0.26096827 -0.11889969 0.80200005 1.2464372e-38
0.25066668 -0.11352382 0.80000001 1.5976539e-38
0.18209524 -0.066285722 0.80000001 1.1721803e-38
0.18232712 -0.062394977 0.8016364 1.1626726e-38
0.18334289 -0.057953905 0.8028 1.0708689e-38
0.18529716 -0.057189211 0.80066669 1.2643676e-38
0.18453716 -0.054365717 0.80400002 7.5836745e-39
0.18630783 -0.052424382 0.80240005 8.4095522e-39
0.18896572 -0.047505908 0.80199999 5.0909145e-39
0.19018859 -0.045828573 0.80200005 3.7912396e-39
0.19253929 -0.042594049 0.80225003 2.8657436e-39
0.19580954 -0.040380955 0.80000001 1.7554598e-39
0.19424859 -0.039002858 0.80300003 3.137674e-39
0.1965524 -0.037170798 0.80200005 2.9536541e-39
0.19917527 -0.033918098 0.8033334 2.5852261e-39
0.20164797 -0.032293651 0.80100006 2.3097266e-39
0.20357035 -0.028955922 0.80314291 1.9413014e-39
0.20754746 -0.02670591 0.80120009 2.3079077e-39
0.21180955 -0.02514286 0.80000001 3.6926345e-39
0.23238099 -0.02514286 0.80000007 4.6062979e-39
0.23777954 -0.025570955 0.80149996 4.1482274e-39
0.2425455 -0.026565477 0.80274999 1.1809733e-38
0.24747349 -0.027494695 0.80200011 1.2356021e-38
0.25038859 -0.025268573 0.80400002 1.1895719e-38
0.20904002 -0.023737144 0.80400002 1.8508658e-39
0.21216136 -0.023038642 0.80257148 3.7837595e-39
0.21717526 -0.022318095 0.80199999 4.5209644e-39
0.22251792 -0.022295048 0.80179995 4.6102846e-39
0.22761412 -0.02214819 0.80200005 3.7826735e-39
0.23248671 -0.022686668 0.80299997 4.0570856e-39
0.23584002 -0.022971429 0.80400002 3.9623494e-39
0.24809144 -0.022971429 0.80400002 1.1987223e-38
0.25038859 -0.023737144 0.80400002 1.2080118e-38
0.21646859 -0.12665716 0.80600005 9.5878284e-39
0.22299334 -0.12627335 0.80600011 6.8281014e-39
0.22720791 -0.1270577 0.80714297 6.6462269e-39
0.23225145 -0.12612429 0.80750006 6.5551131e-39
0.23688726 -0.12573601 0.80600005 4.6229747e-39
0.24256763 -0.12512191 0.80600005 1.4848615e-38
0.24717335 -0.12512191 0.80600005 1.5699686e-38
0.25193971 -0.1253289 0.80733341 1.4131715e-38
0.25702098 -0.12543239 0.80800003 1.4580145e-38
0.22491239 -0.12358668 0.80600005 6.9206614e-39
0.22798288 -0.12281906 0.80600011 7.0139318e-39
0.23258859 -0.12281906 0.80600011 7.1057673e-39
0.23688726 -0.12297259 0.80600005 4.5268344e-39
0.24277699 -0.12219101 0.80600011 1.5602968e-38
0.24794099 -0.12205143 0.80600011 1.496604e-38
0.25275603 -0.12215323 0.80666679 1.4690941e-38
0.25702369 -0.12253388 0.8062858 1.4407187e-38
0.2525467 -0.11898096 0.80600005 1.4876413e-38
0.18039049 -0.061409526 0.80600005 1.2637599e-38
0.18280619 -0.056838576 0.80650002 9.6923709e-39
0.18386796 -0.053010158 0.80666679 6.4623079e-39
0.18422858 -0.049895242 0.80600005 3.3152255e-39
0.18778764 -0.048162222 0.8070001 3.9763161e-39
0.18960191 -0.042986669 0.80600005 2.4944444e-39
0.1916489 -0.04119556 0.80600011 3.0461959e-39
0.1927181 -0.037467621 0.8070001 3.2298696e-39
0.19574288 -0.036078099 0.80600005 4.4237325e-39
0.19777718 -0.03283402 0.80714297 3.1358832e-39
0.20034859 -0.031472381 0.80600005 2.6777889e-39
0.20253716 -0.027333882 0.80685723 2.7692474e-39
0.20648953 -0.02533143 0.80600005 2.123871e-39
0.20853753 -0.022590859 0.80680007 1.6661243e-39
0.2126305 -0.020725716 0.80600011 3.320636e-39
0.21570097 -0.020725716 0.80600005 2.0274126e-39
0.22030668 -0.020725716 0.80600005 5.4418291e-39
0.23335621 -0.020725716 0.80600005 3.6911813e-39
0.23801953 -0.022301428 0.80750006 4.2411167e-39
0.24251178 -0.022619681 0.80666679 7.7560665e-39
0.24615698 -0.021985527 0.80720007 1.1709592e-38
0.21469715 -0.019238096 0.80800003 9.2185414e-39
0.21786669 -0.018603429 0.80720007 1.243677e-38
0.22274621 -0.019202381 0.80650002 1.0310538e-38
0.22798288 -0.019190479 0.80600011 9.3882317e-39
0.23297463 -0.019222224 0.80733341 8.475964e-39
0.23220003 -0.12882859 0.81000012 6.3717728e-39
0.2538 -0.12574287 0.81000006 1.4316118e-38
0.18128572 -0.05631429 0.81000006 1.42002e-38
0.18228096 -0.05329524 0.81100005 1.3271472e-38
0.18409652 -0.048283182 0.81333339 7.3810552e-39
0.18662986 -0.046914291 0.81200016 3.0422092e-39
0.18919574 -0.042945243 0.8125 2.4018774e-39
0.19101335 -0.040986668 0.81200004 2.7688915e-39
0.18993334 -0.038761906 0.81400001 2.7699579e-39
0.19117019 -0.03792318 0.81266677 2.7713998e-39
0.19343176 -0.03296762 0.81133336 2.8621675e-39
0.19644907 -0.031647623 0.81050003 3.1366034e-39
0.19458477 -0.028683811 0.81400001 1.1144064e-39
0.19787578 -0.027431324 0.81266671 2.9521982e-39
0.20142972 -0.026125336 0.81160015 2.95328e-39
0.1992362 -0.024032382 0.81400001 1.4771031e-39
0.20331119 -0.023041666 0.81325006 2.8603683e-39
0.207215 -0.021769525 0.81228578 1.8447674e-39
0.23914286 -0.020828573 0.81000006 5.4385865e-39
0.24145716 -0.020828573 0.81000006 6.6558398e-39
0.20853907 -0.019380953 0.81400001 3.7689646e-39
0.21222261 -0.018669933 0.81200004 1.2360375e-38
0.21717383 -0.01700143 0.81150007 1.4941517e-38
0.2224448 -0.016991429 0.81100005 1.3835893e-38
0.22729065 -0.016872656 0.81057155 1.3745843e-38
0.23257868 -0.017176 0.81240004 1.5028312e-38
0.2378404 -0.018413335 0.81240004 3.5053761e-39
0.24247026 -0.017995477 0.8127501 7.8460509e-39
0.24607526 -0.018293018 0.81166667 1.1160367e-38
0.21939239 -0.014729525 0.81400001 8.4108022e-39
0.22274335 -0.014332859 0.81349999 9.8751338e-39
0.22649983 -0.01408762 0.81280005 1.0797422e-38
0.23179621 -0.014729525 0.81400001 1.2456938e-38
0.18550953 -0.04579524 0.81500006 5.9977886e-39
0.18486001 -0.043680005 0.81900007 1.1163184e-38
0.18732454 -0.04259976 0.81700009 5.0711997e-39
0.18793839 -0.038612384 0.81785733 5.3553143e-39
0.19115208 -0.035531748 0.81700009 3.688659e-39
0.19260447 -0.03192794 0.81766677 2.401904e-39
0.1945219 -0.028013336 0.81700003 1.9409105e-39
0.19607811 -0.025677145 0.81700003 5.5257318e-39
0.19834383 -0.022555787 0.81671441 7.8244961e-39
0.20171526 -0.021491747 0.81566668 1.3902927e-39
0.2032467 -0.018688891 0.81766677 4.1428352e-39
0.20758256 -0.018139049 0.81633341 2.9492989e-39
0.21216096 -0.016738096 0.8175 1.4292528e-38
0.21604478 -0.016320001 0.81600004 1.3652634e-38
0.23673812 -0.0163 0.81500006 7.2828186e-39
0.24091335 -0.016320001 0.81600004 5.6358907e-39
0.21294002 -0.014820001 0.81900012 1.5306694e-38
0.21805212 -0.013676328 0.81728578 1.180906e-38
0.22253399 -0.012188891 0.81700003 1.4757132e-38
0.22836907 -0.012059525 0.81700003 1.5310644e-38
0.23226145 -0.01283762 0.81700003 1.2824255e-38
0.23731908 -0.014783811 0.81700009 6.1700334e-39
0.24258003 -0.014820001 0.81900012 7.4779592e-39
0.24570002 -0.014820001 0.81900007 1.1066361e-38
0.18275744 -0.043034699 0.82157153 1.5673193e-38
0.18531144 -0.041440956 0.82100004 1.2074026e-38
0.18278764 -0.038392793 0.82271427 1.6963208e-38
0.18665501 -0.036781672 0.82174999 8.9423049e-39
0.19000287 -0.035185717 0.82100004 3.9648829e-39
0.19113287 -0.03211667 0.82249999 2.7656671e-39
0.1939442 -0.027079811 0.82180005 1.0034632e-38
0.19654422 -0.022708382 0.8222 1.5285727e-38
0.19962859 -0.018787621 0.82200003 1.4919164e-38
0.20237002 -0.017612858 0.82200003 8.289063e-39
0.20720479 -0.016420003 0.82100004 7.3733102e-40
0.2045743 -0.014892382 0.82300001 4.3167952e-39
0.20823489 -0.013944573 0.82260001 5.3567591e-39
0.21212561 -0.012261693 0.82188892 1.4121102e-38
0.2168196 -0.01138381 0.82122225 1.4479131e-38
0.22284287 -0.010164763 0.82100004 1.3384299e-38
0.22771907 -0.010173017 0.82166672 1.3471101e-38
0.23289955 -0.010568096 0.82200003 1.3464581e-38
0.23745336 -0.01251762 0.82150006 4.6935035e-39
0.24164896 -0.012684762 0.8222 6.8286549e-39
0.21789905 -0.008621905 0.82300001 1.0238541e-38
0.22219476 -0.0086061908 0.8215 1.0611976e-38
0.22652097 -0.008621905 0.82300001 1.0238178e-38
0.18284592 -0.036631435 0.82540005 1.5396611e-38
0.18395907 -0.032370478 0.82900006 1.3179248e-38
0.18754213 -0.032621909 0.82740003 8.1122177e-39
0.19060192 -0.030717146 0.82700002 4.0642756e-39
0.19190656 -0.027800685 0.82728583 1.3081731e-38
0.19333714 -0.023058096 0.82775003 1.751214e-38
0.19588003 -0.022025716 0.82600003 1.7050306e-38
0.19380288 -0.019195875 0.82833338 1.8529536e-38
0.19755891 -0.017395386 0.82746166 1.7417434e-38
0.20138574 -0.016520001 0.82600003 1.3622698e-38
0.19896001 -0.013421905 0.82900006 1.4188127e-38
0.20264964 -0.012820174 0.82736367 6.816821e-39
0.20720688 -0.011641335 0.82599992 4.7982141e-39
0.21135716 -0.010214286 0.82500005 1.4763245e-38
0.23807144 -0.010607143 0.82500005 3.225555e-39
0.24332669 -0.010613333 0.82550007 8.5789047e-39
0.24747908 -0.012031158 0.82642859 1.115891e-38
0.2084343 -0.0086847628 0.82900006 9.5210201e-39
0.21245028 -0.0074388362 0.82722223 1.2637728e-38
0.2170613 -0.0065554497 0.82611114 1.0609089e-38
0.22262669 -0.0062923813 0.82600009 1.1436309e-38
0.22784752 -0.006636871 0.82700008 1.0607653e-38
0.2324031 -0.00767262 0.82650006 1.2362919e-38
0.2372632 -0.0081444448 0.8276667 4.8750109e-39
0.24258669 -0.0086638099 0.82700002 7.383614e-39
0.24652478 -0.0086638099 0.82700002 1.0420991e-38
0.18440287 -0.034031432 0.83100003 1.3904614e-38
0.18598573 -0.030865716 0.83100003 1.1432649e-38
0.18824667 -0.028249843 0.83166671 1.2441775e-38
0.1907343 -0.026908573 0.83100003 1.5480207e-38
0.18960668 -0.024593335 0.83300006 1.4182365e-38
0.19135952 -0.022582382 0.83200008 1.5103977e-38
0.19334193 -0.017430477 0.83200002 1.6953586e-38
0.19548286 -0.015828572 0.83100003 1.8160758e-38
0.19722256 -0.012937462 0.83166671 1.2626901e-38
0.18674038 -0.026904954 0.83579999 1.0607253e-38
0.18892287 -0.02471143 0.83700001 1.0142311e-38
0.19006191 -0.022266667 0.83500004 1.3985072e-38
0.19197975 -0.017865716 0.83642858 1.3645704e-38
0.18546002 -0.026494287 0.84300005 1.0420707e-38
