# .PCD v0.7 - Point Cloud Data file format
VERSION 0.7
FIELDS x y z rgb
SIZE 4 4 4 4
TYPE F F F F
COUNT 1 1 1 1
WIDTH 812
HEIGHT 1
VIEWPOINT 0 0 0 1 0 0 0
POINTS 812
DATA ascii
-0.077158011 -0.052754555 0.82900017 1.6422729e-38
-0.071825475 -0.052685246 0.82875001 1.9190745e-38
-0.067504287 -0.051713813 0.82900006 1.8730492e-38
-0.062372386 -0.051319055 0.82900012 1.7721378e-38
-0.05763524 -0.051319055 0.82900012 1.7443719e-38
-0.052898105 -0.052108578 0.82900012 1.9098548e-38
-0.047845148 -0.051634859 0.82900012 1.3554335e-38
-0.07658381 -0.048160955 0.82900012 4.62285e-39
-0.071789525 -0.047332384 0.82833338 9.4047488e-39
-0.067253076 -0.047586761 0.82900017 6.0829259e-39
-0.062372386 -0.04737144 0.82900017 4.8858387e-39
-0.0574794 -0.0475762 0.82881826 4.9801853e-39
-0.053029709 -0.0475762 0.82881826 3.4125037e-39
-0.047963575 -0.048753098 0.82900006 1.0161488e-39
-0.084093332 -0.056326669 0.83300006 1.2360789e-38
-0.077560008 -0.056191433 0.83100003 1.4037747e-38
-0.072020009 -0.056191437 0.83100003 1.7899863e-38
-0.067433342 -0.056326669 0.83300006 1.982525e-38
-0.059500005 -0.056326669 0.83300006 1.9826054e-38
-0.053153336 -0.056326669 0.83300006 1.843666e-38
-0.047544766 -0.056259051 0.83200008 2.2955613e-38
-0.042046674 -0.056326669 0.83300006 2.332512e-38
-0.087108009 -0.053470671 0.83300012 7.4780699e-39
-0.083144881 -0.0530545 0.83144444 1.2182882e-38
-0.079934292 -0.054608576 0.83100003 1.7356467e-38
-0.072020002 -0.054608576 0.83100003 2.0293489e-38
-0.066986486 -0.054001719 0.83140004 2.2130558e-38
-0.062572382 -0.053860959 0.83166671 2.2314586e-38
-0.057843816 -0.053882863 0.83200014 2.2219859e-38
-0.053025723 -0.054608576 0.83100003 2.0749424e-38
-0.047146536 -0.053930212 0.83100003 2.2127327e-38
-0.041967306 -0.0530545 0.83144444 1.3466756e-38
-0.037740007 -0.053380009 0.83300012 8.0222501e-39
-0.082705297 -0.048177466 0.83233339 8.1154449e-39
-0.078668006 -0.046377718 0.83100003 9.8685674e-39
-0.065688573 -0.045111433 0.83100003 1.0161236e-39
-0.059357148 -0.045111433 0.83100003 1.2001477e-39
-0.051442862 -0.045111433 0.83100003 1.5753846e-39
-0.046905719 -0.046114288 0.83124995 1.7540319e-39
-0.042181432 -0.048517622 0.83175004 8.1215027e-39
-0.076511428 -0.04321048 0.83250004 1.1701319e-38
-0.07188715 -0.042180482 0.83175004 8.8519071e-39
-0.067325406 -0.041978095 0.83166677 1.9387707e-39
-0.062573023 -0.041978102 0.83166671 2.0299013e-39
-0.057825953 -0.042180482 0.83175004 1.4785338e-39
-0.053089529 -0.042787623 0.83200002 1.9405868e-39
-0.048760001 -0.043210477 0.8325001 1.9377113e-39
-0.070606671 -0.038873337 0.83300006 6.2890653e-39
-0.066640005 -0.038873337 0.83300006 5.4432248e-39
-0.063466668 -0.038873337 0.83300006 5.5260878e-39
-0.095885724 -0.061526671 0.83900005 9.9605234e-39
-0.091890484 -0.061526671 0.83900011 6.5489558e-39
-0.081502862 -0.061526671 0.83900005 1.3950518e-38
-0.07910572 -0.061526671 0.83900005 1.4044137e-38
-0.07111524 -0.061526671 0.83900005 1.3402019e-38
-0.067919053 -0.061526671 0.83900005 1.524204e-38
-0.063124761 -0.061526671 0.83900005 1.7251353e-38
-0.036756195 -0.061526671 0.83900005 2.1392987e-38
-0.032760955 -0.061526671 0.83900011 2.2314586e-38
-0.097426206 -0.057496198 0.83850008 6.4617277e-39
-0.092879787 -0.057814289 0.83684617 9.3194349e-39
-0.087373011 -0.058163073 0.8365556 9.5978253e-39
-0.082105726 -0.058648579 0.83700007 1.4227495e-38
-0.077260643 -0.058942229 0.83633339 1.4043044e-38
-0.072510481 -0.058965407 0.8366667 1.4226306e-38
-0.067783497 -0.059012391 0.83733338 1.4958962e-38
-0.062991008 -0.058209419 0.83722234 1.8998796e-38
-0.057381697 -0.058447938 0.83811122 1.9821367e-38
-0.051914103 -0.058941908 0.8386001 2.0279816e-38
-0.047076385 -0.05888629 0.83780003 2.1292869e-38
-0.042299055 -0.059060007 0.838 1.9269628e-38
-0.037465718 -0.05819397 0.83700013 2.1853251e-38
-0.032569524 -0.057956763 0.83820009 1.5769833e-38
-0.028765716 -0.057531431 0.83900005 1.0062326e-38
-0.096285239 -0.05233762 0.83900005 3.7769015e-39
-0.092380427 -0.052167308 0.83700001 2.3972419e-39
-0.088801585 -0.051955558 0.83500004 2.1289283e-39
-0.036757149 -0.05107829 0.83540004 2.8606793e-39
-0.032984577 -0.052584387 0.83660001 2.4908767e-39
-0.028765716 -0.053536195 0.83900005 7.3854006e-39
-0.091371849 -0.047338914 0.83842862 4.6123445e-39
-0.087062858 -0.04681715 0.83675003 2.9543197e-39
-0.082704768 -0.045328576 0.83500004 9.5001226e-39
-0.041774288 -0.045753337 0.8355 1.0984484e-38
-0.03748519 -0.047054708 0.83744448 9.9713414e-39
-0.033826351 -0.048209213 0.83900011 4.6158898e-39
-0.090292387 -0.043947622 0.83900005 1.2533169e-38
-0.086735822 -0.043287434 0.8386001 7.9381162e-39
-0.082084343 -0.042235244 0.83677781 9.1327455e-39
-0.077493913 -0.041212764 0.83540004 7.1051676e-39
-0.073957145 -0.040557146 0.83500004 2.4212041e-39
-0.058052383 -0.040557146 0.83500004 1.9104883e-40
-0.052546673 -0.040605716 0.83600003 2.032739e-39
-0.046771027 -0.041763134 0.83642858 7.4764948e-39
-0.042497862 -0.042497858 0.83800012 1.0433806e-38
-0.039153337 -0.043947622 0.83900005 1.0159669e-38
-0.085498102 -0.039153337 0.83900005 1.2547985e-38
-0.081502862 -0.039153337 0.83900005 9.510139e-39
-0.077717915 -0.038458098 0.83780003 1.061566e-38
-0.072588995 -0.037489116 0.8375715 1.1164222e-38
-0.068008035 -0.037021365 0.83728582 1.0427098e-38
-0.062768035 -0.037021365 0.83728576 9.4136134e-39
-0.057623643 -0.0373265 0.83718193 8.3058323e-39
-0.052249935 -0.038362861 0.83671433 8.5863484e-39
-0.047543336 -0.038753815 0.83900005 1.0160748e-38
-0.067919061 -0.034359049 0.83900011 1.3009661e-38
-0.063124768 -0.034359049 0.83900011 1.2543931e-38
-0.057797782 -0.034359049 0.83900011 1.0711492e-38
-0.088314295 -0.065031432 0.84300005 9.7018339e-39
-0.08108858 -0.065031432 0.84300005 1.7539501e-38
-0.065834291 -0.065031432 0.84300005 2.0202013e-38
-0.06262286 -0.065031432 0.84300005 1.8549332e-38
-0.036931433 -0.065031432 0.84300005 2.0833606e-38
-0.032917146 -0.065031432 0.84300011 2.0277264e-38
-0.02917048 -0.065566674 0.84300011 1.8438434e-38
-0.10069905 -0.06138286 0.84250009 1.0412486e-38
-0.097547144 -0.06302429 0.84300005 7.5645468e-39
-0.092183821 -0.063325405 0.8416667 4.9866719e-39
-0.087337792 -0.06249937 0.84133339 9.3358806e-39
-0.08294858 -0.062912382 0.84150004 1.3768364e-38
-0.077785723 -0.062549531 0.84200007 1.3952716e-38
-0.07300096 -0.062306356 0.84233332 1.3954117e-38
-0.068080954 -0.061673336 0.84100002 1.5421763e-38
-0.062722482 -0.062724009 0.84219998 1.6613547e-38
-0.057202227 -0.06201493 0.84200001 1.9648469e-38
-0.051815815 -0.061762102 0.84219998 2.0563968e-38
-0.047256194 -0.06127286 0.84100002 2.1024576e-38
-0.04216972 -0.062374294 0.84180003 1.806893e-38
-0.038068574 -0.06291239 0.84150004 1.9176324e-38
-0.032839052 -0.06327524 0.84100002 2.1757077e-38
-0.028310796 -0.061697148 0.84133339 1.8354153e-38
-0.10075982 -0.057188004 0.84100002 5.6265216e-39
-0.029635239 -0.057668574 0.84100002 5.3690583e-39
-0.10035716 -0.052185714 0.84300011 6.8146377e-39
-0.097716197 -0.051260956 0.84100002 4.6076978e-39
-0.031237144 -0.050460003 0.84100002 2.9482535e-39
-0.028483812 -0.051753335 0.84250009 6.2798042e-39
-0.096267313 -0.04733048 0.84233332 7.1094429e-39
-0.093711436 -0.046455242 0.84100002 6.6506074e-39
-0.032330476 -0.046758421 0.8416667 4.2453752e-39
-0.095540009 -0.044157147 0.84300005 9.4185628e-39
-0.092219055 -0.042767309 0.84200013 1.0519612e-38
-0.087704293 -0.041249052 0.84100002 1.1073131e-38
-0.040848576 -0.040848576 0.84100002 1.0068194e-38
-0.037466433 -0.042274527 0.84150004 1.0619207e-38
-0.034522861 -0.043354288 0.84300005 8.8711091e-39
-0.097833335 -0.036085717 0.84200001 1.2818371e-38
-0.088210478 -0.039293338 0.84200001 1.1343266e-38
-0.082028262 -0.037673336 0.8416667 9.7849463e-39
-0.077430487 -0.036507621 0.84250009 1.3103283e-38
-0.074488573 -0.036042858 0.84100002 1.3834e-38
-0.052061908 -0.036042862 0.84100002 1.0619202e-38
-0.046980005 -0.03671791 0.84180003 1.0436965e-38
-0.042810481 -0.038642477 0.84180003 9.7019207e-39
-0.038537145 -0.039340004 0.84300005 1.016004e-38
-0.098751433 -0.034522861 0.84300005 1.3460555e-38
-0.076271437 -0.034522861 0.84300005 1.3290952e-38
-0.072616197 -0.034100953 0.84249997 9.599853e-39
-0.06762667 -0.032075237 0.84200001 9.7839458e-39
-0.062193882 -0.032184355 0.84185719 9.3207816e-39
-0.056964226 -0.032435514 0.84242862 9.9743276e-39
-0.052379187 -0.03335252 0.84242857 9.7898158e-39
-0.04897429 -0.034522861 0.84300005 1.0434452e-38
-0.0888381 -0.070262864 0.84800005 1.0628098e-38
-0.06218667 -0.070262864 0.84800005 2.194688e-38
-0.028266668 -0.070262864 0.84800005 1.7701225e-38
-0.11248982 -0.067493886 0.84800011 1.2995975e-38
-0.10741334 -0.066224769 0.84800005 1.3832244e-38
-0.10240699 -0.066928901 0.84666675 8.6687098e-39
-0.097549051 -0.066109054 0.84650004 5.9957806e-39
-0.092711911 -0.066109054 0.8465001 4.8944721e-39
-0.08762259 -0.067359194 0.84628576 1.2841478e-38
-0.083202027 -0.067087509 0.84612513 2.0937369e-38
-0.077676117 -0.067116119 0.84718198 1.8637906e-38
-0.07207343 -0.06675458 0.8465001 1.5605448e-38
-0.067126811 -0.067359194 0.84628576 2.0383873e-38
-0.061892249 -0.06742613 0.84714299 2.157954e-38
-0.057484765 -0.066471711 0.84671438 1.8725777e-38
-0.052270837 -0.066801548 0.84762508 1.9372543e-38
-0.047592383 -0.066147625 0.84700006 2.2773747e-38
-0.042421337 -0.065970674 0.84680003 1.741892e-38
-0.037904382 -0.066938676 0.84680003 1.9822405e-38
-0.033053815 -0.067721441 0.8465001 1.8807921e-38
-0.026993454 -0.06748917 0.84612501 2.055639e-38
-0.022089619 -0.06675458 0.84650004 1.9085609e-38
-0.018531431 -0.066876195 0.84600008 1.4559743e-38
-0.10737175 -0.062162228 0.84766674 1.2727298e-38
-0.10317048 -0.062288579 0.84500009 1.2816344e-38
-0.076452389 -0.063576192 0.84500003 1.4230765e-38
-0.072696835 -0.063576192 0.84500003 1.4869631e-38
-0.067600004 -0.063576192 0.84500003 1.7996819e-38
-0.060357146 -0.063576192 0.84500003 1.376415e-38
-0.0571381 -0.063576192 0.84500003 1.8452828e-38
-0.053114288 -0.063576192 0.84500003 2.1487348e-38
-0.047480956 -0.063576192 0.84500003 2.1852889e-38
-0.044261906 -0.063576192 0.84500003 2.0561051e-38
-0.026557144 -0.062771432 0.84500003 1.9374748e-38
-0.022578334 -0.062094521 0.84675014 8.7597507e-39
-0.018509526 -0.062771432 0.84500003 9.9643503e-39
-0.1057981 -0.058148578 0.84800005 1.3282636e-38
-0.10350405 -0.056785002 0.84575003 1.2901259e-38
-0.026612571 -0.056936767 0.84680003 8.755062e-39
-0.024184287 -0.058851909 0.84650004 7.2003031e-39
-0.10232572 -0.052369528 0.84600008 1.1061692e-38
-0.027156513 -0.051896833 0.84700006 6.650023e-39
-0.10083334 -0.047591433 0.84700006 1.2816545e-38
-0.098985724 -0.047480956 0.84500003 1.0146794e-38
-0.029021433 -0.047565244 0.8465001 3.7812414e-39
-0.097607628 -0.04302159 0.84700006 1.0058568e-38
-0.093352392 -0.041042861 0.84500003 8.7722349e-39
-0.032583952 -0.042485718 0.8462857 6.6395427e-39
-0.029881908 -0.04441905 0.84800005 6.577667e-40
-0.097721919 -0.038765721 0.84800005 1.1346448e-38
-0.09230952 -0.039099529 0.84650004 9.3221619e-39
-0.08787477 -0.037083335 0.8465001 1.1166863e-38
-0.083770245 -0.037051193 0.84575003 1.1062729e-38
-0.04232429 -0.036680955 0.84650004 9.5168134e-39
-0.037904385 -0.037903246 0.84680003 1.034406e-38
-0.033920005 -0.039573334 0.84800005 8.774292e-39
-0.081901193 -0.03348548 0.84725004 8.8593662e-39
-0.07843703 -0.032865122 0.84687507 1.0704813e-38
-0.073555246 -0.032029528 0.84500009 1.0889495e-38
-0.068404764 -0.031385716 0.84500003 8.866639e-39
-0.051504768 -0.031385716 0.84500003 9.6087526e-39
-0.047321193 -0.032821909 0.84575009 1.1165227e-38
-0.043168336 -0.0342931 0.84725004 9.8820521e-39
-0.075916193 -0.029881908 0.84800005 1.2646983e-38
-0.07183668 -0.029056668 0.84750009 1.1068501e-38
-0.066953339 -0.028231429 0.847 1.3281542e-38
-0.062039997 -0.028198097 0.84600002 1.1071385e-38
-0.057205725 -0.028198097 0.84600002 1.1902904e-38
-0.052970797 -0.028769841 0.84700012 1.1993283e-38
-0.049264766 -0.029881908 0.84800005 1.2445695e-38
-0.10817334 -0.075640008 0.85400003 8.4778361e-39
-0.10492001 -0.075640008 0.85400003 3.9636077e-39
-0.095160007 -0.075640008 0.85400003 1.159241e-38
-0.091906667 -0.075640008 0.85400003 5.1775204e-39
-0.086213335 -0.075640008 0.85400003 1.9558437e-38
-0.11206477 -0.072275564 0.85266674 1.3365468e-38
-0.10806032 -0.072312176 0.85311115 1.0786278e-38
-0.10263552 -0.072488666 0.85345459 7.3826681e-39
-0.09745691 -0.072282627 0.85275012 7.8407876e-39
-0.092588194 -0.072286867 0.85280007 5.2672105e-39
-0.086671904 -0.072464764 0.85250008 1.7996873e-38
-0.081975676 -0.072238527 0.85222226 2.1211828e-38
-0.077186681 -0.072312601 0.85311121 2.0106939e-38
-0.072292067 -0.072293766 0.852889 1.9551237e-38
-0.067418844 -0.072293766 0.852889 2.0568627e-38
-0.062577777 -0.073143505 0.85333341 2.0379194e-38
-0.057640638 -0.072256938 0.85244453 1.4871032e-38
-0.052825402 -0.072331436 0.85333341 1.3768954e-38
-0.047973767 -0.072368264 0.85377783 1.6979424e-38
-0.043089844 -0.07154572 0.85366672 2.1206456e-38
-0.037849147 -0.071311243 0.85280001 1.7420008e-38
-0.032735452 -0.072057784 0.85222226 1.7420665e-38
-0.026785003 -0.072443575 0.85225004 1.8807574e-38
-0.021908574 -0.072219677 0.852 2.2772323e-38
-0.018013716 -0.071894102 0.85200006 1.8629285e-38
-0.11197905 -0.065725721 0.852 1.327289e-38
-0.10766667 -0.068809532 0.85000008 1.3185828e-38
-0.097952388 -0.068809532 0.85000008 4.4331408e-39
-0.093095243 -0.068809532 0.85000008 4.525691e-39
-0.056666672 -0.068809532 0.85000002 1.6155688e-38
-0.0542381 -0.068809532 0.85000002 1.5697547e-38
-0.047874294 -0.06897144 0.85200012 2.0933802e-38
-0.043335721 -0.068445243 0.85049999 1.9642726e-38
-0.03890381 -0.068890482 0.85100007 1.8355247e-38
-0.11197905 -0.064102858 0.852 1.3361846e-38
-0.107127 -0.057476193 0.85000008 1.2817334e-38
-0.025095239 -0.055857148 0.85000002 7.3746751e-39
-0.021680001 -0.05734 0.85099995 5.7201998e-39
-0.018640954 -0.056732386 0.85100007 1.014912e-38
-0.10604762 -0.0542381 0.85000002 1.3380537e-38
-0.10442858 -0.053428575 0.85000002 1.5302982e-38
-0.025095239 -0.052619051 0.85000008 5.8999374e-39
-0.021931851 -0.052799162 0.852889 5.901724e-39
-0.018022478 -0.052443814 0.8524 1.3099325e-38
-0.10375049 -0.048221339 0.8524 1.4933486e-38
-0.025965717 -0.04787175 0.85200012 4.8839876e-39
-0.021954289 -0.047973767 0.85377783 8.8566029e-39
-0.018706668 -0.048800007 0.85400003 1.3743631e-38
-0.10119049 -0.043714289 0.85000002 1.5211476e-38
-0.098879054 -0.041334286 0.85100007 1.0793661e-38
-0.030058097 -0.042242859 0.85300004 3.6029598e-39
-0.027062859 -0.04355647 0.85371435 6.7343475e-39
-0.023044448 -0.044191115 0.85400003 6.6467958e-39
-0.09633334 -0.036428574 0.85000002 1.0241812e-38
-0.093507431 -0.037110478 0.85080004 8.6770713e-39
-0.037280954 -0.036471434 0.85100007 1.0342974e-38
-0.032474287 -0.03815905 0.85250002 6.3676123e-39
-0.090751752 -0.034403812 0.85333341 8.6735583e-39
-0.086640581 -0.032933526 0.85180008 1.1161764e-38
-0.083171435 -0.031238098 0.852 9.9667886e-39
-0.042752381 -0.031404763 0.85100001 1.2551544e-38
-0.038325526 -0.032965526 0.8526001 1.0985167e-38
-0.034973335 -0.034160003 0.85400003 5.7319497e-39
-0.081341237 -0.027730342 0.85285729 1.0245969e-38
-0.077266484 -0.027105335 0.85220003 1.3744001e-38
-0.072104767 -0.025924448 0.8506667 1.1901872e-38
-0.067190483 -0.025095239 0.85000008 1.3742928e-38
-0.062333338 -0.025095239 0.85000008 1.1541028e-38
-0.057476193 -0.025095239 0.85000008 1.3372666e-38
-0.052160006 -0.026214605 0.85133338 1.2087332e-38
-0.047746845 -0.027375935 0.85236371 1.1996209e-38
-0.043411054 -0.027802667 0.85360003 1.1074567e-38
-0.075640008 -0.023586668 0.85400003 1.0878124e-38
-0.072330795 -0.022754923 0.85333341 1.1172586e-38
-0.06742762 -0.022745717 0.8530001 1.0616545e-38
-0.062545188 -0.021929737 0.85288894 8.9598673e-39
-0.057701595 -0.021941591 0.85333341 8.5009743e-39
-0.053387623 -0.022493018 0.85366672 9.4197118e-39
-0.049613338 -0.023586668 0.85400003 9.3239331e-39
-0.11100192 -0.077539049 0.85699999 1.1708915e-38
-0.10692096 -0.078355238 0.85700005 5.5384206e-39
-0.10198414 -0.077509202 0.85666668 1.3839176e-38
-0.097475432 -0.076903999 0.85720009 1.6312623e-38
-0.092121914 -0.077447623 0.85600013 4.6193355e-39
-0.087638102 -0.077040002 0.85600007 1.6063655e-38
-0.082339048 -0.07663238 0.85600007 2.0290593e-38
-0.07747715 -0.076662548 0.85633343 1.8821589e-38
-0.072640963 -0.07672286 0.85700005 2.0935962e-38
-0.067743823 -0.07672286 0.85700005 2.0750494e-38
-0.062846676 -0.07672286 0.85700005 2.0291208e-38
-0.058262862 -0.076541714 0.85680008 1.3398808e-38
-0.052990481 -0.075817153 0.85600013 1.468912e-38
-0.048099052 -0.075817153 0.85600013 1.5139439e-38
-0.04246524 -0.075950004 0.85750002 1.5039411e-38
-0.036771432 -0.075994298 0.85800004 2.0198067e-38
-0.031868573 -0.075994298 0.85800004 1.658451e-38
-0.02690286 -0.075817153 0.85600013 1.7880521e-38
-0.022011429 -0.075817153 0.85600013 2.0742967e-38
-0.016721429 -0.076678574 0.85650009 1.9729173e-38
-0.01389143 -0.078445718 0.85800004 1.5399208e-38
-0.043207623 -0.074186675 0.85600013 1.9451844e-38
-0.038723812 -0.073779054 0.85600007 2.0105497e-38
-0.032609526 -0.074186675 0.85600007 1.5662537e-38
-0.016033018 -0.073643185 0.85600013 1.7235168e-38
-0.025835557 -0.041064765 0.85666674 6.3598155e-39
-0.023669526 -0.040808573 0.85700005 5.3560836e-39
-0.096198097 -0.035055239 0.85600007 9.2284346e-39
-0.093752384 -0.035055239 0.85600007 8.1271499e-39
-0.031830478 -0.035912383 0.85699999 3.4149363e-39
-0.027750477 -0.039176192 0.85699999 4.9768797e-39
-0.095605724 -0.033502858 0.85800004 8.4030474e-39
-0.091881149 -0.032149337 0.85680008 1.1256827e-38
-0.088045716 -0.030163812 0.85600007 1.1812987e-38
-0.036298573 -0.03058905 0.85650003 5.1733879e-39
-0.033502858 -0.032685716 0.85800004 6.4696128e-40
-0.090491436 -0.028533336 0.85600007 1.0799523e-38
-0.087129526 -0.027138099 0.85699999 1.1997351e-38
-0.083426043 -0.025815874 0.85600013 1.2449671e-38
-0.042800002 -0.025680002 0.85600007 7.9427461e-39
-0.038677335 -0.027907053 0.85680008 4.902182e-39
-0.082090668 -0.023011049 0.85680008 7.7578195e-39
-0.077719286 -0.021825477 0.85675001 1.0062224e-38
-0.072613977 -0.020396827 0.85666674 1.1069853e-38
-0.067664772 -0.020380955 0.85600013 8.0296308e-39
-0.051903497 -0.020924447 0.85600013 6.6588988e-39
-0.047936436 -0.021825954 0.85675001 6.0013535e-39
-0.04359429 -0.023021337 0.85720009 4.0663243e-39
-0.072398864 -0.018140573 0.85799998 1.1715156e-38
-0.067743823 -0.01795524 0.85700005 7.8391243e-39
-0.062862098 -0.018123049 0.85720009 6.276137e-39
-0.058390953 -0.018374763 0.85750008 4.3432769e-39
-0.053114288 -0.017977145 0.85799998 1.6628704e-39
-0.10754477 -0.081274293 0.86200011 5.2632644e-39
-0.10344 -0.081274293 0.86200005 1.4124678e-38
-0.074706674 -0.081274293 0.86200005 1.8639016e-38
-0.068139061 -0.081274293 0.86200011 2.0109077e-38
-0.063623816 -0.081684768 0.86200005 1.4036665e-38
-0.057466671 -0.081274293 0.86200005 1.2376819e-38
-0.01681143 -0.081589527 0.86100006 2.1946528e-38
-0.013923811 -0.081904769 0.86000001 1.9170906e-38
-0.09746667 -0.079447627 0.86000001 1.6127503e-38
-0.093588576 -0.079632387 0.86200005 3.4204574e-39
-0.087841913 -0.079632387 0.86200011 1.7074931e-38
-0.0829162 -0.079632387 0.86200011 2.0386041e-38
-0.077868581 -0.079509214 0.86066675 1.8915227e-38
-0.073064767 -0.079632387 0.86200011 2.0019418e-38
-0.068139054 -0.079632387 0.86200011 2.0844477e-38
-0.063213341 -0.079632387 0.86200011 1.6890007e-38
-0.057844289 -0.079176672 0.86150002 1.3304446e-38
-0.052821502 -0.078824759 0.86085725 1.4781312e-38
-0.047559053 -0.078447305 0.86100006 1.3748303e-38
-0.041868575 -0.077990487 0.86200011 1.0526959e-38
-0.036942862 -0.077990487 0.86200011 2.24075e-38
-0.031606667 -0.078400955 0.86200005 1.7512557e-38
-0.027071115 -0.078751117 0.86133337 1.622282e-38
-0.022140002 -0.078720957 0.861 1.9087025e-38
-0.017536383 -0.078501716 0.86040014 2.111605e-38
-0.030304763 -0.035219051 0.86000001 3.5049866e-39
-0.027470477 -0.036899049 0.86100006 4.0588764e-39
-0.096051432 -0.032017145 0.86200005 8.4941836e-39
-0.093717471 -0.030874288 0.86066669 1.0705438e-38
-0.031987429 -0.031986672 0.86120003 1.8436884e-39
-0.09184096 -0.027880955 0.86100006 1.0059428e-38
-0.089483812 -0.025449526 0.86200005 9.8793756e-39
-0.040133335 -0.025390478 0.86000001 9.4178747e-40
-0.036580954 -0.026737144 0.86120003 1.9401958e-39
-0.086970955 -0.022972859 0.86150002 9.3186348e-39
-0.083230481 -0.020909525 0.861 8.2164757e-39
-0.045047622 -0.020476192 0.86000001 3.1347943e-39
-0.041819047 -0.021730479 0.86100006 1.6657697e-39
-0.082095243 -0.018881906 0.86200005 1.263572e-38
-0.07769572 -0.017424285 0.86100006 1.4659685e-38
-0.073348098 -0.015980477 0.86049998 1.4291254e-38
-0.06798096 -0.015561907 0.86000001 1.207324e-38
-0.063066669 -0.01597143 0.86000001 6.2621632e-39
-0.057851054 -0.016224382 0.86040014 1.8408269e-39
-0.051998097 -0.015912002 0.86120003 1.8458576e-39
-0.048407145 -0.018460477 0.86150002 1.6639803e-39
-0.073064767 -0.013956192 0.86200011 1.585829e-38
-0.067810677 -0.01329943 0.86200011 1.4110861e-38
-0.063213341 -0.013135239 0.86200011 9.3120725e-39
-0.058013972 -0.01340889 0.86200011 3.4102602e-39
-0.053361908 -0.013956191 0.86200005 2.3057497e-39
-0.11007334 -0.085244767 0.86900002 7.7521302e-39
-0.10676287 -0.085244767 0.86900008 5.0681e-39
-0.10171779 -0.085179374 0.86833334 5.8042189e-39
-0.096831441 -0.085658573 0.86900002 3.6066354e-39
-0.091865718 -0.085244767 0.86900008 6.1945422e-39
-0.086900011 -0.085244767 0.86900008 1.9926852e-38
-0.081472382 -0.085609525 0.86849999 2.0934526e-38
-0.076602869 -0.085867628 0.86860007 1.8455319e-38
-0.071920007 -0.085974298 0.86800003 2.0013305e-38
-0.066960007 -0.08707653 0.86800003 1.8172874e-38
-0.061550479 -0.086337149 0.86750007 1.293211e-38
-0.057040006 -0.085974298 0.86800003 4.0611325e-39
-0.052422293 -0.085828386 0.8682 6.9363405e-39
-0.04717429 -0.08565858 0.86900002 1.5039073e-38
-0.041794762 -0.08565858 0.86900002 3.7947022e-40
-0.03724286 -0.085244767 0.86900008 1.7708447e-38
-0.033932384 -0.085244767 0.86900002 2.341517e-38
-0.026483811 -0.085244767 0.86900002 1.5761902e-38
-0.022329208 -0.086006992 0.86833334 1.8158995e-38
-0.017556904 -0.086544536 0.86750001 2.2127656e-38
-0.1119362 -0.08223334 0.86633343 1.0418217e-38
-0.10808414 -0.08333303 0.86633343 5.7224335e-39
-0.1025643 -0.082792863 0.86500007 1.2277188e-38
-0.098146677 -0.082477152 0.86600012 1.2997873e-38
-0.092831708 -0.082690492 0.8670001 4.9895614e-39
-0.087423824 -0.082477152 0.86600012 1.8729039e-38
-0.082475245 -0.082477152 0.86600012 2.0659032e-38
-0.07800401 -0.082293145 0.86580008 1.899845e-38
-0.072551116 -0.082719699 0.86566681 1.9465168e-38
-0.066728577 -0.084028579 0.86500007 1.9461141e-38
-0.062115241 -0.083863817 0.86500007 1.2569399e-38
-0.056842864 -0.083204769 0.86500013 8.3996408e-39
-0.051919367 -0.082413025 0.86533344 1.2933585e-38
-0.047011431 -0.082477152 0.86600012 1.3280211e-38
-0.042095877 -0.082540005 0.86666673 4.0568459e-39
-0.037155874 -0.082572073 0.86700004 2.0198064e-38
-0.032228258 -0.082636192 0.86766672 2.1853608e-38
-0.027249208 -0.082572706 0.86700004 1.5937294e-38
-0.022252066 -0.082413025 0.8653335 1.8160036e-38
-0.018123809 -0.083204769 0.86500007 2.2589377e-38
-0.11286191 -0.079909526 0.86500007 1.2720882e-38
-0.091442861 -0.079909526 0.86500007 6.3857297e-39
-0.045309525 -0.079909526 0.86500007 7.6409008e-39
-0.042014293 -0.079909526 0.86500013 8.0280249e-39
-0.037071433 -0.079909526 0.86500013 2.1671022e-38
-0.032952383 -0.079909526 0.86500007 2.0746566e-38
-0.10014191 -0.03558762 0.86900002 1.2355937e-38
-0.02614635 -0.036056191 0.86700004 4.886821e-39
-0.098260008 -0.033026669 0.86700004 1.1153079e-38
-0.030480955 -0.031304762 0.86500007 2.3021512e-39
-0.027808255 -0.032765716 0.86733341 3.139434e-39
-0.095176198 -0.025656192 0.86900002 9.6798321e-39
-0.093506865 -0.026880575 0.86580002 9.2264083e-39
-0.035423812 -0.025538096 0.86500007 2.309707e-39
-0.032210693 -0.027253442 0.86722225 1.8455045e-39
-0.028966671 -0.027311429 0.86900008 4.7056808e-39
-0.092069916 -0.022644384 0.86780006 7.752758e-39
-0.088559523 -0.021830954 0.86500007 8.583899e-39
-0.040413335 -0.021442859 0.86600006 1.4824617e-39
-0.037615106 -0.022522317 0.86671436 2.400102e-39
-0.033104762 -0.024000954 0.86900002 2.584496e-39
-0.086800002 -0.017771905 0.86800003 1.1160635e-38
-0.083236203 -0.017031429 0.86533344 1.3367561e-38
-0.079909526 -0.015652383 0.86500007 1.4474264e-38
-0.046425402 -0.016756827 0.86533344 2.7685356e-39
-0.042329051 -0.017550001 0.86725008 2.7688859e-39
-0.038808573 -0.018991429 0.86700004 2.5855666e-39
-0.085244767 -0.014069525 0.86900002 1.3365306e-38
-0.082152195 -0.013057715 0.86780006 1.3641621e-38
-0.077571906 -0.012376191 0.86650014 1.5303666e-38
-0.072237425 -0.011665171 0.86614299 1.7056842e-38
-0.066728577 -0.010709524 0.86500013 1.5490601e-38
-0.06178572 -0.010709524 0.86500013 1.1162702e-38
-0.056513336 -0.011368573 0.86500007 5.1640413e-39
-0.051768098 -0.012167143 0.8662501 2.8546075e-39
-0.047311909 -0.012601906 0.86774999 2.5827024e-39
-0.043863811 -0.014069525 0.86900002 2.8603655e-39
-0.075313337 -0.0091038104 0.86900002 1.4844128e-38
-0.071589053 -0.0086900005 0.86900002 1.6126616e-38
-0.066734567 -0.0079125185 0.8681429 1.7147946e-38
-0.061977044 -0.0074354503 0.86766672 1.235743e-38
-0.05703228 -0.0074373549 0.86788893 7.9331584e-39
-0.052471053 -0.0084417155 0.86900008 4.7053066e-39
-0.060416196 -0.0041380953 0.86900002 1.3348616e-38
-0.025774287 -0.095614292 0.87300003 1.1861462e-38
-0.023280002 -0.095614292 0.87300003 1.7252151e-38
-0.11124515 -0.092621148 0.87300009 1.2723371e-38
-0.10725429 -0.091457151 0.87300009 7.2886578e-39
-0.10226573 -0.091457151 0.87300009 5.8128481e-39
-0.097240016 -0.091422543 0.87266672 4.7101159e-39
-0.092288576 -0.090625726 0.87300003 9.0571819e-39
-0.082311437 -0.090625726 0.87300003 1.9559154e-38
-0.07649143 -0.090625718 0.87300003 1.7538771e-38
-0.07233429 -0.090625726 0.87300003 1.9743895e-38
-0.067294285 -0.090556517 0.87233341 1.5786895e-38
-0.063188575 -0.090625718 0.87300003 1.2835266e-38
-0.052380007 -0.090625726 0.87300003 1.0074927e-38
-0.048222862 -0.090625718 0.87300003 1.5881608e-38
-0.043234289 -0.090625718 0.87300003 6.9180732e-39
-0.035751432 -0.090625718 0.87300003 8.1119501e-39
-0.032010004 -0.091041438 0.87300003 7.8188895e-39
-0.027214527 -0.092028327 0.87250006 1.1531797e-38
-0.022425292 -0.092195868 0.8721112 2.0844134e-38
-0.018540636 -0.091041595 0.87166679 2.1484435e-38
-0.1111562 -0.087099999 0.87100005 9.9604589e-39
-0.10700858 -0.087929532 0.87100017 6.5503963e-39
-0.10203144 -0.087929532 0.87100017 6.8205148e-39
-0.097054295 -0.088095441 0.87100011 5.5366283e-39
-0.092146993 -0.087997466 0.87166679 7.6732231e-39
-0.087200008 -0.088031434 0.8720001 1.9098513e-38
-0.082454674 -0.088095427 0.87100011 1.955808e-38
-0.077560484 -0.088344283 0.87100005 1.8541751e-38
-0.072168581 -0.08875905 0.87100005 1.9558431e-38
-0.06885048 -0.08875905 0.87100005 1.9560549e-38
-0.062214293 -0.08875905 0.87100005 1.2564425e-38
-0.057237148 -0.08875905 0.87100005 2.9698727e-39
-0.051845245 -0.088344291 0.87100005 8.0498557e-39
-0.047303814 -0.088136189 0.87140006 1.385128e-38
-0.042637527 -0.088095441 0.87100011 1.6676741e-39
-0.037371434 -0.088031434 0.8720001 1.3558967e-38
-0.032171909 -0.087383822 0.87175012 1.5858095e-38
-0.027620818 -0.087603137 0.87128592 1.8539636e-38
-0.022397146 -0.08875905 0.87100005 2.0195184e-38
-0.02288531 -0.03711497 0.8715716 1.0329197e-38
-0.10044922 -0.032374926 0.87166679 1.4012246e-38
-0.097883821 -0.030692384 0.87100005 1.0054693e-38
-0.026268257 -0.031245401 0.87100005 6.4591914e-39
-0.022442436 -0.03241704 0.87277782 1.2728398e-38
-0.097897723 -0.027756384 0.87260008 1.0696124e-38
-0.026544763 -0.027374288 0.87100017 8.7615079e-39
-0.023392573 -0.0277061 0.87100011 1.1896127e-38
-0.095614292 -0.023280002 0.87300003 1.0231951e-38
-0.092906669 -0.020738097 0.87100005 8.0228933e-39
-0.035669528 -0.02156762 0.87100005 2.6770644e-39
-0.032124493 -0.021929936 0.87128592 2.39866e-39
-0.027866805 -0.022647759 0.8715716 6.7289189e-39
-0.091991171 -0.017922588 0.87242866 8.1165169e-39
-0.088273972 -0.016326033 0.87166679 1.1527261e-38
-0.040646669 -0.015760953 0.87100005 2.5837772e-39
-0.037364222 -0.017437145 0.87185729 2.6770462e-39
-0.032841429 -0.018707143 0.87300003 1.5714203e-39
-0.090625718 -0.014134287 0.87300003 1.0698178e-38
-0.086888194 -0.012791811 0.87220001 1.2443053e-38
-0.082186997 -0.010792064 0.87166679 1.3450361e-38
-0.045623813 -0.01078381 0.87100005 2.8603669e-39
-0.042332932 -0.012450477 0.8715716 3.0436721e-39
-0.038522862 -0.013580001 0.87300003 3.5053663e-39
-0.081895724 -0.0087300008 0.87300003 1.3452911e-38
-0.077221647 -0.0074719726 0.87185729 1.5396956e-38
-0.072534285 -0.0064729527 0.87140006 1.7049597e-38
-0.068020955 -0.0058066673 0.87100005 1.8806011e-38
-0.051845241 -0.006221429 0.87100005 4.6992068e-39
-0.047330692 -0.0074720639 0.871889 2.1220956e-39
-0.043511432 -0.0085914303 0.87300003 3.1337139e-39
-0.093951434 -0.0041571432 0.87300003 1.4010806e-38
-0.075660005 -0.0041571432 0.87300003 1.5392661e-38
-0.07233429 -0.0041571436 0.87300003 1.5947951e-38
-0.06726858 -0.0033209526 0.8720001 1.6037326e-38
-0.062575437 -0.0031533339 0.87140006 1.6312828e-38
-0.05725842 -0.0033190479 0.87133348 1.0506759e-38
-0.052359369 -0.0033241273 0.87266672 2.0327502e-39
-0.048222862 -0.0041571432 0.87300003 5.7919183e-39
-0.10786858 -0.096161917 0.87800002 1.0880949e-38
-0.10211334 -0.097099625 0.87740004 9.5985343e-39
-0.098263547 -0.097548448 0.87757158 1.3390308e-38
-0.09281715 -0.096161909 0.87800002 1.569933e-38
-0.03177524 -0.096161909 0.87800002 2.1022773e-38
-0.027909908 -0.097099625 0.87740004 9.7872836e-39
-0.10774763 -0.094381914 0.87700003 9.1285515e-39
-0.10250001 -0.094166681 0.87500012 5.5298026e-39
-0.097500011 -0.094166681 0.87500012 6.4646859e-39
-0.092551909 -0.093387149 0.87550008 1.1371337e-38
-0.087478444 -0.092491314 0.87687504 1.533134e-38
-0.082687631 -0.093547627 0.87700003 1.7993521e-38
-0.077632859 -0.092938267 0.87650001 1.8543217e-38
-0.072580963 -0.092605725 0.87600005 1.9832856e-38
-0.067652389 -0.092711441 0.87700003 1.4040247e-38
-0.062644765 -0.092155874 0.87700003 1.2644814e-38
-0.057598576 -0.091825247 0.87650013 1.2748931e-38
-0.052680008 -0.09281715 0.87800002 1.3834093e-38
-0.047163334 -0.092241906 0.87650001 1.4681007e-38
-0.042192623 -0.092321195 0.87725002 6.3641876e-39
-0.037885908 -0.091960199 0.87620002 3.3332841e-39
-0.032879051 -0.093629152 0.87620002 1.1361759e-38
-0.029166669 -0.094166674 0.87500006 1.0986895e-38
-0.10333334 -0.030833336 0.87500006 1.4199912e-38
-0.10255597 -0.027570004 0.87725008 1.4473984e-38
-0.099166676 -0.025833335 0.87500006 1.3001724e-38
-0.10201524 -0.024249526 0.87800002 1.4475777e-38
-0.09816967 -0.022305174 0.87671435 1.2815909e-38
-0.09733405 -0.01879786 0.87725002 1.3001746e-38
-0.093494773 -0.015860477 0.87650001 1.0319456e-38
-0.035833336 -0.015833335 0.87500006 3.505002e-39
-0.032083336 -0.016666669 0.87500006 2.397588e-39
-0.028333336 -0.019166667 0.87500006 6.7256987e-39
-0.092319772 -0.012948811 0.87725002 1.060171e-38
-0.088813022 -0.011413652 0.87700003 1.2073215e-38
-0.040833335 -0.010833334 0.87500006 2.9529184e-39
-0.037006825 -0.01196397 0.87650007 3.4121001e-39
-0.034166668 -0.014166668 0.87500006 3.0382869e-39
-0.086586997 -0.0086301593 0.87700003 1.2527395e-38
-0.082642861 -0.0066780951 0.87650001 1.1972066e-38
-0.079166673 -0.0058333338 0.87500006 1.4107995e-38
-0.042223815 -0.0071758102 0.87620014 3.1387278e-39
-0.038743496 -0.0086406358 0.87800002 3.778719e-39
-0.092259698 -0.0036234921 0.87800002 1.0601023e-38
-0.077677153 -0.0036187302 0.87700003 1.4282318e-38
-0.072264962 -0.0018344764 0.87620002 1.4371299e-38
-0.06750001 -0.00083333341 0.87500012 1.6687705e-38
-0.062500007 -0.00083333341 0.87500012 1.6596626e-38
-0.057563812 -0.00083428586 0.87600005 1.1892922e-38
-0.052680008 -0.00083619053 0.87800002 5.7162706e-39
-0.04712262 -0.0029188099 0.87575001 1.0593204e-38
-0.044318099 -0.0041809524 0.87800002 8.75898e-39
-0.06773144 0.00083619053 0.87800002 1.7794401e-38
-0.062644772 0.0008352382 0.87700003 1.5394124e-38
-0.057697147 0.00083619053 0.87800002 1.1984392e-38
-0.054352384 0.00083619053 0.87800002 6.0875446e-39
-0.085032389 -0.1052381 0.88400006 1.3039985e-38
-0.081664771 -0.1052381 0.88400006 1.4415695e-38
-0.09721905 -0.10140953 0.88000005 1.5787941e-38
-0.093240008 -0.10164001 0.88200009 1.4507276e-38
-0.087943248 -0.10240573 0.88280004 1.4413982e-38
-0.083191432 -0.10251906 0.8823334 1.6345166e-38
-0.078236833 -0.10179366 0.88333338 2.0477878e-38
-0.073245727 -0.10074794 0.88400006 1.8086077e-38
-0.0681943 -0.10018668 0.88400006 1.1811796e-38
-0.063142858 -0.10018668 0.88400006 6.5672791e-39
-0.046725716 -0.10144953 0.88400006 6.5507985e-39
-0.042375877 -0.10158985 0.884 6.5511544e-39
-0.038242381 -0.10211858 0.88249999 6.5500768e-39
-0.033600003 -0.10164001 0.88200003 9.1149967e-39
-0.10308572 -0.098057151 0.88000005 1.1727648e-38
-0.096380956 -0.098895244 0.88000005 1.6252585e-38
-0.093028583 -0.098266669 0.88000005 1.4872443e-38
-0.088088892 -0.098157048 0.88088894 1.4138144e-38
-0.083075777 -0.098182239 0.88111115 1.4872523e-38
-0.078060962 -0.098206989 0.88133335 2.047572e-38
-0.073272109 -0.097737424 0.88142872 1.9740271e-38
-0.068040006 -0.097440004 0.88200009 1.376218e-38
-0.063000008 -0.097440004 0.88200009 9.9587087e-39
-0.057938099 -0.097403497 0.88166678 1.3941034e-38
-0.052960634 -0.097514294 0.88266671 5.1714275e-39
-0.047879368 -0.097440645 0.88199997 4.5292909e-39
-0.042791434 -0.097330481 0.88100004 9.6843036e-39
-0.037762329 -0.098182239 0.88111115 9.5013641e-39
-0.03295701 -0.098633215 0.88085723 1.7050156e-38
-0.089676194 -0.09470477 0.88000005 1.4414025e-38
-0.07961905 -0.09470477 0.88000005 1.8174809e-38
-0.072914287 -0.09470477 0.88000005 2.0381714e-38
-0.067885719 -0.09470477 0.88000005 1.4225012e-38
-0.062508576 -0.094393343 0.88100004 1.1730788e-38
-0.057828575 -0.09470477 0.88000005 1.4680371e-38
-0.052800007 -0.09470477 0.88000005 9.3173036e-39
-0.047771435 -0.09470477 0.88000005 9.6027943e-39
-0.04274286 -0.09470477 0.88000005 9.4213009e-39
-0.037714288 -0.09470477 0.88000005 6.4729409e-39
-0.10224763 -0.022628574 0.88000005 1.4015158e-38
-0.09839239 -0.016594289 0.88000005 1.383114e-38
-0.032685716 -0.015923811 0.88000005 3.0311011e-39
-0.028624764 -0.016838096 0.88400006 1.1257242e-38
-0.097641371 -0.012819048 0.88057154 1.3277223e-38
-0.093920484 -0.011739525 0.88050002 1.0693575e-38
-0.03247619 -0.012361906 0.88000005 5.7141014e-39
-0.029333334 -0.010895239 0.88000005 1.3287419e-38
-0.09721905 -0.0092190485 0.88000005 1.3369751e-38
-0.09309905 -0.0075473017 0.88066673 1.0507708e-38
-0.088626042 -0.0069885715 0.88066673 1.1240591e-38
-0.084647626 -0.0058666673 0.88000005 1.0400472e-38
-0.041066669 -0.0058666673 0.88000005 5.5336281e-39
-0.037183493 -0.0069885715 0.88066673 3.0418714e-39
-0.034039527 -0.0079833344 0.88250005 1.750844e-39
-0.090083815 -0.004209524 0.88400006 9.9563181e-39
-0.086930804 -0.00252254 0.88333338 1.0877927e-38
-0.082879297 -0.0027264289 0.88125002 1.2068927e-38
-0.078314289 -0.0015089525 0.88040012 1.3826758e-38
-0.074590482 -0.00083809532 0.88000005 1.5385412e-38
-0.047806352 -0.00083873025 0.88066673 1.4466083e-38
-0.04280699 -0.0027974606 0.88133335 1.3539463e-38
-0.038187429 -0.0035321906 0.88320011 1.0502078e-38
-0.085032389 0.00084190484 0.88400006 8.3990565e-39
-0.082226038 0.0014031747 0.88400006 1.2260078e-38
-0.077998579 0.0023138097 0.88300002 1.3642706e-38
-0.073043607 0.0025204236 0.88155562 1.5116392e-38
-0.067962863 0.0033571431 0.88100004 1.3919e-38
-0.062881589 0.0033539687 0.88033342 1.179026e-38
-0.057849851 0.0033539687 0.88033342 7.3825714e-39
-0.05263453 0.002726905 0.88075006 1.2345623e-38
-0.048390482 0.0022827212 0.88257152 1.630932e-38
-0.073245719 0.0058933338 0.88400006 1.3461911e-38
-0.0681943 0.0058933338 0.88400006 1.4653618e-38
-0.063048892 0.0058844453 0.88266671 1.263936e-38
-0.058025718 0.0067285723 0.88300008 1.0779786e-38
-0.053328004 0.0065615247 0.88320011 1.1876048e-38
-0.08701048 -0.10559525 0.88700002 1.3028896e-38
-0.082032382 -0.10571429 0.88800001 1.4315249e-38
-0.077893339 -0.10583334 0.88900006 1.4492215e-38
-0.066886671 -0.10668002 0.88900006 6.1877445e-39
-0.062653333 -0.10583334 0.88900006 1.4672136e-38
-0.051646668 -0.10583334 0.88900006 7.1028904e-39
-0.049106672 -0.10583334 0.88900006 6.4593273e-39
-0.080252387 -0.10390572 0.88700002 2.0295123e-38
-0.076873347 -0.10390572 0.88700002 2.0841878e-38
-0.071913347 -0.10321652 0.88833332 1.2736263e-38
-0.06683588 -0.10321651 0.88833332 3.4251196e-39
-0.062088955 -0.10337049 0.88819999 1.338607e-38
-0.057767943 -0.10229429 0.8876667 1.4573458e-38
-0.053038336 -0.10206358 0.88750005 6.45104e-39
-0.049165148 -0.1025541 0.88700002 6.3667575e-39
-0.044209208 -0.10277937 0.88700002 6.8277385e-39
-0.02878667 -0.013546668 0.88900006 1.346998e-38
-0.032173336 -0.006773334 0.88900006 1.006023e-38
-0.029633336 -0.0076200003 0.88900006 1.3472183e-38
-0.091741145 -0.0015205715 0.88700002 9.8638072e-39
-0.088700004 -0.00084476196 0.88700002 1.0139291e-38
-0.042238098 -0.00084476196 0.88700002 1.60291e-38
-0.038072702 -0.0014092065 0.88833332 1.2151159e-38
-0.034148891 -0.0036688894 0.88900012 2.3186963e-39
-0.091234289 0.00084476196 0.88700002 9.2209671e-39
-0.087140642 0.0022571429 0.88833332 8.7617546e-39
-0.082411438 0.0038038096 0.88750005 1.041943e-38
-0.046514288 0.0033838097 0.88800001 1.6579831e-38
-0.043578096 0.0012695239 0.88849998 1.7239863e-38
-0.081562236 0.0070555564 0.88900006 7.6629922e-39
-0.077171668 0.0078240484 0.88800001 9.2313731e-39
-0.07188572 0.0084580956 0.88800001 1.3837218e-38
-0.066811435 0.0084580956 0.88800013 1.6409279e-38
-0.062582865 0.0084580956 0.88800001 1.2445705e-38
-0.058288574 0.0092923818 0.88700002 9.4994808e-39
-0.052856669 0.0088804765 0.88800001 1.1242548e-38
-0.048628099 0.0063433335 0.88800001 1.6580468e-38
-0.066040009 0.011006667 0.88900006 1.4756647e-38
-0.060960002 0.011006667 0.88900006 7.1953453e-39
-0.056726675 0.011006667 0.88900012 6.0947781e-39
-0.051646668 0.011006667 0.88900006 9.9565213e-39
-0.07679572 -0.1073443 0.89100003 7.6677623e-39
-0.07255286 -0.10649572 0.89100003 6.7336833e-39
-0.060248576 -0.10607143 0.89100003 1.7529051e-38
-0.056854289 -0.10607143 0.89100003 1.0967145e-38
-0.053460002 -0.10607143 0.89100003 5.898623e-39
-0.031397145 -0.0093342867 0.89100003 1.2815291e-38
-0.029700002 -0.0093342867 0.89100003 1.4122556e-38
-0.036488574 -0.00084857148 0.89100003 7.0822269e-39
-0.032821719 -0.002210286 0.89280003 8.3045487e-39
-0.029800002 -0.004257143 0.89400005 1.2911064e-38
-0.091464773 0.0031161904 0.89200008 9.4979197e-39
-0.088251434 0.0042428575 0.89100003 8.7628602e-39
-0.042498581 0.003684286 0.8925001 1.7513948e-38
-0.038020361 0.0023382143 0.89212501 1.0128241e-38
-0.034908574 0.0017028572 0.89400005 1.0027552e-40
-0.086652391 0.0076466678 0.89200008 8.2097313e-39
-0.083442867 0.0087685725 0.89100003 8.1171797e-39
-0.050065719 0.0093342867 0.89100003 1.3090073e-38
-0.046748098 0.0085004773 0.8925001 1.5667216e-38
-0.044198573 0.0059500001 0.89250004 1.7058045e-38
-0.085994288 0.011068572 0.89400005 1.1978587e-38
-0.081884295 0.012184286 0.8925001 1.1985694e-38
-0.0773362 0.012749524 0.89233333 9.2274369e-39
-0.07220953 0.012744762 0.89200002 8.6768149e-39
-0.067312658 0.01322041 0.89142859 1.1165754e-38
-0.062188171 0.013213472 0.89099997 9.3039674e-39
-0.056854289 0.013577145 0.89099997 5.8182136e-39
-0.051827502 0.012958215 0.89212501 7.748889e-39
-0.047680005 0.011068572 0.89400005 8.8505493e-39
-0.055342861 0.016177144 0.89400005 5.7299585e-39
-0.051937148 0.016177144 0.89400005 6.2784561e-39
-0.031643812 -0.00085523818 0.89800006 1.4657359e-38
-0.093013339 0.0042666672 0.89600003 9.9603524e-39
-0.03303143 0.0025628575 0.89700001 9.1403952e-39
-0.029933335 0.0017104764 0.89800006 1.3830098e-38
-0.092262864 0.0068352385 0.89700007 1.0046084e-38
-0.089700006 0.0068352385 0.89700007 7.8420235e-39
-0.041645713 0.0079028578 0.89700007 9.7616847e-39
-0.037317462 0.0071225408 0.89733338 2.7598727e-39
-0.087234288 0.011973334 0.89800006 8.5792495e-39
-0.08403556 0.013959366 0.89733338 1.1160284e-38
-0.046733338 0.013300954 0.89685726 8.5753651e-39
-0.042334288 0.011545715 0.89800006 2.6759826e-39
-0.081247628 0.016249524 0.89800006 1.190326e-38
-0.077826671 0.016249526 0.89800012 1.0055407e-38
-0.072320774 0.016926477 0.89760011 7.3860789e-39
-0.067275241 0.017727621 0.89700001 9.1367715e-39
-0.062370591 0.017943494 0.89711118 5.9964532e-39
-0.057434529 0.018149763 0.89675003 3.2284908e-39
-0.052123051 0.017261336 0.89720005 6.0936991e-39
-0.047839049 0.016231429 0.89700007 7.5724081e-39
-0.030924764 0.0042952383 0.90200007 1.4849638e-38
-0.090958104 0.0094390484 0.90100002 7.1009048e-39
-0.035780005 0.0088739693 0.90166676 6.637452e-39
-0.031795241 0.0068749208 0.90233338 1.3473192e-38
-0.086667627 0.01458762 0.90100002 6.6464035e-39
-0.04174 0.013914096 0.9018001 2.5845016e-39
-0.037388574 0.01160381 0.90250009 3.7761981e-39
-0.042951431 0.016321905 0.90200007 3.8763068e-39
-0.032805242 0.0094966674 0.90650004 1.3565757e-38
-0.033614289 0.011204762 0.90500003 1.174127e-38
