# .PCD v0.7 - Point Cloud Data file format
VERSION 0.7
FIELDS x y z rgb
SIZE 4 4 4 4
TYPE F F F F
COUNT 1 1 1 1
WIDTH 826
HEIGHT 1
VIEWPOINT 0 0 0 1 0 0 0
POINTS 826
DATA ascii
0.049740002 -0.17606382 0.82900006 2.0724645e-38
0.052108575 -0.17606382 0.82900006 8.7656039e-39
0.048950478 -0.17369525 0.82900006 1.6795481e-38
0.052883923 -0.17285937 0.82877779 1.392633e-38
0.057108894 -0.17264256 0.82900012 7.0092529e-39
0.060793336 -0.17290573 0.82900006 3.3232396e-39
0.071846679 -0.17132668 0.82900012 5.352572e-39
0.076583818 -0.17132668 0.82900012 4.339869e-39
0.067786261 -0.16794302 0.82900012 1.0519448e-38
0.072138101 -0.16753779 0.82783353 1.1620046e-38
0.077715434 -0.16804326 0.82760012 9.7797405e-39
0.08287821 -0.16812392 0.82877779 1.0518735e-38
0.087780692 -0.16759437 0.82900017 1.3844186e-38
0.092374295 -0.16737905 0.82900017 1.0973242e-38
0.096716672 -0.16816857 0.82900006 9.5921206e-39
0.072847486 -0.16382492 0.82757151 5.4512444e-39
0.078037158 -0.16316731 0.82766676 5.0874673e-39
0.082766674 -0.16316731 0.8276667 5.5455588e-39
0.086922489 -0.16327296 0.82820004 3.2439163e-39
0.092374295 -0.16343144 0.82900012 1.0895236e-40
0.048393335 -0.18008667 0.83300006 9.8270329e-39
0.047193609 -0.17757621 0.83185714 1.9454363e-38
0.053025723 -0.17754382 0.83100003 9.2369825e-39
0.057120003 -0.17691335 0.83300006 1.0258302e-38
0.062673338 -0.17532668 0.83300006 4.7954451e-39
0.047405314 -0.17298873 0.83157146 7.9426564e-39
0.053066991 -0.17029366 0.83166671 4.165909e-39
0.058301918 -0.17200384 0.83100003 1.1797607e-38
0.062720716 -0.17154217 0.83099997 1.0415776e-38
0.067045316 -0.17219228 0.83100003 5.9064758e-39
0.072020009 -0.17332289 0.83100003 5.5387751e-39
0.078034863 -0.1730063 0.83100003 4.8091036e-39
0.083200008 -0.17274001 0.83200002 1.0625631e-38
0.087848574 -0.17174003 0.83100003 1.3847739e-38
0.092652865 -0.17224 0.83150005 5.2567792e-39
0.097345725 -0.17174003 0.83100003 3.1417112e-39
0.10136429 -0.1710519 0.83150005 8.3932201e-39
0.054740004 -0.16898002 0.83300006 4.5246568e-39
0.05817429 -0.16818307 0.83220005 4.811256e-39
0.062795006 -0.16739026 0.83200002 8.3107116e-39
0.066480003 -0.16620001 0.83100003 1.2169974e-38
0.098137148 -0.16620001 0.83100003 1.2447625e-38
0.10129125 -0.16754916 0.83220005 1.1436337e-38
0.064260006 -0.16422001 0.83300006 1.8427916e-40
0.0677481 -0.16362619 0.83200002 5.5426875e-39
0.072406672 -0.16176441 0.8318001 8.0289918e-39
0.077196002 -0.1612086 0.83220005 9.787875e-39
0.083100006 -0.16066001 0.83100003 8.0085314e-39
0.088165149 -0.16129316 0.83100003 2.1192117e-39
0.092671439 -0.16158035 0.83166671 1.475287e-39
0.097254023 -0.16291825 0.83214301 1.0154117e-39
0.082506672 -0.15946001 0.83300006 9.030923e-39
0.088060006 -0.15946001 0.83300006 2.3072001e-39
0.038354289 -0.18697715 0.83900005 2.2591171e-38
0.042349529 -0.18697715 0.83900011 2.0835505e-38
0.046078414 -0.1867108 0.83900011 1.5232128e-38
0.034359049 -0.18378097 0.83900005 6.7494437e-39
0.037534501 -0.18288459 0.83855563 1.5224224e-38
0.04225979 -0.18259463 0.83722216 2.2865236e-38
0.046512794 -0.18229757 0.83585715 1.3273781e-38
0.051469911 -0.1815042 0.83660001 6.5665659e-39
0.055002861 -0.18095145 0.83700001 1.5303498e-38
0.06232572 -0.18138382 0.83900005 9.2208087e-39
0.039153337 -0.17978573 0.83900005 1.393638e-38
0.042460002 -0.17801525 0.83724999 1.7066686e-38
0.054871432 -0.17892858 0.83500004 1.1356389e-38
0.058554292 -0.17885239 0.83650005 1.1443185e-38
0.062899053 -0.17834763 0.83600008 6.2827861e-39
0.06772159 -0.1776706 0.8365556 5.3529489e-39
0.072313339 -0.17730899 0.83700007 5.5387877e-39
0.076969527 -0.17667334 0.83750004 4.6272501e-39
0.080703817 -0.17658953 0.83900005 9.8016203e-39
0.085498102 -0.17658953 0.83900005 1.5232451e-38
0.091816202 -0.17644922 0.83833337 7.4802153e-39
0.097424291 -0.1764843 0.83850002 8.5941299e-39
0.10307716 -0.17658953 0.83900011 1.0171475e-38
0.10803678 -0.17697619 0.83780003 9.88869e-39
0.11253144 -0.17717811 0.83800006 1.1908735e-38
0.11558572 -0.17616858 0.83700001 1.1902015e-38
0.043096192 -0.17478287 0.83800006 1.0682098e-40
0.047349524 -0.17170382 0.83700001 1.5650234e-39
0.088271432 -0.17415717 0.83500004 1.4121787e-38
0.093042865 -0.17415716 0.83500004 4.7154688e-39
0.097814292 -0.17415717 0.83500004 7.5616587e-40
0.1032718 -0.1732863 0.83540004 4.993883e-39
0.10764667 -0.17245373 0.83600008 9.1343598e-39
0.1122122 -0.17270611 0.838 1.0236348e-38
0.11666096 -0.17419238 0.83900005 8.2019625e-39
0.052450862 -0.16803584 0.83700001 1.567159e-39
0.056926668 -0.16600478 0.83599997 1.3852732e-39
0.061233338 -0.16620477 0.83500004 2.5809227e-39
0.10350382 -0.16719811 0.83599997 6.1826367e-39
0.1068181 -0.16899335 0.83700001 9.9669371e-39
0.058232006 -0.16257261 0.83760005 1.9377211e-39
0.062788323 -0.16229083 0.83645457 1.9348485e-39
0.067476913 -0.16142644 0.83599997 1.0699787e-38
0.070776194 -0.16143334 0.83500004 1.1690935e-38
0.098415062 -0.16093925 0.83739996 2.124964e-39
0.10163667 -0.16341239 0.83700001 8.3459375e-40
0.068077862 -0.15751739 0.83850002 8.3026822e-39
0.072525248 -0.1578005 0.83683336 1.0786201e-38
0.077307791 -0.1578005 0.83683324 9.8671324e-39
0.08217112 -0.15716095 0.83766669 5.9002583e-39
0.086965486 -0.15797359 0.83775008 1.756543e-39
0.092467442 -0.15862916 0.83700007 2.7678167e-39
0.096684776 -0.15847778 0.83900011 2.2146611e-39
0.07351239 -0.1542162 0.83900005 9.1427382e-39
0.07670857 -0.1542162 0.83900005 9.5025356e-39
0.082301907 -0.1542162 0.83900005 5.6411918e-39
0.033720002 -0.19027716 0.84300005 1.8176249e-38
0.037332863 -0.19148144 0.84300005 2.2129799e-38
0.042551436 -0.19188288 0.84300011 1.57328e-38
0.046565719 -0.19027716 0.84300005 1.8816229e-38
0.03347981 -0.18694229 0.84100002 1.3099712e-38
0.037244286 -0.18862429 0.84100002 2.0198784e-38
0.04245048 -0.18982574 0.84100002 1.7873006e-38
0.048486672 -0.18713431 0.84150004 1.364939e-38
0.051921502 -0.18648125 0.84242862 8.4893828e-39
0.055397145 -0.18546002 0.84300005 2.144117e-39
0.034481905 -0.18122953 0.84200001 2.8747568e-39
0.03688667 -0.18042859 0.84200001 7.2925604e-39
0.053663813 -0.18341811 0.84100002 7.7478647e-39
0.057242867 -0.18295184 0.84180003 1.0877092e-38
0.062081721 -0.18303905 0.84219998 8.212419e-39
0.067360006 -0.18243381 0.84200001 8.3182086e-39
0.073345721 -0.18152058 0.84260005 3.8868152e-39
0.077475719 -0.18104431 0.84300005 7.2158799e-39
0.08108858 -0.18064287 0.84300005 1.4319512e-38
0.092328578 -0.18064289 0.84300011 1.1010422e-38
0.097145721 -0.18064289 0.84300011 1.7168916e-38
0.10196286 -0.18064289 0.84300011 1.9651717e-38
0.10785048 -0.18064289 0.84300011 1.5517485e-38
0.11306858 -0.18123144 0.84200013 1.3862241e-38
0.11721715 -0.18144572 0.84300005 1.4505151e-38
0.038773656 -0.17836034 0.84233332 6.9317176e-39
0.040897146 -0.17641811 0.84200001 4.3542253e-39
0.078493342 -0.1786124 0.84100002 7.5774836e-39
0.082897723 -0.17814153 0.84180003 1.4501015e-38
0.087748773 -0.17822649 0.84219998 8.3128038e-39
0.092109531 -0.1786124 0.84100002 7.1350755e-39
0.096915245 -0.1786124 0.84100002 1.5235343e-38
0.10252191 -0.1786124 0.84100002 1.9558074e-38
0.10652667 -0.1786124 0.84100002 1.6621761e-38
0.11841398 -0.17775683 0.84200001 1.2921824e-38
0.12123144 -0.17743145 0.84300011 1.6596654e-38
0.043621909 -0.17368478 0.84300011 5.5300843e-40
0.046260636 -0.17140858 0.84233344 1.0161222e-39
0.11467239 -0.17160669 0.84200001 8.3569797e-40
0.11802001 -0.17181143 0.84300005 8.6671964e-39
0.048285529 -0.1679583 0.84219998 2.6763399e-39
0.050993972 -0.16633114 0.84100002 3.2262837e-39
0.10492477 -0.16659811 0.84100002 2.1188432e-39
0.10785572 -0.16759716 0.84200001 7.1048439e-39
0.11240001 -0.16940287 0.84300005 4.2357049e-39
0.052339051 -0.16303478 0.84224999 3.507153e-39
0.055799685 -0.16152541 0.84100002 3.4121029e-39
0.10338429 -0.16228859 0.84150004 2.6763203e-39
0.10597715 -0.16298002 0.84300005 6.8343792e-39
0.053791434 -0.15976858 0.84300005 1.0518488e-38
0.057514928 -0.15863493 0.84266675 1.0703572e-38
0.062510639 -0.15788084 0.84149998 8.2090026e-39
0.06647905 -0.15618573 0.84100002 1.1437248e-38
0.08810477 -0.15618573 0.84100002 4.6867408e-40
0.092109531 -0.15618573 0.84100002 1.3880856e-39
0.097373918 -0.15704934 0.84219998 5.44428e-39
0.10069905 -0.15846953 0.84249997 4.2525947e-39
0.062141147 -0.15430914 0.84300005 1.3003519e-38
0.067375243 -0.1535202 0.84219998 1.2641504e-38
0.072486192 -0.15338241 0.84100002 1.2277371e-38
0.078092866 -0.15338241 0.84100002 1.3097435e-38
0.082562864 -0.15336955 0.8416667 1.0058293e-38
0.087442234 -0.15402603 0.84233332 9.131682e-39
0.092007436 -0.15430914 0.84300005 8.1243067e-39
0.095540009 -0.15495144 0.84300005 7.4885936e-39
0.036342859 -0.19625144 0.84800005 2.2223829e-38
0.033035245 -0.1933724 0.84600008 2.0660107e-38
0.037823811 -0.19394764 0.84500003 2.1385718e-38
0.042755242 -0.19440667 0.84700006 1.5554503e-38
0.047969051 -0.19227716 0.84650004 1.9459074e-38
0.052435245 -0.19118002 0.84700006 2.0570788e-38
0.053114288 -0.18911906 0.84500003 1.909711e-38
0.057415359 -0.1879625 0.84612513 1.0142409e-38
0.062076669 -0.18703763 0.8465001 3.9736368e-39
0.066570714 -0.18679883 0.84725004 1.5513632e-38
0.071878098 -0.18656 0.84800005 1.2556268e-38
0.075108573 -0.18656 0.84800005 1.6248e-38
0.092876196 -0.18656 0.84800005 1.9003842e-38
0.097721919 -0.18656 0.84800005 1.9833869e-38
0.10256763 -0.18656 0.84800005 1.5701506e-38
0.10741334 -0.18656 0.84800005 1.3771825e-38
0.11225905 -0.18656 0.84800005 1.4415077e-38
0.11710477 -0.18656 0.84800005 1.4324028e-38
0.12154668 -0.18696381 0.84800005 1.5241017e-38
0.12712874 -0.18775593 0.84714293 1.6781746e-38
0.067600004 -0.18429048 0.84500003 1.4495492e-38
0.072492152 -0.18445405 0.84575003 7.946594e-39
0.078495815 -0.18390839 0.84619999 1.3485771e-38
0.08323881 -0.18320858 0.84650004 1.3104753e-38
0.088127762 -0.18259254 0.84671432 9.2486918e-39
0.092547625 -0.18348573 0.84500015 1.5972517e-38
0.097376198 -0.18348573 0.84500015 1.9191448e-38
0.10220477 -0.18348573 0.84500015 1.8916868e-38
0.10714274 -0.18332776 0.84585726 1.5792621e-38
0.11145953 -0.18388811 0.84500003 1.4506512e-38
0.11830001 -0.18348573 0.84500015 1.4689148e-38
0.12292739 -0.18247975 0.84500015 1.5777976e-38
0.12687075 -0.18300435 0.84542865 1.6503e-38
0.034604765 -0.17946191 0.84500003 5.2531288e-39
0.037890956 -0.1773605 0.84650004 2.4858586e-39
0.12393335 -0.17946191 0.84500003 1.6411523e-38
0.042277418 -0.17245184 0.84671432 1.9359191e-39
0.11669049 -0.1714143 0.84500003 5.4353607e-39
0.044340476 -0.16929859 0.84650004 1.2051881e-39
0.046225913 -0.16734669 0.84560007 2.0317062e-39
0.10864286 -0.16658573 0.84500003 1.1158493e-38
0.11165541 -0.16761605 0.84750009 9.414307e-39
0.11786538 -0.16855769 0.84609115 9.7774619e-39
0.048012249 -0.16361444 0.84628576 6.6380994e-39
0.051236518 -0.16068414 0.84500003 9.973554e-39
0.10381429 -0.16014762 0.84500003 6.1046923e-39
0.10769747 -0.16221589 0.84600008 1.0706493e-38
0.053508259 -0.15837494 0.84700006 1.0897245e-38
0.056634448 -0.15648399 0.84549999 1.4578344e-38
0.098180965 -0.15531906 0.84500003 8.6870752e-39
0.10271729 -0.15677743 0.84542871 9.1466702e-39
0.10610834 -0.15774882 0.84725004 1.0251583e-38
0.058044292 -0.15398239 0.84650004 1.3826501e-38
0.061831031 -0.15186913 0.84628588 1.3566392e-38
0.066392861 -0.15089288 0.84500003 1.3557439e-38
0.072192661 -0.15163919 0.84628588 1.1815803e-38
0.077758782 -0.15148559 0.84671432 1.171855e-38
0.0829482 -0.15124117 0.84560007 1.2273177e-38
0.087771915 -0.15138429 0.84549999 1.1080323e-38
0.093013071 -0.1520234 0.84714293 1.199857e-38
0.097058818 -0.15344214 0.84575003 1.0343701e-38
0.067032389 -0.14940953 0.84800005 1.0617909e-38
0.071878098 -0.14940953 0.84800005 9.9770068e-39
0.083992384 -0.14940953 0.84800005 1.227324e-38
0.08803048 -0.14900573 0.84800005 9.5991173e-39
0.092068575 -0.14940953 0.84800005 1.1080356e-38
0.033809528 -0.20150477 0.85200012 2.2590806e-38
0.038166985 -0.20193398 0.8526668 1.9172416e-38
0.043073654 -0.20154986 0.85333341 1.6218885e-38
0.047986671 -0.20089334 0.85400003 1.7155947e-38
0.052866675 -0.20089334 0.85400003 2.323257e-38
0.12688001 -0.20170668 0.85400003 9.4212939e-39
0.033454154 -0.19807021 0.8508572 2.2865598e-38
0.038047623 -0.19806352 0.85000002 1.9635854e-38
0.042955242 -0.19775715 0.85100007 1.5485273e-38
0.04787514 -0.19717801 0.85200012 1.7059496e-38
0.05281207 -0.19743557 0.85311121 2.2958152e-38
0.057514291 -0.19717525 0.85400003 1.0604822e-38
0.062301338 -0.19666402 0.85400003 6.7656568e-39
0.065880008 -0.19601335 0.85400003 1.6344707e-38
0.12322001 -0.19642001 0.85400003 5.0814207e-39
0.12782143 -0.19732194 0.85350007 1.1716474e-38
0.05266159 -0.19362795 0.8506667 2.3232941e-38
0.057543814 -0.19289431 0.85100001 1.1151514e-38
0.062415242 -0.19210923 0.85111117 6.195624e-39
0.067366995 -0.19236001 0.85222232 1.5605771e-38
0.072273657 -0.19246034 0.8526668 4.7172345e-39
0.076956749 -0.19210343 0.85314298 7.6677917e-39
0.082146674 -0.19194667 0.85400003 1.1742194e-38
0.08657001 -0.19142812 0.85350001 1.5054528e-38
0.092663497 -0.19191852 0.85266674 2.0109088e-38
0.097716615 -0.19246075 0.85266674 1.8088691e-38
0.10282363 -0.19265336 0.85280007 1.8915919e-38
0.107875 -0.19238882 0.85325009 1.5609321e-38
0.11296508 -0.19261082 0.85333341 1.071275e-38
0.11777905 -0.19251092 0.85288894 9.0385951e-39
0.12249333 -0.19226055 0.85177785 9.6871847e-39
0.12694831 -0.19244927 0.85057145 1.4670281e-38
0.068000004 -0.18861906 0.85000002 1.7992326e-38
0.0721054 -0.188767 0.8506667 8.9631674e-39
0.077301718 -0.18814896 0.85080004 1.4126432e-38
0.0819543 -0.18825144 0.85200012 1.2837812e-38
0.087272391 -0.18742561 0.85111123 1.2847867e-38
0.092338577 -0.18873 0.85050005 1.9006355e-38
0.097952388 -0.18861906 0.85000008 1.9278841e-38
0.10280954 -0.18861906 0.85000008 1.6800314e-38
0.10773001 -0.18832526 0.85049999 1.3956229e-38
0.11252382 -0.18861906 0.85000008 1.4966839e-38
0.11738097 -0.18861906 0.85000008 1.4411658e-38
0.12304762 -0.18861906 0.85000002 1.6804438e-38
0.1254762 -0.18861906 0.85000002 1.8270533e-38
0.034932382 -0.17872287 0.85300004 5.6150702e-39
0.037083812 -0.17675875 0.85266674 3.3173737e-39
0.038349286 -0.17308739 0.85225004 3.7776344e-39
0.041285716 -0.17080954 0.85000002 2.6763511e-39
0.039446667 -0.16876668 0.85400003 3.2280802e-39
0.042763572 -0.16761453 0.85125005 2.4872922e-39
0.11360319 -0.16649207 0.85000008 8.3948134e-39
0.11697619 -0.16635714 0.85000002 7.5701646e-39
0.044020575 -0.16357411 0.85280007 9.2277998e-39
0.047179434 -0.16132116 0.85120004 1.0617798e-38
0.10928572 -0.16109525 0.85000002 1.0342708e-38
0.11288868 -0.16243501 0.85163647 9.689459e-39
0.11733142 -0.16260687 0.85200006 1.060825e-38
0.048471432 -0.15868413 0.8530001 1.0252218e-38
0.052045718 -0.15730016 0.85200006 1.0158967e-38
0.10849595 -0.15675929 0.85175008 9.6058435e-39
0.11302072 -0.15773977 0.85375005 9.0376534e-39
0.11630668 -0.15860002 0.85400003 7.3771091e-39
0.053638101 -0.15359876 0.85333341 8.5899175e-39
0.057421338 -0.15198819 0.85159999 1.0247071e-38
0.060857147 -0.1501143 0.85200006 1.0436184e-38
0.098338097 -0.15182826 0.85100001 9.973505e-39
0.10256383 -0.15325716 0.85244447 1.0708566e-38
0.058072001 -0.14818935 0.85400003 1.0244452e-38
0.06271857 -0.14837335 0.85250008 1.1539593e-38
0.067400433 -0.1469814 0.85266674 1.0979487e-38
0.07217057 -0.14736159 0.85145462 1.1538502e-38
0.077055573 -0.14761905 0.85166681 1.1531271e-38
0.081718966 -0.14729923 0.85109097 1.1258314e-38
0.087186299 -0.1466606 0.85080004 1.107169e-38
0.092650481 -0.14738858 0.85150009 1.0617489e-38
0.09667334 -0.14866382 0.85300004 1.1259999e-38
0.074013337 -0.14396001 0.85400003 1.4754215e-38
0.078080006 -0.14396001 0.85400003 1.0986436e-38
0.082146674 -0.14396003 0.85400003 1.4572684e-38
0.087026678 -0.14396003 0.85400003 1.273016e-38
0.090280004 -0.14396001 0.85400003 1.3755448e-38
0.036728576 -0.20731334 0.85700005 2.1944009e-38
0.042491429 -0.20592001 0.85800004 1.7509674e-38
0.046577144 -0.20510288 0.85800004 1.5573958e-38
0.12257144 -0.20510288 0.85800004 6.8255721e-39
0.12584001 -0.20510288 0.85800004 8.8588309e-39
0.0377727 -0.20462477 0.85600013 2.0749423e-38
0.041577145 -0.20462477 0.85600007 1.8616002e-38
0.048099052 -0.20299432 0.85600013 1.6599874e-38
0.052990478 -0.20299432 0.85600013 2.0843758e-38
0.057636958 -0.20197296 0.85720009 1.522064e-38
0.062920004 -0.20101716 0.85800004 1.5141621e-38
0.067822866 -0.20020001 0.85800004 1.4875667e-38
0.072725721 -0.20020001 0.85800004 1.2387223e-38
0.11848572 -0.20020001 0.85800004 5.5366549e-39
0.12246262 -0.20206597 0.85724998 6.3681897e-39
0.05788191 -0.19973335 0.85600007 1.0683382e-38
0.062773339 -0.19918987 0.85600013 1.2017831e-38
0.068022482 -0.19754325 0.85640013 1.4594444e-38
0.072640963 -0.19751906 0.85700005 8.8749066e-39
0.077538103 -0.19751906 0.85700005 1.2108857e-38
0.082128391 -0.19740154 0.85720009 1.4781881e-38
0.087434292 -0.19693145 0.85800004 2.0937773e-38
0.092337154 -0.19693145 0.85800004 2.0477875e-38
0.097475432 -0.19740154 0.85720009 2.0110163e-38
0.10167315 -0.19730972 0.85680008 2.1946883e-38
0.10679621 -0.19647239 0.85600013 1.6703954e-38
0.1127703 -0.19698288 0.85680002 6.0951999e-39
0.11782096 -0.19753636 0.8565715 6.0930587e-39
0.12277486 -0.19908117 0.85600007 7.1046673e-39
0.12636191 -0.19973335 0.85600007 5.8182207e-39
0.078262866 -0.19484192 0.85600007 1.1371634e-38
0.082339063 -0.19484192 0.85600013 1.3218087e-38
0.087556578 -0.19418973 0.85600007 1.9375493e-38
0.091306672 -0.19484192 0.85600007 1.9006708e-38
0.11005715 -0.19484192 0.85600007 1.4300021e-38
0.033502858 -0.17813715 0.85800004 1.0968449e-38
0.035137147 -0.17650287 0.85800004 5.1591185e-39
0.035911433 -0.17221716 0.85700005 6.2518076e-39
0.038338576 -0.16762905 0.85650003 4.7871102e-39
0.041577145 -0.16549334 0.85600007 7.095549e-39
0.043257143 -0.16201431 0.85700005 1.0615674e-38
0.04494286 -0.15934287 0.85800004 1.0065318e-38
0.047816385 -0.15650897 0.85680008 9.6976174e-39
0.11250286 -0.15571049 0.85600007 7.9205803e-39
0.049845718 -0.15362287 0.85800004 9.7898088e-39
0.052486986 -0.15256827 0.85666674 9.6979943e-39
0.10284096 -0.15099525 0.85700005 1.2273518e-38
0.10685858 -0.15335381 0.85650003 1.2176907e-38
0.11209524 -0.15367238 0.85600007 9.0412772e-39
0.054684766 -0.14854571 0.85700005 1.2184477e-38
0.057881907 -0.14674287 0.85600007 1.3836792e-38
0.062773339 -0.14592764 0.85600013 1.4762063e-38
0.093752384 -0.14592762 0.85600007 8.5968063e-39
0.097087637 -0.14712827 0.85666674 1.2641933e-38
0.10050858 -0.14953715 0.85800004 1.2638658e-38
0.063737147 -0.14463429 0.85800004 1.3916189e-38
0.067822866 -0.14381716 0.85799998 1.2631537e-38
0.072628848 -0.14280847 0.85685718 1.4395143e-38
0.077265859 -0.14229499 0.85657144 1.0707263e-38
0.082371756 -0.14190637 0.85633343 1.4113142e-38
0.08733239 -0.1420162 0.85700005 1.1909751e-38
0.091412388 -0.14364858 0.85700005 1.2366416e-38
0.081714287 -0.13973144 0.85800004 1.1904002e-38
0.038584765 -0.21591049 0.86200005 2.3132105e-38
0.040226668 -0.21591049 0.86200005 1.9525376e-38
0.037363 -0.21211186 0.86085719 2.0740443e-38
0.041639522 -0.21229906 0.86150002 1.8061016e-38
0.045973338 -0.21098478 0.86200005 2.0104786e-38
0.042180955 -0.20844764 0.86000001 2.0004675e-38
0.047620744 -0.20750859 0.86044449 1.8244008e-38
0.052479528 -0.20746145 0.86100006 1.8995207e-38
0.056897469 -0.20707399 0.86166668 2.1027087e-38
0.11903811 -0.20605907 0.86200005 1.2920808e-38
0.12169857 -0.20693001 0.8605001 6.0905336e-39
0.059790481 -0.20312382 0.86000001 1.4836079e-38
0.063453726 -0.20347734 0.86080009 1.5333816e-38
0.068060011 -0.20336096 0.861 1.4876402e-38
0.072980478 -0.20274618 0.861 1.3492446e-38
0.077678375 -0.20210615 0.86114293 1.4779323e-38
0.082833752 -0.20210615 0.86114293 2.0106581e-38
0.087970719 -0.20239501 0.86124998 1.9833942e-38
0.09266001 -0.20172098 0.86100006 2.0197685e-38
0.097617149 -0.20179874 0.86133337 2.0477142e-38
0.10219619 -0.20160344 0.86120003 1.8729751e-38
0.10789191 -0.20142715 0.86150002 1.0147738e-38
0.11234 -0.20172098 0.861 4.0687163e-39
0.11724001 -0.20250694 0.86085725 6.0030085e-39
0.12040001 -0.20394287 0.86000001 5.6055274e-39
0.084361911 -0.19902858 0.86000001 2.2499329e-38
0.087638102 -0.19902858 0.86000001 2.1947958e-38
0.092552386 -0.19902858 0.86000001 2.167244e-38
0.095828578 -0.19902858 0.86000001 2.1121794e-38
0.10401905 -0.19902858 0.86000001 2.2499297e-38
0.10729524 -0.19902858 0.86000001 1.5036548e-38
0.11139049 -0.19902858 0.86000001 3.1510746e-39
0.032488894 -0.17664129 0.86000001 1.4659809e-38
0.032183811 -0.17322478 0.86100006 1.4659091e-38
0.035219051 -0.17118096 0.86000001 8.3715658e-39
0.032956194 -0.16838859 0.86080009 1.429316e-38
0.036325395 -0.16742319 0.86033338 7.4574946e-39
0.041000001 -0.16317907 0.861 9.4125904e-39
0.043476831 -0.15832001 0.86133337 1.098403e-38
0.045629844 -0.15655811 0.86066675 9.9734826e-39
0.048379373 -0.15251908 0.86100006 9.9752748e-39
0.051659051 -0.15087906 0.86100006 1.0067123e-38
0.10767239 -0.15125553 0.86114293 1.0697234e-38
0.11152001 -0.15251905 0.86100006 7.2820759e-39
0.052226033 -0.14820319 0.86133337 1.0159812e-38
0.056264009 -0.14615737 0.86120003 1.502823e-38
0.098400012 -0.14595905 0.861 1.3283005e-38
0.10251702 -0.14844355 0.86114293 1.2453198e-38
0.058235958 -0.14354071 0.86125004 1.4207158e-38
0.062946104 -0.14212097 0.86060011 1.3929466e-38
0.06798096 -0.1408762 0.86000007 1.3653554e-38
0.072485715 -0.14046668 0.86000001 1.2731667e-38
0.077809535 -0.14005715 0.86000001 1.1448778e-38
0.084361911 -0.14005715 0.86000001 9.6066563e-39
0.087638102 -0.14005715 0.86000001 9.8846613e-39
0.09267538 -0.14235103 0.86114293 1.0430687e-38
0.095940009 -0.14431906 0.86100006 1.0889531e-38
0.06485524 -0.13874096 0.86200005 1.0519672e-38
0.068139054 -0.13874096 0.86200011 1.2817436e-38
0.073299326 -0.13756818 0.86200011 1.3556646e-38
0.077990487 -0.13792001 0.86200011 1.0527176e-38
0.082627214 -0.13747621 0.86142862 9.3224842e-39
0.087808572 -0.13786636 0.86166668 6.5623998e-39
0.043036193 -0.22262953 0.86900008 2.2492864e-38
0.042597145 -0.21737877 0.86566681 1.9176365e-38
0.046940718 -0.21733262 0.86850005 2.1480503e-38
0.052120641 -0.21675336 0.86866665 1.861741e-38
0.056002226 -0.21656033 0.86900008 2.0379561e-38
0.047397148 -0.21307813 0.86550003 2.04714e-38
0.051961269 -0.21278891 0.86600012 1.9451811e-38
0.057214528 -0.21253884 0.86750007 2.1392266e-38
0.061578646 -0.21239227 0.86871433 1.9926104e-38
0.06703715 -0.21104287 0.86900008 1.3496808e-38
0.072002873 -0.21104287 0.86900008 1.6889059e-38
0.07696858 -0.21104287 0.86900008 2.2498253e-38
0.080279052 -0.21104287 0.86900002 2.2040153e-38
0.096831441 -0.21104287 0.86900002 1.8820492e-38
0.11779778 -0.21159463 0.86900008 1.5394273e-38
0.12132896 -0.21170497 0.86900008 6.8252147e-39
0.058490481 -0.20842382 0.86500007 2.1856481e-38
0.062259622 -0.20824592 0.86700004 1.7443544e-38
0.066883504 -0.20808065 0.8670001 1.4232481e-38
0.071754292 -0.20784096 0.86600006 1.4689234e-38
0.077409767 -0.20746264 0.8670001 1.8455335e-38
0.0821812 -0.20752288 0.86725003 1.8913798e-38
0.08681374 -0.20800152 0.8681429 2.1119643e-38
0.09227398 -0.20741621 0.86766672 1.9372972e-38
0.097232074 -0.20741621 0.86766678 2.1394406e-38
0.10212167 -0.20734765 0.86825001 2.0384906e-38
0.10746573 -0.20666765 0.86800003 7.380157e-39
0.11280597 -0.20702168 0.86775005 1.143995e-38
0.11721022 -0.20810084 0.86757153 1.6691097e-38
0.10462382 -0.20348096 0.86500007 2.1204263e-38
0.10709524 -0.20348096 0.86500007 9.8790505e-39
0.037183177 -0.16609621 0.86766672 6.3533009e-39
0.040946987 -0.16131589 0.86566675 9.4165561e-39
0.041666262 -0.15757784 0.86757153 9.234271e-39
0.045309525 -0.15570001 0.86500007 1.0156436e-38
0.043424763 -0.15343429 0.86850005 9.7899167e-39
0.046032194 -0.15228514 0.86620009 1.0159334e-38
0.04734708 -0.14842029 0.86785722 1.0065342e-38
0.051517144 -0.14631048 0.86550003 9.6044702e-39
0.10344858 -0.14631049 0.86550003 9.045879e-39
0.10734286 -0.14780033 0.8670001 6.3680103e-39
0.052422285 -0.14403792 0.8682 9.9744046e-39
0.056616195 -0.14179181 0.86660004 1.3006105e-38
0.060138099 -0.14087144 0.86500007 1.2476304e-38
0.094847627 -0.1418581 0.86600006 9.8850466e-39
0.09819524 -0.14275281 0.86642867 8.1293542e-39
0.10195525 -0.14301208 0.86800003 6.0024143e-39
0.10634906 -0.14441954 0.86900002 4.5244634e-39
0.058164131 -0.13920859 0.86833334 1.2631129e-38
0.062152386 -0.13813858 0.86725008 9.5086691e-39
0.066882864 -0.13706668 0.86700004 1.1533384e-38
0.071341433 -0.13649762 0.86600006 1.3746036e-38
0.078261912 -0.1359286 0.86500013 1.1439622e-38
0.084028579 -0.13592859 0.86500007 6.2715113e-39
0.087323815 -0.13592859 0.86500007 3.422799e-39
0.092453584 -0.13785262 0.86675006 4.3422106e-39
0.096279696 -0.13876414 0.86900008 3.2351946e-39
0.072002858 -0.13490191 0.86900008 1.4940584e-38
0.07696858 -0.13490191 0.86900008 1.3281787e-38
0.08110667 -0.13490191 0.86900002 1.2067156e-38
0.047945719 -0.22698002 0.87300003 2.0836214e-38
0.051548574 -0.22864287 0.87300003 2.2955242e-38
0.046766669 -0.22275905 0.87166679 2.2031149e-38
0.052380007 -0.22199146 0.87300003 2.0928768e-38
0.057368577 -0.22088288 0.87300003 2.2215922e-38
0.060694288 -0.22032858 0.87300003 2.212444e-38
0.048941907 -0.21982382 0.87100005 2.0007185e-38
0.052260008 -0.21982382 0.87100005 1.9728803e-38
0.057651911 -0.21816477 0.87100005 2.258901e-38
0.062285721 -0.21758573 0.8720001 2.2774121e-38
0.066930003 -0.21658716 0.87300003 1.7353254e-38
0.07233429 -0.21700287 0.87300003 1.9468046e-38
0.077322863 -0.21766801 0.87300009 2.1671647e-38
0.082311444 -0.21700287 0.87300009 1.6980268e-38
0.087300003 -0.21617144 0.87300009 1.7259635e-38
0.092288576 -0.21672574 0.87300009 2.2406775e-38
0.09727715 -0.21783432 0.87300009 2.0380935e-38
0.10226572 -0.21700287 0.87300009 8.6668951e-39
0.1072543 -0.21534002 0.87300003 5.2557759e-39
0.11257543 -0.21600516 0.87300009 1.5029089e-38
0.11679067 -0.21746917 0.87220013 6.8331027e-39
0.063873336 -0.21401715 0.87100005 1.8364189e-38
0.067523241 -0.21385126 0.87100011 1.7722397e-38
0.072168574 -0.21401715 0.87100017 1.808548e-38
0.077145718 -0.21401715 0.87100017 2.1579524e-38
0.082122862 -0.21318765 0.87100017 2.1027682e-38
0.087132707 -0.2124397 0.87133348 2.0294175e-38
0.092374019 -0.21285348 0.8715716 2.1120362e-38
0.097054295 -0.21366164 0.87100017 2.0292025e-38
0.10182405 -0.21298026 0.87100017 1.6051731e-38
0.10708985 -0.21252128 0.87166679 4.5311196e-39
0.11198573 -0.21235812 0.87100017 1.7157808e-38
0.11640985 -0.21374068 0.87100017 1.3834505e-38
0.12028096 -0.21484669 0.87100005 4.713699e-39
0.10369048 -0.20986953 0.87100005 1.5497246e-38
0.10700858 -0.20986955 0.87100005 6.1808837e-39
0.1111562 -0.20986953 0.87100005 1.1624358e-38
0.034010477 -0.16590476 0.87100005 1.3738148e-38
0.037328579 -0.16507524 0.87100005 5.9859729e-39
0.03863905 -0.16245048 0.87250006 3.7876901e-39
0.040646669 -0.15512097 0.87100005 6.6489594e-39
0.04207715 -0.15197653 0.8720001 7.5698129e-39
0.044065718 -0.14882572 0.87300003 7.1163906e-39
0.047309052 -0.14608049 0.87150002 9.8788459e-39
0.049054287 -0.14300573 0.87300003 9.0506098e-39
0.052332003 -0.14204325 0.87220001 9.9754542e-39
0.055578098 -0.14018953 0.87100005 1.1620616e-38
0.098713338 -0.14018953 0.87100005 4.6066412e-39
0.10203143 -0.14074254 0.87100005 4.1499846e-39
0.10713144 -0.14228731 0.8720001 5.6243636e-39
0.11045334 -0.14284095 0.87200004 7.8387991e-39
0.054042861 -0.13884859 0.87300003 8.3088577e-39
0.05725842 -0.13720033 0.87133348 1.1078876e-38
0.061870001 -0.13578239 0.87200004 1.19939e-38
0.067191437 -0.13521239 0.87100005 1.669159e-38
0.083781913 -0.13521239 0.87100005 6.8135658e-39
0.087100014 -0.13521239 0.87100005 1.2033398e-39
0.091457143 -0.13552287 0.87300003 1.9387497e-39
0.097469054 -0.1372862 0.87100005 2.9554015e-39
0.10108032 -0.13818827 0.87233341 4.0588694e-39
0.064020008 -0.13302858 0.87300003 1.6412876e-38
0.06726858 -0.13287525 0.8720001 1.7332313e-38
0.07202334 -0.13221428 0.87175012 1.7514834e-38
0.077212147 -0.13221428 0.87175012 1.6687658e-38
0.082020558 -0.13258463 0.87242866 1.1714893e-38
0.087300003 -0.13344429 0.87300003 4.7953246e-39
0.054352384 -0.23162478 0.87800002 2.0566126e-38
0.057697147 -0.23162478 0.87800002 2.1947962e-38
0.062714294 -0.23162478 0.87800002 1.9642739e-38
0.049166668 -0.22666669 0.87500006 1.9000958e-38
0.052817691 -0.22735812 0.87628585 2.0373445e-38
0.057675879 -0.22819334 0.87766677 2.1939672e-38
0.062714294 -0.22828004 0.87800014 1.6585228e-38
0.06661652 -0.2271651 0.87800002 2.2589352e-38
0.049166668 -0.22416668 0.87500006 1.8793566e-38
0.052500002 -0.22416668 0.87500012 1.9918225e-38
0.057913341 -0.22380745 0.87620002 2.1852528e-38
0.062788695 -0.22299653 0.87612504 2.0464938e-38
0.067407385 -0.22267453 0.87650001 2.1394417e-38
0.07243865 -0.22256872 0.87714297 1.5973083e-38
0.077720478 -0.22230051 0.87750006 1.5424937e-38
0.082736678 -0.22230051 0.87750006 1.4691303e-38
0.087800011 -0.2224267 0.87800014 1.505649e-38
0.09281715 -0.22225945 0.87800008 1.7630169e-38
0.097722866 -0.2230105 0.87700009 1.3012139e-38
0.10251293 -0.22256875 0.87714297 6.0930517e-39
0.10745049 -0.22200859 0.87800002 6.4625601e-39
0.11288573 -0.22159049 0.87800002 5.5424059e-39
0.06750001 -0.21916668 0.87500012 1.7072379e-38
0.072500005 -0.21916668 0.87500012 2.0383407e-38
0.077500008 -0.21916668 0.87500006 2.1856418e-38
0.083333343 -0.21916668 0.87500006 1.3128244e-38
0.087500006 -0.21916668 0.87500012 1.7167354e-38
0.091666669 -0.21916668 0.87500006 2.259114e-38
0.10333334 -0.21916668 0.87500006 2.9706294e-39
0.10750001 -0.21833335 0.87500012 6.1805908e-39
0.11208335 -0.21875001 0.87500006 6.0005072e-39
0.034205716 -0.16268383 0.87600005 9.5872651e-39
0.036524571 -0.16227697 0.87560004 7.3703213e-39
0.033726353 -0.15748256 0.87800002 1.1159282e-38
0.037541591 -0.1576813 0.87599999 6.0821468e-39
0.037628576 -0.15427715 0.87800002 7.4675826e-39
0.040973336 -0.15135048 0.87800002 5.9989657e-39
0.043710165 -0.14783716 0.87700003 6.5560842e-39
0.045833338 -0.14583334 0.87500006 8.3069842e-39
0.047114424 -0.14254029 0.87671435 6.4660325e-39
0.05166667 -0.14083335 0.87500006 8.4985305e-39
0.10416667 -0.14083335 0.87500006 4.333664e-39
0.10852049 -0.14107478 0.87650001 7.4671622e-39
0.11121334 -0.14131621 0.87800002 8.8514965e-39
0.048721593 -0.13892731 0.87700003 6.6508161e-39
0.052590009 -0.13801253 0.87650001 7.0177728e-39
0.056762382 -0.1360662 0.87650001 8.0418809e-39
0.094166674 -0.13583334 0.87500006 2.1249472e-39
0.097500011 -0.13583335 0.87500012 2.7724494e-39
0.10309239 -0.13773429 0.87650001 4.4262142e-39
0.10774763 -0.13864954 0.87700003 7.3764029e-39
0.11121335 -0.13797143 0.87800002 1.0231193e-38
0.054352384 -0.13462667 0.87800002 9.1339521e-39
0.057936061 -0.13343212 0.87800014 1.4932e-38
0.06208422 -0.13239007 0.87585717 1.5947172e-38
0.06750001 -0.13083336 0.87500012 1.7048888e-38
0.07416667 -0.13083334 0.87500006 1.8345756e-38
0.077500008 -0.13083334 0.87500006 1.806846e-38
0.083333343 -0.13083334 0.87500006 1.3098771e-38
0.087500006 -0.13150001 0.87500012 8.3022114e-39
0.092529528 -0.13304834 0.87725008 3.1376348e-39
0.096998096 -0.13462667 0.87800002 2.6802524e-39
0.063829213 -0.12905207 0.87800002 1.5206046e-38
0.067940481 -0.12814619 0.87800014 1.622132e-38
0.072665729 -0.12778954 0.87700009 1.7699246e-38
0.077677146 -0.12778954 0.87700009 1.8343953e-38
0.08268857 -0.12778954 0.87700009 1.6043058e-38
0.087242544 -0.12849462 0.87800014 1.2081547e-38
0.09114477 -0.12960953 0.87800002 9.6941533e-39
0.071076192 -0.12459239 0.87800002 1.7703663e-38
0.07156191 -0.23657526 0.88400006 1.8628911e-38
0.067920841 -0.23226924 0.88044453 2.1664527e-38
0.073190488 -0.23303302 0.88333333 2.295778e-38
0.078238733 -0.23219113 0.88333338 1.8820477e-38
0.082226038 -0.23208509 0.88400006 1.5148376e-38
0.086295247 -0.23194477 0.88400006 1.4876092e-38
0.092976674 -0.23244479 0.88349998 1.1630322e-38
0.097225152 -0.23190479 0.88160008 5.5448329e-39
0.069142856 -0.22754288 0.88000005 2.2126598e-38
0.07312382 -0.22733335 0.88000005 2.0294124e-38
0.077982642 -0.2272394 0.88044447 1.4413662e-38
0.082879774 -0.22723836 0.88125002 1.4416504e-38
0.087638736 -0.22764257 0.88200009 1.4783514e-38
0.092881344 -0.22775869 0.88180012 1.4778143e-38
0.098093659 -0.22804861 0.88033342 6.921348e-39
0.10308573 -0.22712386 0.88000011 6.7380582e-39
0.10733762 -0.22641385 0.88050008 6.8309503e-39
0.11088001 -0.22596002 0.88200003 7.4741659e-39
0.093028575 -0.22377144 0.88000005 1.5518248e-38
0.10895239 -0.22377144 0.88000005 6.9224522e-39
0.11146668 -0.22377144 0.88000005 6.5522278e-39
0.033523813 -0.1600762 0.88000005 1.124893e-38
0.034361906 -0.15504763 0.88000005 1.0878336e-38
0.034518097 -0.15238477 0.88400006 1.069183e-38
0.03775619 -0.15165667 0.88100004 7.8363469e-39
0.041066669 -0.15001906 0.88000005 4.8991034e-39
0.038316738 -0.1471418 0.8828572 9.4922599e-39
0.04198318 -0.14694318 0.88166678 8.6769396e-39
0.039480001 -0.14196001 0.88200003 5.7313444e-39
0.043304496 -0.1426324 0.88171434 1.253833e-38
0.044469528 -0.13928096 0.88100004 1.3375975e-38
0.047629286 -0.13722166 0.88125002 1.014451e-38
0.051961906 -0.13660954 0.88000005 5.4537303e-39
0.10320286 -0.13592477 0.88100004 4.5184084e-39
0.10672097 -0.13613176 0.8823334 6.4566102e-39
0.11028953 -0.13638857 0.88400006 1.1430418e-38
0.049672384 -0.13386287 0.88400006 1.1882519e-38
0.052883245 -0.13262764 0.88140005 1.0507477e-38
0.056990482 -0.13158096 0.88000005 1.5856062e-38
0.09470477 -0.13158096 0.88000005 3.5996863e-39
0.098180965 -0.13230456 0.88111115 2.6799034e-39
0.10192001 -0.13271746 0.88200009 3.8737677e-39
0.054723814 -0.12881143 0.88400006 1.4470361e-38
0.058100443 -0.12787984 0.88181818 1.5387916e-38
0.062178507 -0.1273524 0.88057148 1.5293867e-38
0.066209525 -0.12655239 0.88000005 1.5573749e-38
0.089308098 -0.12662333 0.88050008 7.5557929e-39
0.093003102 -0.12806121 0.88174999 6.1818366e-39
0.096819051 -0.12881143 0.88400006 1.0204087e-39
0.063478917 -0.12347838 0.88200015 1.482755e-38
0.068000793 -0.1225678 0.88150001 1.6310586e-38
0.073172823 -0.12230737 0.88127285 1.760386e-38
0.078075707 -0.12256716 0.88150001 1.7604957e-38
0.082744762 -0.12322858 0.88155556 1.7233335e-38
0.086798742 -0.12347747 0.88200009 1.5668905e-38
0.090083815 -0.12376001 0.88400006 9.668745e-39
0.069878101 -0.11870858 0.88400006 1.631382e-38
0.073494293 -0.23737811 0.88700002 1.8917676e-38
0.077211246 -0.23670231 0.88700002 2.0380943e-38
0.081604004 -0.23636439 0.88700002 1.7900255e-38
0.087482862 -0.23624477 0.88750005 1.4494717e-38
0.091234289 -0.23653334 0.88700002 1.2079769e-38
0.083631434 -0.23399906 0.88700002 1.4781038e-38
0.087855242 -0.23399906 0.88700002 1.5057641e-38
0.090389527 -0.23399906 0.88700002 1.4778197e-38
0.034635242 -0.15121239 0.88700002 1.0693617e-38
0.034687307 -0.1480543 0.88833344 1.1064557e-38
0.036324766 -0.14783335 0.88700002 1.0782238e-38
0.039140638 -0.14332795 0.88700002 7.1910251e-39
0.041393336 -0.14276478 0.88700002 1.0816092e-38
0.039703812 -0.13854097 0.88700002 2.9680735e-39
0.043139461 -0.13787253 0.88814288 1.0988642e-38
0.046461906 -0.13600667 0.88700002 1.7880219e-38
0.048468575 -0.13272731 0.8876667 1.373462e-38
0.05153048 -0.1309381 0.88700002 1.2619996e-38
0.10306096 -0.1309381 0.88700002 3.689745e-39
0.10736604 -0.13357207 0.8876667 8.3926848e-39
0.049953338 -0.12954001 0.88900006 1.2438089e-38
0.052997783 -0.12798381 0.88800013 1.3453661e-38
0.055816196 -0.12601143 0.88800001 1.5301488e-38
0.093768574 -0.12586953 0.88700002 3.2172944e-39
0.09725716 -0.12742001 0.88800001 4.0541947e-39
0.10196667 -0.12904382 0.88849998 6.632071e-39
0.057878777 -0.12361483 0.88814288 1.4184722e-38
0.061736196 -0.12135953 0.88800001 1.4830086e-38
0.065046668 -0.12080096 0.88700002 1.5835264e-38
0.083631434 -0.12080096 0.88700002 1.8526893e-38
0.087482862 -0.12129144 0.88750005 1.6502993e-38
0.092286676 -0.12389557 0.88900012 4.7820922e-39
0.061806671 -0.11938001 0.88900012 1.4926968e-38
0.066811435 -0.11839905 0.88800001 1.5759932e-38
0.072142676 -0.11809772 0.88700002 1.6955566e-38
0.077140011 -0.11794192 0.88728577 1.649859e-38
0.08177644 -0.11769834 0.88750005 1.4842642e-38
0.086311907 -0.1184662 0.88849998 1.1054202e-38
0.034791432 -0.14510572 0.89100003 1.3554533e-38
0.036488574 -0.14510572 0.89100003 1.3262528e-38
0.04497429 -0.13492286 0.89100003 1.2008146e-38
0.046208572 -0.13295716 0.89300007 1.2916397e-38
0.10776858 -0.13152859 0.89100003 9.1313302e-39
0.048477143 -0.12842003 0.89300007 1.0420568e-38
0.050687622 -0.12714478 0.89200008 1.2440932e-38
0.099450007 -0.12579858 0.89250004 1.1154588e-38
0.10285001 -0.12693194 0.8925001 1.0598219e-38
0.10742915 -0.12915258 0.89099997 1.0418482e-38
0.052852005 -0.12354686 0.89220011 1.2906554e-38
0.056212574 -0.1214263 0.89160007 1.4193328e-38
0.092402868 -0.12201201 0.89340001 8.7439188e-39
0.096561909 -0.12431239 0.89200008 9.0226539e-39
0.057800002 -0.11899857 0.89250004 1.3553383e-38
0.062423576 -0.11762501 0.89175004 1.4746506e-38
0.067262858 -0.11664572 0.89400005 1.5667372e-38
0.07220763 -0.11638477 0.89200008 1.6407469e-38
0.076371431 -0.11625429 0.89100003 1.576713e-38
0.084008574 -0.11625429 0.89100003 1.3179239e-38
0.087975726 -0.11772429 0.89250004 1.068398e-38
0.068114288 -0.11494286 0.89400005 1.5764259e-38
0.072371438 -0.11494287 0.89400005 1.585502e-38
0.077392392 -0.11396286 0.89300007 1.5395511e-38
0.082138292 -0.11410743 0.89280003 1.5027478e-38
0.085994288 -0.11494286 0.89400005 1.4021963e-38
0.043617144 -0.13085143 0.89800006 7.3018636e-39
0.045829214 -0.13122605 0.89666671 9.5973601e-39
0.046735562 -0.12738256 0.89766681 7.479722e-39
0.050346669 -0.12544 0.89600003 1.078754e-38
0.10410668 -0.12544 0.89600003 1.1699165e-38
0.10764001 -0.12643334 0.89700007 1.1431904e-38
0.048748575 -0.1231543 0.89800006 1.0324812e-38
0.051503178 -0.12150255 0.8963334 9.8713517e-39
0.094151124 -0.1208889 0.89600009 1.2161921e-38
0.097885415 -0.12207144 0.89633334 1.5392036e-38
0.10193 -0.12201621 0.8975001 1.4647257e-38
0.10604953 -0.12229906 0.89800012 9.8667443e-39
0.053024765 -0.1188781 0.89800006 9.1380915e-39
0.057259686 -0.11764954 0.89733338 1.1439001e-38
0.062006861 -0.11598554 0.89680004 1.4194059e-38
0.06570667 -0.11520001 0.89600003 1.4922989e-38
0.089097783 -0.11585461 0.89666671 1.131355e-38
0.092690483 -0.1183181 0.89700007 1.2621826e-38
0.09749715 -0.1188781 0.89800006 1.6402947e-38
0.10177334 -0.11887811 0.89800012 1.262689e-38
0.06414286 -0.11374667 0.89800006 1.1618732e-38
0.06784495 -0.11296115 0.89720005 1.3187826e-38
0.072614297 -0.11276478 0.89700007 1.4567187e-38
0.077380575 -0.11120229 0.89680004 1.7608548e-38
0.083338574 -0.11240048 0.89750004 1.1900096e-38
0.086885087 -0.11309206 0.89733338 9.5044736e-39
0.042118419 -0.12807652 0.90255558 5.5358086e-39
0.045479052 -0.12614001 0.90100002 5.4564993e-39
0.043860003 -0.12384 0.90300006 5.6301342e-39
0.046733748 -0.12253974 0.90157151 1.0419893e-38
0.048410483 -0.11887842 0.90233344 1.1340036e-38
0.052148443 -0.11717893 0.9018572 1.1158478e-38
0.057094291 -0.1163362 0.90150005 1.0060055e-38
0.093029529 -0.11650064 0.90166676 1.3169972e-38
0.097072393 -0.11682954 0.90200007 1.5846142e-38
0.10222667 -0.11682953 0.90200007 9.3028632e-39
0.10554572 -0.11927525 0.90100002 1.1521228e-38
0.058111433 -0.11290573 0.90300006 9.5962208e-39
0.06251286 -0.11235048 0.90224999 9.228876e-39
0.067360476 -0.11112334 0.90100002 1.1072696e-38
0.0729381 -0.1106943 0.90100002 1.117292e-38
0.079802863 -0.1106943 0.90100002 1.5583145e-38
0.083235241 -0.1106943 0.90100002 9.5880863e-39
0.087942541 -0.11143144 0.90233344 7.2907836e-39
0.09159524 -0.11359067 0.90220016 1.0054046e-38
0.096320003 -0.11438001 0.90300006 1.2358187e-38
0.10148001 -0.11438001 0.90300006 7.7372919e-39
0.067940012 -0.10922001 0.90300006 1.0242982e-38
0.073100001 -0.10922001 0.90300006 8.2301762e-39
0.077400006 -0.10922001 0.90300006 1.5222969e-38
0.083420008 -0.10922001 0.90300006 7.3779611e-39
0.08600001 -0.10922001 0.90300006 4.9023572e-39
0.041719683 -0.1224725 0.90633339 6.4455497e-39
0.043957144 -0.11980477 0.90500003 4.252243e-39
0.047483336 -0.11741191 0.9065001 8.949827e-39
0.052613657 -0.11299206 0.90566677 1.1710242e-38
0.056023814 -0.11204763 0.90500003 1.0790445e-38
0.092654765 -0.11161668 0.90500003 8.8555589e-39
0.097686812 -0.11246968 0.90542871 6.6310144e-39
0.10084286 -0.11290953 0.90500003 5.7180026e-39
0.097718105 -0.10982477 0.90800011 6.3587547e-39
