# .PCD v0.7 - Point Cloud Data file format
VERSION 0.7
FIELDS x y z
SIZE 4 4 4
TYPE F F F
COUNT 1 1 1
WIDTH 170
HEIGHT 1
VIEWPOINT 0 0 0 1 0 0 0
POINTS 170
DATA ascii
-0.025899619 -0.22008972 0.59900004
-0.018899819 -0.22013853 0.59703845
-0.011546244 -0.21981397 0.59622222
-0.0048913336 -0.21904142 0.59770006
-0.023878507 -0.21490654 0.5990001
-0.018774705 -0.21379636 0.59660006
-0.011311328 -0.21387115 0.59702122
-0.0052283751 -0.21362691 0.59844124
-0.01740304 -0.20701116 0.59816134
-0.011536145 -0.20598346 0.5985716
-0.0062742867 -0.20767036 0.59892315
-0.016071809 -0.1991263 0.59840006
-0.012018254 -0.19891135 0.5985834
-0.011909525 -0.19005494 0.59566677
-0.012268764 -0.18444446 0.59532011
-0.017228574 -0.2256943 0.60300004
-0.030820003 -0.21956858 0.60300004
-0.025989735 -0.21958962 0.60044456
-0.018317144 -0.22380097 0.60100007
-0.0011428574 -0.21885715 0.60000002
0.0012269389 -0.21867514 0.60085714
-0.026621643 -0.21344246 0.60163653
-0.0016329252 -0.21441883 0.60014284
0.00090217701 -0.2150486 0.60214293
-0.030740002 -0.20822002 0.60900003
-0.025954105 -0.2068446 0.60408115
-0.020641202 -0.20547213 0.60126084
-0.0085714292 -0.20285715 0.60000002
-0.0030029707 -0.20598473 0.60288101
0.0012954763 -0.20585799 0.60462499
-0.025080001 -0.20098782 0.60400009
-0.020056047 -0.20111102 0.60161549
-0.0092079379 -0.19844899 0.60011107
-0.0050021098 -0.2014107 0.60350013
0.00057809526 -0.20175526 0.60700005
-0.009142858 -0.19485715 0.60000002
-0.037679367 -0.16810796 0.60866666
-0.033411697 -0.16112667 0.60600013
-0.026399642 -0.16125694 0.60257155
-0.018833436 -0.16070853 0.60080451
-0.01146464 -0.16084144 0.60037518
-0.004008125 -0.16098246 0.601551
0.0034406271 -0.1611288 0.60387814
0.008320298 -0.1616872 0.60768753
-0.032975525 -0.15449679 0.60740745
-0.026508342 -0.15385175 0.60504776
-0.019076169 -0.15365022 0.60299987
-0.011328548 -0.15373433 0.60232496
-0.0039030605 -0.15384074 0.60442567
0.0032772338 -0.15397401 0.6070478
0.0076951026 -0.15447579 0.60814285
-0.030639051 -0.14972667 0.60700005
-0.02495105 -0.1487442 0.60740006
-0.018102441 -0.14669617 0.60639024
-0.011225602 -0.14613301 0.60547078
-0.0050238795 -0.14749904 0.60648149
-0.030866193 -0.2067443 0.61150002
-0.029410478 -0.20645383 0.61150002
-0.040158991 -0.16775735 0.61346668
-0.040511075 -0.16137904 0.61388576
0.012310259 -0.16099703 0.6137144
0.016643809 -0.16107751 0.61587501
-0.039055135 -0.15380807 0.61511117
-0.035160534 -0.15204783 0.61300004
0.0042142859 -0.15044795 0.61255556
0.011541906 -0.15363169 0.61653501
0.016914526 -0.15414262 0.61775005
-0.025869418 -0.12633185 0.61888885
-0.018733192 -0.12406603 0.61697549
-0.011124647 -0.12353401 0.61475509
-0.0038261528 -0.12390694 0.61724317
0.00058952387 -0.12556858 0.61900008
-0.017871587 -0.11694405 0.61803997
-0.011159612 -0.11610784 0.61672723
-0.0054377597 -0.11580539 0.61835301
-0.015917145 -0.11024096 0.61900008
-0.011374546 -0.10983429 0.61872733
-0.0061873812 -0.11137453 0.61875004
-0.038074024 -0.12418589 0.6255455
-0.033288851 -0.12377985 0.62436593
-0.026167806 -0.12297935 0.62174994
-0.021847621 -0.12104762 0.62
-0.00059047621 -0.1216381 0.62
0.0037996911 -0.12365694 0.62221617
0.01135134 -0.12416473 0.6270951
0.01614343 -0.12495907 0.62780005
-0.032417081 -0.11644675 0.62639993
-0.026059533 -0.11612964 0.62324995
-0.020359665 -0.1150827 0.62117642
-0.0020088381 -0.11656434 0.6207999
0.0035033447 -0.11608632 0.62451154
0.0080469847 -0.1168417 0.62844449
0.018570477 -0.11621524 0.62900001
-0.039177716 -0.1105842 0.62900001
-0.033207532 -0.10918997 0.62821883
-0.026200417 -0.10874999 0.62556422
-0.019367464 -0.10857069 0.62238884
-0.010799049 -0.10681621 0.62014282
-0.003291799 -0.10842872 0.62311107
0.0031079366 -0.10890027 0.62713343
0.0077876197 -0.11202192 0.62900001
-0.031425238 -0.10445049 0.62849998
-0.026333714 -0.10323571 0.62839997
-0.018988697 -0.10137372 0.62487489
-0.011263324 -0.10135886 0.62240827
-0.0044228239 -0.1014967 0.62560725
0.0019377032 -0.10161334 0.62870592
-0.023362858 -0.094050482 0.62900001
-0.018952383 -0.093696907 0.62665004
-0.01131137 -0.09345752 0.62506121
-0.0041413163 -0.093630232 0.62691182
0.00059904763 -0.09524858 0.62900007
-0.017106328 -0.08646933 0.62864292
-0.011544739 -0.086230829 0.62812519
-0.0053914292 -0.088778868 0.62900001
-0.016573653 -0.081670165 0.62900007
-0.012458191 -0.081337623 0.62889999
-0.038491905 -0.12088715 0.63150001
0.012039049 -0.12138414 0.63200009
-0.039141327 -0.11682154 0.63227779
-0.036200579 -0.11617791 0.63140005
0.011702457 -0.11621866 0.6316452
0.016570047 -0.11555229 0.63163638
-0.039216809 -0.10857636 0.63235295
-0.035848849 -0.10634083 0.63185716
0.0057090474 -0.10757048 0.63100004
0.010776064 -0.10859487 0.63218421
0.017636651 -0.10921576 0.63262075
-0.039345764 -0.10141901 0.63655001
-0.034008652 -0.10106691 0.63362181
-0.026463768 -0.099727057 0.63150007
-0.00160254 -0.10166113 0.63100004
0.0047316765 -0.10098261 0.63130456
0.011014064 -0.10113575 0.63415402
0.01556537 -0.10125611 0.63527286
-0.039126433 -0.094469927 0.63858336
-0.033875294 -0.093751878 0.63510531
-0.026650265 -0.09386865 0.63272232
-0.022235239 -0.090743817 0.63100004
-0.0012019048 -0.093748569 0.63100004
0.0040157004 -0.093603574 0.63271433
0.010318988 -0.094313405 0.63712496
0.016025715 -0.09514001 0.63900006
-0.032757178 -0.086826779 0.63688463
-0.026546437 -0.086327367 0.63453674
-0.020660041 -0.08614172 0.63179177
-0.0078123813 -0.084734291 0.63100004
-0.0031833886 -0.085900977 0.63179427
0.0035178815 -0.08639463 0.63572514
0.0084330626 -0.087199599 0.63900006
-0.032221165 -0.079032071 0.63833344
-0.026619688 -0.078646578 0.63522232
-0.01886633 -0.078440972 0.63311923
-0.010583949 -0.078149058 0.63179415
-0.0037499147 -0.078643434 0.63258982
0.0036403707 -0.078810059 0.63655555
0.0088851433 -0.079236001 0.63900006
-0.023004001 -0.055501718 0.639
-0.041447621 -0.09813334 0.64000005
-0.040838096 -0.094476193 0.64000005
0.012977281 -0.091710076 0.64014292
0.016459789 -0.092053868 0.64011121
-0.03888667 -0.083588578 0.64300001
-0.036391832 -0.085794374 0.64041662
0.011684476 -0.086373582 0.64110011
0.015647238 -0.086913534 0.64180005
-0.036049176 -0.079198547 0.64152634
-0.032704249 -0.058750827 0.64563638
-0.039481841 -0.061921161 0.65207142
-0.036580004 -0.061378732 0.65100002
