# .PCD v0.7 - Point Cloud Data file format
VERSION 0.7
FIELDS x y z
SIZE 4 4 4
TYPE F F F
COUNT 1 1 1
WIDTH 149
HEIGHT 1
VIEWPOINT 0 0 0 1 0 0 0
POINTS 149
DATA ascii
-0.045393337 -0.1261581 0.61900002
-0.041112453 -0.12377584 0.61553657
-0.034454376 -0.12246608 0.61127281
-0.025083674 -0.12283536 0.61148161
-0.018732172 -0.12412976 0.61234158
-0.01111415 -0.1234432 0.61430609
-0.0046510897 -0.12360403 0.61614275
-0.040276721 -0.1165657 0.61655176
-0.033861388 -0.11616995 0.61297637
-0.026278913 -0.11621829 0.61322469
-0.018741885 -0.11655752 0.61502385
-0.011074642 -0.11618466 0.61665094
-0.004038794 -0.11635405 0.6176666
-0.039178304 -0.11004852 0.61792868
-0.034109123 -0.1085877 0.61532497
-0.026322087 -0.10860056 0.61597908
-0.01883558 -0.1088958 0.61807144
-0.011952477 -0.11070391 0.61830008
-0.032820821 -0.10164396 0.61692852
-0.026451498 -0.10140749 0.61727494
-0.020895345 -0.10264265 0.61900002
-0.031626776 -0.096188478 0.61877775
-0.026910398 -0.09624961 0.61874998
-0.00089357147 -0.12902357 0.62575006
-0.054324161 -0.12417208 0.62826324
-0.049036898 -0.12360469 0.6245715
-0.00119127 -0.12582968 0.6261667
0.0005985715 -0.12689668 0.62849998
-0.053871151 -0.11672069 0.62850004
-0.048803791 -0.11640808 0.62669051
-0.043906432 -0.11533391 0.62158334
-0.0032897959 -0.11379321 0.62
-0.047744568 -0.10948592 0.62819999
-0.042361256 -0.10798942 0.62337935
-0.010805306 -0.1079196 0.62042856
-0.0035075948 -0.10862661 0.62276912
0.00076680287 -0.10898097 0.62628579
-0.046336956 -0.10332934 0.6286
-0.041645139 -0.10112469 0.62460524
-0.036180004 -0.10009214 0.62140006
-0.023028573 -0.098609529 0.62
-0.01837752 -0.1006779 0.62130314
-0.011275315 -0.10148817 0.62320399
-0.004940663 -0.10195068 0.62508702
0.00059904763 -0.10483334 0.62900001
-0.040600531 -0.094266526 0.62503999
-0.034034953 -0.093227386 0.62156767
-0.025669245 -0.093163267 0.6220333
-0.019008549 -0.09386602 0.62380546
-0.011325792 -0.093599543 0.62599987
-0.0051212427 -0.094042085 0.62791306
-0.039152492 -0.086381063 0.62736845
-0.033529252 -0.086247057 0.62344444
-0.026172815 -0.086258344 0.62464297
-0.019071452 -0.086416356 0.62578577
-0.011695866 -0.086269744 0.62744737
-0.0065895244 -0.089258105 0.62900001
-0.038907785 -0.07901191 0.62850004
-0.03339709 -0.07871639 0.62616664
-0.026260661 -0.078788929 0.62675005
-0.019092031 -0.079045728 0.62811428
-0.01361256 -0.079884112 0.62831259
-0.038723256 -0.072954372 0.62875009
-0.033427607 -0.071687236 0.62827033
-0.026613547 -0.07167048 0.62800002
-0.019031283 -0.072438695 0.62899995
-0.014377143 -0.071686044 0.62900001
0.0043050908 -0.13135567 0.63317245
0.0086360332 -0.13215683 0.63266665
-0.001004762 -0.12298191 0.63300002
0.0037011849 -0.1237558 0.63434142
0.0093695251 -0.12252801 0.63880008
-0.053527147 -0.1130681 0.63150001
-0.00060285721 -0.11514699 0.63300002
0.0027026844 -0.11695654 0.63600004
-0.053460702 -0.10774106 0.63590914
-0.050676201 -0.1083962 0.63211769
0.0029035457 -0.10817412 0.63772225
-0.052945718 -0.10406572 0.63900006
-0.049177639 -0.10127458 0.63451856
-0.0018064022 -0.10121942 0.63261116
0.0020112824 -0.10270593 0.63753849
-0.047602236 -0.09379223 0.63565636
-0.043614607 -0.092652075 0.63311112
-0.0016640899 -0.093470037 0.63270599
-0.047020432 -0.086504333 0.63784999
-0.042895801 -0.08624965 0.63329411
-0.0081128571 -0.084433816 0.63100004
-0.0035371433 -0.08622136 0.63379496
-0.046463437 -0.078728192 0.63686681
-0.042686619 -0.078686431 0.63215005
-0.019030161 -0.075519696 0.63100004
-0.010187025 -0.078162268 0.63162524
-0.0043047005 -0.078718022 0.63470972
-0.04692043 -0.07165321 0.63815004
-0.041750025 -0.070677154 0.63388896
-0.03425429 -0.067907624 0.63100004
-0.024639051 -0.06850858 0.63100004
-0.018841624 -0.069180235 0.63100016
-0.010685801 -0.070959032 0.63173544
-0.0036967988 -0.071455166 0.63613886
-0.046048574 -0.065522864 0.63900006
-0.041330509 -0.063801222 0.63622516
-0.033756275 -0.063891567 0.63291663
-0.026486082 -0.063805878 0.63205558
-0.018675219 -0.063860662 0.63259518
-0.010796603 -0.063958153 0.63470286
-0.0059518106 -0.063940004 0.63780004
-0.040644396 -0.05648182 0.63816136
-0.033891089 -0.05627659 0.63540488
-0.026578799 -0.056175403 0.63426208
-0.01872074 -0.056164939 0.63416338
-0.010820415 -0.056376807 0.6358462
-0.0058339047 -0.056526292 0.63819999
0.0093170078 -0.12199184 0.6400001
0.0055891671 -0.11596657 0.64300007
0.0079634292 -0.11699887 0.64320004
-0.062325004 -0.10592311 0.64475
-0.057233341 -0.10663068 0.64200002
0.0059773638 -0.10913488 0.64238465
0.0079659056 -0.10845925 0.64340001
-0.062672734 -0.10345403 0.64345461
-0.055557642 -0.10210092 0.64160877
-0.051850006 -0.098819532 0.64050007
0.0040807044 -0.099962763 0.64395666
0.0079898424 -0.09895049 0.64533341
-0.05436857 -0.094142258 0.64311773
-0.051575605 -0.093842983 0.64087498
0.004152996 -0.093554534 0.64612895
0.0088753132 -0.093735971 0.6478461
-0.053956781 -0.086563967 0.64323086
-0.050931484 -0.086034879 0.64172226
0.003252439 -0.086151391 0.64293939
0.008636429 -0.088834047 0.64775002
-0.054342382 -0.077918857 0.64421433
-0.0503751 -0.078834072 0.64166677
-0.00060968258 -0.079259209 0.64016676
0.0029075877 -0.078770705 0.64416683
-0.054413576 -0.07311143 0.64375007
-0.05007261 -0.07081715 0.64070588
-0.0018288097 -0.067988336 0.64025003
0.0025647187 -0.071389914 0.6431365
-0.053691432 -0.061714292 0.648
-0.048817109 -0.063063487 0.64434618
-0.0023608697 -0.06337288 0.64117402
0.0017703082 -0.06375619 0.64482361
0.011761906 -0.095952384 0.65000004
0.0068095243 -0.089761913 0.65000004
-0.05509524 -0.062523812 0.65000004
