# .PCD v0.7 - Point Cloud Data file format
VERSION 0.7
FIELDS x y z
SIZE 4 4 4
TYPE F F F
COUNT 1 1 1
WIDTH 280
HEIGHT 1
VIEWPOINT 0 0 0 1 0 0 0
POINTS 280
DATA ascii
-0.033051603 -0.17481595 0.72709095
-0.026642347 -0.17429174 0.72600007
-0.020412002 -0.17454344 0.72900003
-0.033418909 -0.169091 0.72795004
-0.02638286 -0.16868743 0.72634292
-0.020902434 -0.16899389 0.72888893
-0.0321187 -0.16134953 0.72881824
-0.026289713 -0.16148318 0.72832274
-0.021522859 -0.16385144 0.72900003
-0.031904526 -0.15397264 0.72825015
-0.028537622 -0.15448476 0.72862506
-0.028720004 -0.13693945 0.72840005
-0.038185716 -0.12844287 0.72900003
-0.033353385 -0.13077149 0.72804999
-0.02683777 -0.13057283 0.7268846
-0.020522859 -0.12958273 0.72871435
-0.040071882 -0.12357515 0.72873682
-0.03391372 -0.12388424 0.72668004
-0.026273433 -0.12377273 0.72603339
-0.019782521 -0.12371945 0.72811764
-0.040659059 -0.11604772 0.72830772
-0.033851653 -0.11605807 0.72536683
-0.026215103 -0.11609042 0.72494298
-0.019051943 -0.11587282 0.72653854
-0.014580002 -0.11455715 0.72900003
-0.040221568 -0.10955671 0.72888237
-0.033905372 -0.10862508 0.72648001
-0.026277147 -0.10861462 0.72551614
-0.019045262 -0.10930041 0.72790474
-0.039147038 -0.1019532 0.72900003
-0.033975497 -0.10122439 0.7280001
-0.026875306 -0.10175046 0.72748274
-0.021522859 -0.10483715 0.72900003
-0.033325717 -0.096505724 0.72900003
-0.029854288 -0.096505724 0.72900003
-0.025114764 -0.18068334 0.73250008
-0.02161143 -0.18056001 0.73200005
-0.039163142 -0.17574887 0.7317
-0.036279265 -0.17582679 0.73100001
-0.024577992 -0.17824402 0.73266667
-0.018809181 -0.17523308 0.73145461
-0.014187302 -0.17374542 0.73266673
-0.040423084 -0.16868703 0.73119044
-0.035505716 -0.16778192 0.73100007
-0.017581549 -0.16902943 0.731125
-0.014082287 -0.16870859 0.73199999
-0.04125822 -0.16142516 0.73500001
-0.035596527 -0.16175947 0.7311765
-0.024366669 -0.15803525 0.73100001
-0.018603846 -0.1613721 0.73125023
-0.014028362 -0.16082668 0.73244447
-0.04056504 -0.15634221 0.73614299
-0.035315089 -0.154614 0.73183334
-0.024776191 -0.15353049 0.73100001
-0.018927701 -0.15409762 0.73158354
-0.014207303 -0.15558383 0.73366678
-0.024766194 -0.14963858 0.73250008
-0.020217143 -0.14988574 0.73200005
-0.029936193 -0.13854191 0.73100001
-0.04844005 -0.13073927 0.73709542
-0.041602384 -0.13007791 0.73150003
-0.036433972 -0.13204414 0.73100007
-0.016908575 -0.13153577 0.73145461
-0.011192381 -0.13034417 0.73303711
-0.0051126536 -0.12942587 0.73685724
-0.054211851 -0.12207177 0.73711115
-0.048297904 -0.1238822 0.73488003
-0.043345362 -0.12429155 0.731125
-0.016580289 -0.12456315 0.73149997
-0.011167714 -0.12359004 0.73316687
-0.0038761497 -0.12351598 0.73743498
-0.05456363 -0.11657687 0.73676199
-0.048401542 -0.11631847 0.73417872
-0.043860003 -0.11904858 0.73100001
-0.016012382 -0.11835239 0.73100001
-0.010776087 -0.11672072 0.73288912
-0.0043315585 -0.11607451 0.73622751
-0.053724132 -0.1107327 0.73900002
-0.047849685 -0.10916462 0.73516691
-0.042746097 -0.10749183 0.73100001
-0.017581549 -0.10601299 0.731125
-0.011153387 -0.10876848 0.73211128
-0.0042102383 -0.10884501 0.73735017
0.0021114287 -0.10697906 0.73900002
-0.046655666 -0.10288467 0.736
-0.042386796 -0.10069639 0.73120004
-0.024177009 -0.099195801 0.73128575
-0.018817829 -0.10106269 0.73184013
-0.011022292 -0.101257 0.73515624
-0.0037178241 -0.10120873 0.73871446
0.00070380955 -0.10416381 0.73900002
-0.045747623 -0.091495246 0.73900002
-0.041289177 -0.093764752 0.73476678
-0.034469817 -0.093273878 0.73208702
-0.026200177 -0.093697175 0.7325002
-0.018895213 -0.093775161 0.73483336
-0.011389944 -0.093820155 0.73679417
-0.0046119578 -0.095298089 0.73877776
-0.045747623 -0.089383818 0.73900002
-0.041315239 -0.08649002 0.73733354
-0.03396713 -0.086362071 0.73396558
-0.026634259 -0.086384095 0.73371887
-0.018951427 -0.086334273 0.73700011
-0.012857649 -0.087036818 0.73805892
-0.040207829 -0.079319678 0.73777795
-0.033659443 -0.078531668 0.73624998
-0.025947588 -0.078550838 0.73643339
-0.019381834 -0.079205647 0.7390002
-0.014780002 -0.080938101 0.73900002
-0.038709525 -0.073900007 0.73900002
-0.033589385 -0.071022615 0.73734486
-0.025980499 -0.070926547 0.73736012
-0.020692002 -0.072070099 0.73899996
-0.032039952 -0.064366221 0.73794132
-0.026756003 -0.064996779 0.73806685
-0.053479623 -0.12882821 0.74080008
-0.052857146 -0.1261524 0.74000001
-0.00070476194 -0.12474287 0.74000001
0.002559524 -0.12206068 0.74430007
-0.000704762 -0.11628573 0.74000001
0.0026783599 -0.11648653 0.74327779
-0.055301491 -0.10794947 0.74206245
-0.050911624 -0.10619392 0.74040002
-0.000704762 -0.1092381 0.74000001
0.0021173016 -0.1097154 0.74083328
-0.053917438 -0.10144658 0.74490005
-0.049353335 -0.10045058 0.74194735
-0.00070476194 -0.10289524 0.74000001
0.0021346034 -0.10292699 0.74533337
-0.054423757 -0.093923695 0.74599999
-0.049141392 -0.094032824 0.74237502
-0.0027476191 -0.092773236 0.74299997
-0.053908814 -0.086643584 0.74725008
-0.04889385 -0.086184666 0.74396431
-0.044460002 -0.083273336 0.74100006
-0.0095965611 -0.085348636 0.74338889
-0.0038664832 -0.086431332 0.74388462
0.00071142864 -0.087505721 0.7470001
-0.048129529 -0.080213048 0.74738479
-0.043628316 -0.078034207 0.74427277
-0.016561905 -0.076466672 0.74000001
-0.011073845 -0.078459769 0.74360728
-0.004022948 -0.078686543 0.745619
-0.046304766 -0.074800007 0.74800003
-0.04173404 -0.071412884 0.74369562
-0.037352383 -0.068361908 0.74000001
-0.017906794 -0.070548326 0.74026656
-0.011149467 -0.071243919 0.74469709
-0.0050657145 -0.07138516 0.74735296
-0.041061766 -0.063487798 0.74470365
-0.035725337 -0.06311696 0.74133331
-0.024941469 -0.062111583 0.74176931
-0.019112986 -0.063711926 0.74336678
-0.012524154 -0.063938551 0.74564004
-0.006411429 -0.066251434 0.74800003
-0.040127575 -0.056580283 0.74661911
-0.033063747 -0.056147266 0.74211109
-0.026329774 -0.056202155 0.74285191
-0.019187659 -0.056143839 0.74623996
-0.012812905 -0.056235861 0.74744999
-0.03905021 -0.04921769 0.74742866
-0.033298515 -0.048880305 0.74384004
-0.026256267 -0.048971467 0.74524003
-0.020531431 -0.050080962 0.74766678
-0.038041148 -0.043170288 0.74800009
-0.033383369 -0.041191682 0.74573344
-0.026282322 -0.041205805 0.74596667
-0.020837145 -0.040961914 0.74800009
-0.032919094 -0.033594921 0.74752384
-0.0273437 -0.033791766 0.74747062
-0.022083811 -0.03633143 0.74800003
-0.031344764 -0.029207621 0.74800003
-0.027172247 -0.027782859 0.74800009
0.0045282543 -0.12415873 0.75066674
-0.057220004 -0.10514 0.75100005
-0.05817366 -0.10126078 0.75406682
0.0021479367 -0.10017666 0.75133336
-0.058242861 -0.097071432 0.75500005
0.0027635589 -0.094276659 0.75447369
-0.055714287 -0.084285721 0.75000006
-0.0014285715 -0.083571434 0.75000006
-0.055041377 -0.078628257 0.75055557
-0.050267864 -0.077232145 0.75000006
-0.0016666668 -0.079761907 0.75000012
0.00072126993 -0.077177152 0.7573334
-0.056233838 -0.071152493 0.75466675
-0.048927419 -0.070701092 0.75150007
-0.0017156193 -0.070235625 0.75100005
0.0013554499 -0.070723072 0.75344449
-0.054389276 -0.064277664 0.7560668
-0.048495919 -0.063916467 0.75337505
-0.0085714292 -0.062857144 0.75000006
-0.0034588887 -0.06359335 0.75166672
0.001434381 -0.063818954 0.75290012
-0.053822424 -0.056924548 0.75661546
-0.048281696 -0.056413904 0.7540741
-0.042857148 -0.05428572 0.75000006
-0.0085756201 -0.056457531 0.75040001
-0.0035756191 -0.056506667 0.7510401
0.0012872382 -0.0582061 0.75080007
-0.052699056 -0.04836762 0.75800002
-0.048095889 -0.04870908 0.75610715
-0.04264123 -0.04836477 0.75157148
-0.017219048 -0.048021302 0.7505455
-0.010739841 -0.04869242 0.7519002
-0.0037929588 -0.049040034 0.7541073
0.0007219048 -0.048367623 0.75800002
-0.047652587 -0.041660801 0.75626326
-0.041232649 -0.040641826 0.75227278
-0.018039048 -0.040961906 0.75016677
-0.010756268 -0.040882826 0.75312001
-0.0039870143 -0.04079308 0.75509107
0.0007219048 -0.038260955 0.75800002
-0.045700636 -0.034394607 0.75766671
-0.040887501 -0.033709448 0.75307995
-0.036428574 -0.032857142 0.75000006
-0.024285717 -0.032857142 0.75000006
-0.018481907 -0.033535834 0.75144839
-0.010789523 -0.03381528 0.75548017
-0.0037279367 -0.034033649 0.75766683
0.0014438097 -0.035373334 0.75800002
-0.046355158 -0.026423033 0.75727272
-0.040858973 -0.026519695 0.75256002
-0.033757769 -0.026180131 0.75000012
-0.026135985 -0.025899792 0.75077778
-0.01865454 -0.026548889 0.75346667
-0.010804993 -0.026658097 0.75652015
-0.045780953 -0.021267619 0.75700003
-0.040784396 -0.018898129 0.75503582
-0.033691179 -0.018635051 0.75266689
-0.026535591 -0.018644987 0.75310016
-0.018687142 -0.018687673 0.75472194
-0.011015171 -0.018790549 0.75678581
-0.040090717 -0.011440478 0.75675011
-0.033808153 -0.010788419 0.7552802
-0.026603239 -0.010784343 0.75500005
-0.018719459 -0.010798509 0.7560336
-0.011972063 -0.011491302 0.7573334
0.0039826194 -0.090867862 0.76025003
0.0031486778 -0.086205304 0.76277804
-0.00072730164 -0.078309536 0.76366675
0.003115034 -0.079321973 0.76307148
-0.00072476198 -0.074650481 0.76100004
0.005008149 -0.071647838 0.76333344
0.0086365091 -0.070305079 0.76277781
0.0044579902 -0.064924657 0.76600009
-0.055744089 -0.053882319 0.76014298
-0.054891787 -0.049094882 0.76087511
0.0017044445 -0.047967941 0.76700008
-0.054356456 -0.04071074 0.7646364
-0.050458893 -0.039352544 0.76050007
-0.053762726 -0.035046261 0.76428574
-0.049445122 -0.033941455 0.7616843
-0.00072380959 -0.031123811 0.76000005
0.00072412705 -0.032585084 0.76033342
-0.053531118 -0.026402224 0.76300001
-0.050103407 -0.027019048 0.76085722
-0.0035243025 -0.026248051 0.7620346
0.0010958335 -0.026646312 0.76662499
-0.053990163 -0.017940635 0.76722229
-0.049079385 -0.018497108 0.76296163
-0.044152383 -0.015923811 0.76000005
-0.0079619056 -0.01809524 0.76000005
-0.0038644958 -0.018485373 0.76420003
0.0010969049 -0.020107381 0.76775002
-0.048860464 -0.010936954 0.76564002
-0.043071646 -0.0097414823 0.76077783
-0.0091291433 -0.0098535251 0.76080006
-0.0046033654 -0.011696954 0.76433349
0.0056293658 -0.062399209 0.77083343
0.0080666672 -0.066733338 0.77000004
0.0035997997 -0.056466773 0.7721054
0.0080980957 -0.05815905 0.77300006
0.0024144219 -0.051133331 0.77171433
-0.057933342 -0.040333338 0.7700001
-0.057933338 -0.037400004 0.77000004
0.004312926 -0.024800681 0.77242869
0.011089524 -0.022910479 0.77600002
-0.00073333341 -0.015400001 0.77000004
0.0039113788 -0.018069074 0.77189487
