# .PCD v0.7 - Point Cloud Data file format
VERSION 0.7
FIELDS x y z
SIZE 4 4 4
TYPE F F F
COUNT 1 1 1
WIDTH 213
HEIGHT 1
VIEWPOINT 0 0 0 1 0 0 0
POINTS 213
DATA ascii
-0.011906668 -0.031960003 0.65800011
-0.030706668 -0.0094000008 0.65800005
-0.025866212 -0.011128739 0.65800017
-0.018737797 -0.011363647 0.65765727
-0.025693335 -0.006893334 0.65800005
-0.01655837 -0.004116599 0.65785724
-0.011979526 -0.0058097276 0.65707153
-0.01692 0.0006266667 0.65800005
-0.031729717 -0.070468009 0.66900009
-0.026439577 -0.070137434 0.66614825
-0.019034751 -0.070809796 0.66300005
-0.011599694 -0.070334055 0.66617858
-0.00647562 -0.068944961 0.66660005
-0.025802189 -0.063663214 0.66674072
-0.018985057 -0.063481882 0.66436136
-0.011430423 -0.063534774 0.66711122
-0.0060036737 -0.063037835 0.66857153
-0.031220002 -0.056705717 0.66900003
-0.02566164 -0.055608075 0.6662401
-0.018939953 -0.055922806 0.665865
-0.011527129 -0.055976648 0.66725701
-0.005845455 -0.057468317 0.66845465
-0.025372382 -0.051377147 0.66600001
-0.018510476 -0.049805809 0.66789991
-0.012854727 -0.050096642 0.66715378
-0.0088666677 -0.038633335 0.66500002
-0.003589524 -0.039015558 0.6643334
0.0018926987 -0.038497783 0.66266674
-0.010185579 -0.032923814 0.66285723
-0.0038007142 -0.034178235 0.66458344
0.0027995049 -0.033987772 0.66235989
-0.040245168 -0.018470025 0.66626322
-0.041173887 -0.011313925 0.66644835
-0.034098234 -0.01138781 0.66119993
-0.028285718 -0.011942858 0.66000009
-0.020742858 -0.0081714289 0.66000003
-0.039942503 -0.0043680952 0.66700006
-0.034125742 -0.0037893923 0.66347241
-0.026430426 -0.0036823945 0.66028565
-0.020285716 -0.0035428575 0.65999997
-0.010883982 -0.0024638101 0.66181821
-0.0037939686 -0.00379418 0.66450012
0.0014326193 -0.005406667 0.66800004
-0.039090373 0.0033242332 0.66800004
-0.0341262 0.0037124902 0.66525733
-0.026477942 0.0037849215 0.66188896
-0.01893875 0.0038696867 0.66100013
-0.011367329 0.0037907672 0.66325015
-0.004277973 0.0035863603 0.66664535
-0.033187892 0.011316342 0.66751999
-0.026559873 0.011381614 0.66391683
-0.018925957 0.011355792 0.66241676
-0.011388863 0.011394523 0.66452795
-0.0050331349 0.011235677 0.66779155
-0.032432385 0.017756777 0.66769236
-0.026577357 0.018983919 0.66433352
-0.018943259 0.018946484 0.663028
-0.011401719 0.019008072 0.66530573
-0.005897461 0.0185447 0.66833335
0.010653166 0.019101681 0.66723526
-0.026376424 0.026718823 0.66651535
-0.019021058 0.026633603 0.66577798
-0.012159965 0.026325142 0.66710722
-0.025138289 0.033707049 0.66650003
-0.019028068 0.034253415 0.6660279
-0.013543266 0.033542451 0.66814291
-0.024896668 0.041122384 0.66812491
-0.019061588 0.041304573 0.66719997
-0.013951257 0.041045286 0.6686365
-0.024423812 0.046086669 0.66900009
-0.019846827 0.046170324 0.66866678
-0.014654287 0.045237146 0.66900003
-0.032117464 -0.069552392 0.67000002
-0.031916745 -0.063833423 0.67025006
-0.02942328 -0.063313231 0.67000002
-0.03228762 -0.057428576 0.67000002
-0.029097144 -0.057045717 0.67000002
-0.0082952389 -0.0542381 0.67000002
-0.0057460321 -0.054051753 0.67033339
-0.021057144 -0.047857147 0.67000002
-0.04564286 -0.022500001 0.67500001
-0.046055034 -0.01829651 0.67266667
-0.043281823 -0.020161128 0.67100006
-0.04669958 -0.011570477 0.67066669
-0.044028573 -0.014676192 0.67000002
-0.046809584 -0.0034214568 0.67217648
-0.043044493 -0.0031908846 0.67028582
0.0043309894 -0.0033939932 0.67138463
-0.047472466 0.0037165214 0.67478275
-0.042401344 0.0041942433 0.67268175
-0.0008933334 0.0052323812 0.67000002
0.0034389882 0.0036774999 0.67156267
-0.047626503 0.011864158 0.67827278
-0.041039664 0.011541404 0.67319429
-0.036371436 0.012123811 0.67000002
-0.0013829367 0.011916431 0.67025006
0.0038374083 0.011512909 0.67150015
0.0083100963 0.01189143 0.67119998
-0.047078576 0.018924559 0.6785
-0.041167594 0.018653749 0.6753
-0.034860563 0.020195685 0.67123532
-0.0023409524 0.019559275 0.67076188
0.0034966513 0.018805226 0.6733548
0.0082952389 0.015952382 0.67000002
-0.045913335 0.022633335 0.67900002
-0.041204769 0.025863376 0.67745721
-0.03395547 0.02626328 0.67260003
-0.029990477 0.026161907 0.67000002
-0.0089333337 0.028076192 0.67000002
-0.0038365088 0.026223429 0.67153329
0.0024685718 0.026187574 0.67410523
-0.040401593 0.033369139 0.67811114
-0.033732414 0.033489022 0.67296869
-0.028718576 0.034079719 0.67010003
-0.0099593289 0.034243587 0.67094117
-0.0038484132 0.033392329 0.67422229
0.0036154983 0.033784967 0.67699999
0.0088028582 0.036286667 0.67633337
-0.039864942 0.041566066 0.67809093
-0.03338103 0.041082025 0.67397213
-0.028118258 0.040900797 0.671
-0.010245557 0.040996596 0.67258334
-0.0038578308 0.041194923 0.67583334
0.0035333652 0.040800601 0.67856675
0.0091421781 0.040169116 0.67871433
-0.039245583 0.046817828 0.67871433
-0.033469658 0.048912831 0.67574996
-0.026655279 0.049198851 0.6716249
-0.018774923 0.049624693 0.67016667
-0.011433905 0.048778288 0.67262852
-0.0040588798 0.048890647 0.67752945
0.0017551022 0.046827488 0.67885715
-0.033074699 0.056100626 0.67707151
-0.026271939 0.056384269 0.67273331
-0.01917807 0.056264427 0.67130548
-0.011712243 0.056356452 0.67467648
-0.004632262 0.056350522 0.6787917
-0.032653261 0.063262627 0.67864007
-0.026390897 0.063720189 0.67580003
-0.019333558 0.064007945 0.67405862
-0.011433276 0.063548505 0.67656261
-0.0058983332 0.062785007 0.67874998
-0.031522203 0.070964828 0.67893744
-0.025851402 0.070919432 0.67608565
-0.018606631 0.071115285 0.67540747
-0.011593441 0.070876993 0.67655557
-0.0071133338 0.071133338 0.67900002
-0.031040002 0.078893341 0.67900002
-0.025787966 0.078646176 0.67686111
-0.018667305 0.07852941 0.67586678
-0.011593653 0.078604497 0.67649996
-0.0071133338 0.077384457 0.67900008
-0.031040002 0.083420008 0.67900002
-0.025530955 0.085869931 0.67864305
-0.018714385 0.086473905 0.67756683
-0.012982525 0.085719481 0.67825001
-0.022633335 0.093120009 0.67900002
-0.018825186 0.093191862 0.67899996
-0.047394395 0.026118208 0.6805883
-0.044685718 0.023961907 0.68000001
-0.046348955 0.032328378 0.68160009
-0.044253971 0.034323812 0.67999995
-0.046048574 0.044103812 0.68099999
-0.043769937 0.041086942 0.68014294
0.0056207939 0.044308733 0.68083334
0.008419048 0.043390479 0.68000001
-0.047936965 0.049404345 0.68593746
-0.041913752 0.049435504 0.68120003
-0.00064761908 0.051809527 0.68000001
0.0043880166 0.049370162 0.68208349
0.0088608172 0.047473874 0.68557149
-0.047354281 0.056188915 0.68552935
-0.041664105 0.056079287 0.6825152
-0.036914289 0.057638101 0.68000001
-0.00086349214 0.05591112 0.68000001
0.0039993199 0.056033932 0.68300003
0.0084809531 0.054805718 0.68500006
-0.046139684 0.063153662 0.68716669
-0.041015431 0.063797206 0.68353337
-0.036439624 0.064060949 0.68080002
-0.0022697146 0.064044192 0.6813001
0.0038176328 0.063817307 0.68394285
0.0085304771 0.062338099 0.68900001
-0.045513339 0.069646679 0.6886
-0.040914398 0.071443111 0.68417865
-0.035408288 0.071462199 0.6809001
-0.0032443814 0.071453534 0.68206674
0.0036486636 0.071391217 0.68567747
0.0085180961 0.071854614 0.68800008
-0.045430165 0.079719372 0.68800008
-0.041248787 0.078647941 0.68499994
-0.034916803 0.0788517 0.68118191
-0.0037460215 0.079153389 0.68177426
0.0040852102 0.078707173 0.68700004
-0.045460764 0.084763631 0.68780005
-0.041168101 0.086254716 0.68610018
-0.03411128 0.08626157 0.68170011
-0.027847622 0.088292077 0.68000001
-0.0098373014 0.087253504 0.68116677
-0.0037430362 0.086436316 0.68431252
0.0015925172 0.086136751 0.68814301
-0.051020719 0.048056908 0.69125003
-0.050600003 0.059800003 0.69000006
-0.049525049 0.06348791 0.69150007
0.0085428581 0.065057144 0.69000006
-0.047774009 0.071753614 0.69270593
0.0072285719 0.07294286 0.69000006
0.0085552391 0.073048577 0.69100004
-0.048388045 0.077780008 0.69277787
0.0095585361 0.079549603 0.6903078
-0.046749212 0.085369527 0.69133341
0.0054778312 0.086325765 0.69016677
0.0091392593 0.086052291 0.69088894
