# .PCD v0.7 - Point Cloud Data file format
VERSION 0.7
FIELDS x y z
SIZE 4 4 4
TYPE F F F
COUNT 1 1 1
WIDTH 197
HEIGHT 1
VIEWPOINT 0 0 0 1 0 0 0
POINTS 197
DATA ascii
-0.018173335 -0.030706668 0.65800005
-0.0094000008 -0.033213336 0.65800005
-0.01799429 -0.025872385 0.65800011
-0.026287016 -0.017381756 0.65800005
-0.018416034 -0.018290574 0.65770006
-0.011950675 -0.01779639 0.65754169
-0.0062666675 -0.015666667 0.65800005
-0.026857145 -0.012801906 0.65800011
-0.018602075 -0.011307787 0.65747064
-0.011264336 -0.011264127 0.65711093
-0.0063519734 -0.012793062 0.65757149
-0.024440002 -0.0062666675 0.65800005
-0.018258132 -0.0042955447 0.65782154
-0.01270694 -0.0053684362 0.65771431
-0.018173335 0.0006266667 0.65800005
-0.026194545 -0.070082165 0.66573089
-0.019010192 -0.070606105 0.66463649
-0.01139172 -0.070879914 0.66452801
-0.0064216335 -0.06936314 0.66471434
-0.032494288 -0.06244 0.66900003
-0.026596982 -0.063624628 0.66711438
-0.019175211 -0.06361486 0.66493952
-0.011317799 -0.063500054 0.66580009
-0.0065809535 -0.064955249 0.66866678
-0.025847184 -0.056045145 0.66653574
-0.018876508 -0.056132123 0.66571802
-0.011502395 -0.05594445 0.66610825
-0.0060896603 -0.056271158 0.66814291
-0.031857144 -0.050971434 0.66900003
-0.026307402 -0.050315466 0.66615391
-0.018887185 -0.049362667 0.66662502
-0.011985179 -0.050249819 0.66681254
-0.0070085721 -0.051608574 0.66900003
-0.01975143 -0.043962859 0.66900003
-0.033043653 -0.03155826 0.66716671
-0.027173454 -0.031274408 0.66337508
-0.01898762 -0.030809334 0.66020006
-0.011286447 -0.031631939 0.66123086
-0.0047053979 -0.031558733 0.66422224
-0.039171707 -0.025357826 0.6680001
-0.034008823 -0.026449 0.66485316
-0.026473602 -0.026473178 0.66177779
-0.019070348 -0.026533468 0.66062063
-0.011349972 -0.026487865 0.66219455
-0.0038904496 -0.026543891 0.66588581
0.0012742858 -0.024211429 0.66900003
-0.04031169 -0.018748486 0.66418189
-0.034022965 -0.018901536 0.6615001
-0.026436975 -0.020447062 0.65999997
-0.02074286 -0.02137143 0.66000009
-0.0099660307 -0.020879846 0.66100013
-0.0036400843 -0.019160254 0.6640296
0.0015466667 -0.019276598 0.66828573
-0.040487744 -0.011384963 0.66420847
-0.033986904 -0.011328176 0.66080552
-0.026057146 -0.010342858 0.65999997
-0.022000002 -0.010685715 0.66000003
-0.0031523812 -0.010999671 0.66317242
0.0016553018 -0.011833589 0.66793346
-0.04036336 -0.0045136348 0.66710526
-0.034100641 -0.0037864558 0.66300011
-0.026781626 -0.0032689206 0.66009998
-0.020742858 -0.0018857145 0.66000003
-0.010405585 -0.0027441129 0.66040909
-0.0037913232 -0.003793386 0.66438895
0.0012729366 -0.0038135718 0.66791672
-0.039025001 0.0031857146 0.66900009
-0.034126423 0.0037126536 0.66525733
-0.026442517 0.003779233 0.66102779
-0.01889717 0.0038673477 0.66077143
-0.011355186 0.0037885718 0.66255552
-0.0038111911 0.0038164821 0.66763902
0.00063714292 0.0012742858 0.66900003
-0.037591431 0.0082828579 0.66900003
-0.033371858 0.011217142 0.66666669
-0.026530398 0.011369658 0.66319454
-0.018907964 0.011344526 0.66175002
-0.011378624 0.011384074 0.66400021
-0.005003354 0.010923851 0.66786957
-0.032344688 0.017710716 0.66808343
-0.026589476 0.018992012 0.66461128
-0.018939735 0.018940531 0.66283339
-0.011512437 0.018953361 0.66645724
-0.0055201589 0.017517461 0.66883343
0.0082828579 0.018477144 0.66900003
-0.026034793 0.02666769 0.66666669
-0.018996561 0.026596298 0.66483343
-0.012739339 0.026564602 0.66752172
-0.02500011 0.033967622 0.66733342
-0.019051479 0.03429487 0.66683334
-0.013277283 0.033195511 0.66842866
-0.024898434 0.040921066 0.66829407
-0.019065334 0.041307945 0.66726667
-0.014229525 0.041626673 0.66900009
-0.024666535 0.046511434 0.66900009
-0.019210475 0.046471424 0.66841179
-0.014229525 0.045661908 0.66900003
-0.032223806 -0.062692866 0.67000002
-0.029990477 -0.060619052 0.67000002
-0.0057445243 -0.062237151 0.67025006
-0.032854099 -0.056115907 0.67110008
-0.029671431 -0.055514291 0.67000002
-0.0044666668 -0.054876193 0.67000002
-0.029990477 -0.051047623 0.67000002
-0.021907939 -0.043603178 0.67000002
-0.038658239 -0.031712111 0.67171437
-0.035760477 -0.032568093 0.67050004
-0.00063809525 -0.031266667 0.67000002
0.0020656085 -0.031237036 0.67244446
-0.040725976 -0.026897749 0.671
-0.00063809525 -0.029990477 0.67000002
0.0038702695 -0.02656584 0.67178255
0.0052028126 -0.018952744 0.67076194
0.010894976 -0.017515188 0.67283326
0.0053936969 -0.011237689 0.67166656
0.010351432 -0.012022819 0.67378259
-0.047275152 -0.003450023 0.6737619
-0.043106411 -0.0026104762 0.67009097
0.005120913 -0.0038414686 0.67179173
0.0089928582 -0.0070661912 0.67449999
-0.047573674 0.0037231471 0.67617393
-0.042264018 0.0042040581 0.67191297
0.004017788 0.0039803097 0.67020589
0.0086302394 0.0051126191 0.67124999
-0.047402609 0.011045013 0.67789477
-0.041129172 0.011632571 0.67317134
-0.036371432 0.013400001 0.67000002
-0.0017183885 0.012424469 0.67030776
0.0038378839 0.011512486 0.67150003
0.0086351205 0.01119393 0.67162502
-0.046512671 0.018734764 0.67830002
-0.04095608 0.018986614 0.67472726
-0.034790535 0.02009413 0.67094445
-0.0082952389 0.022333335 0.67000002
-0.0029793656 0.019962702 0.67075008
0.0034667323 0.018575437 0.67248285
0.00830762 0.015976192 0.671
-0.046446353 0.025802856 0.67733335
-0.041331001 0.026014289 0.67518181
-0.033837657 0.026395975 0.67223072
-0.029990477 0.026800003 0.67000002
-0.0091787558 0.027045425 0.67000002
-0.0038359372 0.026225274 0.67159998
0.003419121 0.026635164 0.67569226
-0.046560004 0.031686671 0.67900002
-0.041085992 0.033384092 0.67711776
-0.034040622 0.033418622 0.67258626
-0.028910629 0.033720881 0.67000002
-0.0099007152 0.034337144 0.67074996
-0.0038445236 0.033354361 0.67347229
0.0038725932 0.033550378 0.6774444
0.009521191 0.035663098 0.67774999
-0.039364982 0.041299153 0.67755556
-0.033366907 0.041064423 0.67369437
-0.028083337 0.040848892 0.67016667
-0.010958035 0.040774036 0.67173332
-0.0038537309 0.04114262 0.67497218
0.0033602545 0.040955562 0.67826688
0.0088377781 0.039015561 0.67900008
-0.038991991 0.048256114 0.67858332
-0.033446003 0.048876747 0.67525005
-0.02662961 0.049118727 0.67056519
-0.019051131 0.050232396 0.6703158
-0.01127524 0.048948143 0.67275757
-0.0042731846 0.048889741 0.67765629
0.0024942858 0.046467625 0.67900002
-0.038153335 0.05496667 0.67900008
-0.033410937 0.056595325 0.67640007
-0.026260193 0.056361407 0.67246664
-0.019208282 0.056347609 0.67230576
-0.011715828 0.056371626 0.67485285
-0.0051707146 0.056239288 0.67874998
-0.019373883 0.063840598 0.67336357
-0.0046667727 0.062883914 0.67862976
-0.049255714 0.013610002 0.68050003
-0.049934439 0.018719636 0.68500006
-0.047420006 0.03537086 0.68019998
-0.044685718 0.03626667 0.68000001
-0.0469798 0.041331232 0.68107146
-0.043397777 0.041454926 0.68011123
0.0058342866 0.043434288 0.68066669
0.008419048 0.040800001 0.68000001
-0.04695905 0.048917335 0.68480003
-0.042625125 0.049360361 0.68152386
-0.00064761908 0.050514288 0.68000001
0.0038940005 0.049573533 0.6813001
0.008456191 0.051387623 0.68300003
-0.047104832 0.056542933 0.68692863
-0.042024702 0.056273829 0.68241382
-0.0012961905 0.05642572 0.68099999
0.0039018516 0.055927522 0.68283343
0.0086473478 0.056254428 0.68342865
0.008456191 0.061144765 0.68300003
-0.052516192 0.05118667 0.69800001
-0.050559737 0.050743952 0.69457144
-0.052516192 0.052516192 0.69800001
-0.050223332 0.056362867 0.69083345
