# .PCD v0.7 - Point Cloud Data file format
VERSION 0.7
FIELDS x y z
SIZE 4 4 4
TYPE F F F
COUNT 1 1 1
WIDTH 244
HEIGHT 1
VIEWPOINT 0 0 0 1 0 0 0
POINTS 244
DATA ascii
-0.018173335 -0.030706668 0.65800005
-0.01799429 -0.025872383 0.65800011
-0.026092121 -0.01737576 0.65800005
-0.01851547 -0.018169856 0.65786225
-0.011839478 -0.017290048 0.65774995
-0.0062666675 -0.015666667 0.65800005
-0.026082302 -0.011733792 0.65800017
-0.018787915 -0.011271982 0.65752774
-0.011264732 -0.011264733 0.65713871
-0.0058636367 -0.0124671 0.65754551
-0.024440004 -0.0062666675 0.65800005
-0.018754734 -0.0043435558 0.65786678
-0.01273889 -0.0055338102 0.6578334
-0.026208691 -0.069844872 0.66570836
-0.019024611 -0.070434988 0.66512918
-0.011549075 -0.070745163 0.66500014
-0.0064243539 -0.069392525 0.66500014
-0.031729717 -0.063332006 0.66900009
-0.026605584 -0.06364581 0.66734284
-0.019158626 -0.063539416 0.66520607
-0.011262944 -0.063618354 0.66602951
-0.0063714292 -0.066262864 0.66900003
-0.025649162 -0.055742566 0.66684622
-0.018896343 -0.056044057 0.6659475
-0.011546792 -0.056042586 0.66592121
-0.0064815246 -0.055918671 0.66720003
-0.031220002 -0.051608574 0.66900003
-0.025857622 -0.050920717 0.66624999
-0.018993115 -0.048789371 0.6676333
-0.0126575 -0.049534407 0.66462499
-0.0069876197 -0.051454291 0.66700006
-0.01975143 -0.043962859 0.66900003
-0.033003692 -0.031732503 0.66637504
-0.027725175 -0.031334698 0.66371435
-0.01697143 -0.031114286 0.66000003
-0.01122089 -0.031904571 0.66206676
-0.0044409526 -0.031917669 0.66663641
-0.039336607 -0.025165716 0.66771442
-0.034110233 -0.026510071 0.66494316
-0.026474895 -0.026474735 0.66180563
-0.019068636 -0.026531104 0.66055167
-0.011351058 -0.026491696 0.66227782
-0.0038895241 -0.026532143 0.66554296
0.0014866668 -0.024423812 0.66900009
-0.04043914 -0.018466324 0.66436368
-0.034038659 -0.018910347 0.66180557
-0.026759187 -0.021102047 0.66000003
-0.02002449 -0.021461226 0.66000009
-0.010619643 -0.020770954 0.66087502
-0.0036355751 -0.019132663 0.663059
0.0020439099 -0.019115591 0.66789466
-0.041124322 -0.011385842 0.66426682
-0.034015901 -0.011337486 0.66136104
-0.027387759 -0.0094285728 0.66000009
-0.0028468193 -0.010820001 0.66204
0.0017495836 -0.011754705 0.66706246
-0.045237146 -0.0070085721 0.66900003
-0.040321536 -0.0045878841 0.66727775
-0.034102462 -0.0037871164 0.66302794
-0.026788829 -0.0032695238 0.66026664
-0.019066669 -0.00083809532 0.66000009
-0.010586905 -0.0028821432 0.66041672
-0.0037904764 -0.0037909523 0.66411114
0.0012724604 -0.0038100798 0.66741675
-0.038228571 0.0027609528 0.66900009
-0.033668935 0.003696467 0.66451633
-0.026457569 0.0037815347 0.66138875
-0.018889764 0.0037803964 0.66113883
-0.011349736 0.0037866144 0.66222239
-0.0038106351 0.0038158733 0.66755563
0.0031857148 0.0027306126 0.66900003
-0.033594061 0.01132877 0.66720694
-0.026536062 0.011370978 0.66330564
-0.018911218 0.011346244 0.66188896
-0.011376825 0.0113818 0.66388905
-0.0051150722 0.01109139 0.66795647
-0.032434162 0.018188573 0.66773337
-0.026553813 0.018965874 0.66372234
-0.01892955 0.018931614 0.66252786
-0.011567817 0.018853754 0.6663236
-0.0061590481 0.016778097 0.66900009
-0.026014987 0.026646484 0.66613346
-0.018977888 0.026572226 0.66422254
-0.012980954 0.026784765 0.66733336
-0.025782784 0.033615958 0.66699994
-0.019052133 0.034113869 0.66691178
-0.013256826 0.032773335 0.66816676
-0.024830954 0.040826071 0.66850001
-0.019083988 0.0411097 0.66793752
-0.014335716 0.042051435 0.66900003
-0.02468048 0.046335243 0.66875005
-0.018721355 0.046789017 0.66815776
-0.014229525 0.045661908 0.66900003
-0.032542858 -0.061384767 0.67000002
-0.029990477 -0.060619052 0.67000002
-0.0056322948 -0.062086161 0.67081821
-0.033151809 -0.056267496 0.67104352
-0.029479999 -0.05653524 0.67000002
-0.0044720639 -0.059431434 0.671
-0.033180952 -0.051685717 0.67000002
-0.021137621 -0.039703336 0.67250001
-0.039143492 -0.031471536 0.67133331
-0.036371432 -0.031904764 0.67000002
-0.022500001 -0.036642861 0.67500001
-0.021214288 -0.036642861 0.67500001
-0.00063809525 -0.031904764 0.67000002
0.0033065935 -0.031306449 0.67299998
-0.040497143 -0.027305186 0.67022222
-0.00063809525 -0.029990477 0.67000002
0.0038697962 -0.027252203 0.67138094
-0.047479872 -0.017816871 0.67500007
-0.043562505 -0.020657266 0.67262495
0.0057456414 -0.018218024 0.67030776
0.008950714 -0.016621191 0.67124999
0.0055000484 -0.011251668 0.67134994
0.0097616045 -0.011513286 0.67378944
-0.046883881 -0.0032116193 0.67433339
-0.042986833 -0.0026596829 0.67033333
0.0051148417 -0.0038369845 0.67108339
0.008789842 -0.0066457149 0.67533338
-0.04693725 0.0038586247 0.67511111
-0.041616488 0.0041735964 0.67220694
0.003957524 0.0043410482 0.67020005
-0.047041643 0.011601535 0.67661107
-0.04100376 0.011530583 0.67261106
-0.036371432 0.014676192 0.67000002
-0.001522491 0.012136118 0.67061543
0.0038416411 0.01152413 0.67216688
0.0083200019 0.012160001 0.67200011
-0.047265723 0.019001717 0.67860007
-0.041036248 0.018765103 0.67483878
-0.035137784 0.0200621 0.67079997
-0.0089333337 0.022333335 0.67000002
-0.0033625085 0.019632164 0.67076671
0.0038460323 0.019229311 0.6730001
0.008320001 0.022400001 0.67200005
-0.047190759 0.025439277 0.67876476
-0.041302916 0.025846861 0.6760571
-0.033835717 0.026395572 0.67219228
-0.029990477 0.026800003 0.67000002
-0.0093171429 0.02667499 0.67006671
-0.0038344134 0.02621232 0.67126667
0.0038598417 0.026358446 0.67496657
0.009085292 0.026827728 0.67600006
-0.046430673 0.031428006 0.67900002
-0.041084405 0.033381987 0.67708826
-0.034014974 0.033392973 0.67206889
-0.02944354 0.034548301 0.67000002
-0.010294392 0.034509208 0.671
-0.0038454765 0.033365689 0.67369443
0.0038715084 0.033549134 0.67741674
0.0083653973 0.03153111 0.67566675
-0.039221432 0.040996905 0.67787504
-0.033348572 0.041043758 0.67333347
-0.027958171 0.041029375 0.67069238
-0.011155747 0.040798847 0.67196882
-0.0038561109 0.041173201 0.67547208
0.0033967127 0.04106934 0.67822593
-0.038721908 0.048205081 0.67888886
-0.033434186 0.048858307 0.67500001
-0.026719701 0.049312521 0.67086369
-0.019562466 0.050277546 0.67023534
-0.011275816 0.048957091 0.6728788
-0.0040634172 0.048932604 0.67811769
0.0024941501 0.046457965 0.67885715
-0.038153335 0.055613339 0.67900002
-0.033389147 0.05656058 0.67597133
-0.026264606 0.056368865 0.67256677
-0.019186879 0.056284297 0.67155558
-0.011737693 0.056266185 0.67481846
-0.0052732341 0.05610653 0.67878944
-0.033615638 0.063671365 0.67661285
-0.026167585 0.063810907 0.67374068
-0.019412149 0.063846499 0.67342436
-0.011437029 0.063531116 0.67754543
-0.0045704423 0.06284222 0.67875016
-0.032282636 0.070319831 0.67857152
-0.026027085 0.071155652 0.67574996
-0.018651528 0.070906378 0.67534488
-0.011610609 0.070973404 0.67747229
-0.0066283341 0.070325002 0.67899996
-0.031164858 0.07836467 0.67889994
-0.025803253 0.078691609 0.67725015
-0.018677181 0.078572027 0.67623347
-0.012013989 0.078551799 0.67743754
-0.031686667 0.083420008 0.67900002
-0.024465861 0.085655294 0.67774987
-0.018683465 0.086338013 0.67650008
-0.012958142 0.085909434 0.67871433
-0.022633335 0.091180004 0.67900002
-0.018103454 0.092133224 0.67887497
-0.014873334 0.091180004 0.67900002
-0.0499347 0.026681362 0.68342865
-0.04733884 0.034224767 0.68088889
-0.044685718 0.03626667 0.68000001
-0.046241909 0.041056514 0.68066669
-0.043150958 0.041725434 0.68030006
-0.046644356 0.049066123 0.68428576
-0.042273261 0.049243178 0.68108344
-0.00064761908 0.051809527 0.68000001
0.0041922517 0.049452681 0.68159103
0.009331218 0.049693339 0.6835556
-0.046951052 0.056496955 0.68660003
-0.042231794 0.056206379 0.68213797
-0.0014727274 0.056653686 0.68090916
0.0039032006 0.055939145 0.68297219
0.0090193208 0.054581504 0.68342865
-0.046127331 0.063932903 0.68661547
-0.041069623 0.063579358 0.68232256
-0.0014578573 0.065320477 0.68075001
0.0032540313 0.063766107 0.68320006
-0.045840573 0.071379445 0.68760014
-0.040904697 0.071458332 0.68317235
-0.035532702 0.072317474 0.68000001
-0.0031050339 0.07167165 0.68192858
0.0033957311 0.071454264 0.68441385
0.0085304771 0.073493332 0.68900001
-0.045867622 0.078628577 0.68800014
-0.04114693 0.078677192 0.68403846
-0.03464777 0.079262428 0.6804617
-0.008419048 0.080304772 0.68000001
-0.0038975556 0.078635611 0.68236667
0.0037796316 0.078699008 0.68622595
-0.045277145 0.083336197 0.68900001
-0.041040462 0.086057998 0.68544841
-0.033792481 0.086340994 0.68093109
-0.027739685 0.087104782 0.67999995
-0.0095965378 0.086957589 0.67999995
-0.0039041005 0.085930444 0.68352783
0.0030668958 0.085770071 0.68704009
-0.011425136 0.093718827 0.68148482
-0.052516192 0.053845719 0.69800001
-0.049139053 0.055718102 0.6910001
-0.049502861 0.063991912 0.69150007
-0.049301554 0.071603574 0.69137502
0.012558096 0.074687622 0.69400001
-0.049129784 0.078317843 0.69026673
0.0072285719 0.078200005 0.69000006
0.011118685 0.07866513 0.69276935
0.015700357 0.078171313 0.69412506
-0.046815388 0.086476065 0.69230777
0.0070277783 0.086758256 0.69183338
0.010003643 0.086218886 0.69476467
-0.044028573 0.090028577 0.69000006
