# .PCD v0.7 - Point Cloud Data file format
VERSION 0.7
FIELDS x y z
SIZE 4 4 4
TYPE F F F
COUNT 1 1 1
WIDTH 227
HEIGHT 1
VIEWPOINT 0 0 0 1 0 0 0
POINTS 227
DATA ascii
0.1381281 -0.033465717 0.68900001
0.14370573 -0.032153334 0.68900001
0.13304262 -0.024443096 0.68900007
0.13831805 -0.025246069 0.68900007
0.14528058 -0.027953718 0.68900007
0.12541987 -0.017629651 0.68900013
0.1310562 -0.018350109 0.6880554
0.13891122 -0.018348783 0.68800002
0.14436191 -0.017717145 0.68900007
0.12585734 -0.011680192 0.68900007
0.13096915 -0.0111313 0.68760014
0.1387438 -0.011124924 0.68716681
0.14392446 -0.0115927 0.68900007
0.1319568 -0.0051557836 0.68900007
0.13825519 -0.005487971 0.68868434
0.14370573 -0.0072180959 0.68900001
0.12329048 -0.075564764 0.69600004
0.14164764 -0.07611905 0.69500005
0.14363334 -0.07611905 0.69500005
0.12555203 -0.072216257 0.69653338
0.13117366 -0.071324065 0.69265854
0.13910861 -0.071161442 0.69287097
0.14592591 -0.071234949 0.6947037
0.15068477 -0.068372384 0.69700003
0.12621385 -0.063771442 0.69749999
0.13091916 -0.06347657 0.69427782
0.13872825 -0.063417874 0.6936391
0.14619836 -0.063505992 0.69460011
0.15130308 -0.063495815 0.69740003
0.1259679 -0.057810344 0.69771427
0.13088667 -0.056106329 0.69467735
0.13865335 -0.056120388 0.69326675
0.14619935 -0.056382339 0.69512498
0.15068477 -0.059079051 0.69700003
0.13167004 -0.050477743 0.69609523
0.13822775 -0.051807836 0.69444448
0.11891226 -0.032120686 0.69642866
0.12415434 -0.033470582 0.69411117
0.13113818 -0.033340406 0.6912145
0.13845496 -0.032200009 0.69000012
0.14595461 -0.032214362 0.69246161
0.15307048 -0.032797869 0.69611776
0.11734431 -0.02621215 0.69586205
0.12385795 -0.026355768 0.691778
0.13093223 -0.026806567 0.69010746
0.13889611 -0.028018182 0.69000006
0.14597094 -0.025915239 0.69060022
0.15395549 -0.02646861 0.69476688
0.15930231 -0.0265877 0.69791669
0.11234476 -0.017948573 0.69800001
0.1163872 -0.018518891 0.69438905
0.1220971 -0.018936373 0.69014305
0.14752857 -0.018728575 0.69000024
0.15351735 -0.018449333 0.69180018
0.15968364 -0.018362353 0.69686669
0.11234476 -0.011300954 0.69800001
0.11633897 -0.011236984 0.69410008
0.12232925 -0.010911333 0.69020027
0.14732644 -0.011034387 0.69010544
0.1535525 -0.011201639 0.69196004
0.15993424 -0.011281017 0.69679999
0.11234477 -0.0073123816 0.69800001
0.11668099 -0.0041654068 0.69520593
0.12373397 -0.0039464291 0.69108349
0.13043334 -0.0022343495 0.69006681
0.13920477 -0.0017523812 0.69000006
0.14591128 -0.0038384895 0.69193107
0.15342091 -0.0040362519 0.6958065
0.15891302 -0.0045392071 0.69766665
0.11838543 0.002400513 0.69684619
0.12360841 0.0039916472 0.69471431
0.13119647 0.0040834532 0.69122523
0.13868439 0.0039440636 0.69013363
0.14606908 0.0039674612 0.69396675
0.15221387 0.0028123811 0.69792312
0.15854573 0.0023266668 0.69800001
0.12402248 0.011275048 0.69640005
0.13094211 0.011145869 0.69361299
0.13867341 0.011309264 0.69279319
0.14643669 0.011264573 0.69572002
0.12427261 0.018350614 0.69700015
0.1309875 0.018524311 0.69463891
0.1387725 0.018503835 0.69386131
0.14617026 0.018207546 0.69615394
0.12578091 0.026007177 0.69780004
0.13112839 0.026491696 0.69538885
0.1385574 0.026388543 0.6954515
0.14418991 0.025710477 0.69769233
0.12674794 0.033459689 0.69800007
0.13127458 0.033815272 0.69616675
0.13836835 0.0334781 0.69704765
0.12696953 0.037891433 0.69800001
0.13218537 0.04067653 0.69771427
0.13671938 0.040550482 0.69800001
0.13353996 0.048499819 0.69760007
0.13688241 0.048506197 0.69769996
0.13406032 0.053402543 0.69800007
0.13660859 0.053513337 0.69800001
0.11839483 -0.070886888 0.70588887
0.12224897 -0.070781298 0.70300007
0.11917683 -0.06506826 0.70433342
0.1225475 -0.063795105 0.7016924
0.15266667 -0.064666674 0.70000005
0.11950382 -0.05875048 0.70100003
0.12398403 -0.055931866 0.70054173
0.12611938 -0.051382225 0.70066667
0.1287273 -0.049134925 0.70033336
0.11140134 -0.031236002 0.70380002
0.11585368 -0.032940622 0.70155013
0.12066668 -0.035333335 0.70000005
0.15870461 -0.032674767 0.7001667
0.10986718 -0.025529133 0.70217657
0.11351495 -0.026545048 0.70030004
0.16320686 -0.025088577 0.70060009
0.16671143 -0.023433335 0.70300001
0.10451429 -0.016857143 0.708
0.10850668 -0.018755557 0.70333338
0.11266667 -0.022000002 0.70000005
0.1637408 -0.018904701 0.70060015
0.16879484 -0.018657809 0.70469999
0.1085017 -0.011386891 0.70330012
0.16404705 -0.011337143 0.70020002
0.16760191 -0.012184002 0.7028001
0.10939822 -0.0043562255 0.70382148
0.11326111 -0.0025715649 0.70014298
0.16250713 -0.0038261155 0.70036846
0.16633202 -0.0046744766 0.70139998
0.10915546 0.0043252683 0.70534372
0.1151515 0.0045673992 0.70046163
0.15501963 0.004901961 0.69999993
0.16006397 0.0043728566 0.70027775
0.10883995 0.011421969 0.70546663
0.11610828 0.01134489 0.70066673
0.12066668 0.011333334 0.70000005
0.1542574 0.011352726 0.70116013
0.16117419 0.01121201 0.70321751
0.10983727 0.018590877 0.70488471
0.11628202 0.018714763 0.70172238
0.12116668 0.0195 0.70000005
0.14866668 0.022000002 0.70000005
0.15371636 0.018713592 0.70173341
0.16112451 0.018836288 0.70541382
0.11039178 0.026086517 0.70610517
0.1165645 0.026128221 0.70343345
0.12224232 0.026183277 0.70043755
0.14753279 0.026793893 0.70041668
0.15340351 0.026125867 0.70336002
0.16025127 0.026147187 0.70563632
0.11035852 0.033195879 0.70719051
0.11649495 0.033543732 0.7043612
0.1232555 0.033552665 0.7008335
0.14133334 0.036000002 0.70000005
0.14627375 0.033490673 0.70086223
0.15372346 0.033565309 0.70483339
0.15951154 0.033308484 0.7045455
0.11587123 0.041186731 0.70670968
0.12364588 0.041555747 0.70236588
0.12983334 0.043166667 0.70000005
0.14028572 0.041619051 0.69999993
0.14632224 0.041424897 0.70153344
0.15371634 0.041283678 0.70548165
0.15935577 0.039895665 0.70733327
0.11649682 0.04848538 0.70707148
0.12338111 0.048953302 0.70410007
0.12945235 0.048712719 0.70065004
0.14052369 0.048380662 0.70030773
0.1462418 0.048926972 0.70371997
0.15343776 0.048309695 0.70718175
0.1179885 0.05572252 0.70735711
0.1235918 0.05642483 0.70530564
0.13058195 0.056340434 0.70096982
0.13860872 0.056702029 0.7004348
0.1455788 0.056351494 0.70440006
0.15169346 0.056245148 0.70752949
0.11880916 0.061090291 0.708
0.12367199 0.063855655 0.7057668
0.13113423 0.063731849 0.70162511
0.13818985 0.063785553 0.70170373
0.14567693 0.063713193 0.70541668
0.15151916 0.061686311 0.70787501
0.16048002 0.061360005 0.708
0.11874655 0.073096737 0.70785719
0.12367046 0.071246713 0.70575011
0.13125508 0.071269035 0.70400006
0.13888332 0.071285211 0.70375019
0.1456181 0.071400322 0.70603704
0.11723369 0.078830056 0.70745003
0.12365689 0.078631625 0.70566672
0.13158758 0.078549922 0.7049334
0.13889073 0.078504711 0.70452011
0.14589241 0.078660421 0.70592004
0.15069036 0.079436742 0.70771432
0.16566668 0.020961907 0.71000004
0.10447715 0.029362859 0.71700001
0.10718572 0.028719686 0.71233338
0.10447715 0.031411432 0.71700001
0.10740823 0.033992145 0.71212506
0.10891965 0.041433554 0.71138477
0.15988161 0.043522224 0.71033335
0.10865007 0.048947811 0.71240014
0.11316246 0.049189392 0.71028578
0.15552381 0.051390477 0.71000004
0.16043849 0.049413767 0.71154177
0.16539429 0.051047623 0.71466672
0.10447715 0.054628573 0.71700001
0.10879771 0.056287225 0.71324146
0.11449495 0.05631756 0.71031255
0.15559895 0.055973545 0.71000004
0.16055647 0.05622777 0.71132016
0.16688077 0.055625651 0.71520013
0.10291239 0.06610667 0.71560001
0.10924356 0.063579388 0.71462065
0.11598675 0.064012066 0.7108711
0.1494381 0.066942863 0.71000004
0.15429701 0.064406663 0.71042871
0.15940142 0.063571133 0.7112633
0.10278162 0.070186317 0.71761543
0.10949504 0.070907444 0.71699989
0.11596171 0.070814744 0.71140003
0.14943811 0.070549212 0.71000004
0.15379183 0.071136452 0.71136016
0.15957621 0.071300015 0.71300018
0.11420238 0.078104712 0.71135724
0.15459076 0.078251638 0.71178269
0.15931255 0.078167334 0.71369249
0.10381874 0.073406041 0.72033346
0.10697144 0.073028572 0.72000003
