# .PCD v0.7 - Point Cloud Data file format
VERSION 0.7
FIELDS x y z
SIZE 4 4 4
TYPE F F F
COUNT 1 1 1
WIDTH 200
HEIGHT 1
VIEWPOINT 0 0 0 1 0 0 0
POINTS 200
DATA ascii
0.048160952 -0.10579621 0.82900012
0.055858817 -0.10559882 0.82900006
0.062823549 -0.10568342 0.82900012
0.049897917 -0.10153278 0.82900012
0.05605619 -0.10105907 0.82900029
0.060793336 -0.10105905 0.82900006
0.050726913 -0.094545484 0.82900006
0.055345625 -0.094269171 0.82900029
0.060793336 -0.097111434 0.82900006
0.051319052 -0.089216195 0.82900006
0.055529848 -0.087373964 0.82900017
0.05921429 -0.078162864 0.82900012
0.048860479 -0.068564288 0.82749999
0.063951433 -0.069741279 0.82900012
0.036476001 -0.062056579 0.82900012
0.041162126 -0.062498398 0.82746154
0.048233174 -0.063743815 0.82800007
0.055766318 -0.06246702 0.82762504
0.063858554 -0.063022576 0.82900023
0.03640582 -0.055705298 0.82900006
0.041590087 -0.055763733 0.82658327
0.048588261 -0.056010209 0.82604766
0.055900078 -0.055900376 0.82667994
0.063909769 -0.056019381 0.82844007
0.070267625 -0.053687625 0.82900012
0.036309145 -0.048148572 0.82880002
0.041537285 -0.048581641 0.82595229
0.04864119 -0.048639294 0.82374996
0.055841904 -0.048762102 0.82579994
0.063805237 -0.048838008 0.82709992
0.069872864 -0.048555724 0.82900017
0.086058103 -0.045002859 0.82900006
0.036306906 -0.041042622 0.82875007
0.041848417 -0.041586358 0.82649994
0.049279921 -0.041440085 0.82358336
0.056339823 -0.041759405 0.82433331
0.063750207 -0.041711502 0.82635999
0.069004387 -0.041528955 0.82900012
0.036375981 -0.034271855 0.82833338
0.041743811 -0.033867612 0.82699978
0.048832379 -0.033867624 0.82699984
0.055905182 -0.033857025 0.82675987
0.063817941 -0.033875931 0.82724005
0.068688579 -0.03710762 0.82900006
0.037107624 -0.027633335 0.82900012
0.041557252 -0.026776895 0.82826328
0.048415035 -0.025836064 0.82865238
0.056023572 -0.026037524 0.82852024
0.063021421 -0.026213087 0.82878965
0.047634609 -0.021317145 0.82900012
0.055529848 -0.019562647 0.82900006
0.061582863 -0.019738097 0.82900006
0.050100002 -0.10894763 0.83500004
0.055464763 -0.10776477 0.83200008
0.04185361 -0.099929534 0.83371437
0.046426233 -0.10055438 0.83136368
0.064319603 -0.1008917 0.83228594
0.06912028 -0.10083579 0.83557147
0.037465718 -0.090077147 0.83700001
0.041440766 -0.093242481 0.83680004
0.047264289 -0.093839049 0.83237505
0.059069153 -0.092957534 0.83140004
0.063475795 -0.093924433 0.83370596
0.069812521 -0.093309037 0.83740002
0.041857779 -0.086773023 0.83716667
0.04830651 -0.086425409 0.8338334
0.05669928 -0.085079499 0.83130783
0.063686401 -0.086363047 0.83338106
0.069241911 -0.086485408 0.83566666
0.050121475 -0.080064513 0.83536369
0.055604532 -0.079593569 0.83262509
0.063220166 -0.079914451 0.83500004
0.069185719 -0.08190953 0.83500004
0.056326669 -0.069020003 0.83300006
0.063314289 -0.068854287 0.83100003
0.05698286 -0.066216201 0.83100003
0.063314289 -0.06595239 0.83100003
0.070843279 -0.062370054 0.83366668
0.078917146 -0.062017716 0.83700001
0.028026756 -0.055547796 0.83645457
0.032822788 -0.055931222 0.83438474
0.071692929 -0.057309669 0.83242875
0.078416027 -0.056332119 0.83627272
0.027666667 -0.048764285 0.83599997
0.032540515 -0.048417337 0.83340013
0.07300929 -0.047683574 0.83099997
0.078673549 -0.048473872 0.83435994
0.084446192 -0.046206191 0.83650005
0.027251113 -0.040957913 0.83673334
0.03251794 -0.041244924 0.83283341
0.072211862 -0.04096425 0.83154553
0.078736737 -0.041127298 0.83585715
0.085247859 -0.042524051 0.83850008
0.02789381 -0.035199367 0.83683336
0.032737028 -0.033929173 0.8333751
0.071519159 -0.033940203 0.83289486
0.077120006 -0.034568258 0.83766669
0.033767622 -0.026032988 0.83527279
0.040362861 -0.02295143 0.83100003
0.067007631 -0.025589526 0.83100003
0.071486972 -0.02642351 0.83542109
0.075909525 -0.029564764 0.83900005
0.034366913 -0.018380638 0.83608341
0.041217621 -0.018229047 0.83230013
0.048370048 -0.017777922 0.83136368
0.056488223 -0.017411431 0.83100009
0.06431219 -0.018065218 0.83100003
0.070779257 -0.01828997 0.8350001
0.035829354 -0.011654632 0.83609098
0.041265 -0.011109525 0.83325011
0.04838096 -0.011103622 0.83280009
0.056266006 -0.011092859 0.83210009
0.064214677 -0.011097334 0.83240014
0.070920013 -0.011156192 0.8366667
0.036267787 -0.0035861905 0.83700001
0.041321717 -0.0039718095 0.83440012
0.048462901 -0.0039702482 0.83420014
0.056435321 -0.0039729136 0.83459991
0.063566566 -0.0039717141 0.83430004
0.069480129 -0.0041803578 0.83612496
0.035880826 0.0039877463 0.83726668
0.041352388 0.0039761909 0.83500004
0.048504576 0.0039761141 0.83491987
0.056461915 0.00397619 0.8349998
0.063658379 0.0039793332 0.83549994
0.068817228 0.0036987881 0.83754551
0.036700718 0.011170715 0.83775002
0.041407742 0.011150121 0.83612496
0.048561435 0.011147144 0.83589995
0.056503434 0.011142477 0.83560002
0.063772157 0.011160715 0.83699995
0.068206288 0.010703049 0.8386001
0.055134289 0.039153337 0.83900005
0.072886668 -0.092109531 0.84100002
0.077692389 -0.062474288 0.84100002
0.023282859 -0.04014286 0.84300005
0.082498103 -0.038445719 0.84100002
0.085626863 -0.038393717 0.8434
0.026062587 -0.032036737 0.84400004
0.08015874 -0.032863811 0.8416667
0.085276611 -0.034431841 0.8435716
0.090722866 -0.036128573 0.84300005
0.026963681 -0.026310002 0.84413642
0.074488573 -0.023227621 0.84100002
0.078858398 -0.026340205 0.84352636
0.082890481 -0.029776193 0.84500003
0.027084809 -0.018888706 0.84485728
0.031237144 -0.01682 0.84100002
0.074524008 -0.018429145 0.84140009
0.078821428 -0.018498573 0.84450006
0.082890481 -0.018107144 0.84500003
0.028200557 -0.011280874 0.8460834
0.032507833 -0.010598625 0.8416667
0.074577145 -0.011228572 0.84200001
0.078875542 -0.011266964 0.84506261
0.083086669 -0.012098096 0.84700006
0.027905777 -0.0045341067 0.84631252
0.032627184 -0.0043791211 0.84192306
0.073894717 -0.0036542856 0.84233332
0.078146122 -0.0040340144 0.84714299
0.029881908 0.00080761907 0.84800005
0.032150291 0.0040196194 0.84400004
0.073177144 0.0042436738 0.84300005
0.07718531 0.0033458506 0.84800011
0.029558858 0.011145144 0.84800005
0.032914609 0.011240001 0.84300011
0.071829692 0.011235874 0.8426668
0.075916193 0.0096914284 0.84800005
0.034619763 0.033818018 0.84541678
0.070683882 0.033971623 0.84526682
0.021908572 -0.03002286 0.85200006
0.023476193 -0.02914286 0.85000002
0.08338096 -0.026714288 0.85000008
0.021960001 -0.015453334 0.85400003
0.024313334 -0.015399048 0.85100007
0.083577149 -0.020285716 0.85200006
0.021449527 -0.0095028579 0.85533333
0.024465581 -0.011016328 0.85228574
0.084290482 -0.0089152381 0.85100007
0.021330794 -0.0039022225 0.85777771
0.024488254 -0.0031633866 0.85400003
0.081524134 -0.0040492066 0.85033339
0.084210724 -0.0044645243 0.8522501
0.021051811 0.0035874289 0.85680002
0.02664794 0.0041931747 0.85233343
0.080450848 0.0044256416 0.85061556
0.084408678 0.0040641269 0.85311121
0.030797146 0.034040004 0.85100007
0.073666669 0.031571429 0.85000002
0.078121513 0.033362668 0.8544001
0.084049009 0.03373633 0.85799992
0.026883559 0.056216381 0.85546678
0.031196034 0.056046825 0.85083342
0.019384129 -0.0030031749 0.86000001
0.017200001 0.002457143 0.86000001
0.020990478 0.028406193 0.86450005
0.023752382 0.028666668 0.86000001
0.023752382 0.031942859 0.86000001
0.087351248 0.032284576 0.86040002
0.023752382 0.056514289 0.86000007
