# .PCD v0.7 - Point Cloud Data file format
VERSION 0.7
FIELDS x y z
SIZE 4 4 4
TYPE F F F
COUNT 1 1 1
WIDTH 259
HEIGHT 1
VIEWPOINT 0 0 0 1 0 0 0
POINTS 259
DATA ascii
0.14064351 -0.031497143 0.68900007
0.14436191 -0.030840954 0.68900001
0.13287857 -0.023950953 0.68900001
0.13871869 -0.026903814 0.68900013
0.14458065 -0.027997462 0.68900007
0.1258792 -0.017826509 0.68900007
0.13115023 -0.018256217 0.68805724
0.13892238 -0.018350318 0.68805546
0.14458065 -0.017717145 0.68900007
0.12582453 -0.012303571 0.68900007
0.13096941 -0.011131049 0.68760002
0.13877723 -0.011127876 0.68733346
0.14392446 -0.011592699 0.68900007
0.13217059 -0.0052149887 0.68900007
0.13837899 -0.0056741177 0.68900007
0.14370573 -0.0072180959 0.68900001
0.12280477 -0.075010478 0.69700003
0.14098573 -0.07611905 0.69500005
0.14561906 -0.07611905 0.69500005
0.12507296 -0.071923815 0.6967001
0.13081612 -0.071305111 0.6930812
0.13872446 -0.071276523 0.69314307
0.14598075 -0.071261168 0.69496292
0.15090096 -0.068470478 0.69800001
0.12621385 -0.063771442 0.69749999
0.13095076 -0.063491561 0.69444448
0.13877779 -0.063441016 0.69388902
0.14622697 -0.063518435 0.69473344
0.15081449 -0.063116573 0.69760001
0.12587483 -0.057658952 0.69766665
0.13097325 -0.056226511 0.69456673
0.1386869 -0.056134395 0.69343352
0.14601894 -0.056457184 0.69456536
0.15025239 -0.057585716 0.69500005
0.12696953 -0.045868576 0.69800001
0.13049582 -0.049311485 0.69396782
0.13814054 -0.051774818 0.69400001
0.14429525 -0.052290481 0.69500005
0.12672698 -0.040034924 0.69666666
0.12950905 -0.041264463 0.69477272
0.11859652 -0.032211114 0.69655561
0.12426437 -0.033406999 0.69403851
0.13130465 -0.03362165 0.69213349
0.13747367 -0.03289064 0.69066668
0.14739649 -0.032386944 0.69400007
0.15294753 -0.033030123 0.69584215
0.1173618 -0.026215993 0.69596553
0.12383781 -0.026351323 0.6916669
0.13125248 -0.026579788 0.69015652
0.13888907 -0.026015123 0.69000018
0.14640217 -0.025607863 0.69070399
0.15398499 -0.026474006 0.69490016
0.15960829 -0.025910992 0.69761544
0.11231258 -0.017943813 0.69779998
0.1163919 -0.018519709 0.69441682
0.12229788 -0.018676352 0.69008362
0.12814286 -0.021685716 0.69000006
0.1472939 -0.018681636 0.6900003
0.1535247 -0.01845013 0.69183338
0.1602685 -0.018523715 0.69709998
0.11234476 -0.011300953 0.69800001
0.11634453 -0.011237525 0.69413346
0.12267062 -0.010755023 0.69013661
0.14732653 -0.011034487 0.69010544
0.15351646 -0.01119859 0.6918
0.16006014 -0.011278572 0.69662511
0.11234477 -0.0073123816 0.69800001
0.11673076 -0.0041668075 0.69550008
0.12381334 -0.0039487565 0.6915279
0.13039578 -0.002512661 0.69005901
0.13903266 -0.0020653063 0.69000018
0.14584549 -0.0038362897 0.69162077
0.15338548 -0.0040347474 0.69564521
0.15891619 -0.0048914286 0.69763637
0.11833606 0.0027087913 0.69715393
0.12350281 0.0039723292 0.69472224
0.13113984 0.0040806904 0.6909253
0.13871151 0.0039453972 0.69026697
0.14607583 0.0039681275 0.69400001
0.15232328 0.0024373811 0.69791669
0.1588781 0.00066476193 0.69800001
0.12383907 0.011170332 0.69623083
0.13087481 0.011140612 0.69325817
0.13868752 0.011310183 0.69286215
0.14647014 0.011267238 0.69588006
0.12430967 0.018258238 0.6966297
0.13096626 0.018521616 0.6945278
0.13876742 0.018503333 0.69383353
0.14595945 0.018120717 0.69608343
0.12599315 0.025914585 0.69769239
0.13112338 0.026490347 0.69536102
0.13852517 0.026382305 0.69529033
0.14363945 0.02604419 0.69760001
0.12696953 0.033902861 0.69800001
0.13129993 0.033821873 0.69630003
0.13844542 0.033555806 0.69704551
0.14292382 0.031243812 0.69800001
0.12696953 0.037891433 0.69800001
0.13206571 0.040936161 0.69776672
0.13654211 0.040018674 0.69800001
0.13360427 0.04852299 0.69793338
0.1364978 0.048527624 0.69800007
0.13361716 0.052848574 0.69800001
0.1362762 0.052516192 0.69800001
0.11942715 -0.070442386 0.70450002
0.12188941 -0.069853701 0.70275009
0.11984477 -0.064943813 0.70300001
0.1227532 -0.063799731 0.70220006
0.15283906 -0.06408371 0.70011109
0.12386121 -0.05596168 0.70034999
0.15210906 -0.059375718 0.70050001
0.12733334 -0.047333337 0.70000005
0.126 -0.041333336 0.70000005
0.11140134 -0.03123562 0.70380002
0.11506662 -0.03256673 0.70143759
0.12066668 -0.035333335 0.70000005
0.15866667 -0.031333335 0.70000005
0.10953558 -0.025621451 0.7035715
0.11354734 -0.026552668 0.70050013
0.16322812 -0.025128733 0.70050001
0.10447739 -0.017525954 0.70775002
0.10853688 -0.018761033 0.70352799
0.11266667 -0.022000002 0.70000005
0.16415685 -0.018803144 0.70009995
0.16671143 -0.016738096 0.70300001
0.10436668 -0.013466667 0.70700002
0.1085325 -0.011390194 0.70350015
0.16407406 -0.011333333 0.70000005
0.10865719 -0.0040228837 0.70430565
0.1132611 -0.0025715651 0.70014292
0.1624285 -0.0035254424 0.70047617
0.1661012 -0.001339762 0.70325005
0.10880075 0.0040294193 0.70522219
0.11496486 0.0044557326 0.70036012
0.15482727 0.0050376188 0.70005548
0.16070482 0.0040777423 0.7005927
0.16671143 0.00066952384 0.70300001
0.10912807 0.011145422 0.70430779
0.11610302 0.01134435 0.70063359
0.12066668 0.012000001 0.70000005
0.15420303 0.011301272 0.70141673
0.16157229 0.011388742 0.70332158
0.11050844 0.018531095 0.70495003
0.11630963 0.018718835 0.70188892
0.12125926 0.019629631 0.70000005
0.14866668 0.021333335 0.70000005
0.15326594 0.018908301 0.70185727
0.16092727 0.018720256 0.70491183
0.16584286 0.016785715 0.70500004
0.11044081 0.026097244 0.70642096
0.11658722 0.026133556 0.70356673
0.12252138 0.026239049 0.70044446
0.14731514 0.026368449 0.7003333
0.15343831 0.026131051 0.70352006
0.16074716 0.02623006 0.70619994
0.16520001 0.026297146 0.708
0.11055153 0.033260006 0.70719039
0.11642354 0.033494297 0.70454293
0.12322353 0.033540361 0.70081264
0.14155558 0.036222227 0.70000005
0.1462962 0.033548102 0.70050013
0.1536365 0.033546384 0.7044335
0.1602225 0.033367254 0.70475012
0.11125715 0.039782859 0.708
0.11595798 0.041091368 0.70653349
0.12361144 0.041543949 0.70217073
0.12955557 0.04266667 0.70000005
0.13981335 0.041573338 0.69999999
0.14619647 0.041389715 0.70093352
0.15370034 0.041279722 0.70540738
0.1594169 0.040360782 0.70736367
0.11660305 0.048413053 0.70711118
0.12342922 0.048826199 0.70351619
0.12950592 0.048833139 0.70036846
0.13986294 0.048456497 0.70056248
0.14614932 0.048941322 0.70392311
0.15373585 0.048408303 0.70712006
0.15845716 0.046525717 0.70800006
0.11751458 0.055765439 0.7074706
0.12353417 0.056398332 0.70497221
0.13056555 0.056333762 0.70087886
0.13824269 0.056278359 0.70050019
0.14560612 0.056361843 0.7045334
0.1515096 0.056394182 0.70741177
0.11884287 0.062202863 0.70800006
0.12361941 0.06382852 0.70546675
0.13106695 0.063606553 0.7015807
0.13821161 0.063796088 0.70181489
0.1458018 0.06383121 0.70547992
0.15146069 0.061913203 0.70771438
0.1188218 0.072641075 0.70787507
0.1236364 0.071227416 0.70555568
0.13129592 0.071155831 0.70388579
0.13891858 0.071304426 0.70392871
0.14562568 0.071504071 0.70607412
0.11776834 0.078933813 0.70762503
0.12366802 0.078639358 0.70573348
0.13148873 0.078490846 0.70440018
0.13894652 0.078535318 0.70480001
0.14590894 0.078669496 0.70599997
0.15075104 0.079469398 0.70800006
0.1186462 0.084266201 0.70783341
0.12417322 0.085934214 0.70709109
0.13157752 0.085897073 0.70540011
0.13900973 0.086147003 0.70577413
0.14585254 0.085743055 0.70756
0.15036573 0.082937151 0.708
0.13130745 0.093598783 0.70703995
0.13862759 0.093540519 0.70660007
0.14448151 0.093513891 0.70725
0.10480954 -0.0020285717 0.71000004
0.10480953 0.0013523811 0.71000004
0.16914523 0.020479666 0.71258831
0.17359239 0.021700002 0.71200001
0.10754438 0.028614862 0.71200007
0.16965458 0.024318505 0.712143
0.1738362 0.023766669 0.71300006
0.10728826 0.034247149 0.71107155
0.10952447 0.041352633 0.7105791
0.11292382 0.043952383 0.71000004
0.16025716 0.043276191 0.71000004
0.10884643 0.049108218 0.71181256
0.11330166 0.049380004 0.71025002
0.1557492 0.051615875 0.71000004
0.16019715 0.051182084 0.71136373
0.16571239 0.051357146 0.71900004
0.10433143 0.05250667 0.71600002
0.10883471 0.056188304 0.71264297
0.11423334 0.056362282 0.71038461
0.15554583 0.056131341 0.71010005
0.16045576 0.056119256 0.71137524
0.16758929 0.053813577 0.71750009
0.10462287 0.065646671 0.71800005
0.10924514 0.063673541 0.71426678
0.11560412 0.063968129 0.71075004
0.15432845 0.064419873 0.71057159
0.15978324 0.063470118 0.71219063
0.10476858 0.067791432 0.71900004
0.10956863 0.070922695 0.71675861
0.11579969 0.070859849 0.7114169
0.14943811 0.069647625 0.71000004
0.15386102 0.071168318 0.71168023
0.1597262 0.071366161 0.71366674
0.11056149 0.078769267 0.71581811
0.1145372 0.078265995 0.71116668
0.15471338 0.078314126 0.71234798
0.15936449 0.078191869 0.71392322
0.11065287 0.086007267 0.71672219
0.11570894 0.086494789 0.71152008
0.1214889 0.089482546 0.71000004
0.14862667 0.089121908 0.71000004
0.15375923 0.086262099 0.71096009
0.15993531 0.085660264 0.71499997
0.10380831 0.071794972 0.72185725
0.10605215 0.07327643 0.72075009
0.1029604 0.078918494 0.72499996
0.10645138 0.078982174 0.72113347
0.10296961 0.086103216 0.72492868
0.1070931 0.086463518 0.72205275
