# .PCD v0.7 - Point Cloud Data file format
VERSION 0.7
FIELDS x y z
SIZE 4 4 4
TYPE F F F
COUNT 1 1 1
WIDTH 239
HEIGHT 1
VIEWPOINT 0 0 0 1 0 0 0
POINTS 239
DATA ascii
-0.10011632 -0.061051555 0.60762501
-0.094885722 -0.061328575 0.60750002
-0.0861362 -0.060700003 0.60700005
-0.10091656 -0.056194764 0.6074186
-0.093797117 -0.055982251 0.60688114
-0.088098973 -0.0562727 0.60758334
-0.099886648 -0.049049404 0.60829175
-0.093745708 -0.048609104 0.60761106
-0.088064693 -0.048326965 0.60817391
-0.099054188 -0.04344466 0.60822225
-0.093527511 -0.043446504 0.6072942
-0.087802142 -0.04352301 0.60807699
-0.078300007 -0.022620002 0.60900003
-0.10915274 -0.01751774 0.60799998
-0.10065229 -0.017012984 0.60500002
-0.093965366 -0.017822802 0.60484844
-0.085233018 -0.016830266 0.60699999
-0.079821989 -0.018513666 0.60830432
-0.11364287 -0.010204572 0.60880005
-0.10875027 -0.011344815 0.60668427
-0.10138027 -0.011524657 0.60483342
-0.093780421 -0.011508619 0.60409522
-0.085830279 -0.011524602 0.60488105
-0.079629436 -0.010728389 0.60757697
-0.1139759 -0.003243905 0.60810006
-0.10870061 -0.0037433719 0.60335135
-0.10128301 -0.003936965 0.60127085
-0.093815051 -0.0040912302 0.60123247
-0.086399585 -0.0039394251 0.60131252
-0.079010338 -0.0037234707 0.60440004
-0.074125722 -0.0033149789 0.60763645
-0.1256893 0.0034786907 0.6088751
-0.11481041 0.0022638964 0.60800004
-0.1085415 0.0037093698 0.60300004
-0.1014829 0.0038972651 0.60289359
-0.093597136 0.0041615446 0.60095567
-0.086281858 0.0038647002 0.60154343
-0.079004869 0.0037245716 0.60457784
-0.074257903 0.0032443812 0.60820001
-0.10653627 0.011379347 0.60506254
-0.10117264 0.011498546 0.60358334
-0.093751423 0.011505559 0.60392869
-0.086214647 0.011648122 0.60500002
-0.07980258 0.010947621 0.60681832
-0.10708165 0.018191587 0.60738897
-0.10132628 0.018658295 0.60521048
-0.094105698 0.01855482 0.60572094
-0.086583182 0.018182812 0.60837823
-0.079685993 0.017151652 0.60864711
-0.10641049 0.022981271 0.60833335
-0.10134789 0.026285144 0.60668904
-0.093884699 0.025897305 0.60745239
-0.08961001 0.025810001 0.60900003
-0.10025568 0.032933407 0.60822225
-0.095420092 0.032431506 0.6089232
-0.098406672 0.039246671 0.60900003
-0.095106751 0.039048024 0.60891676
-0.10670692 -0.060641672 0.61225003
-0.083999529 -0.060083337 0.61250007
-0.10685831 -0.055760331 0.61200005
-0.08468537 -0.055874169 0.61292005
-0.081836313 -0.056948457 0.61487502
-0.10722372 -0.048455376 0.61233342
-0.10312238 -0.048116669 0.61116672
-0.084597416 -0.049315061 0.61261916
-0.082451433 -0.046196193 0.61400002
-0.10776203 -0.042396568 0.61421734
-0.10358561 -0.042531159 0.61300004
-0.090342864 -0.040217146 0.61200011
-0.086305305 -0.041138351 0.61213052
-0.08145798 -0.043065596 0.61312503
-0.11529562 -0.018282905 0.61361903
-0.11175562 -0.018063048 0.61180007
-0.076773934 -0.016607739 0.61187506
-0.072802387 -0.015852857 0.61650002
-0.11603419 -0.011422521 0.61223537
-0.076572746 -0.011748254 0.61242861
-0.071668729 -0.010640352 0.61526322
-0.066508576 -0.0076514292 0.61800003
-0.12240941 -0.0026327383 0.61387497
-0.11776509 -0.0035848529 0.61257148
-0.070371561 -0.0035597687 0.61483788
-0.065561503 -0.0031899328 0.61700004
-0.12245381 0.003374866 0.61265224
-0.11743828 0.004344502 0.61181831
-0.071342997 0.0035935375 0.6144287
-0.065866195 0.00058809528 0.61750007
-0.12123303 0.010539048 0.61693341
-0.11608271 0.011296593 0.61394745
-0.11081453 0.010896335 0.61175007
-0.076138668 0.011394761 0.61183339
-0.072182164 0.010896698 0.61434376
-0.12085239 0.018275239 0.61900002
-0.11615895 0.01877352 0.61597234
-0.11073684 0.019152382 0.61250001
-0.084841721 0.021297716 0.611
-0.07767459 0.019599849 0.61176002
-0.07307402 0.018709684 0.61383331
-0.11561003 0.025361059 0.61711115
-0.10937432 0.026568724 0.61309385
-0.090457536 0.027359242 0.61120003
-0.086159706 0.026191432 0.61178052
-0.078814805 0.026274169 0.61302048
-0.072817154 0.026558684 0.61546159
-0.11404859 0.033173021 0.61833334
-0.10880937 0.033928413 0.61422229
-0.10288657 0.035761487 0.6111111
-0.09282513 0.034315106 0.6114139
-0.086125925 0.034013581 0.61328208
-0.078912146 0.033887576 0.61589736
-0.073352933 0.032939054 0.61757153
-0.11430389 0.041812815 0.61836368
-0.10905603 0.041042171 0.6156112
-0.10174114 0.041527763 0.6120882
-0.093198203 0.042043973 0.61151361
-0.086091988 0.041055355 0.61439538
-0.078811608 0.041178126 0.61691415
-0.074869528 0.041856192 0.61900008
-0.11383516 0.048481215 0.61872733
-0.1091259 0.048614055 0.61684996
-0.10137074 0.04899187 0.61393034
-0.093761653 0.049091171 0.61459458
-0.086077981 0.04871751 0.6153748
-0.079764739 0.04775703 0.61783999
-0.1072926 0.055738885 0.61758828
-0.10079907 0.056016929 0.61402643
-0.093898796 0.056340694 0.6162222
-0.088565946 0.055945784 0.61682355
-0.078406669 0.053646669 0.61900002
-0.1057343 0.063618101 0.61850005
-0.10093495 0.06337931 0.61616647
-0.093581311 0.06358169 0.61743897
-0.087981693 0.063678272 0.61805892
-0.10552477 0.068384767 0.61900002
-0.10113246 0.070924483 0.61813158
-0.095385723 0.070033349 0.61842865
-0.10021906 0.076048575 0.61900002
-0.069039769 0.0026664287 0.62225002
-0.1239081 0.014892858 0.62550002
-0.12262315 0.01867546 0.62338471
-0.071447626 0.021847621 0.62
-0.12297744 0.027097438 0.62378263
-0.11812112 0.028199842 0.62116671
-0.071447626 0.025390478 0.62
-0.12819621 0.03055143 0.62900001
-0.12352923 0.033204667 0.62580657
-0.11751502 0.034053374 0.62203991
-0.073219053 0.03660953 0.62
-0.12262649 0.041166048 0.62573081
-0.11764948 0.041105416 0.62173682
-0.076171435 0.039561909 0.62
-0.073396586 0.041351996 0.62182355
-0.12297826 0.049000289 0.62799996
-0.117378 0.048611116 0.62244445
-0.077108055 0.049763605 0.62122226
-0.072965607 0.049039796 0.62288892
-0.12084779 0.056234609 0.62816668
-0.11587837 0.056096844 0.62393337
-0.11017452 0.057819895 0.62135291
-0.085913025 0.057486601 0.62391675
-0.07858482 0.056303833 0.6208446
-0.072327197 0.055726089 0.62446159
-0.1206124 0.062851436 0.62849998
-0.11615311 0.063643157 0.62562501
-0.10973046 0.063958481 0.6218214
-0.084796481 0.063628852 0.62089998
-0.07887058 0.064021386 0.62334883
-0.073695064 0.063401848 0.62656254
-0.12040858 0.068291433 0.62900001
-0.11574576 0.071273908 0.6270858
-0.10862431 0.071479276 0.62275851
-0.10274287 0.074400008 0.62
-0.092697538 0.071923703 0.62099999
-0.086128399 0.071283989 0.62371427
-0.078695938 0.071544014 0.62599993
-0.07412079 0.071949534 0.62718183
-0.11469504 0.078569412 0.62695837
-0.10859454 0.07877811 0.62456238
-0.10146567 0.07933531 0.62133342
-0.094154887 0.078900397 0.6225
-0.086321883 0.078591108 0.62573165
-0.078835681 0.078837194 0.62711108
-0.074043974 0.078829214 0.62783337
-0.11458213 0.086123407 0.62704349
-0.10823435 0.086143814 0.62510008
-0.10115807 0.086562186 0.62183869
-0.093849003 0.086126924 0.62193191
-0.08633735 0.086337805 0.62521267
-0.078908674 0.086152636 0.62757146
-0.074880958 0.083267622 0.62900001
-0.11462638 0.092187844 0.62782353
-0.10856237 0.093848392 0.62630564
-0.10109197 0.093958147 0.62438887
-0.093743004 0.093744799 0.62297219
-0.086232521 0.093962349 0.62506974
-0.079961002 0.092654005 0.62800002
-0.10819104 0.10140436 0.62716126
-0.10119069 0.10119032 0.625
-0.093618102 0.10135139 0.62553662
-0.086090915 0.10142581 0.62694603
-0.081556059 0.10004095 0.62900001
-0.1281043 0.034882382 0.63150001
-0.12680095 0.036658097 0.63100004
-0.12680095 0.037860002 0.63100004
-0.12479778 0.050279688 0.63100004
-0.12466691 0.056684647 0.63312501
-0.12760477 0.062290482 0.63500011
-0.12476829 0.064347655 0.63336003
-0.12760477 0.073176198 0.63500011
-0.12381824 0.071275592 0.63307154
-0.11958953 0.073316202 0.63100004
-0.072715245 0.072715245 0.63100004
-0.12332658 0.078771859 0.6353333
-0.118918 0.079318963 0.63190001
-0.07243818 0.078459457 0.63208342
-0.12320505 0.085799091 0.63580769
-0.11890616 0.085850276 0.63233334
-0.075739846 0.086560808 0.6311667
-0.071939655 0.086845107 0.63440746
-0.067445718 0.089320004 0.63800001
-0.12104832 0.096200153 0.63414288
-0.11725174 0.095309019 0.63184625
-0.076858342 0.094656952 0.63178951
-0.071315981 0.093228087 0.63675767
-0.06531962 0.091715626 0.63860005
-0.12178551 0.10177099 0.63409525
-0.11627987 0.10121809 0.63260013
-0.11237811 0.10096001 0.63100004
-0.078245096 0.10126508 0.63214302
-0.074423932 0.10080131 0.63662499
-0.069916099 0.079351395 0.64209533
-0.066394292 0.081149057 0.64550006
-0.069468871 0.084924474 0.64268756
-0.066669531 0.084348008 0.64460003
-0.12617144 0.090819053 0.64000005
-0.06889382 0.096330009 0.64016676
-0.065460838 0.095826782 0.64087498
-0.070692033 0.1013774 0.6406858
-0.066490009 0.098819532 0.64050007
