# .PCD v0.7 - Point Cloud Data file format
VERSION 0.7
FIELDS x y z
SIZE 4 4 4
TYPE F F F
COUNT 1 1 1
WIDTH 1399
HEIGHT 1
VIEWPOINT 0 0 0 1 0 0 0
POINTS 1399
DATA ascii
-0.12540501 -0.11116864 0.92809099
-0.11510524 -0.11208791 0.92569238
-0.1053986 -0.11220571 0.92469996
-0.095621906 -0.11267293 0.92774999
-0.085453339 -0.11212614 0.92725003
-0.074606515 -0.11217424 0.92512494
-0.065650836 -0.11286744 0.92533338
-0.055920932 -0.11366183 0.92611104
-0.045071196 -0.11314092 0.92449993
-0.034859538 -0.11202221 0.92563629
-0.024620835 -0.11358953 0.92530006
-0.015275121 -0.1138119 0.92431581
-0.0045307698 -0.11508933 0.92568761
0.0053953486 -0.11535255 0.92455566
0.014871359 -0.11567982 0.92495239
0.024631182 -0.11586792 0.92517668
0.035200253 -0.1154109 0.92521447
0.044769999 -0.11529002 0.92380011
0.054321621 -0.11624705 0.92376935
0.065747902 -0.11610106 0.92366678
0.074225962 -0.11700337 0.92433351
0.083897077 -0.11754608 0.92488891
0.095133252 -0.11660317 0.9242354
0.10441933 -0.11735342 0.92253864
0.11498724 -0.11781421 0.9230001
0.12510654 -0.11839416 0.92369246
0.1354223 -0.11823899 0.92441672
0.14558949 -0.11648405 0.92425013
0.15523216 -0.11799823 0.92316675
0.16505626 -0.1177471 0.92360014
0.17501794 -0.11730899 0.92276931
0.18549244 -0.11713725 0.92300004
0.19498225 -0.11712371 0.92283332
0.20486253 -0.11781544 0.92050004
0.2156034 -0.11799712 0.92271441
0.22532119 -0.11728829 0.92321068
0.23374003 -0.11787996 0.92315394
0.34947303 -0.11908466 0.92100006
0.35649812 -0.11812038 0.92100006
0.36013183 -0.11812038 0.92100006
0.41827068 -0.11908466 0.92100006
0.42796049 -0.11908466 0.92100006
0.45362988 -0.11991861 0.92000002
-0.31313589 -0.10460031 0.92621058
-0.305408 -0.10360852 0.92571998
-0.29631031 -0.10064869 0.92628574
-0.28428134 -0.1010043 0.92700011
-0.27576438 -0.1016939 0.92607695
-0.26587105 -0.10121144 0.92508352
-0.25394374 -0.10300127 0.92454559
-0.24444418 -0.10279855 0.92272735
-0.23476623 -0.1036929 0.9246155
-0.2248445 -0.10404827 0.92620009
-0.21503001 -0.10444282 0.92428595
-0.20539275 -0.10388945 0.92107695
-0.19511499 -0.10623982 0.92386681
-0.18688944 -0.10598768 0.92355561
-0.17413248 -0.1052127 0.9243573
-0.16477971 -0.10594029 0.92405289
-0.15491042 -0.10721555 0.92476475
-0.14441665 -0.10699522 0.92440003
-0.1342704 -0.10535376 0.9214167
-0.12500545 -0.10674891 0.92271429
-0.11649095 -0.10907797 0.92200005
-0.1053702 -0.10928483 0.92200005
-0.09663973 -0.10925621 0.92349994
-0.089087509 -0.10956063 0.92200005
-0.074051999 -0.10891708 0.92200011
-0.069201827 -0.1085953 0.92200005
-0.4821263 -0.090743415 0.92700005
-0.47616154 -0.091045178 0.92677784
-0.4641211 -0.091678396 0.92663646
-0.45497605 -0.091616094 0.92600006
-0.44478169 -0.093050286 0.92580003
-0.4352046 -0.092903323 0.92361927
-0.42499551 -0.092559934 0.92309093
-0.41452557 -0.093321793 0.92325014
-0.40564898 -0.093738429 0.92427266
-0.39488 -0.0934406 0.92347628
-0.38451076 -0.092040174 0.92500007
-0.37455353 -0.092445038 0.9245556
-0.36446533 -0.093955748 0.926
-0.35467505 -0.093834683 0.92633343
-0.34506473 -0.093623437 0.9247334
-0.33433688 -0.093098685 0.92506248
-0.32529843 -0.093171254 0.92521048
-0.31418183 -0.095329747 0.92545724
-0.30638018 -0.097571053 0.92400014
-0.29586831 -0.099798933 0.92100006
-0.28407905 -0.09819179 0.92100012
-0.27842665 -0.097870365 0.92100006
-0.26481655 -0.098577701 0.92220002
-0.25434098 -0.099690579 0.92000008
-0.24715063 -0.099690579 0.92000002
-0.48111293 -0.087137766 0.92580014
-0.47497299 -0.087348372 0.92300016
-0.46402079 -0.087840319 0.92300004
-0.45575452 -0.087616578 0.92133331
-0.44541276 -0.088259429 0.92133331
-0.43750498 -0.087874494 0.92066669
-0.39165425 -0.089159511 0.92066669
-0.38636747 -0.088538639 0.9208889
-0.35303819 -0.088227496 0.92100006
-0.32558373 -0.089191787 0.92100012
-0.31137201 -0.089191787 0.92100006
0.35729104 -0.13124338 0.93900007
0.36519438 -0.13124338 0.93900007
0.39687863 -0.13061257 0.93800002
0.40442115 -0.13054243 0.93800008
0.41908315 -0.13110361 0.93800002
0.42229044 -0.13159464 0.93800002
0.4365178 -0.13143097 0.93800008
0.44326138 -0.13085809 0.93800002
0.45765874 -0.13117421 0.93616676
0.465186 -0.13209583 0.9348461
0.47495186 -0.13167626 0.9345001
0.48448506 -0.1319131 0.93515402
0.49337158 -0.13218012 0.93633342
0.50331086 -0.13270114 0.9368
0.51739937 -0.13250311 0.93555558
0.52436793 -0.13345721 0.93285716
0.53314167 -0.13404897 0.93266666
0.54137027 -0.13390695 0.93700004
-0.097151592 -0.12042892 0.93900007
-0.075781681 -0.1211637 0.93860006
-0.041783601 -0.12128276 0.93800002
-0.03479464 -0.12148236 0.93575001
-0.02551957 -0.12189206 0.93574995
-0.014632276 -0.12137657 0.93720007
-0.0047736382 -0.1221345 0.93700004
0.0048134569 -0.12277474 0.93688893
0.015786093 -0.1224626 0.93575007
0.025148319 -0.12221897 0.93387491
0.034231037 -0.12185071 0.9361819
0.046469253 -0.12251958 0.93593335
0.055388413 -0.12333234 0.93542856
0.066968851 -0.12150955 0.93520004
0.07567624 -0.12289707 0.9339999
0.084826849 -0.12282042 0.93421423
0.09494514 -0.12432105 0.93363637
0.10328233 -0.12389313 0.93300015
0.1156707 -0.12434804 0.9349336
0.12508544 -0.12370735 0.93450016
0.13531379 -0.12316947 0.93293351
0.14574036 -0.12290461 0.93378961
0.15433733 -0.12330008 0.9344002
0.165682 -0.12338531 0.93371451
0.17555259 -0.12341791 0.93308347
0.1853593 -0.1237509 0.93386692
0.1947369 -0.12250344 0.93300015
0.20375971 -0.12377642 0.93457156
0.21464981 -0.12434614 0.93307173
0.22447482 -0.12640993 0.93542874
0.23392768 -0.12558734 0.93346685
0.24036632 -0.12219578 0.93000007
0.35742024 -0.12737305 0.93225008
0.36482364 -0.1274763 0.93299997
0.37514314 -0.12756613 0.93425006
0.38429388 -0.12680371 0.93379992
0.39462274 -0.12794775 0.93360013
0.40525341 -0.12750363 0.93320018
0.41498286 -0.12649551 0.93407708
0.42482561 -0.12832499 0.93261552
0.4348653 -0.12854727 0.9321112
0.44515049 -0.12849694 0.9333334
0.45512679 -0.12759486 0.93223089
0.4636378 -0.12881994 0.9303751
0.47641176 -0.12793684 0.93128574
0.4829053 -0.12787786 0.9308573
0.49500793 -0.12998545 0.93000007
0.50161242 -0.12998545 0.93000007
0.51599449 -0.12901101 0.93200004
0.52183378 -0.12901175 0.93000007
-0.32135162 -0.11208436 0.93500012
-0.31735009 -0.11051127 0.93000007
-0.28422385 -0.11047982 0.93800008
-0.27468413 -0.11047982 0.93800002
-0.26728263 -0.11047982 0.93800002
-0.25001246 -0.11047982 0.93800002
-0.23344557 -0.11192124 0.93714297
-0.22636941 -0.11140248 0.93750012
-0.2120181 -0.1114619 0.93800002
-0.20429724 -0.11265104 0.93766683
-0.19570953 -0.1126994 0.93569243
-0.18507537 -0.1122336 0.93691671
-0.17504543 -0.11295461 0.93481827
-0.16531134 -0.11320622 0.93553865
-0.15511645 -0.11426879 0.93635303
-0.14582939 -0.11469036 0.93505001
-0.13579632 -0.11487307 0.9356156
-0.12537631 -0.11484397 0.93415397
-0.11557497 -0.11634376 0.93460006
-0.10419931 -0.11684262 0.93650007
-0.09453243 -0.11710647 0.93552953
-0.085126802 -0.11679167 0.93660015
-0.075297028 -0.11767827 0.93341678
-0.065757021 -0.11778691 0.93277782
-0.055379938 -0.11722338 0.93433344
-0.043906763 -0.11825635 0.93514287
-0.035486728 -0.117304 0.93238896
-0.026779253 -0.11833067 0.93100005
-0.015277384 -0.11824859 0.93150008
-0.0040129423 -0.11910791 0.93250006
0.005220612 -0.11953115 0.9320001
0.015584209 -0.1194029 0.93100005
0.021216344 -0.1194029 0.93100005
0.035532925 -0.11847904 0.93140012
0.045116194 -0.11842815 0.93100005
0.067080297 -0.11953115 0.93200004
0.086353227 -0.1194029 0.93100005
0.093209743 -0.1194029 0.93100005
-0.44348294 -0.10040857 0.93566674
-0.43457562 -0.10146131 0.93733335
-0.42556164 -0.10126722 0.93655556
-0.41328558 -0.10174941 0.93900007
-0.39105743 -0.10174941 0.93900007
-0.38425449 -0.10135015 0.93833333
-0.3762449 -0.10081474 0.93814296
-0.36575818 -0.10096636 0.93720007
-0.35492137 -0.10050566 0.93657148
-0.34481791 -0.10072029 0.93857157
-0.33497468 -0.10090198 0.93660003
-0.32225871 -0.10527828 0.93629998
-0.31632298 -0.10550649 0.93220007
-0.30295506 -0.10673827 0.93388897
-0.29467705 -0.10521527 0.93523806
-0.28527349 -0.10598524 0.93389469
-0.27497607 -0.10654208 0.9338668
-0.2651076 -0.10655846 0.93330014
-0.25593734 -0.10781023 0.93572742
-0.24506691 -0.10811335 0.93449992
-0.23458152 -0.10802715 0.93300009
-0.22519651 -0.10752783 0.93185723
-0.21531144 -0.10849055 0.93250006
-0.20594244 -0.10834978 0.93150014
-0.19486845 -0.1094708 0.93150008
-0.18428092 -0.10875859 0.93000013
-0.17416871 -0.10922737 0.93150008
-0.16634268 -0.10953756 0.93000007
-0.15477031 -0.10977312 0.93200004
-0.48375723 -0.095109031 0.93250024
-0.47493014 -0.094148397 0.93266678
-0.46495166 -0.095836148 0.93244469
-0.45524302 -0.096365243 0.93253356
-0.44566455 -0.097326703 0.93028593
-0.43445551 -0.097968124 0.93323088
-0.42583063 -0.097462296 0.93269247
-0.41488594 -0.099054471 0.93214297
-0.40423226 -0.098959573 0.93533349
-0.39423779 -0.097998396 0.93492311
-0.38614443 -0.097178102 0.93394125
-0.37533084 -0.097535744 0.93372726
-0.36395591 -0.097738564 0.9320001
-0.35455218 -0.098021396 0.93160003
-0.34421062 -0.09813305 0.93341672
-0.33426276 -0.098182127 0.93227279
-0.32572877 -0.098374635 0.93262506
-0.31769133 -0.098933019 0.93100005
0.51700878 -0.1402936 0.94700003
0.523485 -0.1402936 0.94700003
0.53967541 -0.14227661 0.94700003
0.54399294 -0.14095461 0.94700003
0.013639025 -0.13065387 0.94900006
0.064092472 -0.1305162 0.94800007
0.073974609 -0.13094652 0.94680005
0.084048688 -0.13050286 0.94550014
0.092702143 -0.13154079 0.94680005
0.10398798 -0.1305162 0.94800007
0.11469327 -0.13101248 0.94800007
0.12500089 -0.13141008 0.94550008
0.13520917 -0.13109258 0.94500011
0.14517501 -0.13179694 0.94650006
0.15512928 -0.13128142 0.94725007
0.16123801 -0.1305162 0.94800007
0.17460303 -0.1305162 0.94800007
0.18525508 -0.13083062 0.94740009
0.19554773 -0.13094416 0.94750005
0.20519274 -0.1315984 0.94775003
0.21439983 -0.1313138 0.94557154
0.22529419 -0.13196944 0.94560015
0.23554499 -0.13195489 0.94644451
0.2418205 -0.13219266 0.9472
0.35968906 -0.13243745 0.94400001
0.36544305 -0.1333867 0.94421434
0.37505704 -0.13367561 0.944875
0.38545883 -0.1328727 0.9445715
0.39452967 -0.13283886 0.94380009
0.40511051 -0.13410963 0.94377786
0.41548139 -0.13314267 0.94363165
0.42462125 -0.13489772 0.94454545
0.43498465 -0.13506269 0.94505882
0.44566271 -0.13516386 0.94461125
0.45526484 -0.13501397 0.94443989
0.46329826 -0.13587326 0.94212502
0.47594669 -0.13646455 0.94488895
0.48500335 -0.13675657 0.94372725
0.49476755 -0.13627645 0.94433331
0.50617445 -0.1364429 0.94385725
0.51538497 -0.135612 0.94266665
0.52497405 -0.13811859 0.94266683
0.53514045 -0.13872696 0.94233346
0.54301751 -0.13792741 0.94242871
-0.16224295 -0.12046343 0.94700003
-0.15472069 -0.12029383 0.94566673
-0.14396504 -0.12085438 0.94540006
-0.1358944 -0.12172307 0.9460001
-0.12786937 -0.12145494 0.94700003
-0.11034596 -0.12081368 0.94200003
-0.10489625 -0.12174228 0.94537508
-0.093072303 -0.12230904 0.94400007
-0.085098684 -0.12328406 0.94411099
-0.076402523 -0.12357666 0.94300008
-0.0644961 -0.12225437 0.94550008
-0.055248681 -0.12318943 0.94626325
-0.045135397 -0.12419089 0.94515008
-0.035431094 -0.12671696 0.94580019
-0.024454653 -0.12623063 0.94427288
-0.0152497 -0.1259512 0.94500017
-0.0050991378 -0.1261712 0.94464302
0.0053450232 -0.12721887 0.94507158
0.014376929 -0.12707356 0.94406259
0.024654336 -0.12795722 0.94375008
0.034627657 -0.12698214 0.94505566
0.043389477 -0.12677935 0.94462508
0.054682162 -0.12864339 0.94516677
0.064993747 -0.12568703 0.94310528
0.074518099 -0.1278736 0.94181824
0.085314311 -0.12722123 0.94163656
0.09200976 -0.12867528 0.94180006
0.10664421 -0.12757687 0.94239998
0.11450554 -0.1284422 0.94214284
0.12503956 -0.12850076 0.94257146
0.13466826 -0.12775947 0.94163638
0.14443359 -0.12780374 0.94141674
0.15497003 -0.12780815 0.94175005
0.16459969 -0.12778538 0.94250005
0.17459458 -0.1274945 0.94242865
0.18426584 -0.12778538 0.94250005
0.1951797 -0.12765346 0.94333333
0.20528276 -0.1277809 0.94350004
0.21570399 -0.12879495 0.94266671
0.22218253 -0.12646225 0.94000006
0.2375214 -0.12870386 0.94200003
0.24116538 -0.12855728 0.94333339
0.38412267 -0.12955247 0.9410001
0.45259923 -0.12955247 0.94100004
-0.31389976 -0.11343306 0.9474287
-0.30491844 -0.11292747 0.9458667
-0.29482162 -0.11274817 0.94310558
-0.28506106 -0.11337391 0.94418752
-0.27426153 -0.11275139 0.94191664
-0.26449415 -0.11355358 0.94412494
-0.25523323 -0.11513884 0.94514811
-0.24496916 -0.11347552 0.94400001
-0.23537292 -0.11520208 0.94384617
-0.22578926 -0.11550581 0.94516683
-0.2151946 -0.11543371 0.94442868
-0.20505433 -0.11647524 0.94246179
-0.19444057 -0.11688991 0.94276947
-0.18481828 -0.1163778 0.94400001
-0.17400834 -0.11719622 0.94462502
-0.16529348 -0.11767399 0.94450015
-0.15613595 -0.11840075 0.94320005
-0.14503358 -0.11916988 0.94200003
-0.13429694 -0.11884113 0.94200003
-0.12515628 -0.11926165 0.94533342
-0.1149779 -0.11866747 0.94285727
-0.10748883 -0.11896729 0.94300002
-0.052312478 -0.1197002 0.94100004
-0.048847396 -0.1197002 0.94100004
-0.49319205 -0.10162582 0.94700003
-0.47446954 -0.10149063 0.94575012
-0.46432051 -0.10256162 0.94563645
-0.45420352 -0.10400145 0.94484222
-0.44507593 -0.10494513 0.9441334
-0.43660694 -0.10454374 0.94350004
-0.42455217 -0.10469749 0.94546682
-0.41528329 -0.10456162 0.9452107
-0.40494722 -0.10488404 0.94616675
-0.39575011 -0.1053925 0.94570595
-0.38485685 -0.10516586 0.94384623
-0.37608337 -0.10345151 0.94390923
-0.36419606 -0.10300586 0.94450009
-0.35435954 -0.10539402 0.94520015
-0.34505856 -0.1049572 0.94441187
-0.33356848 -0.10547356 0.94636858
-0.32771289 -0.10538339 0.94400007
-0.30553231 -0.10933752 0.94000006
-0.29636785 -0.10874703 0.94000006
-0.28021467 -0.10874702 0.94000006
-0.27823672 -0.10874702 0.94000006
-0.2545014 -0.1097312 0.94000006
-0.484725 -0.098641686 0.94499999
-0.47645736 -0.098806165 0.94280005
-0.46515083 -0.099115662 0.94200003
0.36778277 -0.14062597 0.95600003
0.37537751 -0.1408361 0.95742863
0.38610417 -0.14148355 0.95563638
0.39506218 -0.14168191 0.95711118
0.4034299 -0.14196023 0.95825005
0.41494551 -0.14046483 0.95900005
0.42493722 -0.14184913 0.95749998
0.43497229 -0.14156342 0.95557147
0.44541571 -0.14204958 0.9565835
0.45447746 -0.14251812 0.95576942
0.46635342 -0.14205647 0.95600009
0.47524476 -0.14157398 0.95615405
0.48494905 -0.14241351 0.95455563
0.49567926 -0.1429863 0.95472735
0.50487286 -0.14223535 0.95438468
0.51485986 -0.14382197 0.95408696
0.52493876 -0.14483474 0.95450008
0.53543407 -0.14445063 0.95530778
0.54505819 -0.14564562 0.95376474
0.55237162 -0.14701878 0.9563334
-0.12545383 -0.13102655 0.95900005
-0.1157678 -0.13002248 0.95900005
-0.090644687 -0.13102655 0.95900005
-0.083829902 -0.13088992 0.95800006
-0.061889306 -0.13102655 0.95900005
-0.054871511 -0.13107921 0.9572857
-0.044925138 -0.13116379 0.9568572
-0.037876114 -0.13157345 0.95566672
-0.021530878 -0.13203062 0.95900005
-0.014086732 -0.13252494 0.95611119
-0.0050359489 -0.13325 0.95620012
0.0038046413 -0.13215806 0.95537508
0.013867592 -0.1324822 0.95500016
0.025434429 -0.13301122 0.95612502
0.034659848 -0.13349335 0.95508349
0.044388 -0.13359769 0.9537859
0.054732822 -0.13290757 0.95566666
0.064945489 -0.13272707 0.9547143
0.07449948 -0.13466486 0.95440018
0.085237496 -0.13512975 0.95500004
0.095352933 -0.13441983 0.95457149
0.10663291 -0.13359527 0.95422226
0.1157039 -0.13444905 0.95530784
0.12605578 -0.13452066 0.95350003
0.13459553 -0.13664021 0.95476186
0.14257473 -0.13612504 0.95460004
0.15489081 -0.13510172 0.95291674
0.16513047 -0.13397998 0.95514297
0.17522015 -0.13460863 0.95456254
0.1849647 -0.13422504 0.95358813
0.19533356 -0.13434219 0.95322227
0.20576552 -0.13526304 0.9545384
0.21471107 -0.13539845 0.95441663
0.22405389 -0.13581415 0.95499992
0.23573622 -0.13576552 0.95600003
0.24397515 -0.13814309 0.95612502
0.36620337 -0.1374242 0.95287508
0.37536642 -0.1379433 0.95228583
0.38558337 -0.13787711 0.9520911
0.39539322 -0.13808167 0.95225012
0.4056474 -0.13835052 0.95333344
0.41584113 -0.13802812 0.9528572
0.42547575 -0.1386708 0.95287508
0.43433705 -0.13896267 0.95222229
0.4429011 -0.13989049 0.95100003
0.45490763 -0.13989049 0.95100003
0.4624117 -0.13989049 0.95100003
0.47741985 -0.13839695 0.95100003
0.48524696 -0.13974339 0.94999999
0.49540848 -0.13941184 0.95000005
0.50190514 -0.13874874 0.95000005
-0.32018325 -0.12098583 0.95900005
-0.31330571 -0.12090085 0.95700002
-0.30456051 -0.12186321 0.95800006
-0.27309841 -0.12098583 0.95900005
-0.26530862 -0.12073246 0.95540011
-0.24148431 -0.12098583 0.95900005
-0.23561136 -0.12131153 0.95562506
-0.22379313 -0.12188292 0.95500004
-0.21493505 -0.1218885 0.95424998
-0.20440285 -0.12243961 0.95466679
-0.19529131 -0.12224201 0.9538182
-0.18462697 -0.12234466 0.9558751
-0.17576668 -0.1223533 0.95327276
-0.16531765 -0.12333792 0.95205879
-0.15472844 -0.1243422 0.95391667
-0.14445178 -0.12461498 0.95344448
-0.13324253 -0.12516041 0.95253855
-0.12454754 -0.12472169 0.95280951
-0.11510681 -0.12532766 0.95345467
-0.10481865 -0.12689286 0.95541167
-0.095667779 -0.12703896 0.95541662
-0.08498586 -0.12794213 0.95100003
-0.074708924 -0.12751284 0.95522237
-0.065396935 -0.12735033 0.95493752
-0.055801015 -0.12805642 0.95266682
-0.045392942 -0.12901919 0.95160007
-0.032857522 -0.12943567 0.95100003
-0.024375353 -0.12907341 0.95200008
-0.013346917 -0.12893783 0.95100009
-0.004342021 -0.12893783 0.95100003
0.00066069851 -0.12893783 0.95100003
0.038681369 -0.12993352 0.95100003
0.046969794 -0.12979689 0.95000005
0.055632055 -0.12979689 0.95000005
-0.49370167 -0.1117157 0.95699996
-0.48967424 -0.11071372 0.95700002
-0.46148226 -0.1117157 0.95700002
-0.45896512 -0.1117157 0.95700002
-0.44839314 -0.11071372 0.95700002
-0.43253517 -0.11121471 0.95700002
-0.42528051 -0.11099779 0.95512497
-0.41424227 -0.11057489 0.95580006
-0.40339467 -0.11045343 0.95475006
-0.39614221 -0.11077529 0.95580006
-0.35265085 -0.1124629 0.95766675
-0.34416002 -0.11130401 0.95714301
-0.33584121 -0.11284003 0.95557147
-0.32314378 -0.11630382 0.9525001
-0.31497169 -0.11750354 0.95300019
-0.30438894 -0.11822552 0.95353854
-0.29558155 -0.11796458 0.95542872
-0.28380609 -0.11819037 0.95481831
-0.27630413 -0.11850359 0.95583344
-0.26521906 -0.1183336 0.95220006
-0.25207841 -0.11897768 0.95900005
-0.2466519 -0.11798336 0.95557153
-0.23796816 -0.11823329 0.95300007
-0.22525577 -0.11929174 0.95083332
-0.21534562 -0.11941563 0.95050001
-0.20823377 -0.1198504 0.95000005
-0.1812475 -0.11885574 0.95000005
-0.17724954 -0.11885574 0.95000005
-0.49420992 -0.10646258 0.95436358
-0.48550314 -0.10474706 0.95371979
-0.47503123 -0.10593698 0.95376462
-0.46502432 -0.10730066 0.95335722
-0.45553276 -0.10895915 0.95333338
-0.4450247 -0.10863221 0.9528001
-0.43559363 -0.10781381 0.95350009
-0.42702013 -0.1081418 0.95200002
-0.4151679 -0.10814179 0.95200008
-0.4009786 -0.10913853 0.95200002
-0.39241946 -0.10919585 0.95249999
-0.38444015 -0.1091158 0.9542858
-0.37461194 -0.10619814 0.9534446
-0.36486048 -0.10774843 0.95512497
-0.35599014 -0.10904884 0.9526667
-0.34589082 -0.10854049 0.95200008
-0.3385458 -0.1081418 0.95200002
0.48798543 -0.15065458 0.96900004
0.49497107 -0.15052132 0.96814287
0.50558555 -0.15096781 0.96728581
0.51505148 -0.15261693 0.96749991
0.52555031 -0.15205979 0.96825004
0.53542763 -0.15018816 0.96600002
0.54538405 -0.15261489 0.96671438
0.55414176 -0.15132529 0.96437502
0.56036866 -0.15369822 0.96900004
-0.015797306 -0.14041251 0.96833336
0.027179729 -0.1415237 0.96900004
0.03259616 -0.1421027 0.96833342
0.046145648 -0.14065403 0.96766675
0.055406719 -0.14082664 0.96700013
0.0646936 -0.14177433 0.96793342
0.072036922 -0.14253825 0.96900004
0.085120276 -0.14287643 0.96900004
0.095863007 -0.14099185 0.96766675
0.10615313 -0.14155826 0.96750003
0.11616805 -0.14200534 0.96766675
0.12595361 -0.14120726 0.96683347
0.13512155 -0.14162073 0.96275002
0.14621861 -0.14129265 0.96642858
0.15368517 -0.14204219 0.96699995
0.1656566 -0.1419761 0.96714288
0.17400739 -0.14173836 0.96700007
0.18507174 -0.14173836 0.96700001
0.19519344 -0.14200342 0.96688884
0.20551774 -0.1422441 0.96646154
0.21537764 -0.14256851 0.9657501
0.2247593 -0.14185861 0.96666664
0.23621766 -0.14158688 0.96690911
0.24439062 -0.14454666 0.96544456
0.3753607 -0.14379652 0.96383333
0.38438907 -0.14510635 0.96485722
0.39483476 -0.14614257 0.96600008
0.40469807 -0.14474094 0.96400011
0.415075 -0.14379844 0.96383333
0.42520812 -0.14478776 0.96371436
0.43623012 -0.14624351 0.96481818
0.44463167 -0.14725649 0.9646154
0.45342711 -0.14753255 0.96438468
0.46496972 -0.14655831 0.96509093
0.47619075 -0.14747731 0.96576464
0.48506236 -0.14747603 0.96478564
0.49459365 -0.14727883 0.96350008
0.50563949 -0.14714305 0.9629091
0.51438129 -0.14850849 0.96275014
0.52385449 -0.14976062 0.96325004
0.53552097 -0.14820342 0.96100008
0.5423764 -0.14938635 0.96300006
-0.22335787 -0.13036375 0.96900004
-0.19634163 -0.13188556 0.96900004
-0.18415368 -0.13211957 0.96700001
-0.17440093 -0.13218787 0.96750003
-0.16422926 -0.1315131 0.96750009
-0.15480879 -0.13120398 0.96771437
-0.14428537 -0.13214453 0.96799999
-0.13490939 -0.13272648 0.96453357
-0.12539962 -0.1336017 0.96400017
-0.11509089 -0.13302349 0.96375006
-0.10485725 -0.13240576 0.96600008
-0.094698504 -0.13360867 0.96592313
-0.085382842 -0.13430908 0.96714288
-0.073397808 -0.13365139 0.96440017
-0.065119281 -0.13386555 0.96400011
-0.055800058 -0.13355491 0.96275008
-0.046404582 -0.13426784 0.96371436
-0.034832288 -0.1345799 0.96418184
-0.025189694 -0.13490786 0.96520019
-0.016451046 -0.13673753 0.96480012
-0.0059885276 -0.13813554 0.96500003
0.0049642269 -0.1366016 0.96399999
0.015412319 -0.13722841 0.96628577
0.02430791 -0.13723703 0.96381271
0.034758538 -0.13829486 0.96475005
0.044130437 -0.13817447 0.96450007
0.055056211 -0.13732348 0.96325004
0.064971521 -0.136545 0.96250021
0.07446155 -0.13931024 0.96271437
0.085210219 -0.13937239 0.96314299
0.095654078 -0.13782248 0.96175003
0.10427936 -0.13788605 0.9629091
0.11544578 -0.13877486 0.96400011
0.1252702 -0.13823557 0.96287507
0.14736409 -0.138163 0.96325004
0.15585968 -0.13943614 0.96160001
0.16572723 -0.13875052 0.96150005
0.17605238 -0.13866779 0.96150005
0.18675774 -0.13881622 0.96128577
0.19468762 -0.13861303 0.96112502
0.20334284 -0.13819902 0.96000004
0.21731468 -0.13819902 0.96000004
0.2255166 -0.13865979 0.96180004
0.23504882 -0.13896696 0.96300018
0.24104999 -0.13920413 0.96000004
-0.33099324 -0.12098265 0.96700007
-0.32608011 -0.12157561 0.96500009
-0.31320095 -0.12443002 0.96625006
-0.30459189 -0.12474334 0.96475005
-0.29484108 -0.12277987 0.96418756
-0.28572577 -0.12427759 0.96416688
-0.27573234 -0.12394388 0.9648
-0.2638998 -0.12323572 0.96350002
-0.25385758 -0.12508248 0.96585727
-0.24559693 -0.12532789 0.96447837
-0.23461701 -0.12650874 0.96664286
-0.2251433 -0.12682943 0.96346152
-0.21472441 -0.12653302 0.963
-0.2045864 -0.12674707 0.96633339
-0.19434559 -0.12655897 0.96233326
-0.18499699 -0.12730233 0.96195012
-0.17456409 -0.12805907 0.96183342
-0.16506353 -0.12851611 0.96150005
-0.15542874 -0.12849107 0.9625715
-0.14691435 -0.1278782 0.963
-0.13770482 -0.12814781 0.96000004
-0.12406963 -0.12814781 0.96000004
-0.072204076 -0.12942201 0.96200007
-0.49362797 -0.11313368 0.96184623
-0.48615009 -0.11150514 0.96383333
-0.47407115 -0.11216152 0.9636668
-0.46477056 -0.11401157 0.9636668
-0.45464572 -0.11416176 0.96493757
-0.4448657 -0.11359497 0.96488899
-0.43468991 -0.11460302 0.96378589
-0.42509359 -0.11483566 0.96353346
-0.41627365 -0.1138576 0.96509093
-0.40405095 -0.11327533 0.96171433
-0.39448148 -0.11395726 0.96321446
-0.38404554 -0.11271174 0.96428585
-0.37489697 -0.11248426 0.96478575
-0.36597016 -0.11416338 0.96400005
-0.35609064 -0.11380736 0.96257144
-0.3454012 -0.1140907 0.9618001
-0.33657512 -0.11782438 0.96600008
-0.37401077 -0.10908842 0.96033335
-0.36798769 -0.10905055 0.96000004
0.56409162 -0.16040944 0.97900003
0.11655545 -0.15015931 0.97900003
0.12290712 -0.15015933 0.97900003
0.18711063 -0.15015931 0.97900003
0.19451109 -0.15164536 0.97866672
0.20523906 -0.15062034 0.97866672
0.21801069 -0.15015931 0.97900003
0.22470574 -0.15015931 0.97900003
0.23397574 -0.15015931 0.97900003
0.24411511 -0.15166107 0.97766674
0.36706841 -0.15308222 0.97366667
0.37499887 -0.15240386 0.97742873
0.38678655 -0.1517799 0.97733343
0.39541999 -0.15211552 0.97675014
0.40500778 -0.15158746 0.97500008
0.4154672 -0.15276773 0.97426689
0.42550048 -0.15283392 0.97550017
0.4348509 -0.15121728 0.97425008
0.44571191 -0.15228055 0.97420007
0.45529571 -0.15297864 0.97410011
0.46521547 -0.15173507 0.97500008
0.47460744 -0.15159716 0.97445476
0.48526934 -0.15309843 0.97377789
0.49441361 -0.15405193 0.97472739
0.50447053 -0.15415351 0.97508353
0.51470864 -0.15629302 0.97446173
0.52569687 -0.15528004 0.97466671
0.53660512 -0.15371817 0.97371435
0.54525334 -0.15600052 0.97507703
0.5552845 -0.15591349 0.97453845
0.56214595 -0.15776806 0.97533339
-0.10301265 -0.14082623 0.97825009
-0.095349751 -0.14067508 0.97720003
-0.086242117 -0.14116536 0.97857153
-0.075540043 -0.1409342 0.97900003
-0.065240018 -0.14195921 0.97900003
-0.052879985 -0.14195922 0.97900003
-0.045004796 -0.14235254 0.97700006
-0.034028035 -0.14230351 0.97666669
-0.024740018 -0.14299671 0.97530764
-0.013981493 -0.14319222 0.97542864
-0.0042761574 -0.14246194 0.97425008
0.0059817759 -0.14319168 0.97575009
0.015380212 -0.14410453 0.9750002
0.024132816 -0.14471681 0.97500002
0.034824427 -0.14487439 0.97560012
0.045015175 -0.14353703 0.97500008
0.056109302 -0.14522307 0.9756667
0.066698447 -0.14659765 0.97636366
0.076360993 -0.14541736 0.9756
0.085358322 -0.14608754 0.97439998
0.095364749 -0.14500572 0.97650003
0.10523035 -0.14542933 0.97600001
0.11444998 -0.14613754 0.97540015
0.12513477 -0.1462611 0.97538906
0.13548549 -0.14588822 0.97472739
0.14549845 -0.14601357 0.97378576
0.15556082 -0.14655612 0.97609109
0.16516037 -0.14610885 0.97589999
0.17585245 -0.14698537 0.97560012
0.18509087 -0.14683187 0.97535729
0.19568397 -0.14706209 0.97520018
0.20361303 -0.14711413 0.97420019
0.21472715 -0.14727962 0.9750002
0.22558987 -0.1465106 0.973077
0.23483354 -0.14670348 0.97364706
0.24273843 -0.1488248 0.97314298
0.36602497 -0.14979447 0.97000003
0.37582341 -0.14798106 0.97224998
0.38433656 -0.14858368 0.97269994
0.39541513 -0.14908567 0.97200006
0.40423733 -0.14887093 0.97060007
0.41467199 -0.14817059 0.97100013
0.42432362 -0.14832292 0.97100002
0.43304002 -0.1477633 0.97000003
-0.33758801 -0.13055059 0.97800004
-0.31384885 -0.1318486 0.97750008
-0.30525914 -0.1316365 0.97628582
-0.29406172 -0.13177471 0.97514296
-0.28424236 -0.1317324 0.97310013
-0.27679735 -0.13066053 0.97500008
-0.2629672 -0.13117947 0.976143
-0.25564563 -0.13182376 0.97228587
-0.24484414 -0.13215938 0.97287512
-0.2341231 -0.13283198 0.97370005
-0.22507823 -0.13315137 0.9745456
-0.21421182 -0.1327046 0.97416675
-0.20478411 -0.13358934 0.97400016
-0.19471414 -0.13424705 0.97372741
-0.18548129 -0.13534187 0.97287506
-0.17480291 -0.13399327 0.97325009
-0.16430183 -0.13508795 0.97500008
-0.15495986 -0.13534845 0.9743529
-0.14566508 -0.13611446 0.97383344
-0.13613577 -0.13665476 0.97225004
-0.11272846 -0.13749781 0.97400016
-0.10545397 -0.13673165 0.97163647
-0.096410193 -0.1371195 0.97133338
-0.084819049 -0.13764583 0.97325009
-0.076396659 -0.13802688 0.97533333
-0.06398204 -0.13906944 0.97550005
-0.055174395 -0.1381759 0.97399998
-0.044543441 -0.13815162 0.97240013
-0.035286076 -0.13857029 0.97200006
-0.027677089 -0.13827598 0.97112513
0.0060441373 -0.13992649 0.97200006
0.013969581 -0.13992649 0.97200006
-0.49681112 -0.12145896 0.97900003
-0.48728362 -0.12145896 0.97900003
-0.47291037 -0.12024942 0.97750002
-0.46658176 -0.12111044 0.97825009
-0.45565802 -0.12167762 0.97800004
-0.44505605 -0.12315051 0.97749996
-0.43511003 -0.12334902 0.97584617
-0.42533761 -0.12304762 0.97707146
-0.41750091 -0.12145896 0.97900003
-0.40428299 -0.12203823 0.97816676
-0.395289 -0.12185403 0.97618186
-0.38500553 -0.1213349 0.9780001
-0.37504297 -0.12241479 0.97680008
-0.36726853 -0.12108677 0.97600007
-0.35396549 -0.12167623 0.9780001
-0.34469843 -0.12434424 0.97750008
-0.33535379 -0.12580325 0.97425026
-0.32527813 -0.12696335 0.97444451
-0.31523323 -0.12760417 0.97212505
-0.30392319 -0.12810829 0.97112501
-0.29546583 -0.12794103 0.97090924
-0.28390926 -0.12803185 0.97000015
-0.27545577 -0.12722573 0.97109097
-0.26583743 -0.12677854 0.97190922
-0.25753123 -0.12859954 0.97100008
-0.24246284 -0.12910786 0.97100008
-0.23684412 -0.12944673 0.97100013
-0.21181527 -0.12859954 0.97100008
-0.20875052 -0.12859954 0.97100008
-0.50333166 -0.1178025 0.97700012
-0.49389058 -0.11791227 0.97628576
-0.48555624 -0.11717822 0.97610533
-0.47571743 -0.11702504 0.97257155
-0.46401462 -0.11861597 0.97250009
-0.45461193 -0.11871901 0.97214299
-0.44542211 -0.11865982 0.97209102
-0.43616173 -0.11923395 0.97200006
-0.42414516 -0.1188102 0.97200006
-0.41516346 -0.11810404 0.97538465
-0.40549254 -0.11803373 0.97440016
-0.3945305 -0.11793297 0.97190011
-0.38492471 -0.11770088 0.97281253
-0.3751606 -0.11854194 0.97188896
-0.36393398 -0.11856922 0.97212505
-0.35355553 -0.11852032 0.97450006
-0.34609574 -0.11875226 0.97083348
0.42313966 -0.16101246 0.98900002
0.43874753 -0.16204794 0.98900002
0.44603115 -0.16204794 0.98900002
0.45851746 -0.16204794 0.98900002
0.4605985 -0.16204794 0.98900002
0.47620636 -0.16204794 0.98900002
0.48557109 -0.16116039 0.98900002
0.49320158 -0.16101246 0.98900002
0.50624603 -0.16088969 0.98642874
0.51417786 -0.16195047 0.98525006
0.52411735 -0.16250733 0.9855001
0.53563625 -0.16178127 0.98666668
0.54514986 -0.16277075 0.98631233
0.55573714 -0.16237648 0.98527277
0.56498486 -0.16354124 0.98550004
0.57031679 -0.16602182 0.98800004
-0.063305102 -0.15065764 0.98900002
-0.057235382 -0.15065764 0.98900002
-0.0055560428 -0.15169312 0.98900002
0.0048449892 -0.15160109 0.98839998
0.014387326 -0.15169312 0.98900002
0.024096847 -0.15202554 0.98666668
0.035393078 -0.15062706 0.98685724
0.045520104 -0.15105349 0.98771435
0.055748589 -0.15187724 0.98750001
0.065103039 -0.15146461 0.98750007
0.075050987 -0.15100472 0.98720008
0.0853149 -0.15249731 0.9866001
0.094796918 -0.15235183 0.98607141
0.10547978 -0.15234348 0.98546159
0.11564503 -0.15319133 0.98530006
0.12483173 -0.15335158 0.98499995
0.13491932 -0.15251598 0.98649997
0.14496876 -0.15283826 0.98661542
0.15595624 -0.15193386 0.98533332
0.16545156 -0.15134183 0.98609084
0.17608027 -0.15262811 0.98500001
0.18572417 -0.15268628 0.98499995
0.19194916 -0.15464303 0.98800004
0.20536928 -0.15346453 0.98328578
0.21358846 -0.15291511 0.98500007
0.22227323 -0.15337539 0.98650002
0.23478878 -0.15292867 0.98457158
0.24320054 -0.15371762 0.98340005
0.37623972 -0.1562503 0.9841429
0.3850601 -0.15481915 0.98353857
0.39558595 -0.15611342 0.98366666
0.40469423 -0.15666549 0.98535717
0.41463342 -0.15703066 0.98409098
0.425134 -0.15747556 0.98200005
0.43573555 -0.15713331 0.98321426
0.44533625 -0.15703854 0.98439997
0.45429999 -0.15793258 0.98369235
0.46529365 -0.15795979 0.98500001
0.47446299 -0.15733489 0.98385715
0.48497137 -0.15701114 0.98210001
0.49298686 -0.15722315 0.98150003
0.50404376 -0.15797722 0.98300004
0.51301426 -0.1588228 0.9806
0.52583796 -0.15840442 0.98033345
0.53569686 -0.15789707 0.98199993
0.5430907 -0.15884468 0.98200005
0.55652171 -0.15884468 0.98200005
-0.33090502 -0.14016095 0.98800004
-0.32882607 -0.14016095 0.98800004
-0.24462886 -0.14016095 0.98800004
-0.2378723 -0.14016095 0.98800004
-0.22383943 -0.1409885 0.98800004
-0.21413489 -0.1424199 0.98533332
-0.20709583 -0.14231464 0.98500007
-0.19785264 -0.14016095 0.98800004
-0.18404078 -0.14096673 0.98640007
-0.16326119 -0.141462 0.98625004
-0.15496761 -0.14098024 0.9844287
-0.14566618 -0.14085776 0.98357153
-0.13569932 -0.1412119 0.98450005
-0.1253569 -0.14165516 0.98400009
-0.11341219 -0.14266539 0.98475003
-0.10512496 -0.14451769 0.98418766
-0.09497875 -0.14447945 0.98345464
-0.084865436 -0.1446453 0.98330778
-0.075270712 -0.14328766 0.98376948
-0.064432748 -0.14506237 0.98454559
-0.055405866 -0.14570998 0.98517656
-0.045625474 -0.14600086 0.98550004
-0.036216673 -0.14602102 0.98333341
-0.025248466 -0.14825416 0.98599994
-0.014859267 -0.14795105 0.98474997
-0.0044967248 -0.14787593 0.98425007
0.0056784609 -0.14768732 0.98299998
0.015151367 -0.14862368 0.98240006
0.02457729 -0.14833623 0.9805001
0.038829871 -0.14723451 0.98000002
0.045450844 -0.14739208 0.9830001
0.053983629 -0.1483283 0.98180008
0.065838225 -0.14974363 0.98300004
0.072854675 -0.14826058 0.98000002
0.085488237 -0.14974363 0.98300004
0.095376611 -0.14865391 0.98260003
0.10348155 -0.14856315 0.98200005
0.13576776 -0.1495913 0.98200005
0.14119184 -0.1495913 0.98200005
0.15307318 -0.1495913 0.98200005
0.16702083 -0.14856315 0.98200005
0.17244489 -0.1495913 0.98200005
-0.42176548 -0.13098347 0.98900002
-0.34398633 -0.13236642 0.98133337
-0.33500564 -0.1347854 0.98290491
-0.32568386 -0.13462046 0.98322743
-0.31632763 -0.1353561 0.98381823
-0.30539104 -0.13544093 0.98450005
-0.29601848 -0.13489115 0.98350006
-0.28789282 -0.13547668 0.98400003
-0.27438581 -0.13432638 0.98406249
-0.26523739 -0.13619645 0.98394114
-0.25484818 -0.13681021 0.98433328
-0.24604103 -0.13666885 0.98381805
-0.23505084 -0.13770895 0.9823001
-0.22508672 -0.13768101 0.98210013
-0.21572535 -0.13770087 0.9811818
-0.20449796 -0.13860168 0.98062503
-0.19607127 -0.13831083 0.98220009
-0.18459223 -0.13853508 0.98380005
-0.17484444 -0.13778533 0.98333341
-0.16677594 -0.13835201 0.98250008
-0.14123315 -0.13916789 0.98100007
-0.12059101 -0.13916789 0.98100007
-0.11801074 -0.13916789 0.98100007
-0.50606632 -0.12175182 0.98550004
-0.49485281 -0.12393551 0.98361546
-0.48471236 -0.12278034 0.98371434
-0.47501197 -0.12268692 0.98414296
-0.46354425 -0.12451492 0.98491681
-0.45455787 -0.1250599 0.98312503
-0.44544861 -0.12667267 0.98233336
-0.43485793 -0.12695247 0.98450005
-0.42351723 -0.12746961 0.98581821
-0.41546142 -0.12577596 0.98525006
-0.40612012 -0.12583669 0.98484617
-0.39477655 -0.12611406 0.98381251
-0.38491565 -0.12617187 0.98325002
-0.37596008 -0.12690346 0.98411113
-0.3650201 -0.12431882 0.98487496
-0.35481292 -0.12563519 0.9824118
-0.34593654 -0.12648939 0.98124999
-0.32546422 -0.12992394 0.98100007
-0.41361448 -0.11977485 0.98200005
0.53812826 -0.17100811 0.99900007
0.54556102 -0.17111132 0.99785727
0.55144143 -0.17100811 0.99900007
0.57351333 -0.17100811 0.99900007
0.098244108 -0.16022716 0.99700004
0.10348881 -0.16022716 0.99700004
0.11292928 -0.16022716 0.99700004
0.13530669 -0.16092306 0.9970001
0.14020173 -0.16127102 0.99700004
0.20774981 -0.16054858 0.99900007
0.2158954 -0.16054858 0.99900007
0.22579487 -0.16166462 0.99862504
0.23455143 -0.16176885 0.99900007
0.24441241 -0.16186231 0.99850011
0.37676796 -0.16316283 0.99500006
0.3857781 -0.16247769 0.99800003
0.39493549 -0.16212884 0.99585724
0.4053106 -0.16280746 0.99433339
0.41458696 -0.16358554 0.99663639
0.42506576 -0.16204719 0.99418181
0.43446994 -0.16213691 0.99350005
0.44608632 -0.16371393 0.99470007
0.45436957 -0.16471654 0.99500006
0.4656736 -0.16576923 0.99577767
0.47508332 -0.16612209 0.99569988
0.48483425 -0.16623712 0.99545473
0.49584356 -0.16592622 0.99586368
0.50522453 -0.16599886 0.9958095
0.51481736 -0.16648465 0.99581826
0.52365321 -0.16773409 0.99662507
0.53527772 -0.16601363 0.99412513
0.54423565 -0.1675512 0.99400008
0.55540204 -0.16762647 0.99630004
0.56456476 -0.16790566 0.99558347
0.57238591 -0.16807076 0.99400008
-0.165371 -0.15008907 0.99900007
-0.14329906 -0.15008907 0.99900007
-0.1326578 -0.15098374 0.99800009
-0.12555364 -0.151623 0.99845475
-0.11484766 -0.15158017 0.99733353
-0.10536849 -0.15110546 0.99650013
-0.092570096 -0.15068115 0.99600005
-0.085778259 -0.15110193 0.9974001
-0.07210613 -0.15202865 0.99800003
-0.06407053 -0.15200785 0.99275005
-0.054223172 -0.15171704 0.99425006
-0.044474687 -0.15326449 0.99661547
-0.035298537 -0.15096092 0.99440002
-0.025275111 -0.15234876 0.99529999
-0.014947915 -0.15367453 0.99615389
-0.0047901575 -0.15433183 0.99500006
0.0045652934 -0.15541683 0.99559993
0.014818613 -0.15558945 0.99470007
0.025348688 -0.1569721 0.99569237
0.034915678 -0.1547485 0.99435717
0.045976963 -0.15532432 0.99524999
0.053781115 -0.15588932 0.99500006
0.064237513 -0.15581965 0.99425012
0.074726701 -0.15499686 0.99330771
0.084515452 -0.15720429 0.99437499
0.095778845 -0.15642408 0.99200016
0.10458787 -0.15669937 0.99250013
0.11416036 -0.15745735 0.99400008
0.12627868 -0.15804507 0.99475014
0.13559893 -0.15746719 0.99275011
0.14503042 -0.15723343 0.99314296
0.1555614 -0.15661399 0.99460012
0.16479163 -0.15635867 0.99290919
0.17433955 -0.15678595 0.99370015
0.18450601 -0.15686543 0.9933334
0.19317321 -0.15761751 0.99700004
0.20451526 -0.15770893 0.99428576
0.21541813 -0.15717193 0.99220008
0.22540066 -0.15686205 0.99373347
0.23503482 -0.1577844 0.99475002
0.24358967 -0.15776727 0.99300015
0.37954497 -0.15942362 0.99200004
0.38563311 -0.15942362 0.99200004
0.39346072 -0.15942362 0.99200004
0.40876803 -0.15942362 0.99200004
0.41346458 -0.15942362 0.99200004
-0.33604056 -0.14201744 0.9952001
-0.32721794 -0.14058653 0.99100006
-0.31538805 -0.14143771 0.9970001
-0.30775341 -0.14096394 0.99550003
-0.29475892 -0.14108977 0.9970001
-0.28437489 -0.14176258 0.99614298
-0.27618825 -0.14172104 0.99460012
-0.26416108 -0.14357123 0.99550003
-0.25499311 -0.14303498 0.99192321
-0.24531543 -0.14218087 0.99228585
-0.23432451 -0.14306563 0.99500006
-0.22302963 -0.14339954 0.99250001
-0.21494962 -0.14584534 0.995
-0.20364234 -0.14489606 0.99683344
-0.19416231 -0.14312759 0.99483347
-0.18388008 -0.14470795 0.99461544
-0.1752903 -0.14419729 0.99400014
-0.16564286 -0.14557548 0.99433339
-0.15529892 -0.14658304 0.99468768
-0.14468965 -0.14629991 0.99370587
-0.13499106 -0.14601532 0.99393761
-0.12519147 -0.14637864 0.99320006
-0.11606514 -0.14647768 0.9920001
-0.10391833 -0.14784959 0.99100006
-0.095519088 -0.14817686 0.99180001
-0.085244521 -0.14891718 0.99120009
-0.075031929 -0.14831272 0.9927001
-0.06909778 -0.14873691 0.99000007
-0.051494814 -0.14903739 0.99200004
-0.044710893 -0.14877772 0.99200004
-0.50328183 -0.13230787 0.99900007
-0.4980976 -0.13051909 0.99600005
-0.48313683 -0.13091327 0.99900007
-0.47417948 -0.13310261 0.9971112
-0.46562102 -0.13283955 0.99457145
-0.45638165 -0.13186641 0.99566674
-0.44535789 -0.13156331 0.99600005
-0.43370998 -0.13140662 0.99612504
-0.42461038 -0.13086148 0.99200004
-0.41422716 -0.13252532 0.9933846
-0.40583098 -0.13116026 0.99425006
-0.39426157 -0.13153237 0.99400002
-0.38542065 -0.13172676 0.99524993
-0.37482959 -0.1323913 0.9970001
-0.36600298 -0.13259855 0.99725008
-0.35735407 -0.13342933 0.99800009
-0.34527916 -0.13948977 0.99800003
-0.32178265 -0.13879091 0.99300003
-0.31413829 -0.138895 0.99250007
-0.30445039 -0.1389889 0.99228585
-0.29575393 -0.1386698 0.99212509
-0.28444713 -0.13881372 0.99233341
-0.27605188 -0.13814983 0.99212509
-0.26622424 -0.13954896 0.99100006
-0.25657991 -0.13954896 0.99100006
-0.52062404 -0.12394025 0.99900007
-0.51479173 -0.12449445 0.99712509
-0.50386673 -0.12682118 0.99187505
-0.49396792 -0.12774317 0.9933334
-0.48406047 -0.12647678 0.99425006
-0.47471216 -0.12749875 0.99190915
-0.46584263 -0.12850641 0.99042869
-0.4555783 -0.12910803 0.99050009
-0.44533256 -0.12933612 0.99225008
-0.37345564 -0.12898937 0.99414289
-0.36565223 -0.12876591 0.99242866
-0.35938036 -0.12930354 0.99200004
0.38537723 -0.1718819 1.0078001
0.39666492 -0.17166348 1.0090001
0.40781137 -0.17166348 1.0090001
0.41502824 -0.17114659 1.0072001
0.42508945 -0.17069152 1.0077144
0.4351176 -0.17106584 1.0081429
0.44372767 -0.17095922 1.0090001
0.45596558 -0.17156124 1.0063334
0.46447071 -0.1724101 1.0054287
0.47540238 -0.17170872 1.004625
0.48482981 -0.17315944 1.0062858
0.49484551 -0.17256175 1.0054287
0.50631356 -0.17186505 1.0039999
0.51499951 -0.17174883 1.0040001
0.52519798 -0.1726204 1.006875
0.53658545 -0.17275152 1.006875
0.54460603 -0.17447731 1.0047274
0.55596697 -0.17491379 1.0058001
0.56502217 -0.17433761 1.0051579
0.57480884 -0.17506246 1.0052501
0.58012992 -0.17413965 1.005
-0.05091206 -0.16164389 1.0080001
-0.044350993 -0.16212142 1.0055001
-0.03642831 -0.16216663 1.0083333
-0.024599653 -0.16215569 1.0090001
-0.014797864 -0.16215569 1.0090001
-0.0072607482 -0.16215569 1.0090001
0.0062156678 -0.1616367 1.0084
0.01597257 -0.16283865 1.0062145
0.025257289 -0.16328147 1.0041251
0.032671005 -0.16276044 1.0062001
0.0454554 -0.16272843 1.0034001
0.054480165 -0.16264597 1.0055001
0.065153673 -0.16288859 1.0070001
0.074824736 -0.16228157 1.0065001
0.084429651 -0.16262075 1.0053334
0.094437331 -0.16236857 1.0031819
0.10532117 -0.16228031 1.0026364
0.11566202 -0.16230856 1.0034001
0.12557817 -0.16201688 1.0042
0.13554911 -0.16323681 1.0035715
0.14523479 -0.16404784 1.0048573
0.15449317 -0.16372056 1.00725
0.16503321 -0.16274862 1.006125
0.17456569 -0.16266064 1.0035264
0.18404081 -0.16241057 1.0015386
0.19496529 -0.1624729 1.0044167
0.20447312 -0.16264752 1.0055001
0.21542215 -0.16339205 1.0049001
0.22478287 -0.16586037 1.0040001
0.23480153 -0.16534647 1.0023127
0.24517493 -0.16484582 1.0026156
0.25134483 -0.1629661 1.001
0.37874818 -0.16768929 1
0.38583383 -0.16608433 1.0021001
0.39446932 -0.16705431 1.0040588
0.40445009 -0.16768287 1.0041252
0.4149476 -0.16802278 1.0024
0.42539752 -0.16633895 1.0016668
0.43566737 -0.16662122 1.0026667
0.44472134 -0.16714329 1.003
0.45671037 -0.16874796 1.001875
0.46393609 -0.16935582 1.0016001
0.51778162 -0.16942346 1.0020001
0.53271616 -0.16942346 1.0020001
-0.34467357 -0.15038584 1.0080001
-0.27079114 -0.15144122 1.008
-0.26867011 -0.15091354 1.008
-0.25382292 -0.15038584 1.008
-0.2430982 -0.15031123 1.0075001
-0.23415077 -0.15101068 1.006143
-0.22708458 -0.15023664 1.0070001
-0.21225211 -0.15129097 1.0070001
-0.20407809 -0.15151733 1.0058751
-0.19401108 -0.15111069 1.0058001
-0.18512991 -0.15129097 1.0070001
-0.17433034 -0.15111069 1.0058001
-0.1645871 -0.1535143 1.005077
-0.15571307 -0.15302125 1.0045
-0.14583418 -0.15289986 1.0047692
-0.13452788 -0.15410134 1.0041538
-0.12457038 -0.15624461 1.0055001
-0.11507799 -0.15551417 1.0045455
-0.1043737 -0.15575574 1.0054001
-0.094834507 -0.155596 1.0053637
-0.085135594 -0.15587206 1.0054288
-0.075517207 -0.15523726 1.0043752
-0.065562971 -0.15650177 1.0057501
-0.054350637 -0.15682256 1.0047859
-0.045231391 -0.15702374 1.0012001
-0.03509878 -0.15703386 1.0024707
-0.025264105 -0.1574243 1.0030668
-0.015132086 -0.15815909 1.0030001
-0.0051132701 -0.15927619 1.0041668
0.0043964284 -0.15924977 1.0040001
0.013042236 -0.15846071 1.0018572
0.023864709 -0.15982196 1.001
0.035440888 -0.15925801 1.0007501
0.043507826 -0.15907076 1.0006667
0.054628544 -0.1593096 1.00025
0.06474264 -0.15976875 1.0006667
0.077010497 -0.15869461 1.0005
0.12720023 -0.15998162 1.0020001
0.14866336 -0.15982196 1.001
0.15492868 -0.15969519 1.001143
0.16341904 -0.15966231 1
0.19600648 -0.15873426 1.0007501
-0.36292315 -0.14056134 1.0056667
-0.35175768 -0.14648947 1.003
-0.34549809 -0.1453774 1.0028399
-0.33599579 -0.14590248 1.0055835
-0.32358977 -0.14527702 1.0057694
-0.31539994 -0.14594041 1.0043573
-0.30479017 -0.14517462 1.0031668
-0.29600945 -0.1455701 1.0050001
-0.28517684 -0.14637694 1.0041335
-0.27461323 -0.14603141 1.0034287
-0.26561648 -0.14748292 1.0035
-0.25418964 -0.14787057 1.00525
-0.24465978 -0.1472709 1.0024546
-0.23497593 -0.14687881 1.0025715
-0.22605112 -0.14773671 1.0029
-0.21733654 -0.14903417 1.006
-0.20541327 -0.1480798 1.0030999
-0.196016 -0.14752379 1.0036
-0.1870607 -0.14873788 1.0040001
-0.17544398 -0.14851567 1.0025001
-0.52302748 -0.13161018 1.0070002
-0.51389617 -0.13252465 1.0062001
-0.50517821 -0.13366774 1.0047144
-0.49476448 -0.13205226 1.0041112
-0.48535419 -0.13424952 1.0040001
-0.47631326 -0.13796012 1.005875
-0.46376967 -0.13720243 1.0041819
-0.45518187 -0.13686085 1.0057369
-0.4445264 -0.13623406 1.0047779
-0.43642077 -0.13626966 1.0045335
-0.42898926 -0.1336208 1.001
-0.41348934 -0.13697192 1.0048
-0.40509757 -0.1353801 1.0047001
-0.39570683 -0.136363 1.0057501
-0.38355136 -0.13636692 1.0043639
-0.37482947 -0.13672942 1.0045626
-0.36473405 -0.13689575 1.0043077
-0.35843429 -0.13725196 1.0020001
-0.52199286 -0.12810868 1.0043335
-0.51688987 -0.12736444 1.0040001
0.52339292 -0.18047813 1.0170001
0.53676766 -0.18154292 1.0170001
0.55631119 -0.18106237 1.0123334
0.56336403 -0.18186718 1.0128751
0.57530093 -0.18121141 1.0151429
0.58347982 -0.18189445 1.0145
0.077031955 -0.17089495 1.0170001
0.081490211 -0.17089494 1.0170001
0.10877476 -0.17089494 1.0170001
0.13659491 -0.17229791 1.0190001
0.14561832 -0.17229792 1.0190001
0.15768552 -0.17085293 1.0167501
0.16515337 -0.17117576 1.0168571
0.17280363 -0.1707269 1.016
0.18575007 -0.17123102 1.0190001
0.19446838 -0.17133459 1.0175002
0.20428479 -0.17115676 1.0175002
0.21563604 -0.17198779 1.0163751
0.22508234 -0.17229265 1.0138181
0.2312897 -0.17077613 1.01
0.25278509 -0.17219572 1.01525
0.38887727 -0.17534262 1.0150001
0.3956348 -0.17349178 1.0135002
0.40454626 -0.17418535 1.0147275
0.41478127 -0.17451821 1.0146668
0.42484865 -0.17467402 1.0142001
0.43481541 -0.17469005 1.0143001
0.4446663 -0.17550145 1.0143751
0.45506346 -0.17491178 1.0137647
0.46509129 -0.17658715 1.0136667
0.47679147 -0.17580308 1.0146
0.48515818 -0.17688151 1.0140001
0.49653378 -0.17718481 1.0146002
0.50525427 -0.17632775 1.0142728
0.51505035 -0.177604 1.0137501
0.52619827 -0.17714375 1.0135715
0.53547287 -0.1767658 1.0128
0.5441761 -0.17802405 1.012125
0.55487436 -0.17835484 1.011
0.56630874 -0.17835484 1.011
0.5753299 -0.1791482 1.0105001
0.58307743 -0.17876683 1.0113335
-0.17332745 -0.1605621 1.0190001
-0.1645091 -0.16068093 1.0184001
-0.15462114 -0.16113447 1.0170001
-0.14777604 -0.16162899 1.0190001
-0.13334326 -0.1613514 1.0172501
-0.1237037 -0.16197234 1.0161252
-0.11441715 -0.16280407 1.0158572
-0.10493352 -0.16321917 1.0148237
-0.094934709 -0.162857 1.0150001
-0.084907196 -0.16366524 1.0171818
-0.076526716 -0.16307685 1.0175714
-0.064724751 -0.16248336 1.0176666
-0.055699173 -0.16406161 1.015643
-0.046418265 -0.1667996 1.018
-0.033424847 -0.16441487 1.0138
-0.0258587 -0.16511407 1.0150001
-0.015979335 -0.16562456 1.0148751
-0.0045636464 -0.16607581 1.0143751
0.0039993944 -0.16558847 1.0149168
0.015667725 -0.16753565 1.0160002
0.035119943 -0.16630769 1.0150001
0.043557942 -0.16543747 1.0140001
0.054611955 -0.16630799 1.0131429
0.064737059 -0.16714528 1.0143334
0.074062526 -0.16704252 1.013
0.084382117 -0.16725881 1.0137273
0.095425963 -0.16712342 1.0135
0.10599881 -0.16812812 1.01475
0.1147361 -0.16800478 1.0170002
0.12593064 -0.16615991 1.0130001
0.13458841 -0.16797404 1.0136924
0.14488393 -0.16880697 1.0132501
0.15513287 -0.16777475 1.0123
0.16501455 -0.16679518 1.0115
0.17487979 -0.16785264 1.0115001
0.18574297 -0.16744837 1.0122499
0.19470209 -0.16739459 1.0116366
0.20496996 -0.16762897 1.0116155
0.21538341 -0.16803509 1.0110002
0.22172615 -0.16918993 1.01
0.24616635 -0.16866119 1.0100001
0.25147945 -0.16866119 1.01
-0.35167429 -0.15385817 1.0170001
-0.34387672 -0.15279944 1.0140001
-0.33520052 -0.15214005 1.015
-0.32552338 -0.15256351 1.0148182
-0.31567076 -0.15217027 1.0155002
-0.30550325 -0.15235971 1.0158751
-0.29613566 -0.15150635 1.0155001
-0.28295183 -0.15150635 1.0155001
-0.27638128 -0.1525775 1.0155556
-0.26476949 -0.15326649 1.0144666
-0.25524348 -0.15388195 1.0146471
-0.24491888 -0.15473956 1.0138335
-0.23553605 -0.15599738 1.0140715
-0.22557817 -0.15491036 1.0153334
-0.21619974 -0.15421118 1.0151
-0.20444772 -0.15473562 1.0126667
-0.19493775 -0.15573983 1.0153573
-0.18512763 -0.15656187 1.0158236
-0.17542908 -0.15626284 1.0138824
-0.16671763 -0.15865061 1.0136
-0.15497181 -0.15808652 1.0100001
-0.14502582 -0.15775643 1.0132999
-0.13805811 -0.15771009 1.0129999
-0.11428688 -0.15892933 1.0120001
-0.10523674 -0.15945911 1.0120001
-0.082428694 -0.15961669 1.0130001
-0.075746216 -0.1595773 1.0127501
-0.067002773 -0.15969548 1.0135001
-0.057856623 -0.15945911 1.0120001
-0.52032608 -0.14029114 1.0190001
-0.51344007 -0.14098153 1.0162859
-0.50455326 -0.14068639 1.018
-0.49732375 -0.14015347 1.018
-0.4824464 -0.14200562 1.0160002
-0.47520417 -0.14207551 1.0165
-0.4640801 -0.142415 1.0145715
-0.45527303 -0.14139131 1.0135002
