# .PCD v0.7 - Point Cloud Data file format
VERSION 0.7
FIELDS x y z
SIZE 4 4 4
TYPE F F F
COUNT 1 1 1
WIDTH 744
HEIGHT 1
VIEWPOINT 0 0 0 1 0 0 0
POINTS 744
DATA ascii
-0.3090502 0.069262058 0.62900007
-0.31238613 0.074735604 0.6265884
-0.30934435 0.072554864 0.62900001
-0.31404933 0.081832625 0.62775004
0.24818271 -0.2058915 0.63900006
-0.30421612 0.066030063 0.63492012
-0.29889998 0.064009897 0.63880008
-0.3106924 0.078296721 0.63037509
-0.30487531 0.075110048 0.63481611
-0.29939729 0.074377388 0.63900006
-0.31298831 0.08553493 0.63142115
-0.30767697 0.084610909 0.63601583
-0.31403172 0.092460513 0.63259381
-0.309398 0.090999745 0.6358
0.25833198 -0.21278225 0.64433336
0.26076075 -0.21164869 0.64400005
0.21766497 -0.20496221 0.64811116
0.22554293 -0.20305218 0.64593828
0.23431572 -0.20270078 0.64254755
0.24572298 -0.20311908 0.6420601
0.25556931 -0.20413291 0.64398426
0.26279095 -0.20470378 0.64656264
0.22683379 -0.19702858 0.64870018
0.23505919 -0.19582656 0.64687508
0.24513546 -0.19529817 0.646725
0.2530531 -0.19718301 0.64741182
0.23943464 -0.18923816 0.64900005
0.24193828 -0.18923816 0.64900005
-0.29471272 0.056554101 0.64579362
-0.28874564 0.057023499 0.64860004
-0.29539353 0.064580828 0.64445549
-0.28871945 0.060139298 0.64900005
-0.30077344 0.078799143 0.64050007
-0.29721719 0.074823678 0.64462662
-0.30352426 0.085229047 0.64110643
-0.29795983 0.083219156 0.64306676
-0.30676758 0.090296499 0.64000005
0.21530503 -0.20409903 0.65500015
0.22107694 -0.20095734 0.65175003
0.26585564 -0.20160563 0.65395659
0.27017218 -0.20084393 0.65733337
0.21781874 -0.19643435 0.65761924
0.22386353 -0.19404565 0.65358686
0.23201799 -0.19085231 0.65080005
0.24937765 -0.1902103 0.65000004
0.2561799 -0.1934614 0.65242499
0.26486066 -0.19509514 0.65676481
0.27030918 -0.19635561 0.65766668
0.22557838 -0.18557525 0.65665931
0.23519319 -0.18486021 0.65383339
0.244948 -0.18460006 0.65319324
0.25445089 -0.1851842 0.655348
0.26313132 -0.18799451 0.65864712
0.22770862 -0.17779443 0.65880013
0.23494723 -0.17635302 0.65801811
0.24474022 -0.17591007 0.65801632
0.25315875 -0.17681386 0.65877169
-0.28427118 0.04775279 0.65692598
-0.27808529 0.04856088 0.65708339
-0.28408289 0.054717019 0.65304446
-0.27863595 0.054266926 0.65730762
-0.291145 0.066160902 0.65052623
-0.28578514 0.06469246 0.65473348
-0.27978215 0.061708014 0.65850008
-0.29263023 0.07535477 0.65130204
-0.28615284 0.074012272 0.65435487
-0.27975544 0.072464086 0.65600002
-0.29680079 0.080772527 0.65100002
0.208745 -0.20543595 0.66443479
0.21186404 -0.2031413 0.66246432
0.21418771 -0.19456407 0.66429681
0.26959291 -0.19204509 0.66100001
0.27028835 -0.19342923 0.66100001
0.21736577 -0.18545583 0.66544628
0.22175212 -0.18241656 0.66185009
0.25950909 -0.18201013 0.66100001
0.26528549 -0.18393086 0.66314268
0.21863461 -0.17676413 0.6676842
0.22437753 -0.17461136 0.66462791
0.2344835 -0.17176175 0.6616286
0.24473983 -0.17103915 0.66095245
0.25564155 -0.1730969 0.66213876
0.26456141 -0.17574126 0.66682994
0.27139372 -0.17624426 0.66800004
0.22693954 -0.16595545 0.66728336
0.23518613 -0.16490909 0.66437513
0.24485648 -0.16502681 0.66387707
0.25451633 -0.16532579 0.6660279
0.26109952 -0.16746834 0.66833341
0.22956881 -0.15934727 0.66900003
0.23569813 -0.1572478 0.66822219
0.24493076 -0.15628241 0.66793948
0.25293183 -0.15789889 0.66880006
-0.28481999 0.044704344 0.66388887
-0.27667779 0.046336316 0.6665653
-0.27585149 0.054491758 0.66504461
-0.28148696 0.066507012 0.66186672
-0.27844718 0.064425558 0.66568291
-0.28151432 0.071046337 0.66200006
-0.27895418 0.070825122 0.66562504
0.20823239 -0.20211451 0.6717
0.21052709 -0.20097335 0.67000002
0.20848857 -0.19474263 0.67384613
0.2111001 -0.19430698 0.67131823
0.20881571 -0.18734975 0.67400008
0.2124808 -0.18416032 0.6725741
0.27208877 -0.18086398 0.67000002
0.2151401 -0.17516378 0.67416435
0.22048941 -0.17059587 0.671
0.26767784 -0.17257363 0.67013335
0.27100796 -0.17445706 0.67000002
0.21766625 -0.16534509 0.67531931
0.22313531 -0.1634398 0.67222726
0.25897497 -0.16154264 0.67133331
0.26589859 -0.16522034 0.67424196
0.27136198 -0.16551211 0.67668754
0.21890551 -0.1576483 0.67815387
0.2249689 -0.15480553 0.67463225
0.23394202 -0.15305613 0.67180449
0.24508081 -0.15141563 0.67109984
0.25585386 -0.15415676 0.67203653
0.26252237 -0.1550729 0.67550009
0.22780596 -0.1479377 0.67750007
0.2353718 -0.14549117 0.67580247
0.24501424 -0.14528498 0.67462361
0.25405183 -0.14601688 0.676
0.26133287 -0.14866909 0.67744452
0.23879407 -0.13950303 0.67740005
0.2433836 -0.13898464 0.67769235
-0.26642355 0.036833685 0.67866677
-0.27315369 0.044050355 0.67134142
-0.26824942 0.044461727 0.67547828
-0.27244672 0.056168236 0.67385995
-0.26902711 0.05324826 0.67677277
-0.27388534 0.064689316 0.67410529
-0.2683709 0.062682271 0.67900008
-0.27561316 0.070218369 0.67400002
0.20909129 -0.18284908 0.68230778
0.20965406 -0.17610016 0.68412507
0.21200287 -0.17327 0.68300009
0.20951608 -0.16915207 0.6875
0.21362938 -0.16499253 0.68452835
0.26883 -0.1610156 0.68200004
0.27172586 -0.16164903 0.68266672
0.21648431 -0.15492907 0.68297923
0.22106203 -0.15152526 0.68000001
0.26807815 -0.15490457 0.68292588
0.27187765 -0.15555981 0.68455553
0.2181886 -0.14573558 0.68722856
0.2241783 -0.14447007 0.68299985
0.2318116 -0.14155237 0.6801818
0.25705144 -0.1418211 0.68088889
0.26508355 -0.1443785 0.68426538
0.27174821 -0.14592935 0.68737936
0.21939684 -0.13886262 0.68900001
0.22597373 -0.13534924 0.68664104
0.23464745 -0.13478486 0.6820789
0.2448708 -0.13439925 0.68080878
0.25497016 -0.13482189 0.6830855
0.26446381 -0.13505998 0.68772537
0.22760214 -0.12703584 0.68876195
0.23494181 -0.12572606 0.68674999
0.2449411 -0.12485934 0.68565422
0.25483468 -0.1250805 0.68728566
0.26201022 -0.12778568 0.68840009
0.24426298 -0.11931558 0.68860012
-0.26342863 0.035404693 0.68458623
-0.25878018 0.035847716 0.68816674
-0.2641744 0.045216367 0.68446475
-0.25938147 0.040702477 0.68800002
-0.26576853 0.055060305 0.68380582
-0.27103162 0.064791799 0.68000001
-0.26744404 0.062260274 0.68113339
0.20825548 -0.17182235 0.69100004
0.20847546 -0.16490643 0.69260001
0.21130449 -0.1630196 0.69068754
0.20913331 -0.15860385 0.69383335
0.21330495 -0.154186 0.69164294
0.21458887 -0.14475206 0.69453073
0.27469656 -0.14072709 0.69540012
0.21660422 -0.1354517 0.69591385
0.22081085 -0.13298281 0.69200009
0.26940259 -0.13261044 0.69600004
0.27176899 -0.1362685 0.6944375
0.21806443 -0.12761183 0.69827789
0.22396646 -0.12423483 0.69423646
0.23221301 -0.12090772 0.69083345
0.25747412 -0.12045532 0.69100004
0.26642945 -0.12435898 0.69658345
0.27284396 -0.12675783 0.6987648
0.22616096 -0.11567244 0.69707406
0.23484458 -0.11529899 0.69383919
0.24467649 -0.11413351 0.69273651
0.25485623 -0.11502858 0.69385296
0.26281255 -0.11606028 0.69814295
0.22993527 -0.10940839 0.69900006
0.2357652 -0.10737313 0.69783336
0.24471058 -0.1056192 0.69745016
0.25426403 -0.10729153 0.6979394
0.26063615 -0.1093296 0.69850004
-0.25643963 0.027715905 0.69617397
-0.26379281 0.030591708 0.69150007
-0.2549949 0.034697607 0.69458044
-0.249933 0.033986025 0.69800001
-0.26056322 0.046619013 0.69100016
-0.25711167 0.04463492 0.69518536
-0.26178604 0.054517701 0.69235158
-0.25674057 0.054412607 0.69627905
0.20905951 -0.14046811 0.708
0.21172614 -0.14446551 0.70422232
0.20924762 -0.13667791 0.70612496
0.2122497 -0.13456237 0.70383799
0.27558798 -0.13655943 0.70125008
0.21619247 -0.12501454 0.70456827
0.22069015 -0.12129129 0.70000005
0.26746917 -0.12073063 0.70100003
0.27410683 -0.1266022 0.70100003
0.21856971 -0.11625275 0.70587486
0.22242872 -0.11307839 0.7021212
0.26689154 -0.11410659 0.70249999
0.27099928 -0.11477406 0.704
0.21973591 -0.1072311 0.70880008
0.22520462 -0.1054295 0.70488173
0.23384227 -0.10287977 0.7008003
0.24462534 -0.10077011 0.69999993
0.25552469 -0.10285074 0.70048577
0.26495251 -0.10428537 0.70556015
0.2709524 -0.1061972 0.70850009
0.22745146 -0.09784966 0.70769566
0.23490781 -0.095075272 0.70475674
0.24510434 -0.095126703 0.70374602
0.25487742 -0.09526363 0.70513326
0.26275352 -0.096934177 0.70827776
0.23717432 -0.087959789 0.70785707
0.24547544 -0.086906888 0.70789361
0.25211906 -0.08800564 0.70824993
-0.25147402 0.018892795 0.70749998
-0.24943648 0.018139215 0.70700002
-0.25438872 0.023951279 0.70300007
-0.24716555 0.02571528 0.70387948
-0.25091073 0.038112279 0.70260012
-0.24755979 0.0345046 0.70494002
-0.25286186 0.045236986 0.70416683
-0.24861646 0.045400709 0.70837498
-0.25335991 0.051832382 0.70281267
0.20924982 -0.14291406 0.71033335
0.21114406 -0.14235164 0.71000004
0.20965008 -0.1312011 0.71000004
0.21114406 -0.1312011 0.71000004
0.20963494 -0.12607095 0.71285719
0.21259022 -0.12416258 0.71242112
0.20945401 -0.11627954 0.71700001
0.21451026 -0.11508719 0.71513104
0.21680915 -0.10521218 0.7149601
0.22120044 -0.10170759 0.71111113
0.26978862 -0.1001204 0.71100003
0.27270579 -0.10155229 0.71325004
0.21865533 -0.096793786 0.71700001
0.22417656 -0.09426719 0.71277797
0.23152855 -0.090400569 0.71066666
0.25895134 -0.091059141 0.71000004
0.26637992 -0.094283409 0.71258831
0.27202234 -0.095145784 0.71655554
0.21987219 -0.089955039 0.71900004
0.22584336 -0.085280851 0.71613926
0.23426148 -0.084294535 0.71180785
0.24408853 -0.082566753 0.71082753
0.25586793 -0.084124155 0.71160001
0.26405182 -0.085861504 0.71515906
0.27131164 -0.089829922 0.71800005
0.22759098 -0.077163048 0.71864706
0.23488563 -0.075256258 0.71693987
0.24500796 -0.075042583 0.7149719
0.25472364 -0.074849725 0.71674532
0.26130468 -0.07627815 0.71864706
0.23697841 -0.068828955 0.71850008
0.24557382 -0.068706922 0.71880001
0.25277805 -0.068446681 0.71899998
0.01827627 -0.0011255131 0.71900004
0.025558196 -0.0009246993 0.71886665
0.030757818 -0.00037272053 0.71900004
0.066311322 -0.00087458221 0.71900004
0.075280748 -0.0011255132 0.71900004
0.084693246 -0.00142663 0.71899998
0.094615445 -0.00074911676 0.71899998
0.10517432 -0.001031414 0.71899992
0.11094231 -0.00037272053 0.71900004
0.38846242 -0.0036297669 0.71800005
0.39482051 -0.0035386453 0.71800023
0.40642133 -0.0037550575 0.71800023
0.41525671 -0.0038039482 0.71795672
0.016838999 0.00075646822 0.71899998
0.025825242 0.0022429754 0.71817392
0.033846688 0.0029521128 0.71899998
0.046609052 0.0035623319 0.71899992
0.055411454 0.0037676371 0.71899992
0.065134689 0.0043036826 0.71853602
0.074902549 0.004004648 0.71841824
0.085148685 0.0037668434 0.71874094
0.094893403 0.0039093434 0.71877772
0.10504194 0.0027890087 0.71899998
0.11124489 0.0023373328 0.71900004
0.40992856 0.0003795434 0.71800005
0.41597176 0.00068024156 0.71799999
-0.24490504 0.018309211 0.71564519
-0.23876713 0.019177459 0.71816677
-0.2424137 0.025135802 0.71215916
-0.23801845 0.024989102 0.71676457
-0.24320637 0.035411745 0.7143333
-0.23859234 0.031946499 0.71785718
-0.24473131 0.044617128 0.7135601
-0.25166634 0.051457375 0.71120006
-0.2486036 0.050996169 0.71100003
0.21260288 -0.11156457 0.72000003
0.2128031 -0.10463122 0.72368425
0.21644801 -0.094973825 0.72430784
0.27531388 -0.094280109 0.72000015
0.21792647 -0.08551611 0.72528148
0.2210121 -0.083791688 0.72214288
0.26811376 -0.082089543 0.72200006
0.27229244 -0.084439956 0.72282612
0.21879479 -0.078885585 0.72800004
0.22414826 -0.074588574 0.72368968
0.26672468 -0.074710943 0.72329754
0.27265555 -0.076468743 0.72638905
0.22671007 -0.066654682 0.72727281
0.23459853 -0.064904019 0.72276562
0.24489258 -0.06357839 0.7225191
0.25543252 -0.064175613 0.72342592
0.26402596 -0.065808713 0.72544461
0.27040178 -0.067237854 0.72775006
0.22906604 -0.059530754 0.72900003
0.23542956 -0.056513209 0.72734016
0.24462774 -0.055468593 0.72590476
0.25453931 -0.055729341 0.72655815
0.26167101 -0.057850145 0.72866672
0.23929243 -0.049735554 0.72900003
0.24524899 -0.04937727 0.72872233
0.25113606 -0.049574055 0.72850001
0.23564517 -0.010286188 0.72800004
0.34502992 -0.010704509 0.72678578
0.35392308 -0.010515258 0.72622234
-0.054975189 -0.0013675414 0.72640002
-0.044871278 -0.0010893471 0.72773343
-0.035113797 -0.00098750973 0.7276001
-0.025059482 -0.0011411671 0.72900003
-0.014087208 -0.0016060455 0.72684622
-0.0051823724 -0.002161931 0.7254501
0.00497447 -0.0029446087 0.72482759
0.014682044 -0.0038288373 0.72465724
0.055085089 -0.0027909498 0.72330296
0.08508309 -0.0045698588 0.7231667
0.10430058 -0.0051926877 0.7232703
0.11498838 -0.0034172384 0.72451216
0.12513821 -0.0032588311 0.72335005
0.13519232 -0.0036899967 0.72407317
0.14454505 -0.0035230545 0.72405893
0.15504311 -0.002912536 0.72397381
0.16486774 -0.0028021822 0.72335011
0.17549703 -0.0038734656 0.72435856
0.18506098 -0.0038422737 0.72379565
0.19472288 -0.003431712 0.7240001
0.20481576 -0.0039178878 0.7252959
0.21540552 -0.004667717 0.72582024
0.224492 -0.0036611464 0.72528023
0.23502091 -0.0043386193 0.72633344
0.24498132 -0.0038481506 0.72471434
0.25480843 -0.0045485985 0.72488266
0.26491937 -0.0046089101 0.72518355
0.27484995 -0.0048098778 0.72441822
0.28552678 -0.0044223638 0.72480774
0.29523438 -0.0046458901 0.72470486
0.30504614 -0.0044585289 0.72387707
0.31511861 -0.0044580246 0.72452486
0.32527146 -0.0046370714 0.72399992
0.33534569 -0.0054097096 0.72362322
0.34491029 -0.0047348533 0.72158951
0.35492343 -0.0047981129 0.72161132
0.36516073 -0.0049437918 0.72261411
0.37497732 -0.0045503313 0.72191316
0.38487253 -0.0049742339 0.72150862
0.39506048 -0.0063592303 0.72103858
0.40434393 -0.0058113988 0.72112197
-0.23483434 0.0095292348 0.72783339
-0.22812325 0.0091503076 0.72800004
-0.14157356 0.0066731079 0.72800004
-0.13965875 0.006863662 0.72800004
-0.12343725 0.0048122806 0.72900003
-0.1147468 0.0049062199 0.72900003
-0.1044089 0.0056061898 0.72799993
-0.094947048 0.0048996508 0.72712302
-0.085394248 0.005226138 0.72647381
-0.075487621 0.0046069724 0.72556269
-0.06524244 0.0046890364 0.72483635
-0.055219486 0.0051996703 0.72524208
-0.045323357 0.0053150272 0.72615665
-0.03513414 0.0050672838 0.72498506
-0.0250463 0.0050724065 0.72544479
-0.015016113 0.0048373723 0.72443748
-0.0049193711 0.0047712894 0.72299993
0.0051351879 0.004572704 0.72139078
0.014854287 0.0051985052 0.72014815
0.024645032 0.0064774551 0.72027761
0.035538312 0.0058972547 0.7206732
0.044347972 0.0060452707 0.72090477
0.054422498 0.0077034496 0.72085005
0.065004565 0.0088645695 0.72025001
0.075577833 0.0086728362 0.72000009
0.084962539 0.0084466841 0.72000009
0.095480271 0.0076290583 0.72000015
0.1051718 0.0075943847 0.72061771
0.11567026 0.0052682562 0.72155178
0.12531574 0.0050243745 0.72169226
0.13504329 0.0046568783 0.72205275
0.14448524 0.004612253 0.72263497
0.15475576 0.0049478775 0.72401607
0.16502045 0.0053679706 0.72471857
0.17490485 0.004956983 0.72506553
0.18489602 0.0051646433 0.7251367
0.19503924 0.0047978149 0.72457159
0.20516303 0.0045762081 0.72584164
0.21500412 0.0045341752 0.72615021
0.22514889 0.0054729288 0.7271772
0.23495223 0.0052998615 0.72696912
0.2451306 0.0049150605 0.72591168
0.25523394 0.0051050414 0.72615236
0.26507816 0.0046346695 0.72596955
0.27489701 0.0048053795 0.72468168
0.28520861 0.0043016337 0.72568363
0.29475984 0.0040105395 0.72655272
0.30541003 0.0047739428 0.72683078
0.31500766 0.0051586493 0.72642905
0.32496554 0.0047892886 0.72663361
0.33498567 0.004780584 0.72546405
0.34472701 0.0044065164 0.72451729
0.35476968 0.0041996073 0.72496855
0.36480156 0.0050024143 0.72470319
0.37541819 0.0052476218 0.72515881
0.38512993 0.0052342075 0.72391307
0.39537969 0.0050371136 0.72315407
0.40485978 0.0049228594 0.72209513
0.41501328 0.0051941774 0.72274089
0.42084694 0.0070915422 0.72466671
-0.23423974 0.015090609 0.7242533
-0.22775303 0.013521131 0.72780955
-0.092297927 0.010307771 0.72900003
-0.08461412 0.010936407 0.72784632
-0.07515429 0.011714304 0.72696167
-0.064751141 0.0122407 0.72783327
-0.05540989 0.012953943 0.72805393
-0.04480562 0.011976784 0.7288096
-0.034763973 0.012720676 0.72774994
-0.024573723 0.014310364 0.72730207
-0.014876111 0.0148746 0.72639114
-0.0048416243 0.014397976 0.72581702
0.0051775202 0.014498557 0.72534382
0.015360681 0.014359291 0.72428155
0.025398368 0.014609363 0.72389573
0.034837253 0.015263454 0.7251963
0.044328839 0.015038543 0.72472334
0.054684538 0.014811402 0.72504461
0.065055236 0.014716057 0.72490633
0.075216852 0.014683173 0.72411782
0.085135937 0.014267765 0.72313803
0.094752431 0.014356561 0.7234531
0.10458956 0.015168151 0.72416943
0.11491862 0.01513038 0.72588915
0.12512463 0.014539923 0.72675842
0.13523918 0.014655392 0.72709709
0.1450882 0.014480179 0.72687525
0.15456955 0.01405139 0.72734654
0.16548307 0.013205716 0.72828138
0.17495884 0.013422435 0.72851533
0.18452795 0.01284292 0.72842437
0.19474207 0.011656578 0.72821742
0.20482492 0.010915553 0.72880012
0.21649939 0.010777473 0.72900003
0.22425498 0.011695522 0.72900003
0.23562796 0.011155841 0.72900003
0.24491972 0.011155053 0.72825009
0.25523102 0.011164736 0.72800004
0.26409841 0.012516617 0.72813046
0.27616966 0.011055849 0.72800016
0.2829794 0.011462363 0.72800004
0.31683335 0.013850639 0.7280001
0.32410964 0.013266273 0.7280001
0.33628774 0.011635911 0.7279523
0.34455258 0.013378791 0.72799993
0.36508676 0.011700798 0.7280001
0.3867709 0.013219746 0.72784203
0.39546734 0.01230318 0.72767848
0.4052287 0.012862924 0.72657508
0.41497025 0.013974532 0.72683644
0.42008802 0.012270699 0.72466677
-0.23347868 0.025221674 0.7244069
-0.22958706 0.020993445 0.72900003
-0.016537501 0.020908641 0.72900003
0.0069808275 0.02230808 0.7283501
0.015239828 0.022144282 0.72737134
0.024559533 0.021812936 0.72766674
0.035393327 0.021445645 0.72880006
0.044519242 0.021968853 0.72758341
0.054968435 0.022135785 0.72574073
0.064556658 0.021244556 0.72794747
0.075014316 0.021348203 0.72652
0.0855399 0.02120742 0.72715014
0.094828717 0.021771289 0.72699988
0.10431744 0.021566963 0.7262857
0.11547386 0.022031961 0.7280001
0.12097044 0.022257989 0.72877783
0.13664514 0.020230183 0.72900003
0.14492853 0.020382836 0.72900003
0.15301871 0.020553762 0.72844452
0.16858171 0.022055626 0.72880006
0.17522816 0.022293875 0.72855562
0.18281184 0.022074996 0.72871435
0.22523116 0.020993447 0.72900003
0.34373805 0.020193186 0.72766674
-0.24075165 0.037713986 0.72033334
-0.23636681 0.034890879 0.72529626
-0.24146532 0.041963812 0.72209996
-0.23870152 0.041287147 0.72350001
0.21098015 -0.10166113 0.73100007
0.21337111 -0.094277985 0.73291433
0.20958398 -0.08386229 0.73600006
0.21380153 -0.08474005 0.73412251
0.21590804 -0.076348022 0.73485959
0.22117041 -0.072732098 0.73130006
0.27584279 -0.075905554 0.73050004
0.21948345 -0.065895393 0.73761129
0.22320382 -0.063678585 0.73270285
0.2678735 -0.06175378 0.73200005
0.27248344 -0.062481128 0.73231578
0.22518386 -0.055192817 0.73459154
0.23339769 -0.052099977 0.73160869
0.25695625 -0.051879223 0.73118186
0.26561409 -0.05425071 0.73366666
0.27223754 -0.054940101 0.73616672
0.22744596 -0.04690434 0.73668021
0.23527339 -0.045146175 0.73470318
0.24508516 -0.043992929 0.73271453
0.25503376 -0.045106217 0.73317331
0.26435322 -0.046231061 0.7370975
0.27186072 -0.048547938 0.73900002
0.23779322 -0.036759045 0.73786968
0.24463576 -0.036618005 0.73723686
0.2542941 -0.03709539 0.73725653
0.26114091 -0.039274409 0.73800004
0.22665511 -0.011548857 0.73713332
0.23279977 -0.012155707 0.73618191
0.24574716 -0.012356449 0.73775011
0.25448498 -0.012649543 0.73617381
0.26519728 -0.011535461 0.73455
0.27466139 -0.012609417 0.73494452
-0.18500622 -0.0013672695 0.73863637
0.22664623 -0.0089596221 0.73159999
0.23284298 -0.0087166615 0.73122227
0.24490619 -0.0090645822 0.73183334
0.25495201 -0.0095550437 0.73037499
0.26278961 -0.0095501374 0.73000002
0.28429449 -0.0086584436 0.73000002
0.29932085 -0.009576302 0.73200005
0.30414137 -0.0095972335 0.73360002
-0.22601484 0.0069036423 0.73536682
-0.20250459 0.004975881 0.73616004
-0.19484495 0.0052320533 0.73298323
-0.18519674 0.0049893358 0.73369247
-0.17523929 0.0049711792 0.73264921
-0.16496015 0.0049499795 0.7308057
-0.15457918 0.0048703961 0.73039973
-0.1448212 0.0048057255 0.73069996
-0.13428585 0.0051793759 0.73071653
-0.12483426 0.0053446135 0.73055547
-0.11515183 0.005367117 0.73064858
-0.10577565 0.0043074717 0.73065203
0.29550773 0.0085640009 0.72999984
0.30211276 0.0089461543 0.73000002
0.32743219 0.0090480614 0.73000002
0.35706538 0.0087932916 0.73000002
0.36570573 0.0095576011 0.73000002
0.37223396 0.0095576011 0.73000002
-0.2246871 0.014764064 0.7341277
-0.20189689 0.01382435 0.73587507
-0.19492044 0.015248888 0.73591799
-0.18479115 0.015139371 0.73520327
-0.17491806 0.014903218 0.73414052
-0.16520706 0.014811248 0.73378134
-0.15496016 0.014645891 0.73335958
-0.14471832 0.014467496 0.7328909
-0.13508506 0.015380389 0.73396772
-0.12548962 0.015227374 0.73351711
-0.11541179 0.015245273 0.73225015
-0.10525818 0.01506913 0.73237514
-0.095367335 0.015088244 0.73298383
-0.085184731 0.015850663 0.73161215
-0.074810766 0.016579146 0.73089504
-0.064790405 0.01713001 0.73046428
-0.05345777 0.017633941 0.73092854
-0.044979211 0.017100716 0.73105538
-0.035732634 0.017546769 0.73043722
-0.02790997 0.018312419 0.73000008
-0.0052530686 0.018729316 0.73000002
0.12569615 0.019493628 0.73000002
0.15877366 0.018184293 0.731125
0.16493933 0.017597178 0.73109698
0.17511612 0.017435392 0.73100024
0.18583219 0.017253779 0.73119378
0.19586849 0.016548144 0.73161012
0.20567052 0.015851654 0.73309541
0.21468797 0.015289443 0.73198092
0.22530542 0.015735127 0.73141688
0.23491001 0.015920412 0.73267353
0.2447439 0.015705127 0.73264295
0.25496081 0.015220355 0.73148787
0.26514414 0.015407161 0.73093766
0.27454764 0.015406552 0.73169988
0.28478509 0.015673229 0.73068738
0.29494771 0.01469388 0.73077363
0.30505463 0.015147301 0.73213112
0.31456167 0.01527551 0.731089
0.32511801 0.01472396 0.73014259
0.335224 0.016252588 0.73046505
0.34577528 0.01561476 0.72999972
0.35516077 0.013754576 0.7303654
0.36495847 0.01539024 0.73056805
0.37520647 0.015290497 0.73135573
0.38381642 0.01595155 0.73057121
0.39488828 0.016211674 0.73007393
0.40550208 0.017399056 0.73029989
0.41165957 0.018984087 0.73000002
-0.2302745 0.025591126 0.73200005
-0.22789454 0.024739726 0.73600006
-0.1921766 0.021460457 0.7385
-0.18509492 0.021312233 0.73814285
-0.17423551 0.022372849 0.73820013
-0.16468498 0.022788279 0.73833358
-0.15455759 0.023232365 0.73760027
-0.14459358 0.02367671 0.73636007
-0.13544193 0.023818105 0.73783749
-0.12514161 0.023823449 0.73700017
-0.11489245 0.023485603 0.73641479
-0.10446031 0.023838766 0.73551011
-0.094337463 0.023588784 0.73600006
-0.084716327 0.022794172 0.73478776
-0.074342303 0.022783916 0.73366648
-0.065173559 0.023180133 0.73291308
-0.054464389 0.022919079 0.73170608
-0.045330688 0.023582853 0.73328948
-0.035189383 0.023156585 0.73281085
-0.025119295 0.023135254 0.73150009
-0.014861113 0.023972264 0.73134291
-0.0044598253 0.022572435 0.73129725
0.0034195958 0.023454163 0.73033321
0.011782593 0.025886957 0.73066676
0.028309867 0.023468036 0.73000002
0.034812525 0.022041325 0.73000002
0.061949603 0.022550864 0.73000002
0.089598708 0.023315173 0.73000002
0.12531316 0.021048687 0.73089999
0.13466504 0.021673486 0.73100007
0.14351584 0.021666566 0.73166668
0.15605965 0.020903733 0.73119998
0.16452807 0.021282058 0.73142856
0.17419235 0.021306163 0.73100007
0.1884726 0.021672282 0.7313
0.19546635 0.021333771 0.73194456
0.20586489 0.020812133 0.73608339
0.21389821 0.020638963 0.73540008
0.22406963 0.020550055 0.73133337
0.23676597 0.021160472 0.73480004
0.24272604 0.021114398 0.73320001
0.29814285 0.020285686 0.73100001
0.30610698 0.021216627 0.73675001
0.34677923 0.020694684 0.73000008
0.35072911 0.021022245 0.73000002
0.37264907 0.022037784 0.73471439
-0.23262425 0.035194408 0.73235738
-0.22759147 0.033492636 0.73589659
0.21407582 -0.07348296 0.74442869
0.21682674 -0.064856216 0.74388903
0.22006564 -0.060041633 0.74000001
0.21810578 -0.055255055 0.7459355
0.22103657 -0.053163208 0.74214292
0.21936128 -0.048246976 0.74733341
0.22405241 -0.044040952 0.74360394
0.23135464 -0.041705184 0.74000001
0.26752663 -0.04246033 0.74107695
0.27247849 -0.043946523 0.74305874
0.22685932 -0.035304766 0.74544197
0.23373371 -0.034219194 0.74152833
0.24560213 -0.031839658 0.73999989
0.25559422 -0.032433394 0.74034774
0.26507324 -0.034894608 0.7442891
0.27259558 -0.037350398 0.74664295
0.22862534 -0.025360385 0.74723095
0.23489283 -0.025098555 0.74546361
0.24516685 -0.025180371 0.74315649
0.25517756 -0.025338031 0.74407154
0.26439631 -0.025357584 0.74672729
0.23551267 -0.017047254 0.74517661
0.24476424 -0.016706167 0.74397516
0.25533533 -0.017552093 0.74392867
-0.22351906 0.0037232076 0.7428422
-0.21503417 0.0052540018 0.74471009
-0.207147 0.0045952369 0.74239999
-0.22158888 0.016218517 0.74293751
-0.21636212 0.014008041 0.74800009
-0.20405662 0.016213447 0.74400008
-0.22323196 0.025184836 0.7437917
-0.21951666 0.022950282 0.74800009
-0.20126241 0.023466451 0.74171436
-0.1950244 0.024568511 0.74024373
-0.18480052 0.025567899 0.74090475
-0.1754709 0.026728502 0.74119341
-0.16604488 0.026327606 0.74030769
-0.15525879 0.026954204 0.74075007
-0.14683154 0.027855543 0.74100012
-0.11486654 0.027287021 0.74100006
-0.22447045 0.030854011 0.74410009
0.21232098 -0.071630746 0.75187498
0.20998889 -0.066969015 0.75700003
0.21276321 -0.064448737 0.75306678
0.20919834 -0.055122115 0.75760001
0.21339057 -0.054042313 0.75405765
0.21580821 -0.045000736 0.75577587
0.22085306 -0.041950099 0.75100005
0.21791793 -0.035899401 0.75772732
0.22225043 -0.033727013 0.75216669
0.26959476 -0.031406149 0.75000006
0.27366683 -0.032896772 0.75156265
0.22381297 -0.025137048 0.75307262
0.2674906 -0.024365077 0.75000012
0.2745122 -0.025370833 0.75161302
0.24150975 -0.016115239 0.75100005
-0.2128949 0.017008632 0.75412506
-0.20911346 0.014619653 0.75420004
-0.22041926 0.027618444 0.75000012
-0.21589172 0.023548435 0.7535218
-0.22239193 0.031021189 0.75000006
-0.21963017 0.030235941 0.75000006
0.21301292 -0.040444292 0.76500005
0.21505074 -0.034341015 0.76423073
-0.21190926 0.023774093 0.7610001
0.21254012 -0.040724304 0.77800006
