# .PCD v0.7 - Point Cloud Data file format
VERSION 0.7
FIELDS x y z rgb
SIZE 4 4 4 4
TYPE F F F F
COUNT 1 1 1 1
WIDTH 495
HEIGHT 1
VIEWPOINT 0 0 0 1 0 0 0
POINTS 495
DATA ascii
-0.036771432 -0.071091436 0.85800004 1.9464403e-38
-0.028600002 -0.071091436 0.85800004 1.4706769e-38
-0.040693715 -0.067822866 0.85799998 1.9552609e-38
-0.036771435 -0.067822859 0.85799992 2.1577705e-38
-0.03219543 -0.06880343 0.85799998 2.0376655e-38
-0.028600002 -0.069457151 0.85800004 1.425429e-38
-0.040226668 -0.076348573 0.86200005 2.167281e-38
-0.036942862 -0.076348573 0.86200011 2.2958513e-38
-0.032017149 -0.076348573 0.86200011 2.2774836e-38
-0.027091429 -0.076348573 0.86200011 2.0845097e-38
-0.023807621 -0.076348573 0.86200005 1.9652233e-38
-0.016419049 -0.076348573 0.86200005 1.6695881e-38
-0.013956191 -0.076348573 0.86200005 1.5316869e-38
-0.045152389 -0.073064767 0.86200011 1.6524608e-38
-0.041803811 -0.072953023 0.86066675 2.1304015e-38
-0.036857147 -0.073714286 0.86000007 2.2223453e-38
-0.031951115 -0.072914496 0.86022228 2.1209639e-38
-0.026845954 -0.073163576 0.86075008 1.6880424e-38
-0.023397146 -0.073064774 0.86200005 1.9829229e-38
-0.016419049 -0.073064774 0.86200011 1.752859e-38
-0.013956191 -0.073885724 0.86200005 1.6609134e-38
-0.045152389 -0.068139054 0.86200011 1.2192374e-38
-0.043000001 -0.06798096 0.86000001 1.7163045e-38
-0.031533334 -0.066752389 0.86000001 1.7866499e-38
-0.027054425 -0.068048716 0.86085725 1.4448835e-38
-0.017240001 -0.068960011 0.86200005 2.2406746e-38
-0.045152385 -0.064034291 0.86200005 1.6517034e-38
-0.04180466 -0.06311471 0.86066675 2.2314564e-38
-0.036884867 -0.063114718 0.86066675 2.0926976e-38
-0.033111747 -0.064307943 0.86200011 1.9169488e-38
-0.040773973 -0.05938223 0.86200011 2.3141822e-38
-0.038037464 -0.05938223 0.86200011 2.0469614e-38
-0.0071175247 -0.085906863 0.86900008 2.3050341e-38
-0.0026866668 -0.086568102 0.86774999 2.1762352e-38
0.00082761911 -0.085244767 0.86900002 2.0202856e-38
-0.046843242 -0.080941141 0.86900008 2.0478137e-38
-0.042208575 -0.081106663 0.86900008 2.0472769e-38
-0.03724286 -0.081461363 0.86900008 1.6146435e-38
-0.032277148 -0.080279052 0.86900008 1.7343922e-38
-0.027311433 -0.080279052 0.86900008 2.1212556e-38
-0.022345718 -0.080279052 0.86900008 2.2774842e-38
-0.017163571 -0.081681192 0.86849999 2.1764246e-38
-0.012395239 -0.081809849 0.86766672 2.121316e-38
-0.0074462434 -0.081913762 0.86877781 1.9924976e-38
-0.0024826457 -0.081913345 0.86877781 1.8727837e-38
0.0014870476 -0.081490867 0.86780006 1.6141672e-38
-0.050484765 -0.075313337 0.86900002 1.6604868e-38
-0.047314763 -0.077064767 0.86775005 1.8726849e-38
-0.0424021 -0.077711441 0.86620009 2.1298274e-38
-0.037128575 -0.078382552 0.86633343 2.268008e-38
-0.032202862 -0.078442864 0.86700004 2.3231829e-38
-0.027291751 -0.078563504 0.86833334 2.2774777e-38
-0.021944193 -0.077711441 0.86620009 2.1580504e-38
-0.017722858 -0.077895246 0.86550003 1.9095566e-38
-0.01182635 -0.077282868 0.86633343 1.5140754e-38
-0.007438201 -0.076870166 0.86788893 1.5692096e-38
-0.002482434 -0.076929636 0.86855555 1.6151281e-38
0.0013787303 -0.075806037 0.86833334 1.6513254e-38
-0.051146865 -0.071671806 0.86900008 1.7435694e-38
-0.047799688 -0.071699686 0.86533344 1.1166443e-38
-0.021625001 -0.072083332 0.86500013 2.093557e-38
-0.018288573 -0.072000958 0.86500007 1.9830282e-38
-0.012200953 -0.072018526 0.86700004 1.753034e-38
-0.0078571429 -0.07320191 0.86849999 1.6243112e-38
-0.0024828573 -0.073658101 0.86900008 1.6336778e-38
0.0016552382 -0.073658101 0.86900002 1.6420075e-38
-0.051312383 -0.067864768 0.86900002 1.678999e-38
-0.047837146 -0.06680572 0.86600012 1.0613936e-38
-0.030480955 -0.065080956 0.86500007 1.6392834e-38
-0.026819048 -0.065605715 0.86650002 1.7785137e-38
-0.022500716 -0.067086913 0.86700004 2.2865235e-38
-0.017359367 -0.06723398 0.86800003 2.2589724e-38
-0.012828096 -0.068278581 0.86900002 1.9370328e-38
-0.047083404 -0.061949532 0.86728585 1.4116298e-38
-0.043661907 -0.060138099 0.86500007 2.2407486e-38
-0.035423812 -0.060138099 0.86500007 1.9361824e-38
-0.031958338 -0.06164977 0.86600012 1.806316e-38
-0.027708575 -0.063276194 0.86849999 1.7055866e-38
-0.045414288 -0.057800002 0.86700004 1.8447436e-38
-0.042305715 -0.056750003 0.86675006 2.2957429e-38
-0.037120413 -0.056916334 0.86614299 1.9361838e-38
-0.033085242 -0.057899527 0.86850005 1.8882462e-38
-0.04107397 -0.053202223 0.86833334 2.314038e-38
-0.038898099 -0.053795241 0.86900002 2.0834797e-38
-0.045728575 -0.095614292 0.87300003 1.8074844e-38
-0.04240286 -0.095614299 0.87300003 2.0014603e-38
-0.05196429 -0.091041438 0.87300003 2.1580184e-38
-0.047391433 -0.092288569 0.87300009 2.0844696e-38
-0.04240286 -0.092288576 0.87300009 2.1029831e-38
-0.038245715 -0.090625718 0.87300003 2.1121683e-38
-0.0074784136 -0.090556517 0.87233341 2.1027012e-38
-0.0041476195 -0.0904181 0.87100005 2.0829675e-38
-0.055705719 -0.087300003 0.87300003 1.8271479e-38
-0.052314181 -0.087189317 0.871889 2.0019309e-38
-0.047294501 -0.087122656 0.87122238 2.1213537e-38
-0.042359687 -0.087211967 0.8721112 2.0846166e-38
-0.037375346 -0.087211959 0.8721112 2.0846164e-38
-0.032425717 -0.086468577 0.87300009 2.1488647e-38
-0.027769718 -0.086302295 0.87300009 1.7900262e-38
-0.022448573 -0.086468577 0.87300009 1.2751429e-38
-0.01724262 -0.087043092 0.87250006 1.7801667e-38
-0.012449631 -0.087145306 0.87144458 1.9736297e-38
-0.007885715 -0.088395238 0.87150007 2.0655773e-38
-0.055705719 -0.082311444 0.87300003 1.8267131e-38
-0.052287515 -0.082165197 0.87144458 1.8639178e-38
-0.047697622 -0.083367154 0.87100005 2.0570295e-38
-0.042305719 -0.08378192 0.87100005 2.0386967e-38
-0.037328575 -0.083781913 0.87100005 1.7444339e-38
-0.032351434 -0.08295238 0.87100017 1.3945298e-38
-0.027405716 -0.083048582 0.8720001 1.8992633e-38
-0.022397146 -0.082952395 0.87100017 1.9915279e-38
-0.019079048 -0.083781913 0.87100005 1.7799557e-38
-0.05634534 -0.076955631 0.87260008 1.9921761e-38
-0.052482858 -0.077375248 0.87125015 1.7529312e-38
0.0019355558 -0.078251749 0.87100005 1.6046548e-38
-0.065682858 -0.073165715 0.87300003 1.7795522e-38
-0.064020008 -0.073165715 0.87300003 1.7794091e-38
-0.056473337 -0.072251432 0.8720001 1.6326554e-38
-0.053504288 -0.072583333 0.87100005 1.6423029e-38
-0.0071373344 -0.071205534 0.87140006 1.6059793e-38
-0.0024888893 -0.071366042 0.87133348 1.6060181e-38
0.0016590478 -0.071339048 0.87100005 1.632821e-38
-0.056494609 -0.067293659 0.87233347 1.6045237e-38
-0.05292362 -0.066527814 0.87100011 1.5220163e-38
-0.020738097 -0.065532386 0.87100005 2.3050348e-38
-0.017420001 -0.065532386 0.87100005 2.2498615e-38
-0.012116002 -0.066226095 0.87140006 1.9001936e-38
-0.0078933341 -0.068553329 0.87250006 1.6610867e-38
-0.0024942858 -0.069008574 0.87300003 1.6333555e-38
0.0016628572 -0.068177141 0.87300003 1.6603028e-38
-0.055705719 -0.064020008 0.87300003 1.6137446e-38
-0.051271431 -0.063465722 0.87300003 1.4757678e-38
-0.048941907 -0.060555242 0.87100005 1.3835262e-38
-0.027054286 -0.061246671 0.87140006 1.6760219e-38
-0.022419579 -0.062276509 0.871889 2.1208599e-38
-0.017440002 -0.063115247 0.8720001 2.2865955e-38
-0.013302858 -0.064020008 0.87300003 2.1118165e-38
-0.047310956 -0.057685718 0.87150002 1.5680789e-38
-0.035669528 -0.055578098 0.87100005 1.8638288e-38
-0.031701908 -0.056599058 0.87140006 1.8057021e-38
-0.027628336 -0.057543099 0.87250006 1.8522704e-38
-0.023557145 -0.058477145 0.87300003 1.8443019e-38
-0.045728575 -0.052380007 0.87300003 2.0103709e-38
-0.042875558 -0.051726356 0.87133348 2.2865592e-38
-0.03714167 -0.052082147 0.87150013 1.8343371e-38
-0.032966986 -0.052913651 0.87266678 1.6481442e-38
-0.042032193 -0.048344195 0.87220001 2.2404983e-38
-0.037728954 -0.048366673 0.87260008 1.9626557e-38
-0.038186036 -0.096719369 0.87800002 2.0569568e-38
-0.037564289 -0.092938267 0.87650001 2.1305029e-38
-0.03261143 -0.091813721 0.87800008 2.1856062e-38
-0.027594289 -0.09114477 0.87800002 2.0386971e-38
-0.022911621 -0.091813728 0.87800008 2.0478778e-38
-0.017272223 -0.092207789 0.87750006 2.0202942e-38
-0.01252143 -0.091825247 0.87650007 1.9376429e-38
-0.0083619049 -0.093653336 0.87800002 2.1305296e-38
-0.057697147 -0.086963817 0.87800002 1.7072594e-38
-0.032500006 -0.089166671 0.87500012 2.0662507e-38
-0.027083337 -0.088750005 0.87500006 1.928353e-38
-0.022500001 -0.089166671 0.87500012 2.1397198e-38
-0.019166667 -0.089166671 0.87500006 2.1580869e-38
-0.057500005 -0.082500011 0.87500012 1.8633845e-38
-0.062595882 -0.077618726 0.87633348 1.7981766e-38
-0.058750004 -0.077916674 0.87500006 1.9831057e-38
-0.061583437 -0.072931625 0.87620014 1.7704776e-38
-0.05916667 -0.072500005 0.87500012 1.7061584e-38
-0.059369527 -0.068567619 0.87800002 1.6692388e-38
-0.0071666674 -0.066500001 0.87500012 1.6978941e-38
-0.002501905 -0.066741906 0.87600011 1.670345e-38
0.0025085716 -0.066059053 0.87800002 1.6787809e-38
-0.052558094 -0.062569529 0.87600005 1.5309805e-38
-0.017500002 -0.060833342 0.87500012 2.2311705e-38
-0.012273336 -0.062083408 0.87585717 2.1394753e-38
-0.0077308337 -0.062895834 0.87762511 1.7991712e-38
-0.0036234926 -0.063829213 0.87800002 1.7072626e-38
0.00083619053 -0.064386673 0.87800002 1.7524662e-38
-0.047662862 -0.056024764 0.87800002 1.7248125e-38
-0.025833335 -0.055833336 0.87500006 2.0457217e-38
-0.022182098 -0.057204958 0.87560004 1.9630762e-38
-0.017560001 -0.058700573 0.87800008 2.1847448e-38
-0.013379049 -0.059369527 0.87800002 2.3049984e-38
-0.047608577 -0.052620005 0.87700003 1.7344629e-38
-0.031424131 -0.051446985 0.87600005 1.889109e-38
-0.028119368 -0.053175561 0.87700003 2.0187551e-38
-0.024249526 -0.054352384 0.87800002 1.2901311e-38
-0.046369292 -0.04803881 0.87725002 1.8721852e-38
-0.04291667 -0.046250004 0.87500006 2.2222747e-38
-0.037083335 -0.046250004 0.87500006 1.9609318e-38
-0.033687305 -0.048721593 0.87700003 1.2899575e-38
-0.042400956 -0.042816907 0.87725008 2.2130906e-38
-0.037910476 -0.043588575 0.8768 1.9999623e-38
-0.034283813 -0.044318099 0.87800002 1.1157214e-38
-0.036038097 -0.09721905 0.88000005 2.1211277e-38
-0.032685719 -0.09721905 0.88000005 2.2407015e-38
-0.027677465 -0.09729334 0.88066667 2.1121681e-38
-0.022668147 -0.098231323 0.88155562 2.0662464e-38
-0.017633971 -0.097403497 0.88166666 2.04788e-38
-0.012918857 -0.09714058 0.88080007 2.0662444e-38
-0.0092190485 -0.096380956 0.88000005 2.0386844e-38
-0.036038097 -0.09470477 0.88000005 2.2131634e-38
-0.032685712 -0.094285719 0.88000005 2.277446e-38
-0.027657142 -0.093866669 0.88000005 2.0846177e-38
-0.022209525 -0.094285727 0.88000005 2.0203272e-38
-0.018158732 -0.094146036 0.88000005 2.0111494e-38
-0.01257143 -0.09470477 0.88000005 2.0478789e-38
-0.061180957 -0.068723813 0.88000005 1.7243785e-38
-0.053760003 -0.06216 0.88200003 1.5863366e-38
-0.0058666673 -0.061180957 0.88000005 1.909689e-38
-0.0019555558 -0.062298417 0.88000005 1.890788e-38
0.0027238098 -0.062647618 0.88000005 1.8072794e-38
-0.051630951 -0.058346193 0.88150001 1.5038623e-38
-0.049447622 -0.056990482 0.88000005 1.5405958e-38
-0.020952383 -0.056152385 0.88000005 2.1201344e-38
-0.017610002 -0.056603339 0.88050008 2.2774781e-38
-0.012344218 -0.057404358 0.88085723 2.2774472e-38
-0.007761905 -0.058101911 0.8810001 2.1577708e-38
-0.002517143 -0.058101911 0.88100004 2.1945405e-38
0.0020375513 -0.058140963 0.88114291 1.9547611e-38
-0.051983245 -0.052654482 0.88320011 1.3929062e-38
-0.049447622 -0.052800007 0.88000005 1.5497087e-38
-0.026559368 -0.051721275 0.88066673 1.7221374e-38
-0.022469047 -0.052708574 0.88199997 1.4661277e-38
-0.017410887 -0.05343375 0.88257152 2.2129829e-38
-0.01286449 -0.053503405 0.88371432 2.0010406e-38
-0.052198097 -0.049672384 0.88400006 1.5492057e-38
-0.048911244 -0.047564961 0.88240004 1.6235403e-38
-0.032138731 -0.047230162 0.88033342 1.8897985e-38
-0.02772614 -0.047890797 0.88222224 2.194108e-38
-0.023573335 -0.048830479 0.88400006 1.3793439e-38
-0.015996192 -0.049672384 0.88400006 2.1296815e-38
-0.047023177 -0.04282254 0.88166666 1.6690621e-38
-0.04441905 -0.041066669 0.88000005 2.0288749e-38
-0.037315715 -0.041509051 0.88050008 1.703104e-38
-0.032576907 -0.042665474 0.88275003 1.8630377e-38
-0.027782857 -0.043779045 0.884 2.2774124e-38
-0.046699528 -0.038284287 0.88350004 1.6874285e-38
-0.042829633 -0.037788361 0.88177788 2.0839788e-38
-0.037847199 -0.037846353 0.88311112 1.7133619e-38
-0.033637144 -0.039524764 0.88300002 1.8260505e-38
-0.042937148 -0.033844572 0.884 1.6596295e-38
-0.039569527 -0.034518097 0.88400006 1.6139276e-38
-0.057509527 -0.060890481 0.88800001 1.6691338e-38
-0.054909527 -0.061667625 0.88700002 1.6231432e-38
-0.055848099 -0.058386192 0.88849998 1.5953776e-38
-0.053732384 -0.057539526 0.88849998 1.5219449e-38
-0.0059133335 -0.056599051 0.88700002 2.1380408e-38
-0.0025342859 -0.056599051 0.88700002 2.2315663e-38
-0.018584764 -0.05153048 0.88700002 2.1487341e-38
-0.011826668 -0.05153048 0.88700002 1.8810746e-38
-0.0076043401 -0.053232916 0.88722223 1.6858896e-38
-0.0025368254 -0.053272069 0.88788891 1.9547626e-38
0.0016914287 -0.054124765 0.88800001 1.9081229e-38
-0.051588573 -0.047359049 0.88800001 1.5032539e-38
-0.022132764 -0.047475625 0.88700002 1.7133301e-38
-0.017966667 -0.047980003 0.88775003 1.7980311e-38
-0.012684127 -0.048198417 0.88788891 1.6690953e-38
-0.0079586674 -0.049276005 0.88900006 1.7974852e-38
-0.049840957 -0.043082859 0.88700002 1.5126151e-38
-0.027877145 -0.041393336 0.88700002 2.24979e-38
-0.023057858 -0.043366905 0.88849998 2.0557093e-38
-0.016933335 -0.043603331 0.88900006 1.8534816e-38
-0.014393334 -0.044026669 0.88900006 1.3816335e-38
-0.049210101 -0.037710667 0.88780004 1.5397014e-38
-0.032714427 -0.037543274 0.88728577 2.0749775e-38
-0.028154971 -0.038545448 0.88814288 2.2402805e-38
-0.023706667 -0.039793335 0.88900006 1.9271399e-38
-0.047746263 -0.033240139 0.88842869 1.4385357e-38
-0.043082859 -0.031678572 0.88700002 1.5487732e-38
-0.037813336 -0.032743335 0.88725001 1.2271339e-38
-0.033503812 -0.033261906 0.88900006 9.4252175e-39
-0.042841334 -0.028956002 0.88900006 1.5578814e-38
-0.038438674 -0.028956002 0.88900006 1.051563e-38
-0.065560006 -0.057045717 0.89400005 1.8805368e-38
-0.061677866 -0.057422146 0.89325005 1.7887376e-38
-0.057452857 -0.056319531 0.8915 1.6229658e-38
-0.056691431 -0.052019291 0.89174998 1.6138187e-38
-0.0025457144 -0.050065719 0.89100003 1.8707749e-38
0.0017 -0.050998576 0.89250004 1.7513531e-38
-0.055342861 -0.047680005 0.89400005 1.5309144e-38
-0.053520005 -0.046721905 0.89200008 1.5115753e-38
-0.0070790481 -0.046439052 0.89200008 1.9449993e-38
-0.002549143 -0.047752574 0.89220011 1.8889589e-38
0.0017028572 -0.048531432 0.89400005 1.714584e-38
-0.052208006 -0.042682286 0.89280003 1.4750896e-38
-0.021214288 -0.041580003 0.89100003 2.1213631e-38
-0.018395716 -0.042450957 0.8915 2.2219814e-38
-0.012175874 -0.042379688 0.89200002 9.3049707e-39
-0.0093500009 -0.044198573 0.89250004 1.3925133e-38
-0.051937148 -0.03746286 0.89400005 1.5578548e-38
-0.027154287 -0.036488574 0.89100003 2.2122625e-38
-0.022950001 -0.037965246 0.8925001 2.0470272e-38
-0.01785 -0.039098576 0.89250004 2.1302234e-38
-0.014425715 -0.039882861 0.89100003 1.7684287e-38
-0.050631434 -0.033094287 0.89100003 1.3184677e-38
-0.031397145 -0.032245718 0.89100003 1.6599538e-38
-0.02863238 -0.033734292 0.89300001 2.1208242e-38
-0.050234288 -0.029800002 0.89400005 1.3364413e-38
-0.047246948 -0.02781184 0.89271438 1.4112014e-38
-0.043277144 -0.026871432 0.89100003 1.2722541e-38
-0.037792146 -0.026752144 0.89175004 6.645934e-39
-0.033143181 -0.028042857 0.89233327 9.7831288e-39
-0.041720003 -0.024691431 0.89400005 1.2708456e-38
-0.038314287 -0.024691431 0.89400005 8.1837638e-39
-0.033205718 -0.024691431 0.89400005 1.6137761e-38
-0.06570667 -0.055466671 0.89600003 1.8347981e-38
-0.062293336 -0.055466674 0.89600009 1.7795175e-38
-0.06570667 -0.05205334 0.89600009 1.7977028e-38
-0.06229334 -0.052053336 0.89600003 1.7611484e-38
-0.058880005 -0.050346669 0.89600003 1.7611509e-38
-0.06570667 -0.048640002 0.89600003 1.8162857e-38
-0.06216643 -0.047211196 0.89725012 1.8163936e-38
-0.057698511 -0.046718914 0.89657146 1.6872882e-38
-0.0025600002 -0.045653336 0.89600003 1.8159928e-38
0.0017085716 -0.046130478 0.89700001 1.715123e-38
-0.061292067 -0.043046989 0.89800012 1.871532e-38
-0.057071667 -0.042108335 0.89775014 1.6687719e-38
-0.053760003 -0.040960003 0.89600003 1.5485546e-38
-0.0074704764 -0.041622385 0.89649999 1.6410325e-38
-0.0025644447 -0.041885078 0.89755565 1.6687998e-38
0.001710159 -0.041890483 0.89766669 1.6228527e-38
-0.055590481 -0.037630476 0.89800006 1.6597708e-38
-0.053880002 -0.036775239 0.89800012 1.5858367e-38
-0.021357145 -0.035879049 0.89700007 2.3048539e-38
-0.018218415 -0.036434926 0.89666671 2.2497171e-38
-0.012815027 -0.036737993 0.89711118 1.7702145e-38
-0.0094076199 -0.038485717 0.89800006 1.5402654e-38
-0.052700959 -0.032759368 0.89733338 1.3096449e-38
-0.027022224 -0.032142229 0.89600009 2.0920814e-38
-0.023285002 -0.033111669 0.89725012 2.000754e-38
-0.01766286 -0.033043809 0.89733338 2.0192634e-38
-0.013968891 -0.03278413 0.89800012 2.010113e-38
-0.051865719 -0.028212383 0.89766681 1.3828277e-38
-0.028403811 -0.028404765 0.89700007 1.8900763e-38
-0.024231747 -0.029363176 0.89800012 1.7875863e-38
-0.016249524 -0.029933335 0.89800006 1.53106e-38
-0.05045905 -0.024801906 0.89800006 1.4564035e-38
-0.046759289 -0.023271667 0.89675003 1.6141068e-38
-0.041813336 -0.02218667 0.89600003 1.5942598e-38
-0.036990799 -0.02247905 0.8963334 1.3838628e-38
-0.033056874 -0.023053609 0.89657146 1.8164648e-38
-0.029933337 -0.023091432 0.89800012 2.0105062e-38
-0.041906673 -0.018448709 0.89800012 1.973417e-38
-0.037202857 -0.019242859 0.89800006 1.7057991e-38
-0.032499049 -0.019670477 0.89800006 1.6324417e-38
-0.060924765 -0.040330477 0.90100002 1.7978486e-38
-0.059208576 -0.040330477 0.90100002 1.7610761e-38
-0.061060004 -0.037840001 0.90300006 1.7979192e-38
-0.057799689 -0.036911115 0.90133333 1.7426014e-38
-0.0075100004 -0.036693335 0.90125 1.9080779e-38
-0.0025751323 -0.036915451 0.90144444 1.9731178e-38
0.0012876191 -0.036917619 0.90150005 1.8718153e-38
-0.057292067 -0.032369211 0.90233344 1.6965748e-38
-0.054060005 -0.031749524 0.90100002 1.4570851e-38
-0.021452382 -0.030033335 0.90100002 1.3634916e-38
-0.018592063 -0.030605398 0.90100002 1.4465031e-38
-0.012308255 -0.031199684 0.90166664 1.7706928e-38
-0.008084001 -0.032852005 0.90300006 1.7705078e-38
-0.0043000001 -0.033540003 0.90300006 1.8068085e-38
-0.055900004 -0.027520001 0.90300006 1.5583903e-38
-0.054060005 -0.02745905 0.90100002 1.4758471e-38
-0.026600955 -0.026600955 0.90100002 1.9627503e-38
-0.022834858 -0.02729924 0.90140003 1.6576118e-38
-0.01804667 -0.027499048 0.90233338 1.4004682e-38
-0.014035873 -0.027785717 0.90233344 1.6671934e-38
-0.052382544 -0.023471115 0.90166676 1.4292472e-38
-0.04891143 -0.021452382 0.90100002 1.3191545e-38
-0.027459051 -0.023168575 0.90100002 2.000206e-38
-0.023784129 -0.023784129 0.90266675 1.6675148e-38
-0.016340001 -0.024940001 0.90300006 1.4288823e-38
-0.047020961 -0.018249525 0.90175003 1.4575557e-38
-0.042046666 -0.016303811 0.90100002 1.7987164e-38
-0.036554862 -0.016990287 0.90100002 1.5580001e-38
-0.031544086 -0.017550886 0.90214288 1.5950248e-38
-0.028380001 -0.019780001 0.90300006 1.8443094e-38
-0.046440005 -0.01462 0.90300006 1.466305e-38
-0.041867144 -0.013095715 0.90175003 1.816508e-38
-0.036943179 -0.012886032 0.90211117 1.5493185e-38
-0.032680005 -0.01462 0.90300006 1.5122634e-38
-0.041280001 -0.0094600003 0.90300006 1.8257261e-38
-0.057747621 -0.031028572 0.90500003 1.6684124e-38
-0.0073261913 -0.030597622 0.90500003 1.6413255e-38
-0.0025906127 -0.031949256 0.90671432 1.6039065e-38
0.00086333335 -0.032805242 0.90650004 1.6408923e-38
-0.011645 -0.026739763 0.90575004 1.3540159e-38
-0.0082688443 -0.02702776 0.90714294 1.373277e-38
-0.0043238099 -0.028537145 0.90800005 1.6214841e-38
-0.056209527 -0.022483811 0.90800005 7.7613298e-39
-0.053615242 -0.02161905 0.90800005 1.4296057e-38
-0.022122225 -0.022122225 0.90500009 1.5941897e-38
-0.018346906 -0.023093097 0.90650004 1.4737208e-38
-0.013445579 -0.023313882 0.90671444 1.5295098e-38
-0.050852384 -0.018961906 0.90500003 1.4838057e-38
-0.049128573 -0.016376192 0.90500003 1.2733396e-38
-0.026768031 -0.017640136 0.90671432 1.9455817e-38
-0.023327857 -0.019440714 0.90725005 2.2219829e-38
-0.016430477 -0.019024763 0.90800005 2.2866639e-38
-0.014700953 -0.019889524 0.90800005 2.2397018e-38
-0.047720823 -0.012454424 0.90628582 1.586231e-38
-0.043957144 -0.011204762 0.90500003 1.7248551e-38
-0.031658508 -0.012441362 0.90542871 1.5769437e-38
-0.028081194 -0.013391668 0.90725005 1.8261939e-38
-0.051020958 -0.0086476197 0.90800005 1.6418036e-38
-0.047270752 -0.0082680276 0.90714294 1.7156306e-38
-0.04256041 -0.0072768712 0.90671444 1.6601002e-38
-0.037338816 -0.0079840478 0.90650004 1.6601687e-38
-0.031996194 -0.0095123816 0.90800011 1.4947198e-38
-0.041508574 -0.0043238099 0.90800005 1.5125889e-38
-0.038914289 -0.0043238099 0.90800005 1.605355e-38
-0.00086666673 -0.030333335 0.91000003 1.3928669e-38
0.0017390477 -0.030433334 0.91300005 1.6871748e-38
-0.006076667 -0.026041429 0.91150004 1.6035617e-38
-0.0023883334 -0.026715001 0.91225004 2.0102917e-38
0.0017390477 -0.028694287 0.91300005 1.8539186e-38
-0.011266667 -0.021666668 0.91000003 1.7796272e-38
-0.0078109531 -0.022570003 0.91149998 2.0374525e-38
-0.056519054 -0.018260002 0.91300005 7.1109549e-39
-0.053214606 -0.01821905 0.91100001 1.5403087e-38
-0.022244446 -0.017044445 0.91000003 2.1853612e-38
-0.018703813 -0.017960139 0.91042858 2.2864492e-38
-0.012804049 -0.018011192 0.91150004 2.1667768e-38
-0.0095647629 -0.019129526 0.91300005 2.1762857e-38
-0.052311625 -0.012337524 0.91240007 1.6325789e-38
-0.025859812 -0.012669334 0.91120005 1.7524016e-38
-0.022871748 -0.014186032 0.91200006 1.9273228e-38
-0.016520953 -0.014781905 0.91300005 1.9641299e-38
-0.014202222 -0.014202222 0.91300005 1.8166159e-38
-0.053040959 -0.0084053976 0.91300005 1.5307007e-38
-0.048614763 -0.006076667 0.91150004 1.7339624e-38
-0.035533335 -0.0060666669 0.91000003 1.6514157e-38
-0.032066673 -0.0069333343 0.91000003 1.6878967e-38
-0.028083175 -0.0089746043 0.91200006 1.5499273e-38
-0.046688385 -0.0029489526 0.91120005 1.8078255e-38
-0.042774294 -0.0021059865 0.91128576 1.4663781e-38
-0.0372881 -0.0028893654 0.91050005 1.6420526e-38
-0.032520194 -0.0036520001 0.91300005 1.9458328e-38
0.0017428573 -0.026142858 0.91500002 1.9914952e-38
-0.0069714291 -0.020042859 0.91500002 2.3142179e-38
-0.0026142863 -0.021785717 0.91500008 2.30489e-38
0.0021195922 -0.021562858 0.91614294 1.8531303e-38
-0.054900005 -0.016557144 0.91500002 1.2556573e-38
-0.0074942857 -0.017254287 0.91500008 1.7805299e-38
-0.0029693337 -0.017641334 0.917 1.9554487e-38
0.0017466667 -0.017466668 0.91700006 1.8900457e-38
-0.055020005 -0.013973335 0.91700006 1.3925867e-38
-0.053157147 -0.013942858 0.91500002 1.7524291e-38
-0.021219369 -0.012499366 0.91566676 1.7892784e-38
-0.017618857 -0.012733526 0.91580003 1.7706238e-38
-0.012490476 -0.012490476 0.91500008 1.8721479e-38
-0.0078473026 -0.013080953 0.9156667 2.0287003e-38
-0.004366667 -0.013100001 0.91700006 2.0473908e-38
-0.026442541 -0.0072641275 0.91533339 1.6970813e-38
-0.02204524 -0.008075715 0.91674995 1.7889916e-38
-0.016593335 -0.0078600002 0.91700006 1.9918218e-38
-0.013529524 -0.0091647627 0.91650003 2.12068e-38
-0.0084422231 -0.0084422231 0.917 2.0197314e-38
-0.0039300006 -0.0074233334 0.91700006 1.0216511e-38
-0.048906669 -0.0026200002 0.91700006 1.6694613e-38
-0.03663905 -0.00087238103 0.91600001 1.2817486e-38
-0.032291114 -0.0014536509 0.91633338 1.7059138e-38
-0.027062861 -0.0034917463 0.91666669 1.9086311e-38
-0.023580002 -0.0034933337 0.91700006 1.8625332e-38
-0.046698101 0.0021828574 0.91650003 1.5496021e-38
-0.042751431 0.0026187301 0.91611111 9.2184658e-39
-0.037885528 0.0015716192 0.91660005 4.9890555e-39
-0.034060001 0.00087333337 0.91700006 9.8624927e-39
-0.044540003 0.0061133336 0.91700006 9.2136845e-39
-0.00087619055 -0.01664762 0.92000002 2.2678673e-38
-0.0021923811 -0.013595239 0.921 1.9643081e-38
0.00087809528 -0.01492762 0.92200005 1.8901559e-38
-0.020152383 -0.0061333338 0.92000002 1.9549083e-38
-0.018400002 -0.007885715 0.92000002 1.890551e-38
-0.012792381 -0.0068342858 0.92000002 2.1391548e-38
-0.0070180958 -0.0070161913 0.921 1.4650529e-38
-0.0017523811 -0.0087619051 0.92000002 7.4686153e-39
0.00087619055 -0.0096380962 0.92000002 9.9690012e-39
-0.052190483 -0.0026314287 0.921 1.3562839e-38
-0.049942862 -0.0017523811 0.92000002 1.558827e-38
-0.030666668 -0.00087619055 0.92000002 1.6138246e-38
-0.027161907 -0.00087619055 0.92000002 1.6235825e-38
-0.021417147 -0.0023787757 0.92057145 1.7705187e-38
-0.017543176 -0.002630159 0.921 1.8076484e-38
-0.013155874 -0.0035082544 0.921 1.816757e-38
-0.0096590482 -0.0043904763 0.92200005 1.6221999e-38
-0.050873339 0.0017552383 0.921 1.3098587e-38
-0.048774607 0.0026285718 0.92000002 1.3559212e-38
-0.037238095 0.0039428575 0.92000002 1.0047131e-38
-0.032448709 0.0026315649 0.92085719 1.1705577e-38
-0.027200637 0.0017555556 0.92133343 1.2812673e-38
-0.023708573 0.00087809528 0.92200005 1.4202814e-38
-0.00088095246 -0.012333333 0.92500007 1.6040654e-38
0.00088095246 -0.012333333 0.92500007 1.5672563e-38
-0.0061666672 -0.0061666672 0.92500007 1.0399141e-38
-0.013222541 -0.00088158739 0.92566675 1.2356414e-38
-0.0079393657 -0.0029403176 0.92633343 1.3080618e-38
-0.0035314288 -0.004414286 0.92700005 1.0513055e-38
