# .PCD v0.7 - Point Cloud Data file format
VERSION 0.7
FIELDS x y z
SIZE 4 4 4
TYPE F F F
COUNT 1 1 1
WIDTH 603
HEIGHT 1
VIEWPOINT 0 0 0 1 0 0 0
POINTS 603
DATA ascii
0.12427715 -0.097200006 0.72900003
0.12612858 -0.097431436 0.72900003
0.13281906 -0.1055562 0.73400003
0.13701335 -0.1055562 0.73400003
0.10345906 -0.10136191 0.73400003
0.10813101 -0.10238794 0.73355561
0.11244445 -0.10266795 0.73333341
0.11723977 -0.10188787 0.73275006
0.12288727 -0.10235465 0.73200005
0.12763527 -0.10252857 0.7323333
0.13239715 -0.10243382 0.73166674
0.13742097 -0.10254307 0.73244447
0.14091468 -0.10236915 0.73320001
0.10303859 -0.098498106 0.7335
0.10745133 -0.097681783 0.73262513
0.1127249 -0.097398289 0.73153347
0.11745408 -0.09763781 0.73107696
0.12223116 -0.097466677 0.73100007
0.12771229 -0.097389318 0.73100001
0.13234429 -0.097515836 0.7313751
0.13747896 -0.097698823 0.73275006
0.14177907 -0.099873029 0.73333335
0.1041581 -0.094371438 0.73400003
0.10765334 -0.094371438 0.73400003
0.11316744 -0.092934869 0.73260009
0.11722149 -0.092269778 0.73145455
0.122572 -0.092624687 0.73125005
0.12735482 -0.092325374 0.73290914
0.13291185 -0.093625322 0.73285717
0.13771239 -0.094371438 0.73400009
0.11807168 -0.088770479 0.73250008
0.12227314 -0.08835315 0.73280001
0.12512954 -0.088779055 0.73400003
0.13372383 -0.1104981 0.73900002
0.13785191 -0.11042334 0.73850006
0.14259182 -0.11106115 0.73900002
0.14763291 -0.11137005 0.73855555
0.15272668 -0.1112019 0.73900002
0.097103342 -0.10765891 0.73883337
0.10264017 -0.10756239 0.73816669
0.10745599 -0.1074579 0.73744452
0.11236834 -0.10745391 0.73741674
0.11718202 -0.10734466 0.73787498
0.12229715 -0.10683524 0.73800004
0.12786256 -0.10695715 0.73722225
0.13228355 -0.10821498 0.73714286
0.1377033 -0.10777863 0.73644447
0.14242266 -0.10734329 0.73666668
0.14738311 -0.10737946 0.73691678
0.15157732 -0.10736747 0.73683333
0.097442724 -0.10307144 0.73853856
0.1019427 -0.10309109 0.73636371
0.10631113 -0.10397461 0.73600006
0.11776 -0.10444191 0.73600006
0.12126477 -0.10444191 0.73600006
0.14334477 -0.10339049 0.73600006
0.14740072 -0.10247666 0.73700005
0.15084128 -0.10313271 0.73666668
0.099170007 -0.097058579 0.73850006
0.10147535 -0.096911073 0.73737502
0.14242287 -0.097520635 0.73666668
0.14765488 -0.096902207 0.73853856
0.10339024 -0.093032859 0.73725003
0.10744002 -0.091989212 0.73733336
0.11138124 -0.091529809 0.73685724
0.12897524 -0.090422861 0.73600006
0.13240859 -0.091512531 0.73671442
0.13781491 -0.091854379 0.73727274
0.14253454 -0.092681997 0.73725009
0.14697887 -0.092651434 0.73700005
0.11401715 -0.088680007 0.73900002
0.11734572 -0.08719112 0.73633337
0.12213144 -0.086334288 0.73700005
0.12747104 -0.088155933 0.73714286
0.1321042 -0.088772386 0.73860002
0.13724287 -0.089031912 0.73900002
0.11916191 -0.084815241 0.73600006
0.12213144 -0.08493048 0.73700005
0.12564096 -0.08493048 0.73700005
0.094113342 -0.11534191 0.74300003
0.097954713 -0.11594845 0.74300009
0.10260477 -0.11534192 0.74300003
0.11817239 -0.11534192 0.74300003
0.12241811 -0.11534192 0.74300003
0.12595621 -0.11534191 0.74300003
0.13869333 -0.11604953 0.74300003
0.14284259 -0.1163963 0.74250007
0.14766879 -0.11796277 0.74266672
0.15274267 -0.11718459 0.74250001
0.15638381 -0.11958763 0.74300003
0.092627935 -0.11242815 0.74244446
0.097367153 -0.11218461 0.74083328
0.10235948 -0.1122435 0.74122226
0.1073225 -0.1115606 0.74137497
0.1125662 -0.11214506 0.74150008
0.11747014 -0.11246268 0.74181825
0.12248545 -0.11217495 0.74170005
0.12745559 -0.1125446 0.74236369
0.13224818 -0.11224491 0.74257153
0.13734178 -0.11312491 0.74171436
0.14236192 -0.11299683 0.74000001
0.14729524 -0.11431239 0.74000001
0.1524362 -0.11362001 0.74100006
0.089867622 -0.1075581 0.74300003
0.092457548 -0.10727977 0.74108332
0.11910477 -0.1092381 0.74000001
0.12262858 -0.1092381 0.74000001
0.12685716 -0.1092381 0.74000001
0.089867622 -0.10402001 0.74300003
0.092613868 -0.10251207 0.74233341
0.095612705 -0.1012508 0.74000001
0.15152381 -0.10078096 0.74000001
0.092698097 -0.099774294 0.74300003
0.097284235 -0.097753868 0.74200004
0.14910668 -0.099640004 0.74200004
0.15166637 -0.099302553 0.74300003
0.099774294 -0.094113342 0.74300003
0.10229448 -0.092389718 0.74280006
0.1092381 -0.089504771 0.74000001
0.11135238 -0.088800006 0.74000001
0.12855081 -0.086565398 0.74300003
0.13284992 -0.087390102 0.74120003
0.13601905 -0.08809524 0.74000001
0.15244953 -0.13036573 0.74800003
0.15292628 -0.12732247 0.74685729
0.15538572 -0.12629524 0.74500006
0.097509854 -0.12028509 0.74733341
0.11896763 -0.12039239 0.74800003
0.12248787 -0.12035215 0.74775004
0.13250287 -0.12039239 0.74800003
0.13766418 -0.12086572 0.7474001
0.1424762 -0.12181715 0.74800003
0.14746286 -0.12252953 0.74800003
0.15254943 -0.12280925 0.74710006
0.15609525 -0.12274764 0.74500006
0.089047626 -0.1161181 0.74800003
0.092578381 -0.11671144 0.74528575
0.09704572 -0.1183743 0.74650007
0.10265062 -0.11808682 0.7462858
0.10758068 -0.11710373 0.74610013
0.11254416 -0.11745933 0.74663639
0.11736667 -0.11754549 0.74575001
0.12243471 -0.11797322 0.74557149
0.1279981 -0.11735524 0.745
0.13268097 -0.11707143 0.745
0.13725345 -0.11770213 0.745
0.14225952 -0.11955477 0.74500006
0.14616191 -0.11990953 0.74500006
0.15112858 -0.11990953 0.74500006
0.15633175 -0.11801748 0.74500006
0.087946542 -0.1124943 0.74557155
0.090109527 -0.11281429 0.74500006
0.10784763 -0.11423334 0.74500006
0.13339049 -0.11423334 0.74500006
0.088453531 -0.10804782 0.74540007
0.088849217 -0.10306382 0.74633336
0.090819053 -0.10110715 0.74500006
0.094662234 -0.09750922 0.74733341
0.095871434 -0.097290486 0.74566674
0.098044768 -0.094493337 0.74600005
0.10087524 -0.092331126 0.74766672
0.13250287 -0.086198099 0.74800003
0.13729286 -0.08691667 0.74500006
0.14414573 -0.13123715 0.75300002
0.14813504 -0.13221651 0.7522223
0.15117191 -0.13223192 0.75050002
0.089613095 -0.1276093 0.75275004
0.09215197 -0.1270379 0.75266671
0.09707582 -0.12575355 0.75280005
0.10255145 -0.12550001 0.75300002
0.10757144 -0.12550001 0.75300002
0.11259144 -0.12550001 0.75300002
0.11800992 -0.12575354 0.75280005
0.12294882 -0.12581691 0.75275004
0.12756668 -0.12613381 0.75250006
0.13255398 -0.12610573 0.7523334
0.13784921 -0.12638211 0.75255567
0.14266884 -0.12730296 0.75209093
0.1473618 -0.12733394 0.75112498
0.1512581 -0.12672223 0.75033343
0.088950865 -0.12218211 0.75200003
0.092224762 -0.1222527 0.75066668
0.097019896 -0.1227655 0.75088888
0.10229483 -0.12232552 0.75111115
0.1073097 -0.12233415 0.7511667
0.11230858 -0.12232509 0.75111115
0.11706165 -0.12239257 0.75072736
0.12230574 -0.12302192 0.75100011
0.12743066 -0.12236261 0.7505455
0.13214287 -0.12285715 0.75000012
0.13666669 -0.12309524 0.75000012
0.14214286 -0.12357144 0.75000012
0.14690478 -0.12309524 0.75000012
0.088616773 -0.11839505 0.75160009
0.091785714 -0.11892858 0.75000006
0.093571432 -0.098571435 0.75000006
0.09681429 -0.095380008 0.75300002
0.10255144 -0.091077149 0.75300002
0.10753596 -0.091046914 0.75275004
0.10242105 -0.087295845 0.75300008
0.10748225 -0.087419532 0.75237501
0.11213937 -0.086832285 0.75211114
0.11500001 -0.085000008 0.75000006
0.12857144 -0.085000008 0.75000006
0.13214287 -0.085000008 0.75000012
0.13714287 -0.085476205 0.75000012
0.10326858 -0.083905719 0.75300002
0.10742857 -0.082361914 0.75199997
0.11230814 -0.082264982 0.75111109
0.11557144 -0.081857145 0.75000006
0.12406572 -0.081037149 0.75300002
0.12748128 -0.082360648 0.75200009
0.13241737 -0.082312383 0.75155556
0.13724609 -0.082452297 0.75163633
0.14090191 -0.082968578 0.75100005
0.10769389 -0.078853071 0.75171435
0.11234191 -0.077278748 0.75133336
0.1172047 -0.077385113 0.75235718
0.12334858 -0.07960286 0.75300002
0.12908572 -0.07960286 0.75300002
0.13106287 -0.079497151 0.75200003
0.13679239 -0.079497151 0.75200003
0.11330858 -0.073865719 0.75300002
0.1164162 -0.073387623 0.75300002
0.096013337 -0.13644001 0.75800002
0.13932763 -0.13932763 0.75800002
0.14302191 -0.1374324 0.75749999
0.14687842 -0.1370413 0.75600004
0.093346991 -0.13238169 0.75588894
0.097185634 -0.1324445 0.75690913
0.10224031 -0.13219783 0.75723088
0.10746922 -0.13199367 0.75733334
0.1127926 -0.1315507 0.75755554
0.1176364 -0.13207026 0.75777775
0.12261587 -0.13199368 0.75733328
0.12762688 -0.13195494 0.75711107
0.13286857 -0.13182029 0.75709093
0.13779977 -0.13242848 0.75681829
0.14221561 -0.13290997 0.75623089
0.14644605 -0.13398255 0.75500005
0.094195247 -0.12870952 0.75500005
0.097812228 -0.1280189 0.75516671
0.10249022 -0.12819062 0.75557154
0.10720906 -0.12807572 0.75550008
0.11224572 -0.12807573 0.75550002
0.11728239 -0.12807572 0.75550008
0.12229207 -0.128287 0.75533336
0.12727144 -0.12870952 0.75500005
0.13230476 -0.12870952 0.75500005
0.1373381 -0.12870952 0.75500005
0.093785241 -0.096671909 0.75750005
0.095633343 -0.095633343 0.75500005
0.093637563 -0.092607901 0.7571429
0.097854286 -0.092818588 0.75550008
0.10282382 -0.091319054 0.75500005
0.093737975 -0.087564915 0.75628579
0.097854294 -0.087781921 0.7555002
0.10426191 -0.089880958 0.75500005
0.14400002 -0.087120011 0.75600004
0.14616001 -0.086400002 0.75600004
0.094320007 -0.084240004 0.75600004
0.098260485 -0.082867727 0.75530005
0.1029453 -0.081826136 0.75588894
0.13932763 -0.080131434 0.75800002
0.14149335 -0.081575245 0.75800002
0.10152001 -0.079920009 0.75600004
0.10872 -0.076320007 0.75600004
0.11016001 -0.076320007 0.75600004
0.12279983 -0.076875433 0.75580007
0.12744702 -0.077645123 0.75681818
0.13253874 -0.077792704 0.75633335
0.13657595 -0.078556433 0.75674999
0.10900763 -0.074356198 0.75800002
0.11233775 -0.072731316 0.75612503
0.11779881 -0.071685955 0.75650001
0.12239172 -0.072382733 0.7578572
0.12705524 -0.074356198 0.75800002
0.11699334 -0.14606 0.76300001
0.099553339 -0.14315334 0.76300001
0.10246 -0.1417 0.76300001
0.1077889 -0.14202297 0.76300001
0.11281501 -0.14188169 0.76300001
0.11751239 -0.14211524 0.76300013
0.12293881 -0.14222848 0.76300001
0.12716669 -0.14097336 0.76300001
0.13192303 -0.14170001 0.76300001
0.13740033 -0.14199874 0.76200008
0.098689809 -0.13804191 0.76114291
0.10276414 -0.13710171 0.76166672
0.10755066 -0.13722789 0.7616365
0.11235493 -0.13700148 0.76111114
0.11743747 -0.13701192 0.76116675
0.12239514 -0.13688064 0.76044452
0.12751628 -0.13693628 0.76075017
0.1325344 -0.13688065 0.76044452
0.13720287 -0.13776097 0.76038474
0.14210795 -0.13873017 0.76000011
0.11219049 -0.13390478 0.76000011
0.13100953 -0.13390477 0.76000005
0.092044771 -0.096393339 0.76100004
0.092044771 -0.094943814 0.76100004
0.14224097 -0.080554292 0.76200002
0.10299942 -0.077792741 0.76162499
0.10655947 -0.077149123 0.76114297
0.13390477 -0.076000005 0.76000005
0.1378141 -0.076949716 0.7608
0.14111869 -0.077462666 0.76300001
0.10391334 -0.07484667 0.76300001
0.10737133 -0.073489845 0.76233339
0.11213601 -0.070936762 0.76160002
0.11580953 -0.070209526 0.76000005
0.12768002 -0.071971774 0.76054555
0.13254295 -0.072380297 0.76176941
0.13704461 -0.072776362 0.76209098
0.14061001 -0.073756672 0.76300001
0.11350255 -0.068488583 0.76233339
0.11787152 -0.067789249 0.7621001
0.12260996 -0.06746985 0.76177782
0.12723145 -0.067917697 0.7621429
0.13007334 -0.06903334 0.76300001
0.11365715 -0.14644286 0.76500005
0.1173 -0.14644286 0.76500005
0.12167144 -0.14644286 0.76500005
0.12750003 -0.14644286 0.76500005
0.13041429 -0.14644286 0.76500005
0.099814296 -0.14207144 0.76500005
0.10751635 -0.14332041 0.76500005
0.11256429 -0.14389287 0.76500005
0.11875715 -0.14498572 0.76500005
0.12094286 -0.14498572 0.76500005
0.12750001 -0.14425716 0.76500005
0.13332859 -0.14440288 0.76500005
0.13624287 -0.14498572 0.76500005
0.097785488 -0.081003577 0.76625001
0.14498572 -0.080871433 0.76500005
0.14865772 -0.081710294 0.76740009
0.15213716 -0.081188574 0.76800001
0.098535821 -0.077806674 0.76640004
0.10132363 -0.076247811 0.76540005
0.14382002 -0.077082865 0.76500005
0.1460626 -0.077461511 0.76628578
0.098742865 -0.073142856 0.76800001
0.10242788 -0.072423376 0.76672739
0.10710001 -0.071254291 0.76500005
0.11001429 -0.070671432 0.76500005
0.13915715 -0.070671432 0.76500005
0.14272845 -0.072040819 0.76628572
0.14654478 -0.072383955 0.76771432
0.10302953 -0.068321429 0.76725006
0.10728689 -0.067873552 0.7663334
0.11212762 -0.066885881 0.76616669
0.11719259 -0.065527439 0.76620001
0.12740858 -0.065527439 0.76620001
0.13233991 -0.067328833 0.76618189
0.13721655 -0.068242498 0.76637495
0.14159207 -0.068967938 0.7676667
0.11410287 -0.063634291 0.76800001
0.11808692 -0.063247867 0.76775002
0.12230095 -0.063400008 0.76666677
0.12702231 -0.062999435 0.76740009
0.13092573 -0.063634291 0.76800001
0.09375947 -0.081580415 0.77171433
0.096066676 -0.082866669 0.77000004
0.094171278 -0.077249691 0.77250004
0.096409909 -0.077332579 0.77040005
0.14896335 -0.077782385 0.7705
0.15206319 -0.077866681 0.7713334
0.09496858 -0.074355245 0.77300006
0.0974143 -0.072694927 0.77100003
0.10046668 -0.071133338 0.77000004
0.14906001 -0.072696194 0.77100003
0.1518143 -0.072879054 0.77099997
0.099128574 -0.06902191 0.77100003
0.10184334 -0.066832863 0.77116668
0.10713477 -0.065309048 0.7705
0.11073334 -0.065266669 0.77000004
0.13420001 -0.065266669 0.77000004
0.13756992 -0.065921143 0.77080005
0.14281867 -0.066999815 0.77140009
0.14719974 -0.068510212 0.7711429
0.10380287 -0.064048573 0.77300006
0.10753169 -0.062620528 0.77190912
0.11216191 -0.062229529 0.77100003
0.11701906 -0.061495248 0.7700001
0.12320001 -0.060866669 0.77000004
0.12808889 -0.061355561 0.7700001
0.13304691 -0.062209766 0.77074999
0.13704343 -0.06314858 0.77280003
0.14061239 -0.063312382 0.77300006
0.10955048 -0.05955429 0.77200001
0.11287296 -0.05901162 0.77260011
0.11763748 -0.058082532 0.77200001
0.12274501 -0.057327863 0.77175009
0.12714191 -0.058057673 0.77166671
0.13195325 -0.05825324 0.77229995
0.089770481 -0.08531905 0.77900004
0.092738107 -0.085319057 0.77900004
0.089770481 -0.082351431 0.77900004
0.091706477 -0.082226105 0.77780002
0.089770481 -0.077900007 0.77900004
0.091758743 -0.077699378 0.77700007
0.09410096 -0.074094296 0.778
0.096486352 -0.071317464 0.77733338
0.15318 -0.070300005 0.77700007
0.098094285 -0.0684435 0.77833337
0.10047778 -0.066411123 0.77766675
0.14726001 -0.065860003 0.77700007
0.15187441 -0.067416191 0.77788889
0.1550581 -0.068997145 0.77900004
0.10269473 -0.062404979 0.77700001
0.10554763 -0.061261907 0.77500004
0.13876191 -0.062000003 0.77500004
0.14323249 -0.062040526 0.7765556
0.14741562 -0.062436011 0.7786001
0.15060668 -0.063803814 0.77900004
0.10447429 -0.05927524 0.778
0.10781905 -0.058809765 0.77675009
0.11236415 -0.056469101 0.7767778
0.11735715 -0.055357151 0.77500004
0.12030953 -0.055357147 0.77500004
0.1279089 -0.055452388 0.77633333
0.13257495 -0.055547625 0.77766669
0.13732997 -0.057988495 0.77790922
0.14106001 -0.058495723 0.77750003
0.11425334 -0.054159053 0.77900004
0.11800124 -0.05302028 0.77785724
0.12186763 -0.053455818 0.77740002
0.12709811 -0.053834479 0.77860004
0.13280097 -0.054159056 0.77900004
0.092348576 -0.075220957 0.78200006
0.093421601 -0.072303496 0.78266668
0.094826676 -0.06869334 0.78400004
0.09710826 -0.067303821 0.78233337
0.098724447 -0.064406991 0.78333342
0.10078859 -0.062080003 0.7816
0.14857143 -0.061657146 0.78000003
0.15228574 -0.062718377 0.78000009
0.10325715 -0.05794286 0.78000003
0.10710763 -0.056280963 0.78100008
0.1389143 -0.055714291 0.78000003
0.14273198 -0.057069939 0.78114295
0.10801047 -0.053538572 0.78350002
0.11234945 -0.051939044 0.78218186
0.11680877 -0.051334482 0.78120005
0.12305307 -0.050942045 0.78171432
0.12758072 -0.051216431 0.78225005
0.13200954 -0.05194572 0.78200006
0.13772351 -0.053599056 0.7816667
0.14112002 -0.054506671 0.78400004
0.11424001 -0.048533335 0.78400004
0.11734515 -0.049352765 0.78280002
0.12245334 -0.048533335 0.78400004
0.12768 -0.048533335 0.7840001
0.091176011 -0.072312012 0.78600001
0.089363337 -0.067584768 0.78850007
0.092210166 -0.067469373 0.78716677
0.095648259 -0.065680012 0.78666675
0.097889654 -0.062446553 0.78762507
0.099564292 -0.05823572 0.78900003
0.10220589 -0.057224926 0.78716677
0.14684382 -0.056784764 0.78800005
0.10352039 -0.053938676 0.78880006
0.1069475 -0.051278915 0.78685725
0.11004001 -0.050154287 0.78600001
0.13324572 -0.050154287 0.78600001
0.1375909 -0.051073615 0.787
0.14254501 -0.053265955 0.78775007
0.14502573 -0.054854289 0.78900003
0.10813667 -0.048811905 0.78850007
0.11200491 -0.047818784 0.7862857
0.11769634 -0.046798639 0.78714293
0.12206827 -0.046430796 0.78633332
0.12743966 -0.046476789 0.78712511
0.13289176 -0.048050478 0.78833342
0.13676 -0.048842859 0.78900003
0.11947715 -0.044334289 0.78900003
0.12248287 -0.044334289 0.78900003
0.12693779 -0.044315558 0.78866673
0.089873336 -0.064195246 0.79300004
0.093279377 -0.063107938 0.792
0.096175566 -0.061522227 0.79100007
0.097786531 -0.057679329 0.79242867
0.14916001 -0.058760002 0.79100001
0.15123382 -0.057701431 0.79200006
0.10207849 -0.052320004 0.79159999
0.14284763 -0.050881907 0.79149997
0.1474624 -0.053741671 0.79200006
0.15161049 -0.054307621 0.79200006
0.1044746 -0.048586987 0.7930001
0.10790826 -0.047287624 0.79233336
0.11234002 -0.045992069 0.79166669
0.11526 -0.045953337 0.79100001
0.13334 -0.045953341 0.79100007
0.13797683 -0.047248255 0.79166669
0.14173304 -0.048586987 0.7930001
0.10937144 -0.043747623 0.79200006
0.11253049 -0.044559054 0.7930001
0.11743249 -0.043167301 0.79211122
0.12253919 -0.042138912 0.79214293
0.12747429 -0.042239051 0.792
0.13189501 -0.043209285 0.79250008
0.13639601 -0.04395486 0.79300004
0.092234299 -0.06191048 0.796
0.094201915 -0.058705527 0.79640001
0.096325345 -0.056278098 0.79640001
0.097746775 -0.052711427 0.79699999
0.10070001 -0.050728574 0.79500002
0.1482081 -0.05117096 0.796
0.15130256 -0.051780641 0.79566669
0.099560007 -0.049400002 0.79800004
0.10254436 -0.047854289 0.79757148
0.10600001 -0.046185717 0.79500002
0.14296827 -0.047234606 0.79566669
0.14739406 -0.048624527 0.79775
0.15124001 -0.049400002 0.79800004
0.10412001 -0.044840004 0.79800004
0.10733851 -0.043738235 0.79771435
0.11275134 -0.041730385 0.79670006
0.11712524 -0.040557623 0.796
0.12265715 -0.040128574 0.79500002
0.12795715 -0.040128574 0.79500002
0.13296287 -0.040532384 0.79550004
0.1373079 -0.041224629 0.79528582
0.14160582 -0.042758841 0.79700005
0.11476 -0.038760003 0.79800004
0.11797471 -0.037660412 0.79771435
0.1223089 -0.037223812 0.79766667
0.12765366 -0.037231907 0.79783338
0.132392 -0.037848003 0.79800004
0.13851523 -0.038237147 0.79766673
0.14136001 -0.038760003 0.79800004
0.089142866 -0.062476195 0.80000001
0.09116096 -0.061408576 0.801
0.092451714 -0.057306677 0.80228579
0.093300007 -0.052768581 0.80299997
0.09574604 -0.051555559 0.80000007
0.097785555 -0.047619529 0.8021667
0.1006962 -0.045770481 0.801
0.14799464 -0.046533018 0.80100006
0.15199764 -0.046458576 0.80299997
0.098695248 -0.042080641 0.8033334
0.10223945 -0.042399462 0.80114299
0.10712381 -0.040990479 0.80000001
0.1104762 -0.040380955 0.80000001
0.14349207 -0.041904762 0.80000007
0.1471545 -0.042283621 0.80140013
0.15168954 -0.042094097 0.80360001
0.10400668 -0.039002858 0.80300003
0.1078762 -0.037487619 0.80333334
0.1122161 -0.037404656 0.80155563
0.11619049 -0.036190476 0.80000001
0.13409525 -0.036571428 0.80000001
0.13739684 -0.0368254 0.80000007
0.1424762 -0.035809524 0.80000007
0.1130023 -0.033489149 0.8028
0.11767429 -0.032936629 0.80090922
0.12287112 -0.03281524 0.80133343
0.1275562 -0.032841273 0.80200005
0.13194858 -0.033032861 0.80200011
0.13695049 -0.034428574 0.8033334
0.11380763 -0.029788574 0.80200005
0.11839049 -0.029788574 0.80200005
0.12297335 -0.029788574 0.80200005
0.12634286 -0.029862858 0.80400002
0.089153342 -0.060717147 0.80700004
0.088808723 -0.057851981 0.80685729
0.091346674 -0.056036193 0.80600005
0.089197345 -0.052965719 0.80600005
0.091346674 -0.052965716 0.80600011
0.089811437 -0.049895242 0.80600005
0.093212388 -0.047911432 0.80620015
0.096071437 -0.046113335 0.80700004
0.097487628 -0.042986669 0.80600005
0.15352382 -0.043754287 0.80600005
0.099022865 -0.039148573 0.80600005
0.10188686 -0.038264763 0.80680001
0.10516382 -0.036845718 0.80600005
0.14277714 -0.037613336 0.80600005
0.14661527 -0.038380954 0.80600011
0.10833406 -0.033422146 0.80675006
0.11207239 -0.032240003 0.80600005
0.11591049 -0.031472381 0.80600005
0.13433334 -0.031472381 0.80600005
0.13740382 -0.032240003 0.80600011
0.14212783 -0.033035345 0.80666673
0.14544001 -0.034628574 0.80800003
0.11207239 -0.029937144 0.80600005
0.11591049 -0.029937144 0.80600005
0.12870415 -0.029425398 0.80600011
0.13271892 -0.028870206 0.80685729
0.13729668 -0.028610479 0.80650008
0.14047429 -0.029169526 0.80600005
0.096666671 -0.043306671 0.81200004
0.10276636 -0.036316827 0.81133336
0.10362668 -0.0348 0.81200004
0.10685048 -0.033294287 0.81300002
0.13234606 -0.026829209 0.81266677
0.13610667 -0.025520002 0.81200004
0.098656833 -0.036509529 0.81566668
0.10012858 -0.037257146 0.81500006
0.10305905 -0.03340286 0.81566668
0.10696172 -0.030981526 0.8174001
0.15903811 -0.041382857 0.852
