# .PCD v0.7 - Point Cloud Data file format
VERSION 0.7
FIELDS x y z rgb
SIZE 4 4 4 4
TYPE F F F F
COUNT 1 1 1 1
WIDTH 609
HEIGHT 1
VIEWPOINT 0 0 0 1 0 0 0
POINTS 609
DATA ascii
0.037503816 -0.085621916 0.74300003 1.6247704e-38
0.040334288 -0.085621908 0.74300003 1.6432453e-38
0.02405905 -0.082083814 0.74300003 1.0345117e-38
0.027597144 -0.082791433 0.74300003 1.2836875e-38
0.032539293 -0.082764059 0.74275005 1.3669493e-38
0.037475556 -0.082730159 0.74244446 1.4497806e-38
0.042208996 -0.082295351 0.74277782 1.3117402e-38
0.046702862 -0.081376195 0.74300003 9.7933821e-39
0.032853745 -0.079354428 0.74300009 1.0431566e-38
0.037503812 -0.079253346 0.74300003 1.0154984e-38
0.042457145 -0.079253338 0.74300003 9.9691596e-39
0.045995243 -0.079960957 0.74300003 1.0429406e-38
0.01401016 -0.09142223 0.74800009 1.5513379e-38
0.017622501 -0.091673695 0.74762511 1.6246985e-38
0.022321269 -0.090947315 0.74800009 1.5603778e-38
0.027782857 -0.090472385 0.74800003 1.569705e-38
0.031344764 -0.090472385 0.74800003 1.5514814e-38
0.013708334 -0.087771431 0.7477501 1.1359609e-38
0.017753122 -0.087349102 0.74566668 1.4403461e-38
0.022741271 -0.08740969 0.74616671 1.5696692e-38
0.027750269 -0.087519795 0.7471112 1.5881079e-38
0.032707542 -0.087458655 0.7465834 1.5788885e-38
0.037730955 -0.088276677 0.74750006 1.5605573e-38
0.042895764 -0.087668061 0.74727285 1.606475e-38
0.047535714 -0.087415963 0.7477501 1.6066185e-38
0.052716196 -0.086910479 0.74800009 1.6618993e-38
0.014960001 -0.08406096 0.74800003 1.1907398e-38
0.017925542 -0.082769707 0.74745464 1.1907757e-38
0.022254366 -0.08238548 0.74574995 1.1450011e-38
0.027671432 -0.080176197 0.74500006 1.1073335e-38
0.043280959 -0.08443334 0.74500006 1.7444437e-38
0.047975454 -0.082908787 0.74688894 1.338896e-38
0.052386332 -0.082800619 0.74764293 1.0894691e-38
0.019234287 -0.079074293 0.74800003 1.1723731e-38
0.022792025 -0.078348696 0.74787509 1.2001747e-38
0.027932383 -0.077748567 0.74725008 1.2183982e-38
0.032433864 -0.076944768 0.74577785 1.2460566e-38
0.037604764 -0.076628581 0.74500006 1.1997798e-38
0.042659286 -0.076782621 0.74650002 1.1813054e-38
0.047702011 -0.077602759 0.74755567 1.1447503e-38
0.051647626 -0.078718103 0.74800003 1.1813051e-38
0.033481907 -0.074800007 0.74800003 1.154006e-38
0.038086671 -0.074393816 0.7475 9.9741776e-39
0.042281717 -0.074455045 0.74739999 9.4199347e-39
0.0035857146 -0.10111715 0.75300002 1.4672151e-38
0.0050200005 -0.10111715 0.75300002 1.4226607e-38
0.0035857146 -0.098248579 0.75300002 1.374661e-38
0.006932382 -0.097292386 0.75300008 1.4130105e-38
0.012181668 -0.097457223 0.75241673 1.5696691e-38
0.017017804 -0.096878476 0.75176924 1.5789244e-38
0.022193018 -0.095927939 0.75166672 1.6340973e-38
0.026928984 -0.095940426 0.75257146 1.6616479e-38
0.030837145 -0.095380008 0.75300002 1.6983461e-38
0.008955 -0.092419289 0.75225008 1.2371958e-38
0.011666667 -0.092619054 0.75000012 1.4406689e-38
0.019285716 -0.093571432 0.75000006 1.5603778e-38
0.022500003 -0.093214288 0.75000006 1.5972914e-38
0.027169764 -0.092950724 0.75075001 1.6341332e-38
0.032414835 -0.092746541 0.75157148 1.6248779e-38
0.037225403 -0.092349529 0.75166667 1.6616837e-38
0.042047862 -0.092150003 0.75150001 1.6340614e-38
0.046980638 -0.091817468 0.75122231 1.5880002e-38
0.051925909 -0.091408581 0.75100011 1.5145319e-38
0.057333335 -0.091016673 0.7525 1.7354035e-38
0.067926913 -0.092660494 0.75275004 1.4479408e-38
0.009316667 -0.087432384 0.75250006 1.1908474e-38
0.011538777 -0.086493887 0.75057149 1.1724086e-38
0.049285717 -0.089285724 0.75000006 1.5789244e-38
0.052142859 -0.089285724 0.75000012 1.6432094e-38
0.057649232 -0.08732602 0.75015396 1.2926555e-38
0.061660796 -0.086755089 0.75283337 9.6043189e-39
0.0093228575 -0.08247143 0.75300002 1.0521579e-38
0.012155979 -0.082239792 0.75088888 1.1079082e-38
0.015476192 -0.081190482 0.75000012 1.2185061e-38
0.057471607 -0.082201488 0.75172728 1.0709222e-38
0.061530866 -0.08247143 0.75300002 8.2113147e-39
0.0093228575 -0.07960286 0.75300002 7.4780082e-39
0.012185609 -0.078133546 0.75266671 7.653043e-39
0.017175376 -0.077288173 0.75142866 8.5851321e-39
0.022161907 -0.075780958 0.75066674 9.4199389e-39
0.026666671 -0.075476192 0.75000012 1.0067822e-38
0.030714288 -0.075000003 0.75000006 1.0984383e-38
0.047857147 -0.075000003 0.75000012 8.9571853e-39
0.05227096 -0.076853186 0.75183338 9.8794625e-39
0.056612119 -0.078722864 0.75242865 9.3230391e-39
0.022574764 -0.073458098 0.75250006 6.3662839e-39
0.027228454 -0.073087499 0.75237501 7.1985991e-39
0.032250002 -0.073099539 0.75250006 8.312148e-39
0.037230242 -0.072667629 0.75175005 7.4773384e-39
0.042238373 -0.072306134 0.75171435 6.6471714e-39
0.046802383 -0.073305883 0.75216669 6.5535534e-39
0.0036095241 -0.10612001 0.75800002 1.5507999e-38
0.0057752384 -0.10612001 0.75800002 1.5788528e-38
0.0036000002 -0.10368001 0.75600004 1.5411141e-38
0.0073992205 -0.10312962 0.75627279 1.5513379e-38
0.012249208 -0.10303715 0.75655562 1.5421543e-38
0.017309286 -0.10240977 0.75724995 1.6618632e-38
0.022090286 -0.1023661 0.75800002 1.6709391e-38
0.026941335 -0.10042172 0.75640005 1.6433526e-38
0.032458417 -0.10025652 0.7573334 1.6249855e-38
0.037513811 -0.10027858 0.75750005 1.6616838e-38
0.04181429 -0.10021239 0.75700003 1.5972558e-38
0.0035952383 -0.097550802 0.75500005 1.3374965e-38
0.0074986406 -0.098098658 0.75500005 1.5141732e-38
0.017976193 -0.099947624 0.75500005 1.6802663e-38
0.022290481 -0.099228576 0.75500005 1.6524644e-38
0.027762288 -0.098248005 0.75520009 1.6616479e-38
0.03255298 -0.097300127 0.75537503 1.6707955e-38
0.037423503 -0.097157799 0.75566673 1.6616478e-38
0.042461913 -0.097158208 0.75566673 1.6340256e-38
0.047238957 -0.096925817 0.75610006 1.6156585e-38
0.052233811 -0.096184283 0.75650001 1.5605216e-38
0.058181595 -0.096410155 0.7573334 1.5052766e-38
0.062940955 -0.096936062 0.75714284 1.7722094e-38
0.067507267 -0.097105719 0.75627279 1.5499336e-38
0.0036047623 -0.093000971 0.75699997 1.0052349e-38
0.0062963101 -0.09283369 0.75562507 1.1541841e-38
0.043861907 -0.094195247 0.75500005 1.6340973e-38
0.048176195 -0.094195247 0.75500005 1.5880361e-38
0.05286786 -0.093866915 0.7552501 1.5420826e-38
0.057542626 -0.093507394 0.7552501 1.5972556e-38
0.062575348 -0.092784882 0.75522232 1.6153715e-38
0.065433338 -0.092757151 0.75500005 1.1261639e-38
0.0072000008 -0.088558421 0.75600004 1.1447852e-38
0.063276194 -0.088442862 0.75500005 1.0889289e-38
0.066908501 -0.087771356 0.75541675 1.3561418e-38
0.0093476195 -0.082690485 0.75500005 1.1352404e-38
0.063656911 -0.082718343 0.7552501 7.8241612e-39
0.066000007 -0.083760008 0.75600004 9.1367757e-39
0.053245243 -0.075550005 0.75550008 6.0857972e-39
0.058169 -0.076730058 0.75611115 5.6153925e-39
0.061865401 -0.078410164 0.75533342 2.7580384e-39
0.018707145 -0.074110955 0.75550008 6.822209e-39
0.022359367 -0.07236699 0.7573334 6.7299587e-39
0.027060952 -0.070688166 0.75628585 5.8059032e-39
0.032357149 -0.071185723 0.75500005 4.3358529e-39
0.037233654 -0.070620954 0.75666666 5.9005946e-39
0.052699052 -0.074356198 0.75800002 3.3105858e-39
0.029520001 -0.069840007 0.75600004 6.2700623e-39
0.032400001 -0.069840007 0.75600004 6.1710354e-39
0.0036238097 -0.11088858 0.76100004 1.5411141e-38
0.0068203816 -0.11129582 0.76180011 1.5606289e-38
0.012346191 -0.11147048 0.76250005 1.6617913e-38
0.015260001 -0.11118001 0.76300001 1.7814646e-38
0.0036214287 -0.10864334 0.76050007 1.5690235e-38
0.0075337142 -0.10822306 0.76060009 1.5881079e-38
0.012315555 -0.10794286 0.76066673 1.6433526e-38
0.01742143 -0.10815635 0.76216686 1.6894856e-38
0.022500848 -0.10814848 0.76211113 1.6709031e-38
0.02741883 -0.10704859 0.76223099 1.6707239e-38
0.032336667 -0.10573001 0.76300001 1.6063674e-38
0.036575556 -0.10585113 0.76300001 1.5601628e-38
0.043600004 -0.10536668 0.76300001 1.440597e-38
0.047233336 -0.10536668 0.76300001 1.4866225e-38
0.051593341 -0.10536668 0.76300001 1.5697767e-38
0.055953339 -0.10536668 0.76300001 1.5881078e-38
0.064673334 -0.10609335 0.76300001 1.7079244e-38
0.067520328 -0.10600128 0.76233339 1.6060771e-38
0.017371431 -0.10495239 0.76000005 1.6802303e-38
0.0228 -0.10459048 0.76000005 1.6986333e-38
0.027826123 -0.10292301 0.76028591 1.6526079e-38
0.032643497 -0.10300699 0.76166672 1.6433167e-38
0.037737142 -0.10305238 0.76200002 1.6248063e-38
0.043007895 -0.10270341 0.76171434 1.5142091e-38
0.047398668 -0.10204802 0.7610001 1.5420467e-38
0.052456021 -0.10247108 0.76209104 1.5697767e-38
0.05735651 -0.10237176 0.76233333 1.5513379e-38
0.062403735 -0.10231596 0.76191682 1.5698125e-38
0.067372702 -0.10214774 0.76066673 1.6612152e-38
0.070209526 -0.10133334 0.76000005 1.5394858e-38
0.04921905 -0.099161908 0.76000005 1.6065469e-38
0.053127624 -0.098582864 0.76000005 1.569741e-38
0.05689143 -0.098582864 0.76000005 1.5237515e-38
0.061523817 -0.099161908 0.76000011 1.5605216e-38
0.0079776198 -0.084126197 0.7615 1.1346273e-38
0.013806667 -0.076300003 0.76300001 6.8200103e-39
0.015260001 -0.076300003 0.76300001 6.9139912e-39
0.017863525 -0.072473243 0.76250005 6.821434e-39
0.022212382 -0.070993342 0.76220006 6.638119e-39
0.036914289 -0.070209526 0.76000005 7.2791626e-39
0.041420002 -0.070486672 0.76300001 7.6511863e-39
0.054285716 -0.074552387 0.76000005 1.5699784e-39
0.055733338 -0.074552387 0.76000005 2.9424507e-39
0.019135557 -0.068548895 0.76300001 3.8672026e-39
0.022526667 -0.068306677 0.76300001 4.7881037e-39
0.027760349 -0.067590475 0.76163644 4.9771781e-39
0.03259524 -0.06736286 0.76055562 4.702745e-39
0.037709609 -0.067439608 0.76141667 6.081732e-39
0.041420002 -0.067580007 0.76300001 6.5473779e-39
0.029040638 -0.06316413 0.76233339 3.9564947e-39
0.032661062 -0.063145503 0.76211119 3.7721357e-39
0.037362494 -0.062826671 0.7623077 4.1401938e-39
0.042873338 -0.064673334 0.76300001 3.4948202e-39
0.0080457153 -0.12068572 0.76800001 1.568443e-38
0.0075079664 -0.11753013 0.76736373 1.541614e-38
0.012223267 -0.11732042 0.76785719 1.6156226e-38
0.016457144 -0.11666287 0.76800001 1.7445869e-38
0.024137145 -0.11629715 0.76800001 1.6340973e-38
0.0036428573 -0.11365715 0.76500005 1.4946559e-38
0.0076053073 -0.1138894 0.76585716 1.5421899e-38
0.012412382 -0.11404134 0.76660007 1.6526079e-38
0.017726494 -0.11333136 0.76681823 1.7997958e-38
0.022634923 -0.11317652 0.76666665 1.6892701e-38
0.027744561 -0.11275614 0.76664287 1.6709031e-38
0.032746766 -0.11212888 0.7675001 1.5788884e-38
0.037479885 -0.11170774 0.76787508 1.5973274e-38
0.042179048 -0.11142097 0.76800007 1.5330066e-38
0.047250289 -0.11103087 0.76800007 1.5328273e-38
0.052662864 -0.11093335 0.76800007 1.5513379e-38
0.057782859 -0.11117716 0.76800007 1.551338e-38
0.062380414 -0.11149063 0.76800007 1.6526439e-38
0.066502549 -0.11108097 0.76733345 1.7257893e-38
0.02987143 -0.10855715 0.76500005 1.5693102e-38
0.033095051 -0.10803106 0.76540005 1.5417597e-38
0.037433021 -0.10768032 0.76566672 1.5325762e-38
0.042009909 -0.10750496 0.76579994 1.4592154e-38
0.047419053 -0.10797048 0.76600003 1.4960931e-38
0.052760955 -0.10771185 0.76588899 1.5605932e-38
0.057815004 -0.10742358 0.76600003 1.569705e-38
0.062324859 -0.10742944 0.76630002 1.606439e-38
0.067028575 -0.10855715 0.76500005 1.7351882e-38
0.0029257145 -0.085577145 0.76800001 6.1559084e-39
0.0021942859 -0.084114291 0.76800001 7.8215015e-39
0.0080404766 -0.08186619 0.76750004 7.8424425e-39
0.013897143 -0.075337149 0.76800001 6.729244e-39
0.051728576 -0.075042859 0.76500005 5.0755703e-39
0.05851429 -0.075337149 0.76800001 4.6948487e-39
0.062382668 -0.075823434 0.76700002 4.417131e-39
0.013297525 -0.072044574 0.76719999 5.0661157e-39
0.015674287 -0.072175719 0.76550001 5.9019819e-39
0.04407334 -0.071343824 0.76700008 7.4646441e-39
0.047716741 -0.071939871 0.7674287 6.3608272e-39
0.052616354 -0.07234779 0.76733339 5.2523175e-39
0.057766564 -0.072390266 0.76777786 5.1568722e-39
0.062171437 -0.073142864 0.76800007 6.5426569e-39
0.01326724 -0.068083242 0.76540011 4.1426979e-39
0.017263573 -0.066864058 0.76591671 4.0519162e-39
0.022585716 -0.066300005 0.76500005 4.2331125e-39
0.026031431 -0.065441594 0.76633334 4.0487268e-39
0.04341865 -0.067782454 0.76528579 6.5437794e-39
0.047631688 -0.067427374 0.76727277 5.3451885e-39
0.052269012 -0.067685284 0.76800007 4.8827741e-39
0.057417147 -0.069120005 0.76800001 4.8852894e-39
0.060708575 -0.069485717 0.76800001 4.0645419e-39
0.018639049 -0.063227147 0.76749998 2.6700551e-39
0.022750912 -0.062943123 0.76609093 3.3132805e-39
0.027001636 -0.061823137 0.76628578 3.8646649e-39
0.03281302 -0.060524132 0.76566672 4.4167512e-39
0.038614288 -0.060471434 0.76500005 3.8646564e-39
0.042465717 -0.061810486 0.76518184 3.8646621e-39
0.047151111 -0.06256742 0.76688892 3.1296334e-39
0.051200002 -0.063634291 0.76800001 4.8791419e-39
0.029487938 -0.058732387 0.7676667 2.0218439e-39
0.032904554 -0.057765722 0.76777786 3.8736346e-39
0.037278578 -0.058475718 0.7675001 1.3807933e-39
0.040698733 -0.058732387 0.7676667 2.8519465e-39
0.0095333336 -0.12540001 0.77000004 1.5582499e-38
0.012495557 -0.12567145 0.77166671 1.5316004e-38
0.015460001 -0.12588859 0.77300006 1.5416518e-38
0.0095333336 -0.12320001 0.77000004 1.5680108e-38
0.012478307 -0.12257356 0.77066666 1.5878201e-38
0.017074289 -0.12245927 0.77200013 1.6433526e-38
0.022792382 -0.1213143 0.77200001 1.7538422e-38
0.027203811 -0.1213143 0.77200001 1.6708674e-38
0.031656191 -0.12147143 0.77300012 1.6248063e-38
0.013200001 -0.11953334 0.77000004 1.5423335e-38
0.018150002 -0.11861668 0.77000004 1.7445867e-38
0.022550002 -0.11825002 0.77000004 1.7539139e-38
0.02714942 -0.11813568 0.77044445 1.6618272e-38
0.032536734 -0.11786778 0.77142876 1.6525361e-38
0.037468497 -0.11755168 0.77141678 1.5882156e-38
0.042627089 -0.11759282 0.77168757 1.5973274e-38
0.047606248 -0.1170179 0.77166682 1.6157305e-38
0.052160766 -0.11710782 0.77139997 1.5237872e-38
0.057039313 -0.11654996 0.77054554 1.5973272e-38
0.062441271 -0.11606794 0.7713334 1.7536262e-38
0.066646867 -0.11608116 0.77240008 1.5683673e-38
0.035933334 -0.11366668 0.77000004 1.6709034e-38
0.043266676 -0.11366668 0.7700001 1.5420468e-38
0.048033334 -0.11330001 0.77000004 1.5882157e-38
0.051700003 -0.11330001 0.77000004 1.5791039e-38
0.056760002 -0.11337334 0.77000004 1.5237155e-38
0.061680958 -0.11381429 0.77100003 1.5514814e-38
0.066733345 -0.11366668 0.7700001 1.5964616e-38
0.0025678573 -0.082525961 0.77025002 8.2856942e-39
0.0066069844 -0.0819581 0.77066672 5.7161795e-39
0.0030819052 -0.077920757 0.77039999 7.8204183e-39
0.0071791946 -0.077380657 0.77153856 4.69412e-39
0.011747619 -0.076365724 0.77100003 5.9877413e-39
0.0036666668 -0.074066669 0.77000004 8.7491261e-39
0.007352937 -0.07279627 0.77208328 3.8643103e-39
0.011388096 -0.073108092 0.77150005 4.972111e-39
0.062333342 -0.071133338 0.7700001 7.7476895e-39
0.012515238 -0.066993341 0.77300006 2.2083847e-39
0.015400001 -0.065266669 0.77000004 2.4867569e-39
0.053533338 -0.065266669 0.77000004 4.2359137e-39
0.057569146 -0.066525154 0.77100009 4.6955073e-39
0.061408259 -0.068257786 0.77066672 7.3756826e-39
0.0173332 -0.062086128 0.77214301 4.0508442e-39
0.021266667 -0.060866669 0.77000004 5.5139133e-40
0.027133334 -0.060866669 0.77000004 3.5866388e-39
0.049133338 -0.060866669 0.77000004 1.1993125e-39
0.052296061 -0.06193687 0.77028579 3.5895297e-39
0.055716764 -0.062772006 0.77180004 6.5358873e-39
0.019140955 -0.059631433 0.77300006 9.4078891e-39
0.023128361 -0.057944655 0.77233344 1.0421318e-38
0.027035242 -0.057072472 0.77100003 9.1298771e-39
0.031842288 -0.055321909 0.77039999 1.5771136e-38
0.037448578 -0.055804767 0.77100003 1.346089e-38
0.042856749 -0.057058498 0.77141666 9.5904965e-39
0.047280006 -0.058547311 0.77166671 7.0047183e-39
0.051533334 -0.059631433 0.77300006 7.8456753e-39
0.028711431 -0.053005718 0.77300006 1.9737449e-38
0.032392383 -0.053251114 0.77300012 1.9277914e-38
0.036809526 -0.05374191 0.77300006 1.8634352e-38
0.028934287 -0.13131715 0.77900004 1.4682197e-38
0.033385716 -0.13131717 0.77900004 1.4956269e-38
0.036353335 -0.13131715 0.77900004 1.5046669e-38
0.018293228 -0.12756307 0.77522224 1.5414348e-38
0.022800436 -0.12745185 0.77681822 1.6248049e-38
0.027521336 -0.12769069 0.77680004 1.6617197e-38
0.032417215 -0.12745023 0.77713346 1.6340257e-38
0.037740003 -0.12728003 0.77700007 1.6247704e-38
0.042065896 -0.12713774 0.77736372 1.5972197e-38
0.047404286 -0.12740359 0.77775019 1.5971811e-38
0.052540004 -0.12654001 0.77700001 1.596715e-38
0.056610003 -0.12543002 0.77700001 1.5319616e-38
0.019436508 -0.12424605 0.77500004 1.652608e-38
0.023250001 -0.12363097 0.77500004 1.6985974e-38
0.027014289 -0.12385239 0.77500004 1.6525361e-38
0.033229209 -0.12331493 0.7753334 1.5787809e-38
0.037691429 -0.12268287 0.77600002 1.5052766e-38
0.042125717 -0.12268287 0.77600002 1.5419032e-38
0.047570098 -0.12217639 0.77560008 1.5145319e-38
0.052421194 -0.12201 0.77525008 1.6616481e-38
0.057411179 -0.12173759 0.7755456 1.8087997e-38
0.062384054 -0.12199453 0.77749997 1.4670254e-38
0.065860003 -0.12136 0.77700001 1.2074032e-38
0.047976192 -0.11883334 0.77500004 1.6064393e-38
0.05978572 -0.11883334 0.77500004 1.7905406e-38
0.062738106 -0.11883335 0.77500004 1.6890526e-38
0.066428572 -0.11883334 0.77500004 1.4014048e-38
0.0036952384 -0.070947625 0.77600002 1.3279434e-38
0.0074114287 -0.070390478 0.778 5.4305318e-39
0.011100001 -0.070300005 0.77700001 4.6018543e-39
0.0079855034 -0.067766048 0.7781111 9.2159336e-39
0.011968573 -0.066645525 0.77580005 3.1292466e-39
0.062738106 -0.06569048 0.77500004 1.3284857e-38
0.0096447626 -0.064545721 0.77900004 1.4394002e-38
0.012459137 -0.062433336 0.77790922 1.2083405e-38
0.015500001 -0.061261907 0.77500004 1.2264128e-38
0.058818374 -0.062618099 0.7761429 1.0434728e-38
0.062407762 -0.06304042 0.7761429 1.4298988e-38
0.014078096 -0.05927524 0.778 1.5503309e-38
0.017528167 -0.057337835 0.77614284 1.4672112e-38
0.021896828 -0.055849209 0.77500004 1.3476482e-38
0.048012659 -0.056242049 0.77557147 1.5129103e-38
0.052385446 -0.057675518 0.77785724 1.4302588e-38
0.055500004 -0.059940003 0.77700001 1.36637e-38
0.018547621 -0.053417146 0.77900004 1.8166547e-38
0.022207303 -0.052561592 0.77733338 1.7891761e-38
0.026907351 -0.052231438 0.77557153 1.715493e-38
0.032476194 -0.051420636 0.77500004 1.9825688e-38
0.037895378 -0.052039322 0.77585721 1.9364719e-38
0.042180426 -0.052539155 0.77700001 1.8904105e-38
0.047191951 -0.052710049 0.77754551 1.8534242e-38
0.051191431 -0.054159053 0.77900004 1.7706297e-38
0.028155241 -0.049643815 0.778 9.1193099e-39
0.032460384 -0.049359813 0.77820003 1.9184999e-38
0.037772384 -0.049622547 0.77766669 1.9549469e-38
0.042288575 -0.049707621 0.77900004 2.010084e-38
0.045998096 -0.049707621 0.77900004 2.0652208e-38
0.030457145 -0.13148572 0.78000003 1.467861e-38
0.038628574 -0.13148572 0.78000003 1.4862281e-38
0.043828573 -0.13000001 0.78000003 1.6613558e-38
-0.00074666669 -0.067946672 0.78400004 1.5495371e-38
0.0024446263 -0.068173073 0.78171432 1.6052185e-38
0.0057098418 -0.066779062 0.78200006 1.4210791e-38
0.0085607152 -0.062539294 0.78175008 1.4949439e-38
0.058091432 -0.060325719 0.78200006 1.2647077e-38
0.061973333 -0.060480006 0.7840001 1.3008617e-38
0.0096984133 -0.057443179 0.78333342 1.4765048e-38
0.012454049 -0.05706834 0.7807501 1.458103e-38
0.053826034 -0.056801274 0.78133339 1.4945465e-38
0.057025313 -0.057663679 0.78342855 1.3282328e-38
0.061973333 -0.058986675 0.7840001 1.2362499e-38
0.013114831 -0.053206809 0.78371435 1.5317149e-38
0.016735241 -0.052250959 0.78100008 1.7986117e-38
0.049771432 -0.051257145 0.78000003 1.9275394e-38
0.052653652 -0.052900638 0.78233337 1.8260183e-38
0.018642858 -0.049216192 0.78300005 1.5679832e-38
0.022752384 -0.048082203 0.78230774 1.1156893e-38
0.027399812 -0.047203623 0.78180009 9.7804383e-39
0.03234582 -0.046904135 0.7817778 1.5863486e-38
0.037449352 -0.046793085 0.78218186 1.6594594e-38
0.04226524 -0.047662385 0.78200001 1.5675512e-38
0.047343407 -0.048407353 0.78200012 1.6140051e-38
0.050978418 -0.048988573 0.78333342 1.4106038e-38
0.028373335 -0.044053335 0.78400004 2.7671791e-39
0.03136 -0.044053335 0.78400004 6.9080161e-39
-0.0015019048 -0.066083342 0.78850007 1.4936795e-38
0.0019520002 -0.065924957 0.78840011 1.5500103e-38
0.0052400003 -0.065125719 0.78600001 1.3569405e-38
-0.0015028572 -0.063871436 0.78900003 1.475312e-38
0.003256191 -0.063370481 0.78900003 1.4948731e-38
0.005999207 -0.062249057 0.78750008 1.4211892e-38
0.006939406 -0.057964649 0.787875 1.4488465e-38
0.059212387 -0.056962863 0.78700006 9.5051742e-39
0.06138286 -0.05689143 0.78600001 1.2451776e-38
0.0085916407 -0.053138737 0.78833342 1.4383649e-38
0.012149143 -0.051141914 0.78740007 1.6327677e-38
0.01572 -0.050154287 0.78600001 1.8163308e-38
0.05427143 -0.051277146 0.78600001 1.4743127e-38
0.057757072 -0.052503731 0.78758335 1.3830795e-38
0.061498784 -0.052697696 0.78885722 1.2990928e-38
0.013525715 -0.048842859 0.78900003 1.3740152e-38
0.01726041 -0.047278915 0.78800005 1.0041219e-38
0.020710479 -0.046161912 0.78600001 5.6266337e-39
0.043417145 -0.045662861 0.78600001 1.0503629e-38
0.047639765 -0.046138812 0.78775007 9.3757027e-39
0.052295398 -0.047540165 0.7881667 8.5538593e-39
0.056357145 -0.048842859 0.78900003 8.2015785e-39
0.062368575 -0.048842859 0.78900003 1.3360086e-38
0.022978764 -0.042954002 0.78850007 1.104813e-38
0.02754844 -0.042339735 0.78785723 1.0324561e-38
0.032461498 -0.042316739 0.78742868 8.3777147e-39
0.037508257 -0.04275731 0.7876668 8.1940591e-39
0.042593475 -0.04323674 0.78857154 8.8412082e-39
0.046559528 -0.044306193 0.78850007 6.5295057e-39
0.024797145 -0.039825715 0.78900003 1.4846055e-38
0.02780286 -0.039825715 0.78900003 1.4658801e-38
0.032311432 -0.039825715 0.78900003 1.2809868e-38
0.03757143 -0.039825715 0.78900003 1.263445e-38
-0.0012580953 -0.062128574 0.79233336 1.49386e-38
0.0017580953 -0.062050164 0.79133338 1.5132401e-38
0.0034721908 -0.057821143 0.7926001 1.4947641e-38
0.0052733338 -0.056500003 0.79100001 1.4671053e-38
0.0064820959 -0.052306861 0.79139996 1.2984137e-38
0.0093063507 -0.048545718 0.79233336 1.2813033e-38
0.012816827 -0.047248255 0.79166669 1.2899238e-38
0.01582 -0.045953337 0.79100001 1.0323199e-38
0.053486671 -0.046455558 0.79100007 1.0224462e-38
0.057323813 -0.047895715 0.792 1.1524166e-38
0.061020005 -0.048966669 0.79100001 1.3729225e-38
0.017858732 -0.043514609 0.79233336 1.4471904e-38
0.020374287 -0.041501906 0.79233336 1.4283938e-38
0.043693334 -0.041433334 0.79100001 1.3735048e-38
0.047500003 -0.041969631 0.79166669 1.3180794e-38
0.05166905 -0.04412524 0.792 1.3458477e-38
0.055132385 -0.04455905 0.79300004 1.4749898e-38
0.02357167 -0.038090002 0.792 1.364469e-38
0.027904237 -0.036953554 0.79188895 1.2537995e-38
0.032420639 -0.036943182 0.79166675 1.3091171e-38
0.037290055 -0.037288781 0.79188889 1.3178331e-38
0.042225953 -0.038455006 0.79175001 1.2173507e-38
-0.0022714287 -0.061328575 0.79500002 1.4843854e-38
-0.0021408664 -0.057505541 0.79736364 1.2540825e-38
0.0014077552 -0.057299457 0.79614288 1.5411137e-38
-0.0053200005 -0.053960003 0.79800004 5.969729e-39
-0.0022800004 -0.053200003 0.79800004 1.300897e-38
0.002466786 -0.052571312 0.79712498 1.4852905e-38
0.0053066667 -0.051549528 0.796 1.4085795e-38
0.0038000003 -0.049400002 0.79800004 1.4387553e-38
0.0072021438 -0.047585957 0.79624999 1.2335473e-38
0.011357144 -0.046185717 0.79500002 1.7054429e-38
0.058602858 -0.046791431 0.79500002 1.2261684e-38
0.061328575 -0.04694286 0.79500002 1.3177099e-38
0.0092253061 -0.042869665 0.79771435 1.1437349e-38
0.012901826 -0.042500719 0.79691666 1.308252e-38
0.016916193 -0.041154925 0.79533339 1.3552863e-38
0.049214289 -0.040128574 0.79500002 1.2999315e-38
0.052355245 -0.041731294 0.79671437 1.2351073e-38
0.056964766 -0.044052385 0.79750007 1.3274774e-38
0.013933334 -0.038253337 0.79800004 1.2249487e-38
0.01746762 -0.037213441 0.79744446 1.2432082e-38
0.021478733 -0.03664064 0.796 1.216095e-38
0.037100002 -0.035585716 0.79500002 9.1178259e-39
0.043175876 -0.036357783 0.79533339 1.2072691e-38
0.047623217 -0.037375834 0.796875 1.1889009e-38
0.050920002 -0.038760003 0.79800004 1.1061413e-38
0.018240001 -0.034200002 0.79800004 1.26081e-38
0.022769049 -0.034157146 0.79700005 1.2073048e-38
0.028437383 -0.033745002 0.79625005 1.0779082e-38
0.032618575 -0.033375718 0.79650009 1.3267616e-38
0.037377499 -0.032821789 0.79687506 1.2623334e-38
0.042010322 -0.033657622 0.79716671 1.2078093e-38
0.046360005 -0.034200002 0.79800004 1.2635884e-38
-0.0053333337 -0.05561905 0.80000001 6.5290531e-39
-0.0022965083 -0.051260322 0.8033334 1.613893e-38
0.00076190481 -0.051047623 0.80000001 1.624304e-38
-0.00076571433 -0.049771432 0.80400002 1.5687336e-38
0.0024833332 -0.047766671 0.80250001 1.4395866e-38
0.0053400006 -0.045770481 0.801 1.3910704e-38
0.0068727629 -0.042926099 0.80200005 1.1050128e-38
0.054095242 -0.040380955 0.80000001 1.0774786e-38
0.05748409 -0.041557007 0.80171436 1.1149976e-38
0.061666042 -0.043570798 0.80266666 1.125257e-38
0.0099295247 -0.037424132 0.80200005 1.2167353e-38
0.012454605 -0.036855243 0.80066669 1.2887275e-38
0.049523812 -0.035809524 0.80000001 1.3368777e-38
0.052862383 -0.037211906 0.80150008 1.152128e-38
0.057128713 -0.037902586 0.80285722 9.6629562e-39
0.013382859 -0.034031432 0.80300003 1.1775125e-38
0.01758286 -0.032614604 0.80266666 1.1590376e-38
0.022158414 -0.032092385 0.80233335 1.1976897e-38
0.02714123 -0.031935781 0.80114293 1.1611006e-38
0.032761909 -0.0312381 0.80000007 1.281457e-38
0.035809524 -0.031238098 0.80000001 1.2540139e-38
0.042312857 -0.031638574 0.80049998 1.2074846e-38
0.047400244 -0.032873102 0.80274999 1.2354293e-38
0.052004766 -0.034414288 0.80300003 1.2717266e-38
0.055897146 -0.034457143 0.80400002 9.567476e-39
0.019142859 -0.029862858 0.80400002 1.049489e-38
0.022512002 -0.029250288 0.80400002 1.2172396e-38
0.02754762 -0.029078573 0.8035 1.2352146e-38
0.033034764 -0.028449524 0.80199999 1.1893333e-38
0.037426669 -0.028258417 0.80199999 1.1802209e-38
0.042028897 -0.029035877 0.80233335 1.1797537e-38
0.045177147 -0.029862858 0.80400002 1.1250116e-38
-0.0021354498 -0.047742225 0.8071112 1.3562187e-38
0.0012793653 -0.045801274 0.80600011 1.3474304e-38
0.0033314289 -0.043313652 0.80733341 1.2366822e-38
0.0058895238 -0.041229211 0.80666673 1.1065924e-38
0.061793339 -0.041067623 0.80600005 1.0421734e-38
0.0078407628 -0.037976384 0.80720007 1.0873678e-38
0.058339052 -0.036078099 0.80600005 9.1194879e-39
0.061932575 -0.038573336 0.80680007 1.2174136e-38
0.0099790478 -0.034542859 0.80600005 1.1689053e-38
0.01306803 -0.031515922 0.80714297 9.9355438e-39
0.016120002 -0.031472381 0.80600005 1.057582e-38
0.049127623 -0.031472381 0.80600005 1.2907472e-38
0.052601095 -0.03239429 0.80714297 1.2437428e-38
0.056175243 -0.033089526 0.80800003 9.9312685e-39
0.014620953 -0.028472383 0.80800003 9.6730372e-39
0.017669844 -0.027911961 0.80666679 1.2448247e-38
0.022048982 -0.026437011 0.8062858 1.354852e-38
0.027642146 -0.026106909 0.8062501 1.2997158e-38
0.032623813 -0.025715239 0.80600005 1.1157953e-38
0.03767683 -0.025373336 0.80733341 1.06019e-38
0.041887622 -0.026515242 0.80700004 1.2164523e-38
0.047179054 -0.029044194 0.80680007 1.2447937e-38
0.022700952 -0.023470476 0.80800003 1.5220982e-38
0.027241146 -0.023239618 0.80800003 1.2625835e-38
0.031858288 -0.02354743 0.80800003 8.29487e-39
0.036167622 -0.023855239 0.80800003 8.0186614e-39
-0.0015463493 -0.042513974 0.81166673 1.3656203e-38
0.0018015875 -0.041965403 0.81100005 1.3381745e-38
-0.0015504763 -0.039537147 0.81400001 1.3470392e-38
0.0028393655 -0.038471751 0.81333339 1.4665226e-38
0.005789048 -0.037436672 0.81050003 1.2158297e-38
0.06201905 -0.036436193 0.81400001 1.2173419e-38
0.0069669839 -0.03251905 0.81300014 1.2340505e-38
0.010426667 -0.031280953 0.81099999 9.9290516e-39
0.052588575 -0.030160002 0.81200004 1.3265412e-38
0.0023257143 -0.028683811 0.81400001 6.0846691e-39
0.0074171438 -0.027344763 0.81371433 1.0709166e-38
0.012163292 -0.026931083 0.81218201 1.1995542e-38
0.01697143 -0.025457144 0.81000006 1.4576714e-38
0.043200001 -0.025457144 0.81000006 1.3082517e-38
0.047116511 -0.02626064 0.81100005 1.2823188e-38
0.051103175 -0.027098097 0.81300008 1.3379956e-38
0.0069771437 -0.023257144 0.81400007 2.4875486e-39
0.013359763 -0.022654524 0.81325006 8.1284503e-39
0.01779598 -0.02243725 0.81244451 1.1912762e-38
0.022096002 -0.021476572 0.81120008 1.3846705e-38
0.026630003 -0.021227146 0.81050003 1.6055016e-38
0.032730617 -0.021489797 0.81000006 1.5305956e-38
0.038028814 -0.022198336 0.81075001 1.355247e-38
0.042522121 -0.022419259 0.81177795 1.3193751e-38
0.047225405 -0.022449946 0.81288898 9.6949955e-39
0.051630862 -0.023102095 0.81400007 7.4646721e-39
0.056075566 -0.021965083 0.81400001 5.5284882e-39
0.022854764 -0.018981431 0.81349999 5.4519647e-39
0.027259048 -0.017979525 0.8120001 4.5281292e-39
0.03244032 -0.017764129 0.81100005 5.7273717e-39
0.037904553 -0.017790688 0.81222236 4.1557314e-39
0.042017907 -0.018450668 0.81400007 4.6109866e-39
0.045739051 -0.019380953 0.81400001 4.9599758e-39
0.027324446 -0.013662225 0.81200016 3.6802582e-39
0.032490715 -0.013924525 0.81225014 3.310789e-39
0.03716572 -0.013938096 0.81300002 4.414945e-39
-0.0011652382 -0.036912858 0.81600004 1.0435485e-38
0.0013990477 -0.03622267 0.81620008 1.3571892e-38
0.062247626 -0.035014287 0.81700003 1.1808952e-38
0.0024870478 -0.032189336 0.81639999 1.0984678e-38
0.057035238 -0.032404449 0.81666678 9.7677425e-39
0.0023285716 -0.026390478 0.81500006 4.0508764e-39
0.0054333336 -0.026390478 0.81500006 6.6388953e-39
0.053600959 -0.027188893 0.81566668 1.153564e-38
0.056137465 -0.027289525 0.81866682 8.6678914e-39
0.0038809527 -0.024061907 0.81500006 3.5841291e-39
0.010090477 -0.023285717 0.81500006 5.5455126e-39
0.052392863 -0.021733334 0.81500006 3.3111954e-39
0.056661904 -0.023130476 0.81500006 5.4399247e-39
0.014783811 -0.019452382 0.81700003 2.6636974e-39
0.018528191 -0.018525906 0.8174001 3.9573622e-39
0.022240954 -0.016953716 0.81660002 1.6556201e-39
0.025614288 -0.0163 0.81500006 2.2983999e-39
0.043466669 -0.017852383 0.81500006 5.5544809e-40
0.047463812 -0.018673334 0.81700003 2.6661469e-39
0.052132383 -0.019452382 0.81700009 3.9572248e-39
0.055109527 -0.019404763 0.81500006 5.4402638e-39
0.058642861 -0.030494288 0.82100004 9.7774451e-39
0.06020667 -0.030494288 0.82100004 9.7720501e-39
0.058642861 -0.027366668 0.82100004 5.6330026e-39
0.060206674 -0.027366668 0.82100004 8.4888699e-39
0.017477145 -0.017475873 0.82166672 2.4814361e-39
0.049260002 -0.017983811 0.82100004 3.7699651e-39
0.050823811 -0.017983811 0.82100004 4.6904837e-39
