# .PCD v0.7 - Point Cloud Data file format
VERSION 0.7
FIELDS x y z
SIZE 4 4 4
TYPE F F F
COUNT 1 1 1
WIDTH 735
HEIGHT 1
VIEWPOINT 0 0 0 1 0 0 0
POINTS 735
DATA ascii
0.36358669 -0.22094287 0.81400001
0.36772132 -0.22094288 0.81400001
0.37288958 -0.22094288 0.81400001
0.37773478 -0.22229953 0.81400007
0.38141716 -0.2232686 0.81400001
0.33877906 -0.21629144 0.81400001
0.34265527 -0.21629144 0.81400001
0.34822097 -0.21680534 0.81360006
0.3529177 -0.21691091 0.81244451
0.35753652 -0.21730921 0.81200004
0.36244747 -0.21710114 0.81180012
0.3675628 -0.21788996 0.81288898
0.37248316 -0.21760488 0.81311119
0.37743837 -0.21778286 0.81377786
0.38064194 -0.21706668 0.81400001
0.33800384 -0.21396574 0.81400001
0.34265527 -0.21241525 0.81400007
0.34770963 -0.21261939 0.8118183
0.35249394 -0.21229963 0.8106001
0.35717145 -0.21214287 0.81
0.36257145 -0.21214287 0.81000012
0.36822027 -0.21195646 0.81225008
0.37236878 -0.21267012 0.81320012
0.37715337 -0.21435335 0.81400001
0.3431204 -0.20822898 0.81400007
0.34779686 -0.2075921 0.81333345
0.35265791 -0.20750846 0.81240016
0.3575221 -0.20761123 0.81220019
0.36219078 -0.20846616 0.81285727
0.36587054 -0.20888382 0.81333339
0.34808192 -0.20388763 0.81400001
0.35273337 -0.20388763 0.81400001
0.37908 -0.23010002 0.81900007
0.38454002 -0.23010002 0.81900007
0.38688004 -0.23088002 0.81900007
0.35958001 -0.22542001 0.81900007
0.36114001 -0.22542001 0.81900007
0.36738002 -0.22698002 0.81900012
0.37206003 -0.22698002 0.81900012
0.37682623 -0.22734335 0.81750005
0.3824878 -0.22709432 0.81700009
0.38714004 -0.22802001 0.81900012
0.32915145 -0.22108035 0.81833339
0.33251721 -0.22116002 0.81766671
0.33755717 -0.2225983 0.81780005
0.34226739 -0.22258031 0.81757146
0.34718141 -0.22229132 0.81814295
0.35316545 -0.22228858 0.81800008
0.35792133 -0.22253653 0.81700003
0.362358 -0.22318339 0.81588894
0.36752427 -0.22344615 0.81585723
0.37291357 -0.22374928 0.81575006
0.37645242 -0.22431906 0.81500006
0.38266194 -0.22224921 0.81500006
0.32899374 -0.21771868 0.81820005
0.33261526 -0.21721004 0.81600016
0.33710405 -0.21769659 0.81520003
0.34230003 -0.21888572 0.81500006
0.34695718 -0.21862701 0.81500006
0.35161433 -0.21966192 0.81500006
0.38214445 -0.21914446 0.81500006
0.32994002 -0.21450001 0.81900007
0.33327284 -0.21301322 0.8184287
0.33696708 -0.21184877 0.81599998
0.37334764 -0.21034764 0.81500006
0.37796313 -0.21189952 0.81575
0.3804886 -0.21086383 0.81700003
0.33462003 -0.20826001 0.81900007
0.33807999 -0.20833407 0.81700003
0.34224051 -0.20639309 0.81625003
0.34540477 -0.20569049 0.81500006
0.35937622 -0.20569049 0.81500006
0.36286905 -0.20607859 0.81500006
0.36743909 -0.20715305 0.81566679
0.37238955 -0.20732115 0.81754559
0.37759146 -0.2085599 0.8184287
0.3804886 -0.20930763 0.81700003
0.34345126 -0.20370536 0.81700003
0.34697759 -0.20228316 0.81557155
0.35254574 -0.20289619 0.81500006
0.3573755 -0.20277075 0.81575
0.36241335 -0.20298155 0.81660002
0.36700162 -0.20412034 0.81700009
0.38720194 -0.2374943 0.82300001
0.37387717 -0.23122382 0.82300001
0.37775022 -0.23208097 0.82233334
0.38279822 -0.23295207 0.82233334
0.38735905 -0.23382571 0.82249999
0.32778916 -0.22683449 0.82300007
0.33311909 -0.22652099 0.82300007
0.337547 -0.22633748 0.82233334
0.34268147 -0.2261081 0.8215
0.3479732 -0.22681773 0.82180005
0.35168561 -0.22793132 0.82242864
0.35705417 -0.2278586 0.82216668
0.36246288 -0.22859526 0.82200003
0.36756214 -0.22912021 0.8222
0.37296861 -0.22909813 0.82100004
0.32684168 -0.22277345 0.82207698
0.33230954 -0.22440669 0.82100004
0.33621907 -0.22440667 0.82100004
0.35263908 -0.22440669 0.82100004
0.32738933 -0.21732099 0.82200003
0.32919642 -0.21230841 0.82260001
0.33197784 -0.21174599 0.82128584
0.33543718 -0.21033239 0.82100004
0.32998383 -0.20927715 0.82300001
0.33322686 -0.20808478 0.82271427
0.337235 -0.20690112 0.82157147
0.34091049 -0.20564097 0.82100004
0.3714048 -0.20564097 0.82100004
0.37797281 -0.20626651 0.82100004
0.38078764 -0.20642287 0.82100004
0.3346867 -0.2045743 0.82300001
0.3375479 -0.20284224 0.82233334
0.34205198 -0.2024488 0.82144445
0.34701672 -0.20170765 0.82249999
0.35036287 -0.20143907 0.82300001
0.36447147 -0.20143907 0.82300001
0.36816525 -0.20288239 0.82249999
0.37303001 -0.20315097 0.82200003
0.3769922 -0.20257452 0.82125008
0.37401113 -0.19886446 0.82100004
0.37818193 -0.24080478 0.82900012
0.38291907 -0.2415943 0.82900012
0.38741472 -0.24177432 0.82811117
0.3908143 -0.24238382 0.82900006
0.34818003 -0.23606764 0.82900012
0.35288525 -0.23617764 0.82800007
0.35736668 -0.23666732 0.82833338
0.36239144 -0.23685716 0.82900012
0.36744443 -0.23669925 0.82900012
0.37205896 -0.23658165 0.82842863
0.37711868 -0.23779123 0.82840008
0.38168669 -0.23766987 0.8263334
0.38635814 -0.23721556 0.82566679
0.31738859 -0.23133048 0.82900006
0.32370478 -0.23212001 0.82900006
0.32764912 -0.23168831 0.8278572
0.33237335 -0.23156194 0.82700002
0.33750767 -0.23184097 0.82800007
0.34223908 -0.23184097 0.82800001
0.34746608 -0.23243558 0.82730764
0.3525795 -0.23239638 0.82557148
0.35754523 -0.23300695 0.82614297
0.36265337 -0.23285431 0.82600015
0.36737335 -0.23285429 0.82600009
0.37247798 -0.23292616 0.82585722
0.37740478 -0.23388097 0.82500005
0.3232758 -0.22763579 0.82809097
0.3263337 -0.22882764 0.82566679
0.33235717 -0.22864287 0.82500005
0.33734509 -0.22882764 0.82566679
0.34277859 -0.22878145 0.82550007
0.34650001 -0.22864287 0.82500005
0.32361004 -0.22256787 0.82725012
0.32528669 -0.22132097 0.82700002
0.32378745 -0.21743412 0.82719994
0.32646573 -0.21554573 0.82600009
0.32307449 -0.21291029 0.82860005
0.32764897 -0.21260019 0.82740015
0.33001241 -0.21029431 0.82700002
0.32923144 -0.2084343 0.82900006
0.33197775 -0.20677756 0.82680005
0.33317906 -0.20448668 0.82900006
0.33633718 -0.20448668 0.82900006
0.34770763 -0.20060001 0.82600003
0.35309207 -0.20172858 0.8263334
0.35607526 -0.20132859 0.82900006
0.36332354 -0.20172858 0.8263334
0.3676948 -0.20160097 0.82850003
0.37175429 -0.2016286 0.82700002
0.37502384 -0.20132859 0.82900006
0.34975907 -0.19974954 0.82900006
0.35323298 -0.19769676 0.82900012
0.35818064 -0.19632827 0.82900012
0.36120716 -0.19659144 0.82900006
0.36818132 -0.19922319 0.82900012
0.37265527 -0.19974954 0.82900006
0.37660289 -0.19764416 0.82900006
0.35396987 -0.19290701 0.82900012
0.35810548 -0.19207989 0.82900012
0.36144403 -0.19217011 0.82900012
0.3576543 -0.18869621 0.82900006
0.37744647 -0.24684042 0.83185726
0.38226005 -0.24692574 0.83100003
0.38661289 -0.24653001 0.83100003
0.31971335 -0.24038002 0.83300006
0.34351337 -0.24038002 0.83300006
0.34748003 -0.24038002 0.83300006
0.35250449 -0.24090891 0.83300006
0.35620669 -0.24038002 0.83300006
0.36414003 -0.24196668 0.83300006
0.36771002 -0.24236335 0.83300006
0.37241814 -0.24220511 0.83200014
0.37703052 -0.24343739 0.83124995
0.38186431 -0.24415573 0.83100003
0.38542575 -0.24455145 0.83100003
0.31767946 -0.23568745 0.83100003
0.3224991 -0.23613051 0.83200014
0.32725334 -0.23613048 0.83200002
0.33240288 -0.23597674 0.83185714
0.33772478 -0.23651092 0.83214301
0.34241119 -0.2369892 0.83172739
0.34704146 -0.23782431 0.83100003
0.35218573 -0.23861572 0.83100003
0.35851717 -0.23980287 0.83100003
0.36247432 -0.23980287 0.83100003
0.36761859 -0.23940715 0.83100003
0.37276289 -0.23980288 0.83100003
0.31724533 -0.23196776 0.83128577
0.32116175 -0.23220515 0.83100003
0.31877166 -0.22778459 0.83220005
0.32116175 -0.22682343 0.83100003
0.31971335 -0.22292668 0.83300006
0.32132006 -0.22239146 0.83100003
0.31971335 -0.21816668 0.83300006
0.32132006 -0.21764289 0.83100003
0.32211146 -0.21289429 0.83100003
0.32646096 -0.2107724 0.83200002
0.32844287 -0.20893715 0.83100003
0.33042288 -0.20601812 0.83200002
0.33319488 -0.20359221 0.8318001
0.33714861 -0.20339715 0.83100003
0.34902003 -0.20023145 0.83100003
0.35820061 -0.20213087 0.83100003
0.36203465 -0.20234191 0.83099997
0.36643144 -0.20023145 0.83100003
0.37118003 -0.20023145 0.83100003
0.34930003 -0.19722256 0.83166671
0.35123602 -0.19674915 0.83100003
0.35746193 -0.19812098 0.83100003
0.36326578 -0.1977441 0.83100003
0.36781645 -0.19686787 0.83099997
0.37296185 -0.19717027 0.83144444
0.37672001 -0.19548286 0.83100003
0.3490667 -0.19238335 0.83300006
0.35241023 -0.19235025 0.83200002
0.35640669 -0.19126193 0.83100003
0.3644529 -0.19192144 0.83100003
0.3678146 -0.19267443 0.83157146
0.37207335 -0.19383781 0.83300006
0.37683338 -0.19436668 0.83300006
0.35321718 -0.1890962 0.8325001
0.35744974 -0.18847258 0.83220005
0.36306277 -0.18837593 0.83157152
0.36731336 -0.18960668 0.83300006
0.36955956 -0.25130048 0.83900005
0.37276676 -0.25255266 0.8384546
0.37659034 -0.2521781 0.83739996
0.3236143 -0.24530764 0.83900005
0.32681051 -0.24570715 0.83900005
0.33274627 -0.24599256 0.83900011
0.33799717 -0.24610668 0.83900011
0.34247181 -0.24626648 0.83900005
0.34718621 -0.24650621 0.83900005
0.35238004 -0.24770477 0.83900011
0.35749391 -0.24626651 0.83900005
0.36196861 -0.24584034 0.83900011
0.3675501 -0.24704996 0.83871436
0.37275147 -0.24724002 0.83674997
0.37580097 -0.24841145 0.83599997
0.3231625 -0.24249087 0.83700007
0.32761928 -0.24240442 0.83780003
0.33217844 -0.24261133 0.83757144
0.33730003 -0.24197023 0.83614284
0.34209585 -0.24257366 0.83599997
0.34753925 -0.24356288 0.83614284
0.35279676 -0.24385276 0.83619994
0.35838312 -0.24301314 0.83660001
0.36240989 -0.24293494 0.83633339
0.3674829 -0.24472289 0.83700007
0.37137622 -0.24413811 0.83500004
0.32207146 -0.2393667 0.83500004
0.3268429 -0.2393667 0.83500004
0.33240956 -0.23936668 0.83500004
0.33718097 -0.23936668 0.83500004
0.31779674 -0.2273017 0.83677781
0.31884354 -0.22311209 0.83766669
0.32402575 -0.21149525 0.83800006
0.3256219 -0.21069621 0.83800006
0.32761651 -0.20856506 0.83814293
0.33017167 -0.20697545 0.83780003
0.3284086 -0.20056097 0.83900005
0.33208591 -0.20223081 0.8375333
0.33798689 -0.20189963 0.83660001
0.34174654 -0.20122166 0.83700001
0.3284086 -0.19736478 0.83900005
0.33273667 -0.19764511 0.83850002
0.33743355 -0.19735278 0.83760005
0.34151879 -0.19666654 0.83700001
0.34717143 -0.1963324 0.83800006
0.3342683 -0.19363588 0.83900011
0.33772776 -0.19241662 0.83833343
0.34197429 -0.19211145 0.83699995
0.34680724 -0.19196357 0.83572727
0.35070002 -0.19165239 0.83500004
0.36978573 -0.19006191 0.83500004
0.37250066 -0.19195843 0.83633339
0.37625146 -0.19370572 0.83700001
0.3386364 -0.18841544 0.83900005
0.34251866 -0.18762615 0.83833343
0.3477602 -0.18743953 0.83749998
0.35285303 -0.18717809 0.83633333
0.35748956 -0.18630764 0.83600008
0.36226672 -0.18630764 0.83600008
0.36800978 -0.1875964 0.83820003
0.37191337 -0.18914858 0.83800006
0.34311107 -0.18362115 0.83900005
0.34773886 -0.18289469 0.8386001
0.3525798 -0.18298191 0.83900011
0.35665476 -0.18301716 0.83825004
0.36196861 -0.18378097 0.83900011
0.36516479 -0.18458001 0.83900005
0.3483848 -0.17978573 0.83900005
0.35078192 -0.17978573 0.83900005
0.33296046 -0.25754192 0.84242857
0.33800289 -0.25835943 0.84300005
0.34121001 -0.25781098 0.84200007
0.36770859 -0.25611144 0.84300005
0.37047905 -0.25580764 0.84200001
0.3283686 -0.25129431 0.84300011
0.33288622 -0.25262478 0.84275001
0.33768174 -0.25193658 0.84300005
0.34282002 -0.25169575 0.84300005
0.34763718 -0.25169575 0.84300005
0.35255307 -0.25172696 0.84214288
0.35806385 -0.25181735 0.84260005
0.36218196 -0.25302622 0.84275001
0.36709189 -0.25277358 0.8420909
0.32758957 -0.24845544 0.84100002
0.33199477 -0.24869573 0.84100002
0.33720097 -0.2490962 0.84100002
0.34227654 -0.24929367 0.8416667
0.34681243 -0.2490962 0.84100002
0.35001621 -0.2490962 0.84100002
0.35802576 -0.2490962 0.84100002
0.36315185 -0.24845544 0.84100002
0.36683619 -0.2490962 0.84100002
0.32438573 -0.21065049 0.84100002
0.32627693 -0.20723119 0.84175003
0.32692185 -0.20300496 0.84190911
0.32810766 -0.19868414 0.84233344
0.33079335 -0.19623335 0.84100002
0.3329629 -0.19276695 0.84185719
0.33559906 -0.19142763 0.84100002
0.37774742 -0.19167927 0.84211111
0.38139746 -0.19270138 0.84157151
0.33452672 -0.18852097 0.84233344
0.33736119 -0.18711868 0.84180003
0.34120572 -0.18502001 0.84100002
0.36763716 -0.18502001 0.84100002
0.37277454 -0.18678783 0.84255552
0.37868094 -0.18760096 0.84300005
0.33853814 -0.18331906 0.84300011
0.3423588 -0.18166573 0.84242862
0.34629306 -0.181034 0.84233344
0.35406002 -0.18064287 0.84300005
0.35743576 -0.18072191 0.84150004
0.36240974 -0.18128517 0.84300005
0.36641049 -0.18248248 0.84259999
0.34603146 -0.17903715 0.84300005
0.35406002 -0.17903715 0.84300005
0.35727143 -0.17903715 0.84300011
0.36208862 -0.17903715 0.84300011
0.35373718 -0.26086098 0.84800005
0.35616001 -0.26086098 0.84800005
0.32834285 -0.25510955 0.84500003
0.33075717 -0.2559143 0.84500003
0.33692703 -0.25618255 0.84500015
0.34202388 -0.25648916 0.84500015
0.34712476 -0.25692225 0.84566671
0.35248575 -0.25671908 0.84500021
0.35797271 -0.25730437 0.84500021
0.36294764 -0.25752383 0.84500015
0.36737382 -0.2579262 0.84500003
0.37099525 -0.25832859 0.84500003
0.32713574 -0.25309762 0.84500003
0.33075717 -0.25350001 0.84500003
0.34121907 -0.25350001 0.84500003
0.34604764 -0.25350001 0.84500003
0.35007146 -0.25350001 0.84500003
0.35811907 -0.25350001 0.84500003
0.32416445 -0.21082795 0.84600008
0.32362536 -0.20748465 0.84687507
0.32342348 -0.20244347 0.84687501
0.3259286 -0.20038573 0.84500003
0.32811955 -0.19751525 0.84650004
0.33053669 -0.1959043 0.84650004
0.32870096 -0.1946362 0.84800005
0.33139729 -0.19279538 0.84612507
0.33302033 -0.18787876 0.84666669
0.33558574 -0.18590002 0.84500003
0.37260479 -0.18590002 0.84500003
0.37796992 -0.18643653 0.84500003
0.33300829 -0.18440637 0.84800005
0.33658287 -0.18233222 0.8465001
0.34041432 -0.18187621 0.84500003
0.36890739 -0.18123074 0.84575003
0.37249899 -0.18218158 0.84609103
0.37712896 -0.18292204 0.84612507
0.33859861 -0.17897287 0.84650004
0.34246889 -0.17800489 0.8465001
0.34759128 -0.17742249 0.84680003
0.35250488 -0.17739704 0.84638464
0.35788983 -0.17665811 0.84700012
0.36254162 -0.17683372 0.84687513
0.36751923 -0.17783922 0.84750009
0.37150478 -0.17848381 0.84800005
0.3464686 -0.17363811 0.84800005
0.35325256 -0.17299202 0.84800005
0.35616001 -0.17363811 0.84800005
0.32376003 -0.21502858 0.85200006
0.32619432 -0.21502858 0.85200006
0.31889147 -0.21178287 0.85200012
0.32205501 -0.21220453 0.85125005
0.31939051 -0.20723686 0.85333341
0.32163548 -0.20725738 0.85175008
0.32294667 -0.20285526 0.852
0.32538289 -0.20042287 0.85200006
0.32452002 -0.19926669 0.85400003
0.32692671 -0.19745468 0.85180008
0.32781398 -0.19230795 0.85200018
0.33109525 -0.19104764 0.85000002
0.32751667 -0.18773292 0.85333341
0.33067334 -0.18722001 0.85100007
0.32899338 -0.18340668 0.85400003
0.33239123 -0.18238391 0.85181826
0.3359524 -0.18052383 0.85000002
0.37768286 -0.18073621 0.85100007
0.38278228 -0.18123177 0.85333341
0.33252287 -0.1788632 0.85366672
0.33738288 -0.17786822 0.85280007
0.34228861 -0.17641304 0.85100007
0.34890479 -0.17566667 0.85000002
0.36752385 -0.17566667 0.85000002
0.37342179 -0.17682315 0.85000002
0.37797809 -0.17763272 0.85166681
0.38200241 -0.17902523 0.85250002
0.33834669 -0.17486668 0.85400003
0.34311214 -0.17382017 0.85342866
0.34761485 -0.17258933 0.8524
0.35160321 -0.17188892 0.85000002
0.35753971 -0.17188892 0.85000002
0.36224547 -0.17306504 0.85200012
0.36700431 -0.17334096 0.85350007
0.3724806 -0.17376165 0.85314292
0.37807405 -0.17364626 0.85371435
0.3477 -0.16958001 0.85400003
0.35246325 -0.16836348 0.8532728
0.35718742 -0.1672563 0.85290921
0.36166224 -0.16836002 0.85400003
0.36518669 -0.16998668 0.85400003
0.32297224 -0.20187736 0.85680002
0.32321051 -0.19751716 0.85700005
0.32528001 -0.19728763 0.85600007
0.32377642 -0.19282782 0.85720009
0.32528001 -0.19321144 0.85600013
0.32606211 -0.18727735 0.85720009
0.327981 -0.18193844 0.85666674
0.33017144 -0.18016763 0.85600007
0.3293086 -0.1789543 0.85800004
0.33243814 -0.17674516 0.85680008
0.3356064 -0.17581969 0.85600013
0.33421144 -0.17405143 0.85800004
0.33808818 -0.17234582 0.8569091
0.34267175 -0.17147176 0.85600007
0.36875939 -0.17092828 0.85600013
0.37241182 -0.17144267 0.85640001
0.37752002 -0.17241715 0.85800004
0.33911431 -0.16914858 0.85800004
0.34287891 -0.16768381 0.85719997
0.34774268 -0.16684742 0.85644448
0.35299811 -0.16549334 0.85600013
0.36318859 -0.16671619 0.85600007
0.3667413 -0.16731779 0.85700005
0.37071049 -0.16860382 0.85800004
0.34401718 -0.16424572 0.85800004
0.34755874 -0.16357335 0.85733336
0.35259336 -0.16323715 0.85700005
0.3581683 -0.1639905 0.85666674
0.36281145 -0.16424572 0.85800004
0.3652629 -0.16424572 0.85800004
0.32263431 -0.20277524 0.86200011
0.32263431 -0.19784954 0.86200011
0.32299015 -0.19241716 0.86120003
0.32386574 -0.18840858 0.86200005
0.325414 -0.18770604 0.86066675
0.32635906 -0.18286002 0.86100006
0.32798001 -0.17862445 0.86166668
0.33147192 -0.1772224 0.86150002
0.3338168 -0.17338783 0.86120003
0.33619905 -0.17138001 0.86100006
0.37720096 -0.17138001 0.86100006
0.38010097 -0.17157906 0.86200005
0.33831257 -0.16762754 0.86163646
0.34111905 -0.16563906 0.86100006
0.36939049 -0.16626668 0.86000001
0.37227905 -0.16673176 0.86100006
0.37681717 -0.16993715 0.86200005
0.33905336 -0.16336954 0.86200005
0.34248161 -0.16228478 0.86133349
0.34757504 -0.16117597 0.86125004
0.35259908 -0.16071907 0.86100006
0.3574155 -0.16149168 0.86075008
0.36221275 -0.1615596 0.8611111
0.36695281 -0.1628888 0.86120003
0.35218859 -0.15844382 0.86200005
0.32165623 -0.20536572 0.86600006
0.31909239 -0.20253335 0.86800003
0.32202858 -0.20230004 0.86700004
0.31900057 -0.19728859 0.8682
0.32146087 -0.19745213 0.86642867
0.32159215 -0.1927093 0.86750007
0.32330573 -0.18722098 0.86600012
0.32540479 -0.18535715 0.86500007
0.32367876 -0.18248162 0.86700004
0.32540482 -0.18206191 0.86500013
0.32359907 -0.1779381 0.86900002
0.32682896 -0.17744707 0.86660016
0.33117145 -0.17547144 0.86500007
0.32828936 -0.17364554 0.86740011
0.33189413 -0.17212974 0.86560011
0.33529049 -0.17052858 0.86500007
0.37977621 -0.17052858 0.86500007
0.38142383 -0.17052858 0.86500007
0.33239505 -0.1681823 0.8682
0.33609241 -0.16716205 0.8658573
0.37762734 -0.16761874 0.86700004
0.38236004 -0.16966191 0.86900002
0.33353049 -0.1646962 0.86900002
0.33711356 -0.16281551 0.86699998
0.34023336 -0.16146667 0.86500007
0.36865479 -0.16105476 0.86500007
0.37271336 -0.1628444 0.86620009
0.37739432 -0.16386858 0.86900002
0.33893239 -0.15954667 0.86800003
0.34218153 -0.15763716 0.86660016
0.34711862 -0.15777907 0.86625004
0.35175288 -0.15750264 0.8670001
0.35712039 -0.15750803 0.86680013
0.36248365 -0.15772955 0.86620009
0.36786669 -0.15816796 0.86800003
0.37160099 -0.15973049 0.86900002
0.35339335 -0.15476477 0.86900002
0.35670385 -0.15476477 0.86900008
0.36249715 -0.15476477 0.86900002
0.31724191 -0.2009743 0.8720001
0.31715462 -0.19770318 0.87100005
0.31828588 -0.19357891 0.87128592
0.32096288 -0.19080478 0.87233341
0.32231602 -0.1881423 0.87180007
0.32346117 -0.18224782 0.87220001
0.32364479 -0.17651907 0.87180007
0.32600287 -0.17585906 0.87100005
0.32342574 -0.17376858 0.87300003
0.32713106 -0.17186916 0.87180012
0.32803684 -0.16775589 0.8720001
0.33135909 -0.16567953 0.87200004
0.38261789 -0.16652691 0.87100017
0.33225226 -0.16197351 0.87216681
0.33651018 -0.16065112 0.87100005
0.37411526 -0.16009811 0.87100005
0.37743339 -0.16092764 0.87100017
0.38185751 -0.16231018 0.87100017
0.33340287 -0.15880287 0.87300003
0.33726835 -0.15783548 0.87225008
0.3420105 -0.15591145 0.87233341
0.34693861 -0.15521002 0.87150002
0.35171813 -0.15512097 0.87100005
0.36886764 -0.15579271 0.87166679
0.37246907 -0.15737477 0.8720001
0.34338003 -0.15298286 0.87300003
0.34694731 -0.15214315 0.87209105
0.35235313 -0.15195653 0.871889
0.3571043 -0.15197574 0.8720001
0.3625021 -0.15201089 0.87220013
0.36721432 -0.15326002 0.87300003
0.34836859 -0.14882572 0.87300003
0.35668287 -0.14882572 0.87300003
0.31775239 -0.19734097 0.87800002
0.31803524 -0.19336364 0.87740004
0.32110369 -0.18782145 0.87650007
0.32221669 -0.18281287 0.87650001
0.32267973 -0.17901874 0.87700003
0.32583335 -0.17083335 0.87500006
0.32708335 -0.16708334 0.87500006
0.32861406 -0.16347262 0.87575006
0.33029526 -0.16138478 0.87800002
0.3327913 -0.15776812 0.87650013
0.3369531 -0.15596691 0.87575006
0.34083337 -0.15583335 0.87500006
0.3741667 -0.15666668 0.87500006
0.37765273 -0.15767811 0.87600011
0.38120899 -0.15759639 0.87740004
0.33782098 -0.15469524 0.87800002
0.34218872 -0.15303513 0.87687504
0.36250001 -0.15083334 0.87500006
0.36833337 -0.15166667 0.87500006
0.3722375 -0.15284669 0.87700003
0.37678745 -0.1540263 0.87800008
0.3804667 -0.15469524 0.87800002
0.34754479 -0.14880572 0.8768
0.35211778 -0.14768751 0.87612504
0.35718098 -0.14785962 0.87714297
0.36224231 -0.14880459 0.87680006
0.36677408 -0.14871407 0.87725002
0.37043241 -0.14967811 0.87800002
0.37544954 -0.14633334 0.87800002
0.31791267 -0.19175595 0.8814286
0.31793764 -0.18731856 0.88199997
0.3206737 -0.18591812 0.88066673
0.31332001 -0.18060002 0.88200003
0.31722426 -0.18239449 0.88181829
0.32075289 -0.18155003 0.88050002
0.31739813 -0.17932573 0.88400006
0.32300043 -0.17732933 0.8824445
0.32364196 -0.17401144 0.88266677
0.32564345 -0.17162973 0.88080007
0.32664028 -0.16699786 0.88225007
0.32779473 -0.16207917 0.88177776
0.33104765 -0.1600762 0.88000005
0.3288126 -0.15727279 0.88120002
0.33208847 -0.15639594 0.88085723
0.3360762 -0.15504763 0.88000005
0.32918477 -0.15406857 0.88400006
0.33230078 -0.15226899 0.88333333
0.3371017 -0.152035 0.881091
0.34207147 -0.15063462 0.88033342
0.37351117 -0.1505778 0.88000005
0.37756193 -0.15169525 0.88000005
0.3342362 -0.14901716 0.88400006
0.33724052 -0.14729287 0.88249999
0.34227711 -0.1470608 0.88145459
0.34707597 -0.14676082 0.88057148
0.3578667 -0.14666668 0.88000005
0.3633143 -0.14708573 0.88000005
0.36775431 -0.14673257 0.88040012
0.37259352 -0.14719266 0.88028586
0.37630478 -0.14834286 0.88000005
0.34310862 -0.14296097 0.88300002
0.34783462 -0.14287396 0.88199997
0.35243869 -0.14250989 0.88061547
0.35767737 -0.14273296 0.88160008
0.36219278 -0.14256886 0.88200009
0.36739358 -0.14346835 0.88225007
0.37253812 -0.14326915 0.88180012
0.37548003 -0.14364001 0.88200003
0.35280001 -0.13860001 0.88200003
0.35782099 -0.13740635 0.88333338
0.36262047 -0.1377116 0.884
0.36791241 -0.1380724 0.88400006
0.37296385 -0.1389143 0.88400006
0.31678572 -0.19007143 0.88700002
0.31763047 -0.18838191 0.88700002
0.3178336 -0.17774928 0.88874996
0.32100952 -0.17740001 0.88700002
0.31919336 -0.17356668 0.88900006
0.32228938 -0.17256343 0.88819999
0.32523334 -0.17233144 0.88700002
0.32427335 -0.16679335 0.88900012
0.32541668 -0.16735572 0.88750005
0.32634917 -0.16190572 0.88819999
0.327721 -0.15812261 0.8878572
0.32878894 -0.15437557 0.88900012
0.33030194 -0.15205716 0.88700002
0.3329289 -0.14856319 0.88800001
0.33618578 -0.14681685 0.8876667
0.33853126 -0.14329658 0.88819999
0.3420867 -0.14270574 0.88814288
0.34674191 -0.14123431 0.88800001
0.36831623 -0.14107525 0.88700002
0.37169528 -0.14107525 0.88700002
0.33951336 -0.13970001 0.88900006
0.34798002 -0.13970003 0.88900012
0.35283259 -0.13791744 0.88842857
0.35689145 -0.13700478 0.88800007
0.36071336 -0.13769621 0.88700002
0.36859784 -0.13882256 0.88700002
0.37254003 -0.13938573 0.88700002
0.31736574 -0.17565429 0.89100003
0.31903192 -0.17226619 0.8925001
0.3216086 -0.17056286 0.89100003
0.32253432 -0.16792288 0.89200008
0.3236686 -0.16225716 0.89200008
0.32500288 -0.16207716 0.89100003
0.32439432 -0.15836573 0.89400005
0.32590061 -0.15675087 0.89160007
0.32439432 -0.15410858 0.89400005
0.32759896 -0.15242538 0.89287508
0.33009431 -0.15104572 0.89100003
0.32950288 -0.149 0.89400005
0.33227026 -0.14701307 0.89228582
0.3360343 -0.14510572 0.89100003
0.34282288 -0.14001429 0.89100003
0.34536859 -0.14001429 0.89100003
0.34310573 -0.13775145 0.89100003
0.34706578 -0.13746859 0.89099997
0.35102576 -0.13718574 0.89100003
0.34706575 -0.13492286 0.89100003
0.35130858 -0.13492286 0.89100003
0.31814858 -0.17532381 0.89800006
0.31797192 -0.17180714 0.89750004
0.31746066 -0.16784859 0.89766681
0.32151404 -0.16705835 0.89725006
0.32246289 -0.16275728 0.89742869
0.32413527 -0.15907429 0.89800006
0.32512003 -0.15616001 0.89600003
0.32593083 -0.15172255 0.89666671
0.32740384 -0.14800477 0.89700001
0.33105463 -0.14659747 0.89666671
0.33354288 -0.14453524 0.89800006
0.33816117 -0.14316687 0.89800006
0.34124002 -0.14111429 0.89800006
0.31835335 -0.16561238 0.90100002
0.32006955 -0.16561238 0.90100002
0.31906003 -0.16082001 0.90300006
0.32124135 -0.16156478 0.90140003
0.32340735 -0.15840922 0.90233344
0.32557905 -0.15634573 0.90200007
0.32350191 -0.15016668 0.90100002
0.32545874 -0.15199652 0.90166676
0.32350191 -0.1475924 0.90100002
0.32636225 -0.14616224 0.90100002
0.3312248 -0.1450181 0.90100002
0.34152192 -0.14330192 0.90100002
0.32356954 -0.15790477 0.90600008
0.32493812 -0.15341905 0.90500003
0.4123621 -0.12307105 0.90620005
0.41854477 -0.12366096 0.90800005
0.32326669 -0.15860002 0.91000003
0.32500002 -0.156 0.91000003
0.32500002 -0.1534 0.91000003
0.32400668 -0.16156667 0.91700006
0.3941429 -0.14791429 0.93000007
