# .PCD v0.7 - Point Cloud Data file format
VERSION 0.7
FIELDS x y z
SIZE 4 4 4
TYPE F F F
COUNT 1 1 1
WIDTH 375
HEIGHT 1
VIEWPOINT 0 0 0 1 0 0 0
POINTS 375
DATA ascii
0.27087241 -0.19622858 0.80800003
0.26317716 -0.19084191 0.80800003
0.26702479 -0.1921711 0.80799997
0.27087238 -0.19289398 0.80800003
0.26240763 -0.18776384 0.80800003
0.26702482 -0.18853335 0.80800003
0.24454287 -0.19517145 0.81000006
0.2476286 -0.19517145 0.81000012
0.25210667 -0.19565335 0.81200004
0.25783718 -0.19666955 0.81300008
0.26232356 -0.1961097 0.81114298
0.26657972 -0.19652383 0.81133336
0.27385715 -0.19517145 0.81000006
0.27540001 -0.19517145 0.81000006
0.23954859 -0.19458477 0.81400001
0.24357982 -0.19303432 0.81400007
0.24731258 -0.19244049 0.81150019
0.25253317 -0.19229695 0.81088883
0.25773475 -0.19216211 0.81090921
0.26213557 -0.19293684 0.81033337
0.27293143 -0.19177715 0.81000006
0.27699107 -0.19220139 0.81142867
0.2436832 -0.18812446 0.81400007
0.24756899 -0.18769607 0.8134287
0.25246781 -0.18741384 0.8131668
0.25737554 -0.18732272 0.81085742
0.26352572 -0.18584497 0.81240004
0.26735178 -0.18673335 0.81133336
0.27214417 -0.18822733 0.81333345
0.27707013 -0.18962325 0.81400007
0.24233948 -0.18156078 0.81400007
0.24823125 -0.18249106 0.81400007
0.25175861 -0.18237478 0.81400007
0.25740725 -0.18271011 0.81360012
0.26174706 -0.1833303 0.81360006
0.26900762 -0.18140572 0.81400001
0.27055812 -0.18140572 0.81400001
0.24264954 -0.17908001 0.81400001
0.24885145 -0.17908001 0.81400001
0.2522625 -0.17845981 0.81400007
0.25737906 -0.17908001 0.81400001
0.23244001 -0.20514001 0.81900007
0.22840403 -0.20224707 0.8174001
0.23187882 -0.20168725 0.81585723
0.23673812 -0.20103335 0.81500006
0.232326 -0.19773813 0.81742871
0.23710632 -0.19782192 0.81520003
0.23374002 -0.19318001 0.81900012
0.23762918 -0.19255933 0.81593341
0.24170573 -0.19265048 0.81500006
0.23478001 -0.18798001 0.81900007
0.23793535 -0.18770282 0.81718189
0.24175207 -0.18662034 0.81533337
0.2685619 -0.18550953 0.81500006
0.27299809 -0.18601143 0.81550002
0.27771956 -0.18715334 0.81625003
0.23478001 -0.18408 0.81900007
0.2377051 -0.18315081 0.81833345
0.24209103 -0.18304016 0.81585723
0.24644049 -0.18201667 0.81500006
0.25381431 -0.1808524 0.81500006
0.26374957 -0.18178384 0.81500006
0.26734221 -0.18262656 0.81500012
0.27244288 -0.18356906 0.81500006
0.27778006 -0.18440859 0.81700009
0.24450001 -0.17930001 0.81500006
0.24682859 -0.17852382 0.81500006
0.26235241 -0.17930001 0.81500006
0.22909811 -0.20564097 0.82100004
0.23066191 -0.20564097 0.82100004
0.22714335 -0.2013405 0.82100004
0.22320604 -0.19892637 0.82233334
0.22753429 -0.19782193 0.82100004
0.23066191 -0.19625811 0.82100004
0.22767647 -0.19256182 0.82100004
0.23187824 -0.19174045 0.82100004
0.22909811 -0.18843906 0.82100004
0.232747 -0.18739653 0.82100004
0.23535335 -0.18843906 0.82100004
0.23891525 -0.16700096 0.83900005
0.24231908 -0.16591771 0.83814299
0.24631716 -0.16500859 0.83700001
0.27247524 -0.16540287 0.83900005
0.24291049 -0.16380477 0.83900005
0.24735691 -0.16270833 0.83850014
0.25266209 -0.16202588 0.83881825
0.25755972 -0.16167399 0.83900011
0.26128858 -0.16060857 0.83900005
0.26704288 -0.16022572 0.83700001
0.24770477 -0.15901048 0.83900005
0.2526589 -0.15869087 0.83900005
0.26688194 -0.15901048 0.83900005
0.23796406 -0.16759762 0.84200001
0.27472669 -0.16579716 0.84100002
0.2780562 -0.16672668 0.84300011
0.28180289 -0.1669943 0.84300005
0.2850143 -0.16619144 0.84300005
0.23879397 -0.16392033 0.84233332
0.24230286 -0.16233693 0.84175003
0.24669334 -0.16099145 0.84100002
0.27248526 -0.16268907 0.84150004
0.27698576 -0.16324763 0.84300005
0.28180286 -0.16458572 0.84300005
0.24487144 -0.15976858 0.84300005
0.24788605 -0.15777019 0.84233332
0.25209963 -0.15690078 0.84140009
0.25745928 -0.15768024 0.84150004
0.2621887 -0.15795316 0.8418889
0.26660606 -0.15776953 0.84233344
0.27216858 -0.15896574 0.84300005
0.27538002 -0.15976858 0.84300005
0.2529 -0.15495144 0.84300005
0.25611144 -0.15495144 0.84300005
0.26333714 -0.15495144 0.84300005
0.26574573 -0.15495144 0.84300005
0.23340192 -0.17040762 0.84800005
0.23418573 -0.16980477 0.84500003
0.23567542 -0.16768621 0.84650004
0.23823676 -0.16262722 0.84714293
0.24183097 -0.16055 0.84500003
0.27844763 -0.16095239 0.84500003
0.28241077 -0.16261879 0.84530014
0.28793043 -0.16299264 0.8472501
0.29155049 -0.16152382 0.84800005
0.23986287 -0.15910096 0.84800005
0.24330832 -0.15755565 0.84714293
0.24652544 -0.1563921 0.84500015
0.25189048 -0.15531906 0.84500003
0.25913334 -0.15531906 0.84500003
0.26154763 -0.15531906 0.84500003
0.26905876 -0.15585557 0.84500003
0.27200955 -0.15612383 0.84500003
0.27668574 -0.15756732 0.84700006
0.28024381 -0.15910096 0.84800005
0.29155049 -0.15910096 0.84800005
0.24470858 -0.15344763 0.84800005
0.2477435 -0.15251875 0.84733343
0.25248668 -0.1524581 0.84700006
0.25763631 -0.15244114 0.84609103
0.26311383 -0.15209934 0.84590018
0.26790348 -0.15236799 0.84537506
0.27211496 -0.1524581 0.84700006
0.27539811 -0.15425524 0.84800005
0.2490159 -0.14887112 0.84800005
0.25116953 -0.14940953 0.84800005
0.25763053 -0.14940953 0.84800005
0.26247621 -0.14900573 0.84800005
0.26691809 -0.14900573 0.84800005
0.23233335 -0.17080954 0.85000002
0.23363355 -0.16813105 0.85120004
0.23557144 -0.16595238 0.85000002
0.23605454 -0.16223644 0.85175002
0.28873336 -0.16104001 0.85400003
0.29117334 -0.16022667 0.85400003
0.23768404 -0.15764469 0.85177785
0.24123812 -0.15704763 0.85000002
0.27847621 -0.15623811 0.85000002
0.2829026 -0.15806723 0.85114294
0.28656879 -0.15797602 0.8524
0.23872153 -0.15368305 0.85200006
0.24252224 -0.15248574 0.85166681
0.2455743 -0.15074763 0.85100007
0.27442858 -0.15138096 0.85000002
0.27762398 -0.15289417 0.85200006
0.28060001 -0.15290667 0.85400003
0.24481335 -0.14884001 0.85400003
0.24785884 -0.14752276 0.85266674
0.25271407 -0.14704594 0.85200006
0.2571505 -0.14718305 0.85127276
0.26234192 -0.14657763 0.85149997
0.26756716 -0.14666335 0.85200006
0.27203098 -0.14788 0.85200006
0.27572003 -0.14884001 0.85400003
0.25457335 -0.14396001 0.85400003
0.25782669 -0.14396003 0.85400003
0.26189336 -0.14396001 0.85400003
0.23245068 -0.17209487 0.85640013
0.23332079 -0.16703203 0.85720009
0.23560382 -0.16549334 0.85600007
0.23342955 -0.16242191 0.85700005
0.23560382 -0.16060191 0.85600007
0.23452002 -0.15770859 0.85800004
0.23560384 -0.15734097 0.85600013
0.28370288 -0.15571049 0.85600007
0.28696382 -0.15571049 0.85600007
0.23789297 -0.15298934 0.85720009
0.24049525 -0.15081906 0.85600007
0.27881145 -0.15081906 0.85600007
0.28335351 -0.15221663 0.85600007
0.28680077 -0.15277565 0.85600007
0.24291486 -0.14798748 0.85714293
0.24593019 -0.14647113 0.85600013
0.27392 -0.14592762 0.85600007
0.27808902 -0.14760682 0.85628575
0.28134143 -0.14740714 0.85750008
0.28660762 -0.14697486 0.85640013
0.24785763 -0.14414144 0.85750002
0.2522029 -0.14364856 0.85700005
0.25710005 -0.1420162 0.85700005
0.26259404 -0.14243729 0.85742861
0.26761127 -0.14292508 0.85755551
0.27210858 -0.14381716 0.85800004
0.27537715 -0.14463429 0.85800004
0.28777906 -0.14429715 0.85600007
0.25658286 -0.13973144 0.85800004
0.22740382 -0.17650478 0.86200011
0.23150858 -0.17650478 0.86200005
0.22412002 -0.17240001 0.86200005
0.22740383 -0.17322098 0.86200005
0.23112953 -0.17338936 0.86120003
0.22412002 -0.16993715 0.86200005
0.22849843 -0.1680216 0.86200011
0.23123907 -0.16810003 0.861
0.22904573 -0.16254859 0.86200005
0.23100738 -0.16262913 0.86057156
0.2325761 -0.15750943 0.86088896
0.23397145 -0.15351811 0.86200005
0.23655024 -0.15242723 0.86114293
0.23920329 -0.14787647 0.86057156
0.24148954 -0.14636858 0.86100006
0.28414556 -0.147072 0.86080009
0.28666669 -0.14988573 0.86000001
0.24353907 -0.14431906 0.86100006
0.24737288 -0.14317286 0.86150002
0.25295186 -0.14118043 0.86114293
0.2596381 -0.14005715 0.86000001
0.2629143 -0.14005715 0.86000001
0.26782858 -0.14005715 0.86000001
0.27266821 -0.14149792 0.86080009
0.27755702 -0.14352272 0.86114293
0.28432322 -0.14257208 0.86200011
0.28733337 -0.14202477 0.86200005
0.2536743 -0.13874096 0.86200005
0.25730479 -0.13808636 0.86133337
0.26188385 -0.13819367 0.86200011
0.26680955 -0.13874096 0.86200011
0.27091432 -0.13874096 0.86200005
0.22654763 -0.17052858 0.86500007
0.22490004 -0.16723335 0.86500013
0.22720666 -0.16690384 0.86500007
0.22809865 -0.1623226 0.86642873
0.22938192 -0.15804021 0.8670001
0.23111844 -0.15636922 0.86566675
0.23262313 -0.15260668 0.86699998
0.23643334 -0.15075715 0.86500007
0.23348479 -0.1491324 0.86833334
0.23691803 -0.14776328 0.86677784
0.2825667 -0.1458143 0.86500007
0.28805876 -0.14636351 0.86500013
0.23862952 -0.14356318 0.86800003
0.24220668 -0.14235288 0.86650008
0.24733208 -0.14152923 0.86566681
0.25126192 -0.14087144 0.86500007
0.27819717 -0.14136477 0.86550003
0.28283653 -0.14279303 0.86666673
0.28791031 -0.14271373 0.8682
0.29114956 -0.14295715 0.86766672
0.23918192 -0.13986763 0.86900002
0.24218149 -0.13803482 0.86788893
0.24710381 -0.13799505 0.86660004
0.25231734 -0.13737315 0.86580008
0.25785241 -0.1363405 0.86500007
0.26312479 -0.13658762 0.86500007
0.26784128 -0.13680479 0.86533344
0.27318767 -0.13724069 0.8658573
0.27793619 -0.1388844 0.86700004
0.28139049 -0.13904001 0.86900002
0.29049429 -0.13986763 0.86900002
0.24332 -0.13407429 0.86900002
0.2474581 -0.1340743 0.86900008
0.25257677 -0.13367525 0.86871439
0.25679675 -0.13293917 0.86700004
0.26188564 -0.13300732 0.86744452
0.26673749 -0.1336432 0.86800003
0.27097559 -0.13369493 0.86833334
0.25407907 -0.1299362 0.86900002
0.25780335 -0.12952238 0.86900002
0.26220429 -0.12944764 0.86850005
0.22701304 -0.16065112 0.87100005
0.22480097 -0.15512097 0.87100005
0.22771932 -0.15659498 0.87128592
0.22480097 -0.15346192 0.87100005
0.22775215 -0.15180947 0.87190926
0.23143716 -0.15014382 0.87100005
0.22864287 -0.14882572 0.87300003
0.23253205 -0.14699391 0.87200016
0.2364143 -0.14516668 0.87100005
0.23363145 -0.14383715 0.87300003
0.23647693 -0.14180358 0.8720001
0.28452668 -0.14018953 0.87100005
0.28784478 -0.14018953 0.87100005
0.23843652 -0.13791177 0.87233341
0.24083716 -0.13536763 0.87200004
0.27374285 -0.13521239 0.87100005
0.27805004 -0.13611954 0.87150007
0.28269503 -0.13657311 0.87175012
0.28726169 -0.13719667 0.87175012
0.29016858 -0.13718572 0.87300003
0.24346812 -0.13212143 0.87250006
0.2476339 -0.130989 0.87128592
0.25217527 -0.13106477 0.87100005
0.2679362 -0.13156249 0.87100011
0.27239525 -0.1314908 0.8720001
0.27710223 -0.1323216 0.8720001
0.2818993 -0.13274404 0.87250006
0.28684288 -0.13302858 0.87300003
0.24772125 -0.12783688 0.87242866
0.25252157 -0.12709087 0.87220013
0.25737309 -0.12661025 0.87175012
0.26226819 -0.12704097 0.87185729
0.26680127 -0.12716642 0.87271434
0.27076858 -0.12831716 0.87300003
0.2785286 -0.12887144 0.87300003
0.28143859 -0.12637717 0.87300003
0.25358573 -0.12388287 0.87300003
0.25608003 -0.12388287 0.87300003
0.26190001 -0.12388287 0.87300003
0.28351715 -0.12388287 0.87300003
0.22761144 -0.14757144 0.87542868
0.23083335 -0.14583334 0.87500006
0.22828001 -0.14466098 0.87800002
0.2331773 -0.1427424 0.87650013
0.23496954 -0.13880762 0.87800002
0.23699506 -0.13692647 0.87560004
0.23915049 -0.13462667 0.87800002
0.2413889 -0.13305557 0.87500012
0.27666667 -0.13083334 0.87500006
0.28333336 -0.13083334 0.87500006
0.28666669 -0.13083334 0.87500006
0.24625334 -0.12730192 0.87650007
0.26916668 -0.12583335 0.87500006
0.27305558 -0.12694445 0.87500012
0.27752882 -0.12739953 0.87575006
0.28283337 -0.12816668 0.87500012
0.28638893 -0.12861113 0.87500012
0.24855311 -0.12323167 0.87725002
0.25168449 -0.12277811 0.87700003
0.25706142 -0.12238137 0.87757158
0.26089144 -0.12208381 0.87800002
0.26652899 -0.12333353 0.87620002
0.27008954 -0.12208381 0.87800002
0.25336573 -0.11957525 0.87800002
0.25587431 -0.11957525 0.87800002
0.27008954 -0.11957525 0.87800002
0.22712383 -0.14666668 0.88000005
0.2279554 -0.14296439 0.88228583
0.23157685 -0.1417978 0.88100004
0.22984001 -0.1380724 0.88400006
0.23279336 -0.13722344 0.8818
0.23550478 -0.13660954 0.88000005
0.23378381 -0.13202953 0.88300008
0.23732261 -0.13235258 0.881091
0.24183367 -0.13140002 0.88066673
0.23436001 -0.12852001 0.88200003
0.2382005 -0.12719287 0.88300002
0.24292688 -0.12717411 0.88199997
0.24574797 -0.126647 0.88066673
0.23994288 -0.12376001 0.88400006
0.24312574 -0.12366667 0.88333338
0.24679089 -0.12297601 0.88080007
0.25226668 -0.12236191 0.88000005
0.26400003 -0.12236191 0.88000005
0.2681905 -0.12236191 0.88000005
0.27351674 -0.12279947 0.88057154
0.27771536 -0.12279171 0.88145459
0.28232494 -0.12359837 0.88114291
0.25897145 -0.11900953 0.88000005
0.26232386 -0.11900954 0.88000005
0.26701719 -0.11917716 0.88000005
0.27238098 -0.11984763 0.88000005
0.22944668 -0.14139335 0.88900006
0.22893049 -0.13938573 0.88700002
0.23062001 -0.13600667 0.88700002
0.23205125 -0.13320477 0.88860005
0.22996287 -0.13746858 0.89100003
