# .PCD v0.7 - Point Cloud Data file format
VERSION 0.7
FIELDS x y z
SIZE 4 4 4
TYPE F F F
COUNT 1 1 1
WIDTH 616
HEIGHT 1
VIEWPOINT 0 0 0 1 0 0 0
POINTS 616
DATA ascii
0.19162287 -0.10692 0.72900003
0.16454573 -0.10067143 0.72900003
0.16732287 -0.10067143 0.72900003
0.17218287 -0.10067143 0.72900003
0.17750573 -0.10067143 0.72900003
0.18120858 -0.10067143 0.72900003
0.18954001 -0.10483715 0.72900003
0.19123347 -0.10279103 0.72714293
0.14766924 -0.097253427 0.72900003
0.15249749 -0.097738579 0.72783345
0.15775383 -0.097559534 0.72649997
0.1626851 -0.097612068 0.72688895
0.16741031 -0.097525284 0.72718185
0.17262174 -0.097694986 0.72845459
0.1774455 -0.097745016 0.72875011
0.14880858 -0.093265727 0.72900003
0.15248922 -0.092933148 0.72713333
0.15769941 -0.0926819 0.72624987
0.16261661 -0.092724055 0.72658336
0.16744037 -0.093075596 0.72778577
0.17201622 -0.093691312 0.72871435
0.17630842 -0.093012542 0.72883338
0.15482572 -0.089562863 0.72900003
0.15745875 -0.089480959 0.72833335
0.1609643 -0.089501433 0.72850001
0.17912573 -0.086785719 0.72900003
0.18120858 -0.086785719 0.72900003
0.19188765 -0.11094668 0.73266673
0.1377124 -0.1055562 0.73400009
0.14749905 -0.1055562 0.73400009
0.15239239 -0.1055562 0.73400003
0.15658668 -0.1055562 0.73400003
0.17755811 -0.1055562 0.73400003
0.18256575 -0.10599103 0.73285729
0.18776147 -0.10693514 0.73289996
0.19094746 -0.10849639 0.73120004
0.1349162 -0.10345906 0.73400003
0.13750349 -0.1026053 0.73288894
0.14234668 -0.10257461 0.73266667
0.14782749 -0.1025043 0.73216671
0.15260477 -0.10243399 0.73166668
0.15732521 -0.10232886 0.73181814
0.16226564 -0.10269153 0.73250008
0.16700064 -0.10303938 0.73266673
0.17300859 -0.1032481 0.73250008
0.17786628 -0.10281865 0.73157144
0.18278019 -0.10267524 0.73140001
0.18744585 -0.10243335 0.73166668
0.19040811 -0.10199191 0.73100001
0.13784115 -0.099295639 0.73320001
0.14215554 -0.097557329 0.73168761
0.14550382 -0.097234607 0.73100007
0.17892097 -0.095378101 0.73100001
0.18265878 -0.097463749 0.73138469
0.18733536 -0.097448282 0.73207694
0.1906939 -0.097783677 0.73114288
0.14297546 -0.093170173 0.7331112
0.147156 -0.092110664 0.73159999
0.15107334 -0.091200955 0.73100001
0.17311937 -0.091665089 0.73100007
0.17822479 -0.092245243 0.73100001
0.18241663 -0.092697158 0.7318182
0.18672116 -0.092314295 0.73320001
0.19032001 -0.094114289 0.73200005
0.14904287 -0.089005716 0.73300004
0.15234669 -0.08877144 0.73266673
0.15755428 -0.087420203 0.73200005
0.16261198 -0.088084139 0.73211116
0.16746865 -0.087706737 0.73206675
0.17281733 -0.087801851 0.73168755
0.17734687 -0.088045724 0.73139995
0.18240191 -0.089112394 0.73100001
0.18643241 -0.089385405 0.73133337
0.16777143 -0.084584765 0.73400003
0.17266478 -0.084584765 0.73400003
0.12809335 -0.1104981 0.73900002
0.13260542 -0.11081779 0.73800004
0.13699654 -0.11029874 0.73766673
0.14216954 -0.1104981 0.73900002
0.14803463 -0.1109673 0.73900002
0.15272668 -0.1104981 0.73900002
0.15765333 -0.1104981 0.73900002
0.16258001 -0.1112019 0.73900002
0.16750668 -0.1112019 0.73899996
0.17270058 -0.11101592 0.73842865
0.17758916 -0.11178572 0.73820001
0.18223704 -0.11228521 0.7379232
0.18732399 -0.11223634 0.73785722
0.19179302 -0.11381271 0.73766673
0.12835811 -0.10796095 0.73850006
0.1319859 -0.10741605 0.73716676
0.137236 -0.10777863 0.73644447
0.14246519 -0.10737631 0.73688895
0.14709948 -0.10781101 0.73666668
0.1525958 -0.10790981 0.73642862
0.15769976 -0.10788216 0.73675001
0.16282295 -0.10738056 0.73691672
0.16765387 -0.10732731 0.73655558
0.17257074 -0.10733137 0.73658341
0.17742097 -0.10799589 0.73633337
0.18187602 -0.10839678 0.73620003
0.18645334 -0.10864763 0.73600006
0.12932476 -0.10472572 0.73800004
0.13258645 -0.10274644 0.73725009
0.13528381 -0.10093715 0.73600006
0.16892953 -0.10444191 0.73600006
0.17033143 -0.10444191 0.73600006
0.13442762 -0.099237151 0.73900002
0.13787363 -0.097564496 0.73700011
0.13907096 -0.09411858 0.73750007
0.14171049 -0.091565721 0.73714292
0.1457981 -0.090422861 0.73600006
0.18890667 -0.094278105 0.73600006
0.14278448 -0.08824636 0.73733342
0.14701848 -0.087619819 0.73719996
0.15284954 -0.086215667 0.73733336
0.15803859 -0.085689053 0.73750007
0.16302516 -0.08579468 0.73720008
0.17806382 -0.085160956 0.73900002
0.1573181 -0.084018819 0.73824996
0.16275334 -0.084538102 0.73766673
0.16806 -0.084145725 0.7383334
0.17223892 -0.084246837 0.73716676
0.17617811 -0.08493048 0.73700005
0.18468858 -0.12100287 0.74300003
0.18787286 -0.12135668 0.74300003
0.19265106 -0.12206955 0.74260008
0.12807906 -0.11534192 0.74300003
0.13317391 -0.11647411 0.74300003
0.13723168 -0.11671835 0.74275005
0.14243753 -0.11655354 0.74260008
0.1467962 -0.11628628 0.74257153
0.15282038 -0.11603013 0.74287504
0.1579403 -0.11630845 0.74271435
0.16254544 -0.11741783 0.74270004
0.16779798 -0.11687561 0.74262506
0.17238156 -0.11682919 0.74263644
0.17749289 -0.11738621 0.74250007
0.18229882 -0.11800168 0.74191666
0.18744802 -0.11780915 0.7416001
0.19242953 -0.11815647 0.742091
0.19574669 -0.11801334 0.74200004
0.12777865 -0.11282953 0.74242866
0.13179392 -0.1131482 0.74160004
0.13723621 -0.11303784 0.74114287
0.14245905 -0.11283857 0.74049997
0.14745449 -0.11302552 0.74080008
0.15270777 -0.11299403 0.74085718
0.1579193 -0.11280025 0.74024999
0.16280001 -0.11417144 0.74000001
0.16731051 -0.11374857 0.74000001
0.17301905 -0.11381905 0.74000001
0.17717718 -0.1145943 0.74000001
0.18746668 -0.1148762 0.74000001
0.12713449 -0.10738211 0.74080002
0.12850159 -0.10313016 0.74000001
0.13114446 -0.10147905 0.74166673
0.13232478 -0.099774294 0.74300003
0.13672993 -0.096374109 0.74080008
0.13804476 -0.092830293 0.74180001
0.14024763 -0.090914294 0.74000001
0.13869333 -0.089867622 0.74300003
0.1408162 -0.089867622 0.74300003
0.15052001 -0.08550667 0.74200004
0.15317288 -0.083292544 0.74116677
0.15763175 -0.082457148 0.74000001
0.16356669 -0.083266862 0.74220008
0.16751307 -0.082694292 0.74214292
0.17159763 -0.08243762 0.74300003
0.17642954 -0.083980009 0.74100006
0.18869619 -0.12603524 0.74766672
0.19243672 -0.12726381 0.74744451
0.12784874 -0.12120748 0.74716675
0.13219838 -0.12243673 0.74742866
0.13739763 -0.12244811 0.74750006
0.14136073 -0.12213263 0.74775004
0.1460381 -0.12181715 0.74800003
0.15229596 -0.12027168 0.74725002
0.15729652 -0.12076001 0.74733341
0.16250135 -0.12184154 0.74640006
0.16681202 -0.12215906 0.74660009
0.17216572 -0.12165429 0.74700004
0.17776039 -0.12177639 0.74600011
0.18236014 -0.12242191 0.74671441
0.18736885 -0.12379662 0.74642873
0.19157144 -0.12416667 0.74500006
0.1275527 -0.11761472 0.74544454
0.13211334 -0.11792286 0.74500006
0.13764763 -0.11990953 0.74500006
0.14261429 -0.11990954 0.74500006
0.14788505 -0.11889593 0.74500006
0.15254763 -0.11849049 0.74500006
0.15765619 -0.11905811 0.74500006
0.16177145 -0.11990953 0.74500006
0.16744764 -0.11990953 0.74500006
0.1724143 -0.11990954 0.74500006
0.17738095 -0.11990953 0.74500006
0.12558572 -0.11423334 0.74500006
0.13410001 -0.09862382 0.74500006
0.13551906 -0.097914293 0.74500006
0.13764763 -0.092238098 0.74500006
0.14390096 -0.086198099 0.74800003
0.14750783 -0.086344771 0.74680007
0.18282802 -0.086512201 0.74580002
0.1864204 -0.087601349 0.74540013
0.14390096 -0.084773339 0.74800003
0.14888763 -0.08406096 0.74800003
0.15219572 -0.082496434 0.74675006
0.15754041 -0.081156746 0.74657148
0.16238518 -0.080938101 0.74642867
0.16697463 -0.080649219 0.74500006
0.17270501 -0.081021674 0.74625003
0.17750052 -0.082524769 0.74700004
0.18300097 -0.084735565 0.74766672
0.18710575 -0.084660016 0.7470001
0.15886097 -0.079074293 0.74800003
0.1634278 -0.078037307 0.74716675
0.16700786 -0.077723578 0.7470001
0.17074287 -0.078968577 0.74700004
0.16740954 -0.074800007 0.74800003
0.13554001 -0.13123715 0.75300002
0.1780905 -0.13171524 0.75300002
0.18236616 -0.13217397 0.75288898
0.18751439 -0.13241361 0.75227273
0.19136003 -0.13130794 0.75066674
0.13331321 -0.12779105 0.75200003
0.13745648 -0.1274358 0.75171441
0.14265247 -0.12728834 0.75199997
0.14756601 -0.12740724 0.75240004
0.15252706 -0.12715429 0.75260013
0.15766653 -0.12685063 0.7525
0.16255081 -0.12674849 0.75188887
0.16751431 -0.12671146 0.75166667
0.17254454 -0.12744169 0.75174999
0.17743763 -0.12735644 0.75124997
0.18238574 -0.12731431 0.75100005
0.18686876 -0.12798217 0.75072736
0.1907143 -0.12928572 0.75000006
0.14285715 -0.12357143 0.75000006
0.14724492 -0.1229592 0.75000012
0.15227747 -0.12296699 0.75066674
0.15695593 -0.12305334 0.75057149
0.16214287 -0.12357144 0.75000012
0.16928573 -0.12357143 0.75000006
0.17214286 -0.12357144 0.75000012
0.1764286 -0.12357144 0.75000012
0.13840859 -0.091794297 0.75300002
0.13914859 -0.08733879 0.75257152
0.14189468 -0.087452374 0.75020003
0.14714287 -0.085000008 0.75000006
0.18914604 -0.087059692 0.75133342
0.19234763 -0.086422384 0.75150001
0.13965715 -0.083794288 0.75200003
0.14254233 -0.082372598 0.75211126
0.1471259 -0.082111172 0.75090915
0.15152906 -0.081482381 0.75050008
0.17690478 -0.0807143 0.75000012
0.18214287 -0.08214286 0.75000006
0.18694809 -0.082272731 0.75000012
0.19122288 -0.083794288 0.75200003
0.14271145 -0.07960286 0.75300002
0.14797868 -0.078434296 0.75279999
0.15277259 -0.077818483 0.75240004
0.15734892 -0.077169217 0.75166667
0.16201788 -0.076811194 0.75025004
0.1675 -0.075357147 0.75000006
0.17246972 -0.076794676 0.75080001
0.17724867 -0.078117765 0.75127274
0.18275002 -0.078832865 0.7525
0.18672746 -0.078558579 0.75216675
0.15705429 -0.073865719 0.75300002
0.16778255 -0.072203994 0.75200003
0.1707143 -0.073571436 0.75000006
0.16422573 -0.068845719 0.75300002
0.16566001 -0.06956286 0.75300002
0.14365906 -0.14077143 0.75800002
0.14510287 -0.14077143 0.75800002
0.1392051 -0.13776383 0.7573334
0.14217398 -0.13784382 0.75777775
0.1470881 -0.13734238 0.75799996
0.15232193 -0.13716191 0.75800002
0.15689398 -0.13692127 0.75800002
0.16242859 -0.13644001 0.75800008
0.16892573 -0.13644001 0.75800002
0.17253524 -0.13644001 0.75800008
0.17763887 -0.13665678 0.75760001
0.18308018 -0.13671128 0.75683331
0.18624541 -0.13722254 0.75699997
0.13446191 -0.13158572 0.75500005
0.13780123 -0.1330747 0.7552858
0.14226049 -0.13270158 0.75550014
0.1477444 -0.13291296 0.75600004
0.15280199 -0.13275205 0.75578582
0.15780199 -0.13258469 0.75658339
0.1625033 -0.1323517 0.7564286
0.1674899 -0.13280089 0.75664294
0.17247765 -0.13287112 0.75616664
0.17698301 -0.1337928 0.75585723
0.18191907 -0.13446191 0.75500005
0.13265334 -0.10021239 0.75699997
0.13332738 -0.097965971 0.75774997
0.1368008 -0.097013347 0.7568
0.13499621 -0.093125723 0.75800008
0.13682601 -0.092556611 0.7567144
0.13745464 -0.08784727 0.75762498
0.1392051 -0.082944766 0.7573334
0.14040001 -0.082080007 0.75600004
0.13896 -0.079920009 0.75600004
0.14247978 -0.077357858 0.75558341
0.14711715 -0.076075248 0.75500005
0.15171908 -0.075500004 0.75500005
0.16178572 -0.075500004 0.75500005
0.17815241 -0.075733334 0.7573334
0.18224096 -0.076353341 0.75633335
0.18625143 -0.076521903 0.75800002
0.14316574 -0.073263496 0.75666666
0.14749168 -0.072274663 0.75715393
0.1524314 -0.07225123 0.75650012
0.15725075 -0.07178168 0.75625002
0.16265839 -0.072279729 0.75571436
0.16610001 -0.074061908 0.75500005
0.17338236 -0.071854033 0.75654554
0.17797506 -0.072604388 0.75779998
0.18177563 -0.07320115 0.75800002
0.15376572 -0.067859054 0.75800002
0.15714262 -0.068196908 0.75774997
0.16224492 -0.067884639 0.75714284
0.16791275 -0.068207741 0.75587505
0.17109144 -0.067137145 0.75800002
0.14794716 -0.14214811 0.76150006
0.15273921 -0.1423713 0.7621429
0.15754953 -0.14230287 0.76233339
0.16218345 -0.14260153 0.76160008
0.16806765 -0.14211527 0.76300007
0.17249334 -0.14205334 0.7610001
0.17760131 -0.1424794 0.76037514
0.18201315 -0.14146952 0.76020002
0.14801906 -0.13933334 0.76000005
0.15272382 -0.13969526 0.76000011
0.15830778 -0.13924333 0.76016676
0.16292891 -0.13903271 0.76033348
0.16688043 -0.13832614 0.76042867
0.17238002 -0.13906334 0.76050007
0.17713676 -0.13918972 0.7604
0.18199685 -0.13927397 0.76033342
0.18601906 -0.13969524 0.76000005
0.12908439 -0.097501151 0.76060009
0.13209525 -0.096628577 0.76000005
0.12876604 -0.094460636 0.76100004
0.13224199 -0.092898838 0.76069242
0.13535239 -0.0904762 0.76000005
0.1332681 -0.089087144 0.76050007
0.13535239 -0.088304766 0.76000005
0.13892029 -0.077800274 0.76142865
0.14114286 -0.076000005 0.76000005
0.18966001 -0.076300003 0.76300001
0.19111335 -0.076300003 0.76300001
0.13987906 -0.074650481 0.76100004
0.14226982 -0.072327219 0.76271433
0.14630525 -0.070255719 0.76050007
0.17805715 -0.070209526 0.76000005
0.18326178 -0.071710214 0.76057154
0.18789795 -0.072847016 0.76281828
0.19111335 -0.073393337 0.76300001
0.14460668 -0.06903334 0.76300001
0.1477662 -0.067989767 0.76150006
0.15193504 -0.067069843 0.76088899
0.15822478 -0.066156201 0.76000005
0.1632731 -0.066612147 0.76025003
0.16742001 -0.065953337 0.76100004
0.17300969 -0.067608044 0.76100004
0.17734677 -0.06728296 0.76130009
0.18170492 -0.067684777 0.76185727
0.15296306 -0.063940965 0.76120007
0.15777594 -0.063627087 0.76042867
0.16273633 -0.063425839 0.76112503
0.16739412 -0.064024195 0.76220006
0.13756411 -0.076448441 0.76657146
0.13878986 -0.0723162 0.76700008
0.14110002 -0.07115715 0.76500005
0.18724287 -0.070671432 0.76500005
0.19088572 -0.070671432 0.76500005
0.13970287 -0.069485717 0.76800001
0.14301667 -0.068589687 0.76616669
0.1470402 -0.065853916 0.76660001
0.17289716 -0.0656562 0.76600003
0.18408 -0.066473335 0.76700002
0.18639097 -0.06788715 0.7665
0.19088572 -0.069214292 0.76500005
0.14919524 -0.062791757 0.76666677
0.15244128 -0.062223494 0.76666671
0.15746614 -0.061753474 0.76800007
0.16184716 -0.060996674 0.76550007
0.16691622 -0.061226353 0.76533341
0.17238815 -0.062669754 0.76723087
0.17791493 -0.063846365 0.76666671
0.18172416 -0.063334286 0.76733339
0.15725715 -0.059245717 0.76800001
0.16305502 -0.058129527 0.76775002
0.16690111 -0.058232225 0.76750004
0.13417399 -0.076775879 0.77266669
0.1359016 -0.077133343 0.7713334
0.13472286 -0.073619053 0.77300006
0.13657621 -0.072694287 0.77100003
0.13789034 -0.068821438 0.77150005
0.14221154 -0.066551141 0.77130002
0.14593334 -0.065266669 0.77000004
0.18817298 -0.066542476 0.77120006
0.19189715 -0.066906668 0.77199996
0.14398539 -0.063530169 0.77266669
0.14671619 -0.06213228 0.7715556
0.17732002 -0.061160006 0.77000004
0.18296668 -0.061233338 0.77000004
0.18724239 -0.062658101 0.77175003
0.19235606 -0.062996887 0.77300012
0.14840096 -0.05862413 0.77266669
0.15252858 -0.057524487 0.77157146
0.15720642 -0.05635966 0.77036375
0.16164763 -0.056257147 0.7700001
0.16812138 -0.05589987 0.77085721
0.17253867 -0.057266109 0.7709167
0.17708011 -0.057554897 0.77209091
0.18219896 -0.058607195 0.77244443
0.1862562 -0.059631433 0.77300006
0.1530281 -0.053707145 0.77250004
0.1567416 -0.053718738 0.77266669
0.16417049 -0.05374191 0.77300006
0.16779645 -0.053724527 0.77275002
0.17212136 -0.053152956 0.77300006
0.13291411 -0.077620007 0.7762
0.13507144 -0.078976199 0.77500004
0.13330464 -0.072836071 0.77700007
0.13507144 -0.070857152 0.77500004
0.13428476 -0.068997145 0.77900004
0.13718002 -0.067111671 0.77649999
0.13878669 -0.063186668 0.7782501
0.14191481 -0.062039688 0.7765556
0.18969049 -0.061261907 0.77500004
0.19190478 -0.061261907 0.77500004
0.14351757 -0.057883706 0.77811116
0.14706933 -0.05690629 0.77600002
0.17935716 -0.055357147 0.77500004
0.18269964 -0.055976193 0.77540004
0.18733473 -0.057077143 0.77611107
0.19190669 -0.057792388 0.77800006
0.14467144 -0.054159053 0.77900004
0.14795572 -0.053145241 0.77775002
0.15222509 -0.052001167 0.77633339
0.15741906 -0.051733017 0.77600002
0.16206001 -0.053428005 0.77700001
0.16713096 -0.051765714 0.77650005
0.17234525 -0.05129762 0.77500004
0.1776004 -0.052539241 0.77700001
0.18257691 -0.05282595 0.77850008
0.18696001 -0.054159053 0.77900004
0.19289526 -0.054159053 0.77900004
0.15283239 -0.049707621 0.77900004
0.15640667 -0.049665086 0.77833337
0.17271589 -0.049665086 0.77833337
0.17583144 -0.049707621 0.77900004
0.13273621 -0.070842862 0.78300005
0.13308191 -0.068404578 0.78240007
0.13554478 -0.066283815 0.78200006
0.1369271 -0.062456328 0.78200001
0.13909239 -0.058016196 0.78100002
0.1411383 -0.056960005 0.78080004
0.14315103 -0.053322457 0.78228581
0.14701602 -0.050791241 0.78200006
0.16310191 -0.051761907 0.78200006
0.18361525 -0.050436832 0.78266668
0.1879326 -0.052822482 0.78120005
0.19252285 -0.053249527 0.78200001
0.19637334 -0.053013336 0.78400004
0.14914191 -0.049216192 0.78300005
0.15204667 -0.047700007 0.7826001
0.15737209 -0.047334399 0.78066671
0.16222747 -0.04773508 0.78316677
0.16712895 -0.047871508 0.78261542
0.17203848 -0.047513526 0.78200001
0.17770261 -0.048443813 0.78257155
0.18120858 -0.049216192 0.78300005
0.15904 -0.044053335 0.78400004
0.16202667 -0.043680005 0.78400004
0.16949335 -0.043306671 0.78400004
0.17098668 -0.043306671 0.78400004
0.1339943 -0.065874293 0.78600001
0.13433525 -0.063040003 0.78800005
0.13595191 -0.061795719 0.78650004
0.13761781 -0.057629056 0.78790003
0.13949858 -0.054750003 0.78750002
0.14216381 -0.051745586 0.78742862
0.14597143 -0.050154287 0.78600001
0.18838286 -0.050804198 0.78680009
0.19262764 -0.050966673 0.78700006
0.19537716 -0.051651433 0.78600001
0.14352287 -0.048842859 0.78900003
0.14707325 -0.047273625 0.78790009
0.15245907 -0.045662861 0.78600001
0.15645143 -0.045662861 0.78600001
0.16810668 -0.045779049 0.78800005
0.17441715 -0.045662861 0.78600001
0.17778572 -0.046037149 0.78600001
0.18248126 -0.046824627 0.78757155
0.1867581 -0.048229337 0.78880006
0.14873549 -0.043568812 0.78875005
0.15271707 -0.043072596 0.78733337
0.15763906 -0.042487051 0.78820008
0.16349272 -0.042312384 0.78866673
0.16740362 -0.042788148 0.78822231
0.17293447 -0.042820197 0.78880006
0.17719756 -0.043252792 0.78885722
0.1810943 -0.044334289 0.78900003
0.15855144 -0.039825715 0.78900003
0.16756856 -0.039825715 0.78900003
0.12914573 -0.07099238 0.79300004
0.13093875 -0.070622548 0.79166669
0.13334002 -0.065540001 0.79100001
0.13367715 -0.064195246 0.79300004
0.13518763 -0.061174288 0.79300004
0.13367715 -0.057398099 0.79300004
0.13518763 -0.057398099 0.79300004
0.1380094 -0.053543545 0.79185718
0.14198478 -0.050600957 0.79300004
0.14350447 -0.047501273 0.79166669
0.14539334 -0.045953337 0.79100001
0.1880762 -0.046359051 0.79149997
0.19216178 -0.047958508 0.79214299
0.19511335 -0.048966669 0.79100001
0.14425048 -0.04455905 0.79300004
0.14741597 -0.042414289 0.79175001
0.1508562 -0.040730476 0.79200006
0.16313145 -0.040782861 0.79300004
0.17321715 -0.040379051 0.79250002
0.17811714 -0.041172381 0.79179996
0.18238594 -0.041936573 0.792
0.18624173 -0.04335067 0.79300004
0.15315829 -0.0383261 0.79220003
0.15749033 -0.037502944 0.79190916
0.16189715 -0.0377381 0.79250008
0.17552668 -0.03992667 0.79100001
0.18201239 -0.037761904 0.79300004
0.15784477 -0.033230476 0.7930001
0.16046001 -0.033900004 0.79100001
0.1782362 -0.030964764 0.79300004
0.1817103 -0.031871051 0.79300004
0.18503335 -0.032475241 0.79300004
0.12947144 -0.068900004 0.79500002
0.13232845 -0.067517832 0.79657149
0.13263838 -0.062361643 0.79714286
0.1322298 -0.057382725 0.7972858
0.13367572 -0.053926192 0.79750001
0.13701621 -0.052042861 0.79660004
0.14007144 -0.050728574 0.79500002
0.13908 -0.048640002 0.79800004
0.14178792 -0.047768306 0.79614294
0.19382858 -0.046185717 0.79500002
0.14356764 -0.043297913 0.79760003
0.14619105 -0.040837146 0.79700005
0.18787287 -0.041214451 0.79650009
0.19178906 -0.043439999 0.79675007
0.14847374 -0.037416331 0.79714286
0.15203525 -0.036227241 0.79580003
0.16883175 -0.036196195 0.79733342
0.17288744 -0.037154477 0.79620004
0.17766972 -0.036957532 0.79520005
0.1826037 -0.0369098 0.79557151
0.18738347 -0.03721131 0.79737502
0.19052097 -0.035675239 0.79700005
0.14896002 -0.032680005 0.79800004
0.15259986 -0.033404291 0.79716671
0.15550715 -0.033375718 0.79650003
0.16872004 -0.032680005 0.79800004
0.17277335 -0.03242667 0.79800004
0.17713334 -0.032909717 0.79620004
0.18247144 -0.034071431 0.79500002
0.18701431 -0.034071431 0.79500002
0.14820001 -0.029640002 0.79800004
0.16796002 -0.029640002 0.79800004
0.12940572 -0.067382857 0.80400002
0.13061145 -0.066450171 0.80200005
0.13175429 -0.063013338 0.80199999
0.13310128 -0.052424446 0.80166668
0.1359562 -0.051175244 0.80200005
0.134 -0.049771432 0.80400002
0.13742168 -0.048355479 0.80274999
0.14079431 -0.045572698 0.80200005
0.14164288 -0.042019244 0.80220002
0.192 -0.040380955 0.80000001
0.14237094 -0.037590999 0.80254549
0.14613335 -0.037028573 0.80000001
0.1897143 -0.037333336 0.80000001
0.19224001 -0.038141906 0.801
0.14361081 -0.033806354 0.80066669
0.14640699 -0.032788575 0.80066675
0.15314287 -0.0312381 0.80000007
0.15619048 -0.031238098 0.80000001
0.17244446 -0.033269845 0.80000007
0.15227214 -0.029102588 0.80114293
0.15619048 -0.029714288 0.80000001
0.16939333 -0.027528573 0.80299997
0.1726924 -0.029035874 0.80233335
0.17752382 -0.028952383 0.80000007
0.12972763 -0.065247625 0.80600005
0.12972763 -0.06294477 0.80600005
0.13279812 -0.047131814 0.80600017
0.13716419 -0.045926102 0.8064
0.13364065 -0.042836826 0.80800003
0.13755408 -0.042265609 0.806889
0.13466668 -0.039245717 0.80800003
0.1375162 -0.039180957 0.80666673
0.17240725 -0.026252573 0.80600005
0.17768732 -0.026665082 0.80766672
0.18083811 -0.026933335 0.80800003
0.17194667 -0.023796191 0.80600005
0.20731144 -0.039526671 0.84700006
0.20723812 -0.042904764 0.85000002
