# .PCD v0.7 - Point Cloud Data file format
VERSION 0.7
FIELDS x y z rgb
SIZE 4 4 4 4
TYPE F F F F
COUNT 1 1 1 1
WIDTH 593
HEIGHT 1
VIEWPOINT 0 0 0 1 0 0 0
POINTS 593
DATA ascii
-0.17512667 0.019620001 0.76300001 2.2683006e-38
-0.17201239 0.018581906 0.76300007 2.3141825e-38
-0.16806763 0.018581906 0.76300007 2.3141825e-38
-0.16257517 0.01829879 0.76300001 2.323366e-38
-0.15763454 0.018341906 0.76275003 2.323366e-38
-0.15246668 0.01778651 0.76233333 2.3325854e-38
-0.14737323 0.018450478 0.76144451 2.3325854e-38
-0.14271221 0.018001145 0.76220006 2.341769e-38
-0.13756788 0.0180104 0.76158333 2.341769e-38
-0.13248022 0.018136954 0.76180005 2.341769e-38
-0.12753034 0.019080479 0.76083344 2.3233659e-38
-0.17512667 0.022526667 0.76300001 2.2130194e-38
-0.17222002 0.02252667 0.76300001 2.2314225e-38
-0.16786 0.022526667 0.76300001 2.259009e-38
-0.16277334 0.02252667 0.76300001 2.259009e-38
-0.15741028 0.022486882 0.76166672 2.2681926e-38
-0.15290266 0.022464341 0.76088899 2.2681926e-38
-0.1476897 0.022442859 0.76016682 2.2681927e-38
-0.14265302 0.022447938 0.76033342 2.2038001e-38
-0.13752383 0.022438098 0.76000017 2.1853254e-38
-0.13232297 0.022610381 0.76090014 2.2773402e-38
-0.12764144 0.022193812 0.76150006 2.185145e-38
-0.16786002 0.025433337 0.76300001 2.1855768e-38
-0.16277334 0.025433335 0.76300001 2.2130553e-38
-0.15701334 0.025746666 0.7615 2.2406419e-38
-0.15259846 0.026984766 0.76200002 2.2222389e-38
-0.14745487 0.026680192 0.76120007 2.2130553e-38
-0.14247084 0.02699117 0.76218194 1.9549103e-38
-0.13756905 0.026281904 0.76125008 1.5397486e-38
-0.13216572 0.026143337 0.76250005 1.8261971e-38
-0.12862001 0.025433335 0.76300001 1.9632315e-38
-0.17188573 0.0095085725 0.76800001 2.341769e-38
-0.16822858 0.0095085725 0.76800001 2.341769e-38
-0.18797716 0.013897143 0.76800001 2.341769e-38
-0.18212573 0.013897143 0.76800001 2.341769e-38
-0.1772562 0.013522383 0.76750004 2.341769e-38
-0.17214535 0.012712764 0.76720011 2.341769e-38
-0.16732773 0.01242127 0.76722229 2.341769e-38
-0.16251849 0.012264001 0.76660007 2.341769e-38
-0.15752745 0.012544936 0.76672739 2.341769e-38
-0.15260319 0.012410794 0.76666671 2.341769e-38
-0.14792553 0.012716 0.76740009 2.341769e-38
-0.14253573 0.013156669 0.76750004 2.341769e-38
-0.1373518 0.01315012 0.76712501 2.341769e-38
-0.13233048 0.013891112 0.7676667 2.341769e-38
-0.12946287 0.013897143 0.76800001 2.341769e-38
-0.19503716 0.019722858 0.76700002 1.2626831e-38
-0.1917071 0.018089736 0.76666665 1.6597353e-38
-0.18744713 0.017503018 0.76583332 2.2222392e-38
-0.18283087 0.01733326 0.76576924 2.323366e-38
-0.17780478 0.017488573 0.76514298 2.3141825e-38
-0.17296287 0.015882857 0.76500005 2.341769e-38
-0.1672592 0.015924491 0.76500005 2.341769e-38
-0.16247146 0.015300001 0.76500005 2.341769e-38
-0.15751716 0.01559143 0.76500005 2.341769e-38
-0.153 0.015300001 0.76500005 2.341769e-38
-0.14826429 0.015664287 0.76500005 2.341769e-38
-0.14280002 0.015300001 0.76500005 2.341769e-38
-0.13770001 0.015300001 0.76500005 2.341769e-38
-0.13223107 0.01559943 0.76540011 2.341769e-38
-0.12739131 0.016588302 0.76685727 2.3141465e-38
-0.12458573 0.018942859 0.76500005 2.1302237e-38
-0.19503716 0.021914288 0.76700002 1.3549518e-38
-0.19161431 0.022585716 0.76499999 1.4384636e-38
-0.18724287 0.022585716 0.76499999 1.8167207e-38
-0.18287143 0.022585716 0.76499999 2.1486626e-38
-0.17850001 0.022585716 0.76499999 2.2037998e-38
-0.12604287 0.024042858 0.76500005 2.0744024e-38
-0.12458573 0.024042858 0.76500005 1.7614791e-38
-0.1929004 0.026471049 0.76780003 1.4292443e-38
-0.18715395 0.026684647 0.76762509 1.7523526e-38
-0.18240191 0.027032593 0.76711112 1.8910926e-38
-0.17763337 0.027377462 0.76650012 1.9732782e-38
-0.17255153 0.027797071 0.76646161 1.9826047e-38
-0.16746144 0.028326003 0.7665 2.0103707e-38
-0.16277842 0.028469421 0.7664445 2.185433e-38
-0.15807588 0.028764125 0.76566666 2.1946523e-38
-0.15227143 0.02987143 0.76500005 2.2128755e-38
-0.14790002 0.02987143 0.76500005 2.2313503e-38
-0.1428 0.02987143 0.76500005 2.2589008e-38
-0.13740858 0.029288573 0.76500005 2.0561087e-38
-0.13268572 0.029162385 0.76550007 2.1486272e-38
-0.12716801 0.028130917 0.76638472 2.0924812e-38
-0.12474858 0.026263811 0.76600003 1.7324195e-38
-0.16237715 0.03145143 0.76800001 1.7242815e-38
-0.15692401 0.032028385 0.76780003 1.650775e-38
-0.15276906 0.032162383 0.76750004 1.6044621e-38
-0.14760453 0.032152146 0.76725 1.8166171e-38
-0.14253572 0.032162383 0.76750004 1.9085967e-38
-0.1371852 0.032408465 0.76755559 1.8529557e-38
-0.13252315 0.032478508 0.76757151 1.585625e-38
-0.12873143 0.03145143 0.76800001 1.8358117e-38
-0.19160306 0.0089699058 0.77200001 1.7239181e-38
-0.18789388 0.0079268785 0.77233332 2.341769e-38
-0.18245715 0.0088280961 0.77250004 2.341769e-38
-0.17724976 0.0091930963 0.77225006 2.341769e-38
-0.17229018 0.0083311116 0.77200007 2.341769e-38
-0.16753049 0.0083830478 0.77220005 2.341769e-38
-0.16276605 0.0090549216 0.77100009 2.341769e-38
-0.15759702 0.0087131988 0.77171439 2.341769e-38
-0.15241647 0.0089152399 0.77100009 2.341769e-38
-0.14725253 0.0084998645 0.77142864 2.3140384e-38
-0.14265752 0.0088236909 0.77212507 2.2033677e-38
-0.13760859 0.0088301599 0.77266669 2.2591162e-38
-0.13242869 0.0083865719 0.77249998 2.341769e-38
-0.12710327 0.0085152388 0.77271438 2.3325854e-38
-0.12404811 0.0084661907 0.77300006 2.1757085e-38
-0.19656287 0.01398762 0.77300006 1.2346991e-38
-0.19320191 0.012488255 0.77133334 1.6597027e-38
-0.18754244 0.011980955 0.77022225 2.3234019e-38
-0.18267843 0.011738097 0.77033341 2.341769e-38
-0.17803273 0.011493651 0.77033341 2.341769e-38
-0.17380001 0.011000001 0.77000004 2.341769e-38
-0.14666668 0.011000001 0.77000004 2.341769e-38
-0.14226669 0.011000001 0.77000004 2.341769e-38
-0.13713335 0.011000002 0.7700001 2.341769e-38
-0.13273335 0.011733335 0.7700001 2.341769e-38
-0.12743032 0.012335932 0.77018183 2.3141466e-38
-0.12330668 0.012476191 0.77066672 1.9073001e-38
-0.19689755 0.017204193 0.77200001 1.244206e-38
-0.19384447 0.01588889 0.7700001 1.3562874e-38
-0.12613334 0.015400001 0.77000004 2.2682289e-38
-0.12393335 0.016133334 0.77000004 2.037198e-38
-0.19225857 0.02788524 0.77050006 1.4291336e-38
-0.1884667 0.028600004 0.7700001 1.8535018e-38
-0.19171572 0.031830478 0.77275008 1.4756214e-38
-0.1873506 0.031593971 0.77144444 1.752237e-38
-0.18255253 0.032544896 0.77157158 1.5767626e-38
-0.1773634 0.032644071 0.77100003 1.5300596e-38
-0.17261431 0.032733526 0.77060002 1.5395647e-38
-0.16807874 0.033029843 0.77066666 1.5208386e-38
-0.16280001 0.033733338 0.77000004 1.3270131e-38
-0.15803334 0.034100004 0.77000004 1.437932e-38
-0.15253335 0.034466669 0.77000004 1.6031988e-38
-0.14740002 0.034466669 0.7700001 1.7138338e-38
-0.14226668 0.034466669 0.77000004 1.7691867e-38
-0.13786668 0.034466669 0.77000004 1.7412414e-38
-0.132 0.034466669 0.77000004 1.1762645e-38
-0.12781122 0.033402964 0.77177781 1.4365997e-38
-0.19312732 0.03656413 0.77300012 1.5487422e-38
-0.18036668 0.036073335 0.77300006 1.5850818e-38
-0.17644033 0.03656413 0.77300012 1.4743425e-38
-0.17237379 0.036704354 0.77300012 1.4928899e-38
-0.16700715 0.036786195 0.77250004 1.538591e-38
-0.16252241 0.036770001 0.77216667 1.4375335e-38
-0.15739143 0.036774047 0.77225 1.5481337e-38
-0.15228213 0.037519362 0.77244443 1.7602179e-38
-0.1474501 0.037636384 0.7718001 1.7694742e-38
-0.14263563 0.037203811 0.77200001 1.7511794e-38
-0.13747017 0.037493225 0.77188891 1.6401477e-38
-0.13232785 0.037494686 0.77191675 1.177261e-38
-0.12732413 0.037535343 0.77277786 1.6026568e-38
-0.1244162 0.037545718 0.77300012 1.7237321e-38
-0.14502953 0.040490478 0.77300006 1.6865384e-38
-0.12662476 0.040490478 0.77300006 1.6041277e-38
-0.1244162 0.04122667 0.77300006 1.576542e-38
-0.18844381 0.0037095239 0.77900004 2.341769e-38
-0.18102477 0.0037095239 0.77900004 2.341769e-38
-0.17731525 0.0037095239 0.77900004 2.341769e-38
-0.17286383 0.0037095239 0.77900004 2.341769e-38
-0.16767049 0.0037095239 0.77900004 2.341769e-38
-0.16247717 0.0037095239 0.77900004 2.3417689e-38
-0.1568505 0.0030708844 0.77842867 2.231242e-38
-0.15196097 0.0029644449 0.77833337 2.1024199e-38
-0.14757524 0.0029660321 0.77866668 1.9917129e-38
-0.14271173 0.0028602721 0.77871436 1.9733096e-38
-0.1374739 0.0030681635 0.77785712 1.9824948e-38
-0.13296059 0.0031121909 0.77820003 2.341769e-38
-0.12983334 0.0037095239 0.77900004 2.341769e-38
-0.19116668 0.0066428576 0.77500004 1.8917751e-38
-0.18663411 0.0057632388 0.77580005 2.341769e-38
-0.18293749 0.0059244456 0.77766675 2.341769e-38
-0.1778581 0.0063245511 0.77633333 2.341769e-38
-0.1729362 0.0059114294 0.77600002 2.341769e-38
-0.16737239 0.005807484 0.7761429 2.341769e-38
-0.16245715 0.006283096 0.77625 2.341769e-38
-0.15748541 0.0059142867 0.77633333 2.3325854e-38
-0.15304923 0.0059142858 0.77633333 2.3233297e-38
-0.14793539 0.0057993205 0.77500004 2.2308449e-38
-0.14257431 0.0059092073 0.77566671 1.7417107e-38
-0.13741882 0.0059097623 0.77575004 2.0656843e-38
-0.13191953 0.0055423812 0.77600002 2.341769e-38
-0.12777081 0.0056720637 0.77700007 2.3417689e-38
-0.1238981 0.0059352387 0.77900004 2.0933448e-38
-0.19338098 0.033583336 0.77500004 1.4568688e-38
-0.1882143 0.034690477 0.77500004 1.3737456e-38
-0.12555335 0.033793338 0.77700007 1.6588011e-38
-0.19147359 0.037925474 0.77700001 1.3917553e-38
-0.1872744 0.037752062 0.77722222 1.1033596e-38
-0.18267049 0.03786524 0.77575004 1.3543415e-38
-0.17860256 0.038185399 0.77600002 1.6034488e-38
-0.17283297 0.038884383 0.7762 1.584976e-38
-0.16754763 0.03911905 0.77500004 1.5850118e-38
-0.16238096 0.03911905 0.77500004 1.5022152e-38
-0.15721431 0.03911905 0.77500004 1.6037377e-38
-0.14097621 0.03911905 0.77500004 1.7515745e-38
-0.19264796 0.041299373 0.77900004 1.5117887e-38
-0.18770191 0.040804766 0.77900004 1.1314811e-38
-0.18250859 0.041299373 0.77900004 1.4556498e-38
-0.17683715 0.041356385 0.77820003 1.4838129e-38
-0.17264193 0.041494288 0.77800006 1.5023954e-38
-0.16745524 0.041494295 0.778 1.5115798e-38
-0.16226858 0.041494291 0.77800006 1.4472595e-38
-0.15726064 0.042217463 0.77766669 1.4104886e-38
-0.15243888 0.042182289 0.77700001 1.5119045e-38
-0.14766827 0.042158414 0.7765556 1.6041e-38
-0.14256002 0.04234153 0.77720016 1.6134276e-38
-0.13727665 0.041998535 0.77609098 1.631754e-38
-0.13238509 0.042157989 0.77655566 1.2698504e-38
-0.12809022 0.042556874 0.7761429 1.2979788e-38
-0.14763905 0.045256194 0.77900004 1.5583231e-38
-0.14170381 0.045256194 0.77900004 1.5119774e-38
-0.13725239 0.045256194 0.77900004 1.4189506e-38
-0.13317192 0.045627147 0.77900004 1.1945523e-38
-0.12736033 0.045750797 0.77900004 1.2982331e-38
-0.18741335 -0.00074666669 0.78400004 2.341769e-38
-0.18293335 -0.00112 0.78400004 2.341769e-38
-0.17765072 -0.0014930954 0.78375 2.323366e-38
-0.1723327 -0.0014926984 0.78333342 2.2865239e-38
-0.16767906 -0.0012441271 0.78366673 2.0746201e-38
-0.16232534 -0.001344 0.78400004 2.2958152e-38
-0.15714477 -0.00074476202 0.78200006 2.1117488e-38
-0.15223506 -0.0013428571 0.78280008 2.1205721e-38
-0.14709143 -0.0016790478 0.78299999 2.1942566e-38
-0.14272219 -0.0018127892 0.78342861 2.1944724e-38
-0.13738668 -0.00074666669 0.78400004 2.2590812e-38
-0.13186134 -0.001344 0.78400004 2.341769e-38
-0.12842667 -0.0014933334 0.78400004 2.341769e-38
-0.19040002 0.00074666669 0.78400004 2.057079e-38
-0.1873062 0.00186 0.78200001 2.3234019e-38
-0.18290763 0.002044762 0.78149998 2.341769e-38
-0.17745501 0.0016730954 0.78125006 2.3325854e-38
-0.17227539 0.0015934695 0.78114295 2.3141825e-38
-0.16728508 0.0014863494 0.78066671 2.3234018e-38
-0.16249853 0.0013806805 0.78114295 2.2497897e-38
-0.15768763 0.0011152382 0.78100002 2.0010796e-38
-0.15228574 0.00074285723 0.78000009 1.8261238e-38
-0.14782858 0.00074285723 0.78000009 1.9548366e-38
-0.14262858 0.00074285717 0.78000003 1.9455817e-38
-0.13742858 0.00074285723 0.78000009 2.1210395e-38
-0.13184509 0.0012387303 0.78066671 2.341769e-38
-0.12820826 0.002233651 0.78266668 2.341769e-38
-0.19190364 0.042662479 0.78040004 1.4840587e-38
-0.18779269 0.043256063 0.78114295 1.1586063e-38
-0.18257716 0.043301713 0.78120005 1.4464646e-38
-0.17802906 0.043485239 0.78050005 1.5204741e-38
-0.17234288 0.043828573 0.78000003 1.4746654e-38
-0.16742733 0.043903496 0.78133339 1.4655888e-38
-0.16282605 0.043866035 0.78066671 1.4474033e-38
-0.1597143 0.043828573 0.78000003 1.4013786e-38
-0.19189334 0.04554667 0.78400004 1.4821912e-38
-0.18741336 0.045546673 0.7840001 1.2228596e-38
-0.18265389 0.046596743 0.78371435 1.5850108e-38
-0.17766303 0.047111344 0.7829091 1.5941977e-38
-0.17246877 0.046808578 0.7826001 1.5117965e-38
-0.16734008 0.047144074 0.7834546 1.5669695e-38
-0.16229399 0.046974607 0.78288895 1.6779268e-38
-0.15740173 0.046761718 0.78179997 1.5485294e-38
-0.1524166 0.047083624 0.78220004 1.5117597e-38
-0.14746 0.047047142 0.78100008 1.622752e-38
-0.14254223 0.047515772 0.78088897 1.6870377e-38
-0.13762434 0.048355773 0.78111118 1.5020684e-38
-0.1322823 0.047914665 0.78120011 1.2042343e-38
-0.12900858 0.047726668 0.78300005 1.2048856e-38
-0.17770667 0.05002667 0.78400004 1.4558318e-38
-0.17397335 0.05002667 0.78400004 1.5313505e-38
-0.16053334 0.05002667 0.78400004 1.6961886e-38
-0.15680002 0.05002667 0.78400004 1.6316114e-38
-0.15232001 0.05002667 0.78400004 1.5862351e-38
-0.14709336 0.050773334 0.78400004 1.6230028e-38
-0.14291202 0.050922669 0.78400004 1.6415152e-38
-0.13738668 0.051520005 0.78400004 1.4556463e-38
-0.13290668 0.050773337 0.78400004 1.222489e-38
-0.19137144 -0.0060038101 0.78800005 1.7792334e-38
-0.1876774 -0.006006191 0.78825009 2.286595e-38
-0.18248145 -0.0060080956 0.78850007 2.341769e-38
-0.17743404 -0.0061121094 0.78800017 2.3325854e-38
-0.17257351 -0.0060030166 0.78783339 2.3140746e-38
-0.1678143 -0.0058983685 0.78814298 2.0742956e-38
-0.1625713 -0.0059021772 0.78871435 2.3140739e-38
-0.15704858 -0.0052600009 0.78900003 2.2498259e-38
-0.15254003 -0.0052600009 0.78900003 2.176178e-38
-0.14784478 -0.0060044453 0.78800005 2.2957794e-38
-0.14296725 -0.0055508576 0.7876001 2.341769e-38
-0.13739525 -0.0052555557 0.78833342 2.341769e-38
-0.1328343 -0.0052533336 0.78800005 2.341769e-38
-0.12762073 -0.0052550002 0.78825003 2.3325854e-38
-0.19177754 -0.0019497145 0.78720009 1.7617675e-38
-0.18802752 -0.002676191 0.78657156 2.341769e-38
-0.18290097 -0.00324381 0.78600001 2.341769e-38
-0.17741144 -0.0037428576 0.78600001 2.3325854e-38
-0.17292003 -0.0037428576 0.78600001 2.3049982e-38
-0.16718099 -0.0032438096 0.78600001 2.074475e-38
-0.16227144 -0.0033733337 0.78700006 2.3325854e-38
-0.1577494 -0.0031066672 0.78714293 2.2866315e-38
-0.1527143 -0.00314781 0.78680009 2.2222745e-38
-0.14821716 -0.0037428574 0.78600001 2.2866677e-38
-0.14222857 -0.0037428574 0.78600001 2.3234019e-38
-0.13773715 -0.0029942859 0.78600001 2.341769e-38
-0.13287145 -0.0033685714 0.78600001 2.341769e-38
-0.12685934 -0.0024620411 0.78685725 2.3325496e-38
-0.12382858 -0.00075047626 0.78800005 2.2771953e-38
-0.19238287 0.0014971429 0.78600001 1.9092383e-38
-0.12576002 0.0022457147 0.78600001 2.3049629e-38
-0.12382858 0.00075047626 0.78800005 2.2492495e-38
-0.19612287 0.048842859 0.78900003 1.5674654e-38
-0.19269757 0.047667351 0.78728575 1.5577428e-38
-0.18805145 0.047949843 0.78666675 1.3165978e-38
-0.18414858 0.048657145 0.78600001 1.5004525e-38
-0.19687431 0.05234953 0.78900003 1.5489548e-38
-0.19236572 0.050345719 0.78900003 1.5022842e-38
-0.18702698 0.051075883 0.78866673 1.0659836e-38
-0.18216634 0.052312993 0.7877273 1.4560471e-38
-0.1773918 0.053131342 0.7877273 1.4470782e-38
-0.17248103 0.052746743 0.78741682 1.5575685e-38
-0.16758677 0.052259795 0.78707153 1.6036677e-38
-0.16283931 0.052691601 0.78727275 1.6311827e-38
-0.15806755 0.053099915 0.78727281 1.6218892e-38
-0.15260988 0.053050395 0.78654552 1.622535e-38
-0.14746858 0.05389715 0.78600001 1.687216e-38
-0.14297716 0.05389715 0.78600001 1.7977419e-38
-0.13773715 0.053897146 0.78600001 1.5202918e-38
-0.13231303 0.053042758 0.78688896 1.1858998e-38
-0.12904096 0.052518807 0.78775007 1.2239688e-38
-0.1958743 0.056285717 0.78800005 1.4939249e-38
-0.16756856 0.056357145 0.78900003 1.6127779e-38
-0.16230857 0.056357145 0.78900003 1.6589118e-38
-0.15667287 0.056732859 0.78900003 1.67753e-38
-0.15247527 0.057084769 0.78866673 1.6963997e-38
-0.14763726 0.057974197 0.78850007 1.7611508e-38
-0.14260848 0.057794955 0.78810006 1.7331694e-38
-0.1377781 0.057430379 0.78766668 1.2903449e-38
-0.13277262 0.057654291 0.78875005 1.2044495e-38
-0.12879486 0.057258863 0.78900003 1.2700674e-38
-0.1880762 -0.0086695235 0.79149997 2.1854334e-38
-0.18242049 -0.0082919057 0.79150003 2.341769e-38
-0.17748098 -0.00830762 0.7930001 2.341769e-38
-0.17294954 -0.00830762 0.7930001 2.341769e-38
-0.16766286 -0.00830762 0.79300004 2.194257e-38
-0.16189715 -0.0079257153 0.79250002 2.3325134e-38
-0.15764573 -0.0075438097 0.792 2.2774123e-38
-0.15271607 -0.0076529258 0.79214293 2.2221672e-38
-0.14680192 -0.0086800009 0.79250002 2.3417689e-38
-0.14248233 -0.0078627216 0.79157144 2.341769e-38
-0.13776745 -0.0084514301 0.79220003 2.341769e-38
-0.13256304 -0.0081621651 0.79209107 2.341769e-38
-0.12793143 -0.0071704765 0.79250002 2.3325854e-38
-0.12580667 -0.0037666669 0.79100001 2.3234019e-38
-0.12360731 -0.0017622223 0.7930001 2.0839455e-38
-0.19601735 0.053486675 0.79100001 1.5580322e-38
-0.19210002 0.052733343 0.79100001 1.2987376e-38
-0.18727869 0.054089338 0.79100001 1.0934594e-38
-0.18456668 0.054993335 0.79100001 1.178377e-38
-0.19511335 0.056500003 0.79100001 1.5304807e-38
-0.19280152 0.0562113 0.7930001 1.3729208e-38
-0.1878655 0.057209287 0.7930001 1.0751968e-38
-0.18229143 0.057497147 0.79175001 1.48309e-38
-0.17723227 0.058073122 0.79188889 1.5391652e-38
-0.17265874 0.058056831 0.79166669 1.5574615e-38
-0.16780451 0.058953613 0.79214293 1.5483133e-38
-0.16239715 0.058652386 0.79100001 1.6590208e-38
-0.15774801 0.058910668 0.79100001 1.6866059e-38
-0.15292668 0.059513342 0.79100007 1.7334911e-38
-0.13635334 0.059513338 0.79100001 1.2977644e-38
-0.13258667 0.059513338 0.79100001 1.1956261e-38
-0.12806667 0.059513338 0.79100001 1.3626232e-38
-0.15784478 0.061174288 0.7930001 1.6958964e-38
-0.1525581 0.061551906 0.79300004 1.7425319e-38
-0.14802687 0.06141467 0.79220003 1.779338e-38
-0.14262065 0.061878096 0.79233336 1.7054022e-38
-0.1370002 0.061476387 0.79300004 1.2160792e-38
-0.13246001 0.061513338 0.79250002 1.1214409e-38
-0.12839049 0.061174288 0.79300004 1.3440767e-38
-0.16492002 -0.01596 0.79800004 2.341769e-38
-0.15124001 -0.01596 0.79800004 2.341769e-38
-0.1474247 -0.017478336 0.79791665 2.341769e-38
-0.14364001 -0.016720001 0.79800004 2.341769e-38
-0.18772003 -0.012160001 0.79800004 2.3417682e-38
-0.18207429 -0.01205143 0.79800004 2.341769e-38
-0.17700636 -0.012155239 0.79766673 2.341769e-38
-0.17241192 -0.012152858 0.79750007 2.341769e-38
-0.16786668 -0.01291344 0.79755557 2.341769e-38
-0.16289164 -0.012905143 0.79699999 2.341769e-38
-0.15738627 -0.012024627 0.79614288 2.341733e-38
-0.15246084 -0.012479592 0.79757148 2.2130915e-38
-0.14759663 -0.013054286 0.79772729 2.341733e-38
-0.14250794 -0.0125727 0.79733336 2.341769e-38
-0.13730145 -0.012138572 0.79650009 2.341769e-38
-0.13256858 -0.012467348 0.79671437 2.341769e-38
-0.12836762 -0.01291344 0.79755557 2.341769e-38
-0.18716985 -0.009851112 0.79566669 2.341769e-38
-0.1829305 -0.0098676197 0.79700011 2.341769e-38
-0.17822826 -0.0098593663 0.79633331 2.341769e-38
-0.17262858 -0.0098428577 0.79500002 2.341769e-38
-0.16732858 -0.0098428577 0.79500002 2.2406423e-38
-0.16278574 -0.0098428577 0.79500002 2.3325854e-38
-0.15748572 -0.0098428577 0.79500002 2.3234018e-38
-0.15218572 -0.0098428577 0.79500002 2.1668862e-38
-0.14840001 -0.0098428577 0.79500002 2.3417689e-38
-0.14310001 -0.0098428577 0.79500002 2.341769e-38
-0.12738524 -0.0085925404 0.79616666 2.3325853e-38
-0.12388001 -0.0053200005 0.79800004 2.2131629e-38
-0.19171652 0.058854923 0.79566669 1.197101e-38
-0.18732922 0.059914604 0.79633331 1.0568655e-38
-0.1817143 0.059814289 0.79500002 1.6314659e-38
-0.19532001 0.062320001 0.79800004 1.5028929e-38
-0.19241819 0.062527291 0.79800004 1.280652e-38
-0.18766795 0.063062862 0.79777777 1.0202762e-38
-0.18258886 0.063041434 0.79750001 1.4738742e-38
-0.17720573 0.062866293 0.79720002 1.5391669e-38
-0.17218395 0.062958524 0.79644442 1.6033793e-38
-0.16751525 0.062914401 0.7958889 1.575972e-38
-0.16272743 0.063090675 0.79620004 1.5944463e-38
-0.15733021 0.063561231 0.79585719 1.696291e-38
-0.15264249 0.06381619 0.79580003 1.6961123e-38
-0.14748782 0.063816205 0.79580003 1.6315395e-38
-0.1420303 0.064119056 0.79580003 1.7145496e-38
-0.13748439 0.063816197 0.79580003 1.5297572e-38
-0.13226305 0.063783817 0.79540008 9.655364e-39
-0.12871429 0.063600004 0.79500002 1.306768e-38
-0.17632002 0.066120006 0.79800004 1.5019308e-38
-0.17221603 0.066728003 0.79800004 1.5845816e-38
-0.16826402 0.066728011 0.79800004 1.5021452e-38
-0.162184 0.066424005 0.79800004 1.5671465e-38
-0.15694001 0.066500001 0.79800004 1.6506255e-38
-0.15272844 0.066866197 0.79783338 1.6591626e-38
-0.14729366 0.067443497 0.79766667 1.7325605e-38
-0.14220932 0.067265406 0.79755557 1.7878047e-38
-0.13750255 0.067612387 0.79766667 1.6214881e-38
-0.13294445 0.067612395 0.79766667 9.7449995e-39
-0.12814508 0.06791313 0.79722226 1.316524e-38
-0.13300002 0.070680007 0.79800004 1.250115e-38
-0.12768002 0.070680007 0.79800004 1.3072671e-38
-0.1707543 -0.020674286 0.80400002 2.341769e-38
-0.16922286 -0.020674286 0.80400002 2.341769e-38
-0.15645081 -0.020605717 0.80133337 2.341769e-38
-0.15161906 -0.020571429 0.80000007 2.3417684e-38
-0.14857143 -0.020571429 0.80000001 2.3417683e-38
-0.18713172 -0.016914016 0.80200011 2.2773038e-38
-0.18270223 -0.017583493 0.80266666 2.341769e-38
-0.17801736 -0.017574603 0.80222231 2.341769e-38
-0.17248677 -0.017395135 0.80177778 2.341769e-38
-0.16750458 -0.017539684 0.80066675 2.341769e-38
-0.16233082 -0.017529102 0.80022228 2.341769e-38
-0.15771429 -0.01752381 0.80000007 2.341769e-38
-0.15333334 -0.017714286 0.80000007 2.341769e-38
-0.1417143 -0.016000001 0.80000001 2.341769e-38
-0.13801843 -0.016013335 0.80066669 2.341769e-38
-0.13257143 -0.016000001 0.80000001 2.341769e-38
-0.12800002 -0.016000001 0.80000001 2.341769e-38
-0.19123811 -0.013714286 0.80000001 1.9262413e-38
-0.18697146 -0.014171429 0.80000001 2.3415528e-38
-0.18209526 -0.014476191 0.80000007 2.341769e-38
-0.17752382 -0.014476191 0.80000007 2.341769e-38
-0.1729524 -0.014476191 0.80000007 2.341769e-38
-0.16076192 -0.014476191 0.80000001 2.341769e-38
-0.15771429 -0.014476191 0.80000007 2.341769e-38
-0.15390477 -0.014476191 0.80000001 2.341769e-38
-0.14095239 -0.014476191 0.80000001 2.341769e-38
-0.13790476 -0.014476191 0.80000007 2.341769e-38
-0.13409525 -0.014476191 0.80000001 2.341769e-38
-0.12581906 -0.0083879372 0.80066669 2.3325496e-38
-0.12389048 -0.0072619054 0.80300003 2.1482659e-38
-0.12571429 -0.003809524 0.80000001 2.3142178e-38
-0.12419049 -0.003809524 0.80000001 2.111605e-38
-0.18209524 0.064761907 0.80000001 1.530307e-38
-0.19229405 0.067979224 0.80036372 1.3270019e-38
-0.18734439 0.067794673 0.8016001 1.1121865e-38
-0.18234858 0.067904986 0.8011111 1.4466132e-38
-0.17786886 0.068294428 0.80057156 1.4654482e-38
-0.17333335 0.068952382 0.80000001 1.6037733e-38
-0.16711114 0.068825401 0.80000007 1.6218179e-38
-0.1625905 0.06872382 0.80000001 1.5666457e-38
-0.15801907 0.06872382 0.80000001 1.6034509e-38
-0.15238097 0.069333337 0.80000001 1.6221776e-38
-0.14857143 0.069333337 0.80000001 1.7145561e-38
-0.14400001 0.069333337 0.80000001 1.7970254e-38
-0.19211583 0.071681529 0.80240005 1.3454733e-38
-0.18913144 0.071211435 0.80400002 1.1678908e-38
-0.18249524 0.071721911 0.80400008 1.4740156e-38
-0.17784764 0.072035931 0.80342859 1.52051e-38
-0.17283526 0.071633339 0.80300009 1.6127772e-38
-0.16729388 0.0722294 0.80314291 1.7784406e-38
-0.16246669 0.072753154 0.80240005 1.5941234e-38
-0.15734363 0.0725642 0.80199999 1.4559403e-38
-0.15226495 0.07239373 0.80180007 1.5391305e-38
-0.14725269 0.072483189 0.80111116 1.6774957e-38
-0.14245526 0.072680391 0.8016001 1.7142296e-38
-0.13754921 0.072462648 0.80088896 1.5842161e-38
-0.13258786 0.072876908 0.8012501 1.2404983e-38
-0.12750256 0.073295563 0.80166674 1.3536158e-38
-0.16233143 0.075805716 0.80400002 1.6220332e-38
-0.15697144 0.075805716 0.80400002 1.5202269e-38
-0.15390858 0.075805716 0.80400002 1.58469e-38
-0.14778286 0.075805716 0.80400008 1.6861774e-38
-0.14318858 0.075805716 0.80400008 1.7418514e-38
-0.13706288 0.075805716 0.80400008 1.5655242e-38
-0.13170287 0.075805716 0.80400002 1.1950488e-38
-0.1866865 -0.022316191 0.80800003 2.2682981e-38
-0.18245888 -0.022443239 0.8070001 2.3416591e-38
-0.17753954 -0.022097617 0.8070001 2.3416244e-38
-0.17301428 -0.022467144 0.80650008 2.3325122e-38
-0.17578477 -0.019190477 0.80600005 2.341769e-38
-0.17424953 -0.019190477 0.80600005 2.341769e-38
-0.12512191 -0.00844381 0.80600005 2.2222394e-38
-0.12358668 -0.00844381 0.80600005 2.0928395e-38
-0.1919402 0.07422591 0.80680007 1.3353189e-38
-0.18747264 0.073185012 0.80675012 1.1305511e-38
-0.18302509 0.073466353 0.80633342 1.4464292e-38
-0.17732 0.074459061 0.80600011 1.6127048e-38
-0.17233048 0.074075244 0.80600005 1.6220693e-38
-0.1688762 0.074459054 0.80600005 1.6867851e-38
-0.18622477 0.076182865 0.80800003 1.0837773e-38
-0.18222669 0.076120012 0.80733341 1.5478088e-38
-0.17746794 0.076057151 0.80666673 1.5669325e-38
-0.17204724 0.076723054 0.80720007 1.5300198e-38
-0.1670716 0.076679736 0.8062858 1.6403652e-38
-0.16204879 0.077568762 0.8064 1.6494051e-38
-0.15750834 0.077795006 0.80675012 1.6772071e-38
-0.15241207 0.077957898 0.806889 1.7046862e-38
-0.14720982 0.078271568 0.80685729 1.7231975e-38
-0.14194123 0.078052253 0.80685729 1.7692586e-38
-0.13723238 0.078222103 0.80680007 1.6300251e-38
-0.13277 0.078203343 0.8070001 1.2223151e-38
-0.12823784 0.077118918 0.8062858 1.3164528e-38
-0.12851049 0.080800004 0.80800003 1.3262486e-38
-0.17820001 -0.023914287 0.81000006 2.3417647e-38
-0.1958943 0.077429533 0.81300002 1.4938153e-38
-0.1927181 0.078173332 0.81266671 1.3634473e-38
-0.18814097 0.078549668 0.8120001 1.0565107e-38
-0.18233739 0.078807861 0.81124997 1.5110043e-38
-0.17687526 0.07878381 0.81100005 1.5114002e-38
-0.1724143 0.079071432 0.81000006 1.4746664e-38
-0.1674 0.079457149 0.81000012 1.5759363e-38
-0.162 0.079457149 0.81000006 1.6951079e-38
-0.13962857 0.079457149 0.81000006 1.8143843e-38
-0.1868324 0.081400007 0.81400001 1.1494606e-38
-0.18218097 0.081400007 0.81400001 1.483597e-38
-0.17745745 0.082141913 0.8136667 1.5113632e-38
-0.172525 0.082681671 0.81325006 1.4928879e-38
-0.16762726 0.082964391 0.81260008 1.5114714e-38
-0.16251944 0.082808964 0.81260014 1.6037024e-38
-0.15725657 0.0825743 0.8118 1.5943032e-38
-0.15234667 0.082749218 0.8120001 1.6035951e-38
-0.14770669 0.082749218 0.8120001 1.6127798e-38
-0.14294922 0.082680017 0.81133336 1.7140499e-38
-0.13745604 0.082629055 0.81083339 1.6111922e-38
-0.13202287 0.082612067 0.81066668 1.1762537e-38
-0.1283143 0.083571434 0.81000012 1.3074836e-38
-0.16512573 0.086051434 0.81400001 1.4745574e-38
-0.16202478 0.086051434 0.81400001 1.5023245e-38
-0.15737335 0.086051434 0.81400001 1.5665719e-38
-0.15272193 0.086051434 0.81400001 1.6770278e-38
-0.14807048 0.086051434 0.81400001 1.6949658e-38
-0.14253306 0.086715922 0.81400007 1.8060637e-38
-0.13721715 0.086826675 0.81400007 1.6767364e-38
-0.1320489 0.087085091 0.81400007 1.6587927e-38
-0.1282244 0.087912008 0.81400007 1.6229232e-38
-0.12713906 0.090702862 0.81400001 1.4850672e-38
-0.1963762 0.079947621 0.81500006 1.4386443e-38
-0.19634858 0.083595246 0.81650007 1.3650323e-38
-0.19241188 0.082967885 0.81554556 1.4191577e-38
-0.18721557 0.083897792 0.81566668 1.6402091e-38
-0.18255463 0.083897792 0.81566679 1.6219951e-38
-0.17774764 0.08460477 0.81500006 1.5848313e-38
-0.17464288 0.08460477 0.81500006 1.5296934e-38
-0.19578001 0.086580008 0.81900007 1.4200986e-38
-0.19293144 0.086917147 0.81850004 1.5027509e-38
-0.18798003 0.086580008 0.81900012 1.7789445e-38
-0.18244605 0.087584764 0.81866682 1.6403631e-38
-0.17740457 0.087927058 0.81700003 1.511326e-38
-0.17233664 0.087854713 0.81633335 1.538986e-38
-0.16758084 0.087806888 0.81588894 1.5483115e-38
-0.16242287 0.088595241 0.8160001 1.5850853e-38
-0.15756668 0.088485733 0.81500006 1.7234476e-38
-0.15290955 0.088485733 0.81500006 1.8431565e-38
-0.14780886 0.088596612 0.81500012 1.8800355e-38
-0.14243096 0.088873819 0.81500006 1.8805351e-38
-0.13738573 0.089261912 0.81500006 1.5766574e-38
-0.13376352 0.088744454 0.81500006 1.6783849e-38
-0.12962382 0.089261912 0.81500006 1.6327935e-38
-0.17550001 0.091260009 0.81900007 1.6769068e-38
-0.17238002 0.091260009 0.81900012 1.6954939e-38
-0.16692001 0.091260009 0.81900007 1.7602467e-38
-0.15222515 0.0925522 0.81800002 1.8343999e-38
-0.14718086 0.092670597 0.81766683 1.8342548e-38
-0.1423144 0.09254466 0.81655562 1.7696834e-38
-0.13764751 0.09254466 0.81655562 1.2723038e-38
-0.13264534 0.092682861 0.81640005 7.2104317e-39
-0.12857126 0.092504196 0.81620008 1.2088827e-38
-0.19625811 0.088355243 0.82100004 1.4752357e-38
-0.19208795 0.089137159 0.82100004 1.438289e-38
-0.18687525 0.089137152 0.82100004 1.695503e-38
