# .PCD v0.7 - Point Cloud Data file format
VERSION 0.7
FIELDS x y z rgb
SIZE 4 4 4 4
TYPE F F F F
COUNT 1 1 1 1
WIDTH 826
HEIGHT 1
VIEWPOINT 0 0 0 1 0 0 0
POINTS 826
DATA ascii
-0.09093067 -0.057421338 0.85400003 2.1578821e-38
-0.087026671 -0.057746675 0.85400003 2.3049628e-38
-0.082350008 -0.057543341 0.85400003 2.2958154e-38
-0.078893341 -0.056933336 0.85400003 2.0293467e-38
-0.090280011 -0.052866668 0.85400003 2.0749427e-38
-0.087026663 -0.052866671 0.85400003 2.1485908e-38
-0.082688898 -0.053408891 0.85400003 2.2039433e-38
-0.086213335 -0.049613338 0.85400003 2.2773763e-38
-0.087434292 -0.066188574 0.85800004 2.341769e-38
-0.096708857 -0.062645718 0.85742861 2.2313507e-38
-0.092217989 -0.062839791 0.85688889 2.3325854e-38
-0.087275773 -0.062806778 0.85644448 2.341769e-38
-0.082424134 -0.062839791 0.85688889 2.341769e-38
-0.078112386 -0.062327623 0.85733336 2.3323339e-38
-0.074360006 -0.061285719 0.85800004 1.7674697e-38
-0.096867152 -0.058120001 0.85650003 2.0841258e-38
-0.093344763 -0.058289528 0.85600007 2.1394432e-38
-0.080708578 -0.059512384 0.85600007 2.341769e-38
-0.077007085 -0.058134697 0.85628581 1.4479467e-38
-0.074360006 -0.058017146 0.85800004 7.8360246e-39
-0.095958583 -0.053490959 0.85750002 2.1207891e-38
-0.092973664 -0.053010486 0.85633337 2.1301876e-38
-0.081252076 -0.051903497 0.85600013 1.9061929e-38
-0.07771834 -0.053240716 0.85675001 1.2536578e-38
-0.074360006 -0.054748576 0.85800004 1.5232774e-38
-0.092026666 -0.048359048 0.85699999 1.7984678e-38
-0.087463409 -0.047633197 0.85600007 2.1302961e-38
-0.082380958 -0.048123598 0.85644448 1.8898699e-38
-0.07926286 -0.049845718 0.85800004 1.2918282e-38
-0.091177151 -0.044363178 0.85733336 9.478551e-39
-0.087366365 -0.043273654 0.8573333 1.2890937e-38
-0.083043501 -0.043835878 0.85766667 1.2426758e-38
-0.10261905 -0.066497147 0.86200005 2.2958154e-38
-0.097619057 -0.066445723 0.86133337 2.341769e-38
-0.092250481 -0.066830479 0.861 2.341769e-38
-0.087760389 -0.067420572 0.86120003 2.341769e-38
-0.082820013 -0.067240961 0.86100006 2.341769e-38
-0.078281909 -0.067123048 0.86160004 2.341769e-38
-0.074159376 -0.067044452 0.86200011 2.341769e-38
-0.10590287 -0.063213341 0.86200011 2.0655794e-38
-0.10259303 -0.063197471 0.86177784 2.130116e-38
-0.099220008 -0.063960955 0.86100006 2.2591171e-38
-0.076776519 -0.064208895 0.86066675 2.341769e-38
-0.072795004 -0.063363574 0.86125004 1.9830722e-38
-0.10590287 -0.059929527 0.86200005 2.0196978e-38
-0.1021761 -0.05806011 0.86133337 2.0565758e-38
-0.099220008 -0.05575905 0.86100006 2.0934537e-38
-0.072432697 -0.057946362 0.86100006 9.495211e-39
-0.098304771 -0.052023619 0.86160004 1.8722593e-38
-0.076171435 -0.051600002 0.86000001 2.0925548e-38
-0.074252866 -0.052099526 0.86150002 1.6045341e-38
-0.095940001 -0.047558099 0.86100006 1.2339181e-38
-0.094190486 -0.045866668 0.86000001 1.0484546e-38
-0.078081675 -0.047955956 0.86075002 1.4207919e-38
-0.092387639 -0.041820001 0.86100006 1.010948e-38
-0.087638102 -0.040133335 0.86000001 1.0291713e-38
-0.082241282 -0.04125651 0.86066675 1.1211189e-38
-0.079632387 -0.043510478 0.86200005 9.0004279e-39
-0.087020963 -0.038584765 0.86200005 1.1489532e-38
-0.080279052 -0.075313337 0.86900002 2.341769e-38
-0.076140955 -0.075313337 0.86900002 2.341769e-38
-0.11503907 -0.072002873 0.86900008 2.24979e-38
-0.11187072 -0.072169289 0.86849999 2.3049989e-38
-0.10729001 -0.071735248 0.86825001 2.3325854e-38
-0.10212168 -0.071735248 0.86825001 2.341769e-38
-0.097380005 -0.071650222 0.86757153 2.341769e-38
-0.092802055 -0.071106814 0.86671436 2.341769e-38
-0.087491117 -0.07098572 0.86666673 2.341769e-38
-0.082523338 -0.071798109 0.86650008 2.341769e-38
-0.077811971 -0.071765184 0.86611116 2.341769e-38
-0.073094048 -0.071239054 0.86725008 2.341769e-38
-0.06703715 -0.070761435 0.86900002 2.341769e-38
-0.11669429 -0.066706114 0.86900008 2.0287374e-38
-0.11275477 -0.066993333 0.86575013 2.0563241e-38
-0.10812501 -0.066934526 0.86500013 2.1853971e-38
-0.1029762 -0.067964293 0.86500007 2.3234019e-38
-0.098033339 -0.068376198 0.86500013 2.341769e-38
-0.093914293 -0.068376198 0.86500007 2.341769e-38
-0.07661429 -0.068376198 0.86500007 2.341769e-38
-0.071176827 -0.06733048 0.86566681 2.341769e-38
-0.066950582 -0.066951863 0.86788893 2.3325854e-38
-0.11503906 -0.063726671 0.86900002 2.028774e-38
-0.11221144 -0.06188032 0.86633343 1.9092083e-38
-0.10874286 -0.06178572 0.86500013 2.0102986e-38
-0.07002382 -0.06178572 0.86500013 2.2040158e-38
-0.067376196 -0.062185444 0.86728585 2.2866676e-38
-0.11090096 -0.057933338 0.86900002 1.5028357e-38
-0.1076622 -0.057190347 0.86671436 1.641556e-38
-0.10407461 -0.055744451 0.86500013 1.9460509e-38
-0.070780002 -0.056590673 0.86620009 1.0060917e-38
-0.067706674 -0.05862572 0.86700004 2.0292403e-38
-0.10621112 -0.052140005 0.86900008 9.3766626e-39
-0.10289025 -0.052165955 0.86600012 1.2349278e-38
-0.09968096 -0.050252385 0.86500007 1.3174037e-38
-0.072199054 -0.052375048 0.86740011 8.581123e-39
-0.10173857 -0.047560003 0.86850005 9.9290894e-39
-0.098783813 -0.047329333 0.86580002 9.3755681e-39
-0.076180637 -0.04648032 0.86633343 6.7336469e-39
-0.09744896 -0.042519432 0.86860001 1.0199881e-38
-0.094738103 -0.041190479 0.86500007 1.0482922e-38
-0.080094293 -0.040460002 0.86700004 1.2123009e-38
-0.077637389 -0.042329524 0.86725003 1.0758135e-38
-0.095176198 -0.038898099 0.86900002 9.7612097e-39
-0.092187621 -0.036944084 0.86757147 1.2329687e-38
-0.087762587 -0.036635783 0.86585724 1.1214404e-38
-0.082802221 -0.037503816 0.86655569 1.2408951e-38
-0.090210482 -0.033932384 0.86900002 1.0198807e-38
-0.086900011 -0.033104762 0.86900008 1.0852118e-38
-0.083589531 -0.033932384 0.86900002 1.2781346e-38
-0.12554573 -0.075660005 0.87300003 2.1488061e-38
-0.12222002 -0.07649143 0.87300009 2.2957792e-38
-0.1171125 -0.077245392 0.8721112 2.3325854e-38
-0.11184216 -0.076983571 0.87150013 2.3048906e-38
-0.10711777 -0.077225715 0.871889 2.1483028e-38
-0.10210953 -0.077206038 0.87166679 2.3324754e-38
-0.097153768 -0.077225715 0.871889 2.3417324e-38
-0.092435516 -0.07677348 0.87214297 2.341769e-38
-0.087267302 -0.076462552 0.87266678 2.3045672e-38
-0.082203679 -0.077222727 0.87185729 2.3137873e-38
-0.077560477 -0.076730952 0.87100005 2.3325496e-38
-0.072599821 -0.076255821 0.87220001 2.341769e-38
-0.067345724 -0.075660005 0.87300003 2.341769e-38
-0.06235715 -0.075660005 0.87300003 2.341769e-38
-0.12621087 -0.072666861 0.87300009 2.0564676e-38
-0.12209684 -0.072260641 0.8721112 2.0288455e-38
-0.11779239 -0.072168581 0.87100017 2.1669939e-38
-0.10700858 -0.073827624 0.87100005 2.341769e-38
-0.10369048 -0.073827624 0.87100005 2.341769e-38
-0.098713338 -0.073827624 0.87100005 2.341769e-38
-0.092077151 -0.073827624 0.87100005 2.341769e-38
-0.087100014 -0.073827624 0.87100005 2.341769e-38
-0.07106255 -0.073274612 0.87100005 2.341769e-38
-0.067191437 -0.073164009 0.87100011 2.341769e-38
-0.062229734 -0.072187416 0.87122238 2.3325854e-38
-0.058339238 -0.071969338 0.87260002 2.3325496e-38
-0.12190859 -0.067495719 0.87225008 2.0656874e-38
-0.11862192 -0.067191437 0.87100005 2.0381366e-38
-0.062245183 -0.067225292 0.87144458 2.3325136e-38
-0.059031431 -0.068177149 0.87300003 2.2773048e-38
-0.12055715 -0.063188575 0.87300003 1.6239422e-38
-0.11727191 -0.062059529 0.87175012 1.7799929e-38
-0.065532386 -0.061384767 0.87100005 2.16685e-38
-0.063325532 -0.062660389 0.87260002 2.139049e-38
-0.11556858 -0.059031431 0.87300003 1.1516599e-38
-0.11236973 -0.056931626 0.87140006 1.1232513e-38
-0.067682385 -0.057303812 0.8720001 1.550617e-38
-0.064020008 -0.059031431 0.87300003 1.7865863e-38
-0.11119448 -0.052687813 0.87260008 1.3080577e-38
-0.10831524 -0.051874287 0.87150007 1.1768973e-38
-0.071419999 -0.051490478 0.87200004 4.610981e-39
-0.069008574 -0.054042861 0.87300003 7.9170827e-39
-0.10657842 -0.047890164 0.8720001 1.5208972e-38
-0.10321684 -0.046211749 0.87166679 1.3531828e-38
-0.073080957 -0.047337145 0.8720001 2.7602595e-39
-0.10169129 -0.042597692 0.87214297 1.1486655e-38
-0.098713338 -0.040646669 0.87100005 9.8292693e-39
-0.075486675 -0.04147619 0.87100005 1.6605572e-38
-0.07349667 -0.042769048 0.8720001 1.5374622e-38
-0.097182728 -0.037377555 0.87214297 1.169694e-38
-0.080463812 -0.036499053 0.87100005 1.1600132e-38
-0.077463336 -0.037589047 0.87225008 1.927244e-38
-0.073997147 -0.039077144 0.87300003 2.2570559e-38
-0.095614292 -0.034088574 0.87300003 1.4570909e-38
-0.092364766 -0.032170955 0.87175012 1.2882861e-38
-0.087100014 -0.030692384 0.87100005 1.0943575e-38
-0.082008347 -0.032180715 0.8720001 1.1762913e-38
-0.078985721 -0.034088574 0.87300003 1.6960099e-38
-0.091956012 -0.028434861 0.87300009 1.1772928e-38
-0.087017149 -0.027620004 0.87225008 1.1403069e-38
-0.083558582 -0.027852859 0.87300003 1.1952294e-38
-0.13211811 -0.081110485 0.87800002 2.1855052e-38
-0.12809791 -0.081668578 0.87680006 2.3325854e-38
-0.12263811 -0.080925725 0.87600005 2.341769e-38
-0.11790287 -0.081110492 0.87800002 2.341769e-38
-0.11263049 -0.080925725 0.87600005 2.1479061e-38
-0.10750001 -0.080833338 0.87500012 1.8901857e-38
-0.10250001 -0.080833338 0.87500012 2.0927232e-38
-0.097609535 -0.080925725 0.87600005 2.12979e-38
-0.09281715 -0.081110485 0.87800002 2.3044964e-38
-0.08863619 -0.081110485 0.87800002 2.1578459e-38
-0.13252024 -0.077841908 0.87650001 1.8904084e-38
-0.1277637 -0.077742264 0.87537503 2.1669225e-38
-0.12250002 -0.079166673 0.87500012 2.341769e-38
-0.11416668 -0.079166673 0.87500006 2.3417683e-38
-0.091666669 -0.079166673 0.87500006 2.3416254e-38
-0.087500006 -0.079166673 0.87500012 2.2037634e-38
-0.084166676 -0.079166673 0.87500006 2.2769451e-38
-0.077500008 -0.079166673 0.87500012 2.3325136e-38
-0.07220763 -0.078885719 0.87650001 2.3417689e-38
-0.067615718 -0.078469053 0.87650007 2.341769e-38
-0.062607147 -0.078469053 0.87650007 2.341769e-38
-0.0582208 -0.077443659 0.87750006 2.3325854e-38
-0.13154033 -0.073695883 0.87600005 1.8254009e-38
-0.12875001 -0.072083339 0.87500006 2.0287017e-38
-0.056393571 -0.0731031 0.87725002 2.3325854e-38
-0.054352384 -0.072748579 0.87800002 2.341769e-38
-0.12716302 -0.068171278 0.87650001 2.0015108e-38
-0.12416667 -0.065833338 0.87500006 2.1203232e-38
-0.057617147 -0.067638867 0.8768 2.111641e-38
-0.12298968 -0.062607147 0.87650001 1.235141e-38
-0.061302148 -0.06213548 0.87575001 1.9819914e-38
-0.059369527 -0.06355048 0.87800002 1.89001e-38
-0.12124763 -0.059369527 0.87800002 9.0158002e-39
-0.11773185 -0.057612661 0.87671435 9.5617769e-39
-0.11416668 -0.055833336 0.87500006 8.8271167e-39
-0.066779524 -0.056765243 0.87650001 1.602053e-38
-0.06355048 -0.058533337 0.87800002 1.4168347e-38
-0.11623048 -0.054352384 0.87800002 1.1495326e-38
-0.11387017 -0.052618098 0.87700003 1.2710783e-38
-0.07083334 -0.050833337 0.87500006 4.6840797e-39
-0.068567619 -0.053516194 0.87800002 9.4595311e-39
-0.11096001 -0.047552384 0.87600011 1.4384629e-38
-0.10873588 -0.046441272 0.87600005 1.3731446e-38
-0.071076199 -0.047662862 0.87800002 7.637937e-39
-0.10651176 -0.043661591 0.87600005 1.5837838e-38
-0.10416667 -0.042500004 0.87500006 1.288794e-38
-0.071597151 -0.042223815 0.87620002 1.1404159e-38
-0.069403812 -0.040973336 0.87800002 1.5491377e-38
-0.10170972 -0.03791048 0.8768 1.4185033e-38
-0.099166676 -0.035833336 0.87500006 1.5747747e-38
-0.075833336 -0.035833336 0.87500006 2.3233194e-38
-0.073521197 -0.037596431 0.87725002 2.0178931e-38
-0.097390316 -0.032555714 0.87650001 1.4015895e-38
-0.077650212 -0.032563675 0.87671435 1.9913155e-38
-0.096161909 -0.029266668 0.87800002 1.3379858e-38
-0.092713341 -0.026449844 0.87700003 1.196307e-38
-0.089166671 -0.025833335 0.87500006 1.1220819e-38
-0.081610866 -0.027203241 0.87620002 1.1490988e-38
-0.079438098 -0.028430477 0.87800002 1.380094e-38
-0.09114477 -0.023413334 0.87800002 1.1037886e-38
-0.087600015 -0.023359051 0.87600011 1.1499952e-38
-0.083897792 -0.023692064 0.87800002 1.1680734e-38
-0.067352384 -0.090083815 0.88400006 2.341769e-38
-0.062300958 -0.090083815 0.88400006 2.341769e-38
-0.058933336 -0.090083815 0.88400006 2.341769e-38
-0.12516001 -0.086520009 0.88200003 2.3417689e-38
-0.1216282 -0.087311253 0.88320011 2.341769e-38
-0.11681429 -0.086505726 0.88399994 2.341769e-38
-0.1123943 -0.085453339 0.88400006 2.1394798e-38
-0.10692191 -0.085032389 0.88400006 2.0557493e-38
-0.10187049 -0.085032389 0.88400006 1.94533e-38
-0.098502867 -0.085032389 0.88400006 1.8344803e-38
-0.090925723 -0.086716197 0.88400006 2.1392633e-38
-0.086716197 -0.085032389 0.88400006 2.2682284e-38
-0.082506672 -0.085032389 0.88400006 2.3050348e-38
-0.078297153 -0.085593663 0.88400006 2.2129834e-38
-0.073245719 -0.086716197 0.88400006 2.2865239e-38
-0.068194292 -0.087558106 0.884 2.341769e-38
-0.063142866 -0.087558106 0.884 2.341769e-38
-0.058091432 -0.087558106 0.884 2.341769e-38
-0.053329527 -0.087311253 0.88320011 2.341769e-38
-0.12618414 -0.084217153 0.88133335 2.341769e-38
-0.12219948 -0.08382614 0.88142872 2.341769e-38
-0.11684699 -0.083222866 0.88266671 2.3415894e-38
-0.11180446 -0.083222866 0.88266671 1.816653e-38
-0.10752001 -0.083160006 0.88200003 1.8445594e-38
-0.10324065 -0.083097152 0.88133335 1.8534179e-38
-0.097805239 -0.083532862 0.88150001 1.9363603e-38
-0.093149401 -0.083559737 0.88114291 2.212695e-38
-0.088120773 -0.083085343 0.88120002 2.1578822e-38
-0.083065718 -0.082227632 0.88100004 2.3049988e-38
-0.077804081 -0.082600825 0.88114291 2.2953127e-38
-0.073024772 -0.083098426 0.88133341 2.2589375e-38
-0.067988575 -0.083098419 0.88133335 2.341769e-38
-0.063000001 -0.083159998 0.88200003 2.341769e-38
-0.05796 -0.083160013 0.88200003 2.341769e-38
-0.052920002 -0.083160013 0.88200003 2.341769e-38
-0.04847556 -0.082661599 0.88266671 2.2864872e-38
-0.13493334 -0.076266669 0.88000005 1.7423901e-38
-0.056711119 -0.078501597 0.88000005 2.3325854e-38
-0.052825823 -0.077982225 0.88044447 2.3325854e-38
-0.047939051 -0.078218423 0.88311112 2.2589726e-38
-0.044620954 -0.077455238 0.88400006 1.8990854e-38
-0.13524 -0.072240002 0.88200003 1.7978156e-38
-0.13325715 -0.072495244 0.88000005 1.8719677e-38
-0.052648574 -0.072996669 0.88100004 2.323366e-38
-0.048229117 -0.073726811 0.884 2.2034404e-38
-0.044620954 -0.07408762 0.88400006 1.7521847e-38
-0.13524 -0.069720007 0.88200003 1.8442007e-38
-0.13261257 -0.068405345 0.88240004 1.6413029e-38
-0.12934604 -0.066768259 0.88000005 1.4747393e-38
-0.056152385 -0.067047626 0.88000005 1.8724364e-38
-0.053143095 -0.068268813 0.88225007 1.9259216e-38
-0.13105652 -0.0642654 0.88400006 1.0941011e-38
-0.12711939 -0.062998101 0.88200009 9.935995e-39
-0.057404898 -0.06267783 0.88085723 1.4914514e-38
-0.054121278 -0.064216517 0.88333338 1.5080595e-38
-0.12544382 -0.058933336 0.88400006 1.2888656e-38
-0.12275278 -0.057597723 0.88160008 1.0207417e-38
-0.11984763 -0.056152385 0.88000005 9.5771295e-39
-0.066209525 -0.056152385 0.88000005 1.2857489e-38
-0.062344771 -0.057313021 0.88066673 1.1123332e-38
-0.05856318 -0.058563184 0.88266677 1.2793956e-38
-0.054723814 -0.059775241 0.88400006 1.8236664e-38
-0.12147784 -0.053228032 0.88314295 1.5113898e-38
-0.11755468 -0.052488007 0.88040012 1.3256383e-38
-0.11481906 -0.051123813 0.88000005 1.2089155e-38
-0.06737715 -0.052280642 0.88066673 1.2785674e-38
-0.063030049 -0.052946251 0.8824445 1.7139701e-38
-0.059775241 -0.054723814 0.88400006 1.5287917e-38
-0.1166824 -0.048143338 0.88300002 1.4274041e-38
-0.11331429 -0.047842544 0.88133335 1.4015071e-38
-0.067935869 -0.047807623 0.88066673 1.5295489e-38
-0.063046359 -0.047916196 0.88266671 1.7143237e-38
-0.11184667 -0.043307617 0.88300008 1.5399895e-38
-0.10849869 -0.042426288 0.88040012 1.7514221e-38
-0.10476191 -0.041066669 0.88000005 1.4843772e-38
-0.067790002 -0.043024287 0.88150007 1.7959014e-38
-0.064123817 -0.043253716 0.88360006 1.8809329e-38
-0.11028953 -0.039569527 0.88400006 1.5960277e-38
-0.1075616 -0.037813019 0.8823334 1.7889881e-38
-0.10440239 -0.037315715 0.88050008 1.7051762e-38
-0.071697623 -0.037315715 0.88050008 1.5671486e-38
-0.0693781 -0.038262859 0.88300002 1.825723e-38
-0.10608001 -0.032834288 0.88400006 1.4378934e-38
-0.10277417 -0.032977145 0.8814286 1.4377457e-38
-0.099733338 -0.031847619 0.88000005 1.3450169e-38
-0.076266669 -0.031009525 0.88000005 1.8908383e-38
-0.073041916 -0.032742225 0.88155556 1.8064256e-38
-0.069878101 -0.034518097 0.88400006 1.7396522e-38
-0.10181287 -0.028187145 0.88350004 1.2530267e-38
-0.098153748 -0.027684085 0.88085723 1.2430191e-38
-0.09470477 -0.025980955 0.88000005 1.2606288e-38
-0.077563547 -0.027451977 0.88114291 1.3642118e-38
-0.073751122 -0.028321907 0.88333338 1.361982e-38
-0.10018668 -0.02441524 0.88400006 1.6132371e-38
-0.097068198 -0.023046859 0.88320011 1.1684694e-38
-0.093379065 -0.022645082 0.88066673 1.0945696e-38
-0.088000014 -0.020952385 0.88000005 1.1223383e-38
-0.082474932 -0.022085717 0.88066667 1.2433734e-38
-0.078649536 -0.022934698 0.88257152 1.2444569e-38
-0.092505723 -0.017660003 0.88300008 1.0678465e-38
-0.087842867 -0.01746686 0.88180012 1.0666954e-38
-0.083066434 -0.017874524 0.88325 1.234085e-38
-0.079980955 -0.018521905 0.88400006 1.3184643e-38
-0.091137156 -0.013179049 0.88333338 1.4932748e-38
-0.087139599 -0.013581497 0.88342863 1.3620075e-38
-0.08334858 -0.014312382 0.88400006 1.3352815e-38
-0.068580002 -0.095673338 0.88900006 2.341769e-38
-0.12080096 -0.091234289 0.88700002 2.2496824e-38
-0.11750953 -0.091303498 0.8876667 2.341769e-38
-0.11281185 -0.091773756 0.88871437 2.341769e-38
-0.10752668 -0.090593338 0.88900012 2.341769e-38
-0.10244668 -0.090593338 0.88900012 2.3325854e-38
-0.098213345 -0.090593338 0.88900006 2.2958513e-38
-0.091440007 -0.090593338 0.88900006 2.1112467e-38
-0.085513338 -0.090593338 0.88900006 2.331975e-38
-0.082126677 -0.090593338 0.88900012 2.1202503e-38
-0.076708011 -0.091270678 0.88900006 2.277376e-38
-0.071632795 -0.091685861 0.8878572 2.3234019e-38
-0.06655933 -0.092652395 0.8878572 2.341769e-38
-0.062582858 -0.093029529 0.88800001 2.3417684e-38
-0.059133336 -0.092079051 0.88700002 2.341769e-38
-0.11911143 -0.088700004 0.88700002 2.341769e-38
-0.11201544 -0.088024192 0.88700002 2.341769e-38
-0.10740571 -0.087955251 0.88800001 2.2957072e-38
-0.10233144 -0.087955251 0.88800013 2.1025294e-38
-0.097257152 -0.087955251 0.88800001 1.9644529e-38
-0.092606194 -0.088377625 0.88800001 2.0740816e-38
-0.087108575 -0.087955251 0.88800013 2.3417324e-38
-0.082002863 -0.08792191 0.8876667 2.2122288e-38
-0.077295721 -0.088277623 0.88700002 2.18475e-38
-0.072649531 -0.088700004 0.88700002 2.3140749e-38
-0.13800667 -0.071120009 0.88900006 1.8346544e-38
-0.048151433 -0.070537627 0.88700002 1.4654802e-38
-0.13692933 -0.066855811 0.88860005 1.8347974e-38
-0.13431714 -0.06589143 0.88700002 1.4653702e-38
-0.05153048 -0.06589143 0.88700002 1.3353641e-38
-0.04845538 -0.067304358 0.88814288 1.4263692e-38
-0.13631335 -0.063500002 0.88900006 1.8619138e-38
-0.13246763 -0.062088199 0.88819999 1.3159822e-38
-0.12939429 -0.060890481 0.88800001 1.0853536e-38
-0.053017151 -0.061759692 0.88833332 1.4917307e-38
-0.12727867 -0.057299621 0.88740009 1.2170904e-38
-0.056661911 -0.057508573 0.88800001 1.57514e-38
-0.12605874 -0.053298734 0.88833344 1.6406826e-38
-0.12418001 -0.052375242 0.88700002 1.696611e-38
-0.059016954 -0.052929338 0.88780004 1.4725022e-38
-0.12245239 -0.048430003 0.88824999 1.6418399e-38
-0.11911143 -0.046461906 0.88700002 1.557415e-38
-0.060113337 -0.047413334 0.88900006 1.8894936e-38
-0.059978098 -0.049840957 0.88700002 1.298046e-38
-0.12107334 -0.044873334 0.88900006 1.6966164e-38
-0.11736967 -0.04363497 0.88842857 1.6594743e-38
-0.11356541 -0.041987624 0.8876667 1.4941847e-38
-0.061771907 -0.043578096 0.88849998 2.148262e-38
-0.11253539 -0.038076062 0.88842857 1.2992105e-38
-0.066821098 -0.038063273 0.88814294 1.8801048e-38
-0.063500002 -0.039793335 0.88900006 2.1213607e-38
-0.11091334 -0.033866666 0.88900006 1.5292907e-38
-0.10861333 -0.032540955 0.88750005 1.5860105e-38
-0.070115246 -0.032100953 0.88700002 1.5904087e-38
-0.067964137 -0.034122862 0.88833332 1.5277752e-38
-0.10636705 -0.028239429 0.88780004 1.2255943e-38
-0.10342064 -0.026770478 0.8876667 1.6870259e-38
-0.071530864 -0.02756362 0.88780004 1.5849601e-38
-0.10240891 -0.02313365 0.88866675 1.7613247e-38
-0.098103821 -0.021142859 0.88800001 1.1399155e-38
-0.075928204 -0.022489717 0.88780004 1.5953372e-38
-0.073660001 -0.023706667 0.88900006 1.8266557e-38
-0.10075334 -0.019473335 0.88900006 1.5861477e-38
-0.097046912 -0.017971192 0.88800001 1.0113789e-38
-0.080252387 -0.016050477 0.88700002 1.2720832e-38
-0.077804767 -0.017760001 0.88800001 1.281552e-38
-0.095673338 -0.013546668 0.88900006 1.3446497e-38
-0.092880964 -0.012011239 0.88819999 1.4018424e-38
-0.087010488 -0.010981905 0.88700002 1.5593272e-38
-0.081776433 -0.012466429 0.88750005 1.3353253e-38
-0.078740008 -0.013546668 0.88900006 1.2046408e-38
-0.091907248 -0.0086318096 0.88859999 1.2163387e-38
-0.087162651 -0.0076153446 0.88855559 1.5960225e-38
-0.082973339 -0.0084666666 0.88900006 1.3069461e-38
-0.11324 -0.097062856 0.89400005 2.2497882e-38
-0.10807096 -0.097009055 0.89350003 2.3417689e-38
-0.10344858 -0.096637145 0.89400005 2.341769e-38
-0.099617146 -0.096211433 0.89400005 2.341769e-38
-0.080885723 -0.096211433 0.89400005 2.341769e-38
-0.077054292 -0.096637145 0.89400005 2.341769e-38
-0.072170012 -0.096791916 0.8915 2.341769e-38
-0.06703715 -0.096737146 0.89100003 2.3417662e-38
-0.11238858 -0.094508581 0.89400005 2.341769e-38
-0.10783001 -0.093395725 0.8915 2.341769e-38
-0.10273477 -0.093395725 0.8915 2.3325854e-38
-0.0976962 -0.092882864 0.89200008 2.3325854e-38
-0.092918575 -0.092070006 0.89100003 2.2314947e-38
-0.087550007 -0.092368096 0.8925001 2.341697e-38
-0.08245001 -0.093501441 0.8925001 2.2864881e-38
-0.077710718 -0.09384644 0.89175004 2.341769e-38
-0.072977148 -0.094191432 0.89100003 2.341769e-38
-0.13831715 -0.06703715 0.89100003 1.835049e-38
-0.048531432 -0.065560006 0.89400005 1.4375704e-38
-0.13746858 -0.061945718 0.89100003 1.8438718e-38
-0.13435715 -0.060814291 0.89100003 1.5205375e-38
-0.050574288 -0.062048577 0.89250004 1.3432878e-38
-0.048531432 -0.063857146 0.89400005 1.4640438e-38
-0.13708001 -0.058748577 0.89400005 1.8621998e-38
-0.13288239 -0.057514768 0.8925001 1.3532919e-38
-0.12983143 -0.056854289 0.89100003 7.92992e-39
-0.055722862 -0.055722862 0.89100003 1.5845772e-38
-0.052922864 -0.057346858 0.89340001 1.5189202e-38
-0.12756859 -0.05176286 0.89100003 1.2442858e-38
-0.056929719 -0.051832575 0.89220011 1.5110002e-38
-0.12615335 -0.046774291 0.89300007 1.1989057e-38
-0.12474 -0.046671432 0.89100003 1.3571864e-38
-0.058224287 -0.047174286 0.89250004 1.7520362e-38
-0.12516001 -0.043422859 0.89400005 1.3750447e-38
-0.12204763 -0.042474292 0.89200008 1.5302308e-38
-0.11880001 -0.041580003 0.89100003 1.4939969e-38
-0.061200004 -0.041648574 0.89250004 2.0274363e-38
-0.058748577 -0.041720003 0.89400005 1.1668388e-38
-0.11723524 -0.038227625 0.89200008 1.1412156e-38
-0.11455715 -0.036488574 0.89100003 1.0591384e-38
-0.065340005 -0.036488574 0.89100003 1.4385038e-38
-0.063218102 -0.037703812 0.89300007 1.863429e-38
-0.11664572 -0.034908574 0.89400005 9.9341621e-39
-0.11350939 -0.032897964 0.89228582 1.419804e-38
-0.066508099 -0.032546192 0.8915 1.4930251e-38
-0.063857146 -0.034908574 0.89400005 1.6034906e-38
-0.11153715 -0.028948573 0.89400005 1.6225617e-38
-0.10922571 -0.027624289 0.89250004 1.787764e-38
-0.070431434 -0.026305716 0.89100003 1.8703716e-38
-0.068238296 -0.028417716 0.89340001 1.8157765e-38
-0.10689431 -0.023280574 0.89220011 1.3182532e-38
-0.10352572 -0.021214288 0.89100003 1.7975951e-38
-0.071886197 -0.022923335 0.8915 1.8990104e-38
-0.068965718 -0.023840003 0.89400005 1.7342061e-38
-0.10287552 -0.017853471 0.89271438 1.4095422e-38
-0.099282861 -0.016122859 0.89100003 9.555593e-39
-0.075522862 -0.017820001 0.89100003 1.3647469e-38
-0.073293716 -0.018196573 0.89280003 1.6599864e-38
-0.097979054 -0.012741907 0.89200008 1.2251204e-38
-0.077022865 -0.012741907 0.89200008 1.2607073e-38
-0.074074291 -0.014474287 0.89400005 1.2895174e-38
-0.096050009 -0.0084985718 0.89250004 1.299238e-38
-0.092997864 -0.0063692862 0.89175004 1.1051639e-38
-0.081686869 -0.0069622868 0.89160007 1.2413248e-38
-0.079182863 -0.008514286 0.89400005 1.2689841e-38
-0.091801435 -0.0042500002 0.89250004 1.1609493e-38
-0.087861143 -0.003567429 0.89220011 1.2442471e-38
-0.083298579 -0.0042500002 0.89250004 1.2595109e-38
-0.10666668 -0.1024 0.89600003 1.9735983e-38
-0.10373219 -0.10133981 0.89720005 2.2681571e-38
-0.086379051 -0.10006286 0.89800006 2.341769e-38
-0.082530484 -0.10049048 0.89800006 2.341769e-38
-0.077826671 -0.10108914 0.89800006 2.3417683e-38
-0.074405722 -0.10006286 0.89800006 2.341769e-38
-0.10752001 -0.099840008 0.89600003 2.3142183e-38
-0.10245572 -0.098614767 0.89650005 2.341769e-38
-0.097637475 -0.097068578 0.89666671 2.341769e-38
-0.093220964 -0.096641921 0.89800012 2.341769e-38
-0.087991439 -0.097389534 0.89700007 2.341769e-38
-0.083189338 -0.097538292 0.89680004 2.341769e-38
-0.078506678 -0.09813334 0.89600003 2.341769e-38
-0.096426673 -0.094720006 0.89600003 2.341769e-38
-0.093013339 -0.094720006 0.89600009 2.341769e-38
-0.088746667 -0.094720006 0.89600003 2.341769e-38
-0.04579556 -0.071964458 0.89600009 1.4933548e-38
-0.046080004 -0.06570667 0.89600003 1.7145514e-38
-0.046992116 -0.062373888 0.89714301 1.4548967e-38
-0.13723011 -0.056224383 0.89720005 1.7981344e-38
-0.13397335 -0.055466671 0.89600003 1.5743489e-38
-0.050801434 -0.056777623 0.89650005 1.3519229e-38
-0.048748575 -0.057300955 0.89800012 1.0382499e-38
-0.14111429 -0.052169528 0.89800012 1.8071759e-38
-0.13797843 -0.052739687 0.89800012 1.7795888e-38
-0.13223834 -0.052338813 0.89725006 1.095111e-38
-0.12885334 -0.050346669 0.89600003 1.0664924e-38
-0.055466671 -0.051200002 0.89600003 1.6857068e-38
-0.05260735 -0.052362993 0.89714295 1.6764468e-38
-0.048748575 -0.053880002 0.89800006 1.0664099e-38
-0.13085143 -0.048748575 0.89800006 7.6228072e-39
-0.12871334 -0.046610478 0.89800006 9.6553556e-39
-0.056223627 -0.046654858 0.89720005 1.603631e-38
-0.12619685 -0.041875556 0.89733338 9.9381068e-39
-0.1230181 -0.040151432 0.89700007 9.5797513e-39
-0.060586672 -0.040106669 0.89600003 1.5103136e-38
-0.05795886 -0.041887239 0.89760011 1.2346035e-38
-0.12121905 -0.037100192 0.89760011 1.446067e-38
-0.061200641 -0.037289526 0.89666671 1.7864652e-38
-0.12058858 -0.033354286 0.89800006 1.5474807e-38
-0.11798363 -0.032952767 0.89640009 1.2987754e-38
-0.063031621 -0.032967623 0.89680004 1.714158e-38
-0.11655461 -0.028781906 0.89766669 1.4014462e-38
-0.11313 -0.027748097 0.89649999 1.3093922e-38
-0.06617 -0.027748097 0.89649999 1.6961464e-38
-0.06414286 -0.029933335 0.89800006 1.8260135e-38
-0.11172164 -0.023564901 0.89742875 1.2243679e-38
-0.10861524 -0.021380953 0.89800006 1.1682915e-38
-0.070826672 -0.021333335 0.89600003 1.7239156e-38
-0.067502864 -0.022728764 0.89720011 1.5763651e-38
-0.1068254 -0.017945398 0.89733338 1.0497697e-38
-0.10496001 -0.016213335 0.89600003 1.1128378e-38
-0.071448267 -0.017933335 0.89666671 1.4471426e-38
-0.069274291 -0.019670477 0.89800006 1.1529507e-38
-0.10519429 -0.014539049 0.89800006 1.2152584e-38
-0.10232077 -0.013152 0.89680004 1.261495e-38
-0.099840008 -0.011093334 0.89600003 1.1789242e-38
-0.076116197 -0.011118096 0.89800006 1.2778841e-38
-0.073550478 -0.013683811 0.89800006 1.2514168e-38
-0.10006286 -0.0076971436 0.89800006 1.1882048e-38
-0.09824191 -0.0081142858 0.89700001 1.2159029e-38
-0.077756576 -0.0076902867 0.89720011 1.2873896e-38
-0.096641913 -0.0042761909 0.89800006 1.2333733e-38
-0.093083188 -0.0022768257 0.89666671 1.2348828e-38
-0.087466672 -0.0012800002 0.89600003 1.0865368e-38
-0.082896516 -0.0022780956 0.89733338 1.278671e-38
-0.078681909 -0.0042761909 0.89800006 1.2785641e-38
-0.091510482 0.0017104764 0.89800006 1.2622855e-38
-0.088089526 0.0017104764 0.89800012 1.224435e-38
-0.084668577 0.00085523818 0.89800006 1.3439987e-38
-0.10161683 -0.10219016 0.90166676 2.341769e-38
-0.097106993 -0.10054573 0.90233344 2.341769e-38
-0.091489054 -0.10093857 0.90200007 2.341769e-38
-0.087622866 -0.10222763 0.90200007 2.341769e-38
-0.084093332 -0.10297143 0.90100002 2.341769e-38
-0.078086674 -0.10039715 0.90100002 2.341769e-38
-0.096106678 -0.098680958 0.90100002 2.341769e-38
-0.092674285 -0.098680958 0.90100002 2.341769e-38
-0.045479052 -0.060924765 0.90100002 1.5392358e-38
-0.04633715 -0.057492383 0.90100002 1.4186594e-38
-0.043762859 -0.056634292 0.90100002 1.7154837e-38
-0.13758129 -0.051199686 0.90100002 1.779768e-38
-0.13472097 -0.050627623 0.90100002 1.7778569e-38
-0.050627623 -0.051485717 0.90100002 1.4335697e-38
-0.047224633 -0.052376468 0.90157151 1.3160198e-38
-0.043811433 -0.053260006 0.90200007 1.6695681e-38
-0.138015 -0.047435481 0.90149999 1.7703697e-38
-0.1332193 -0.046980716 0.90100002 1.409331e-38
-0.052600957 -0.047449049 0.90175003 1.5103489e-38
-0.04844667 -0.04844667 0.90300006 1.3344541e-38
-0.13653684 -0.043795243 0.90166676 1.7608261e-38
-0.1319578 -0.043221906 0.90166676 1.140816e-38
-0.12885715 -0.042092383 0.90200007 9.4641176e-39
-0.055817466 -0.042076509 0.90166676 1.3886686e-38
-0.05360667 -0.043286674 0.90300006 1.2679454e-38
-0.12642001 -0.038700003 0.90300006 9.7385409e-39
-0.12406382 -0.036488574 0.90150005 1.1135183e-38
-0.060924765 -0.035181906 0.90100002 1.869697e-38
-0.058844287 -0.037368096 0.90200007 1.6206663e-38
-0.12251302 -0.031773016 0.90166676 1.3635164e-38
-0.061541907 -0.03177302 0.90166676 1.9540038e-38
-0.12183335 -0.027806668 0.90300006 1.2349882e-38
-0.11870319 -0.027173018 0.90100002 1.1059535e-38
-0.063533813 -0.027473811 0.90150005 1.807428e-38
-0.12126001 -0.024940001 0.90300006 1.1142313e-38
-0.11716032 -0.023774922 0.90233338 1.0860374e-38
-0.11326858 -0.021452382 0.90100002 1.1506021e-38
-0.066146672 -0.023192383 0.90200007 1.566173e-38
-0.064500004 -0.023220001 0.90300006 1.36266e-38
-0.11216783 -0.019066479 0.9018001 1.169406e-38
-0.10905874 -0.018032065 0.90166676 1.1224097e-38
-0.07122191 -0.016303811 0.90100002 1.2905536e-38
-0.068723813 -0.018039048 0.90200007 1.2445665e-38
-0.10652287 -0.012886668 0.90200007 1.262002e-38
-0.10382953 -0.011155238 0.90100002 1.345265e-38
-0.073018096 -0.012456667 0.90200007 1.2421955e-38
-0.10578001 -0.0094600003 0.90300006 1.2435987e-38
-0.10247555 -0.0077279373 0.90166664 1.2710741e-38
-0.098680958 -0.0060066669 0.90100002 1.1787375e-38
-0.076370478 -0.0068647624 0.90100002 1.2966826e-38
-0.074654296 -0.0077228579 0.90100002 1.2689181e-38
-0.10136858 -0.0042952383 0.90200007 1.2434896e-38
-0.097394861 -0.0022325716 0.9018001 1.25307e-38
-0.081519052 -0.0008580953 0.90100002 1.361357e-38
-0.0779147 -0.0020853064 0.9018572 1.2413971e-38
-0.074820004 -0.0043000001 0.90300006 1.2514828e-38
-0.095460005 0.0017200001 0.90300006 1.179204e-38
-0.092544198 0.003262667 0.90140003 1.1598294e-38
-0.087525725 0.0042904764 0.90100002 1.1396987e-38
-0.083089054 0.0027919046 0.90175003 1.3522487e-38
-0.079980008 0.00086000003 0.90300006 1.3057177e-38
-0.091442324 0.0074880277 0.90214288 1.2619242e-38
-0.086773649 0.0077332282 0.90211117 1.3162007e-38
-0.083420008 0.0068800002 0.90300006 1.5459667e-38
-0.090300009 0.01118 0.90300006 1.2999549e-38
-0.087720007 0.01118 0.90300006 1.4110249e-38
-0.092529535 -0.10636573 0.90800011 2.341769e-38
-0.088205725 -0.10636572 0.90800005 2.341769e-38
-0.10101001 -0.10360144 0.90650004 2.341769e-38
-0.09752439 -0.10339449 0.90620005 2.341769e-38
-0.09269201 -0.10373924 0.90620005 2.341769e-38
-0.088776194 -0.10429049 0.90500003 2.341769e-38
-0.045680955 -0.050852384 0.90500003 1.4834108e-38
-0.043957144 -0.050852384 0.90500003 1.6140345e-38
-0.050852384 -0.045680955 0.90500003 1.278851e-38
-0.046905875 -0.046908736 0.90650004 1.3534357e-38
-0.044102859 -0.04756191 0.90800011 1.5859427e-38
-0.13640667 -0.041438572 0.90650004 1.7794802e-38
-0.13241309 -0.040974051 0.90575004 1.2791425e-38
-0.05208683 -0.041726828 0.9065001 1.2420811e-38
-0.048426669 -0.044102859 0.90800005 1.0935711e-38
-0.13101175 -0.038294923 0.90700006 1.1681792e-38
-0.12790458 -0.036765143 0.90620005 1.0665483e-38
-0.056750476 -0.036740579 0.90560007 1.7879428e-38
-0.054480005 -0.038049527 0.90800005 1.5072502e-38
-0.12712 -0.032860957 0.90800005 1.0863244e-38
-0.1249762 -0.031028572 0.90500003 1.0586996e-38
-0.061195243 -0.030166669 0.90500003 2.0172825e-38
-0.058897909 -0.032298669 0.90680009 1.9913512e-38
-0.12325239 -0.026719049 0.90500003 1.1785921e-38
-0.061262861 -0.026746668 0.90600008 1.6028325e-38
-0.059668574 -0.028537145 0.90800005 1.7898438e-38
-0.12223747 -0.023295239 0.90600008 1.2162948e-38
-0.11923017 -0.022122225 0.90500009 1.1425749e-38
-0.062310673 -0.022956384 0.90620005 1.1050117e-38
-0.12020192 -0.019889524 0.90800005 1.326967e-38
-0.11683732 -0.018128097 0.9065001 1.077756e-38
-0.11290954 -0.016950794 0.90500009 1.2064312e-38
-0.066797629 -0.017669048 0.90500003 1.2722593e-38
-0.064424768 -0.018592382 0.90800005 1.4010762e-38
-0.11501334 -0.014700953 0.90800005 1.1875267e-38
-0.11217239 -0.013307621 0.90740007 1.2343768e-38
-0.10912167 -0.012506905 0.90575004 1.2251233e-38
-0.070791908 -0.012086667 0.90650004 1.252819e-38
-0.067989372 -0.013539841 0.90750003 1.2076867e-38
-0.064857148 -0.014700953 0.90800005 1.2540345e-38
-0.10774934 -0.0081287622 0.90800011 1.2435612e-38
-0.10429049 -0.0060333339 0.90500003 1.4459939e-38
-0.07190036 -0.0079894047 0.90687507 1.2334774e-38
-0.10636572 -0.0043238099 0.90800005 1.2250913e-38
-0.10279335 -0.0023022224 0.90700006 1.2157601e-38
-0.099119052 -0.00086190482 0.90500003 1.2160869e-38
-0.075234294 -0.00086476194 0.90800005 1.250867e-38
-0.073455058 -0.0029384766 0.90740007 1.2334752e-38
-0.10117715 0.00086476194 0.90800005 1.1320991e-38
-0.098074704 0.0028376873 0.90671444 1.0765307e-38
-0.080157146 0.0034476193 0.90500003 1.2141722e-38
-0.077347353 0.0023451704 0.90671444 1.3525008e-38
-0.09634167 0.0073454767 0.90725005 1.0580486e-38
-0.093947627 0.0086190486 0.90500003 1.1801293e-38
-0.081502318 0.0080144228 0.90628582 1.7886244e-38
-0.078693338 0.006918096 0.90800005 1.7612227e-38
-0.092428587 0.012669842 0.90700006 1.3545462e-38
-0.086929806 0.013441906 0.90628582 1.4755624e-38
-0.082924776 0.012958097 0.90700006 1.7705183e-38
-0.097651243 -0.10736477 0.91060001 2.341769e-38
-0.093600005 -0.10833334 0.91000003 2.341769e-38
-0.097933337 -0.10486668 0.91000003 2.341769e-38
-0.047440685 -0.041991431 0.91042858 1.5207946e-38
-0.044248577 -0.042513337 0.91100001 1.6505495e-38
-0.13693334 -0.039000001 0.91000003 1.7793357e-38
-0.13303526 -0.036944576 0.91060001 1.3628698e-38
-0.052634925 -0.03730667 0.91100001 1.4657973e-38
-0.04956286 -0.039128575 0.91300005 1.6692452e-38
-0.13173398 -0.033294607 0.91200006 1.2512633e-38
-0.12880644 -0.031658337 0.91075003 1.0306092e-38
-0.056813098 -0.031658337 0.91075003 1.7512114e-38
-0.054780003 -0.033041906 0.91300005 1.6578633e-38
-0.12630859 -0.027344286 0.91150004 1.178697e-38
-0.057967503 -0.026704647 0.91187501 1.2330455e-38
-0.12393335 -0.022533335 0.91000003 1.3181433e-38
-0.058527052 -0.022404002 0.91180003 1.1687257e-38
-0.12153334 -0.018228572 0.91150004 1.3918995e-38
-0.11873334 -0.016466668 0.91000003 9.3081825e-39
-0.062267244 -0.017864194 0.91060001 1.4105788e-38
-0.059898574 -0.019096669 0.91150004 1.4471337e-38
-0.11690493 -0.013021431 0.9115001 1.1510425e-38
-0.11353334 -0.011266667 0.91000003 1.2437023e-38
-0.06557779 -0.011844445 0.91000003 1.2077569e-38
-0.062988341 -0.013465477 0.91225004 1.3090277e-38
-0.11564668 -0.0095647629 0.91300005 1.2891531e-38
-0.11190613 -0.0078065312 0.9108572 1.1882774e-38
-0.10833334 -0.0060666669 0.91000003 1.2064317e-38
-0.070200004 -0.0060666669 0.91000003 1.19807e-38
-0.067322046 -0.0080586402 0.9112857 1.1891039e-38
-0.11111763 -0.0043404764 0.91150004 1.0947542e-38
-0.10764239 -0.0034709526 0.91150004 1.132352e-38
-0.10486668 -0.00086666673 0.91000003 1.1035771e-38
-0.071124531 -0.0026021432 0.91075003 1.2245116e-38
-0.068692386 -0.0043476191 0.91300005 1.2713925e-38
-0.10290112 0.0026023812 0.91049999 1.0112351e-38
-0.075400002 0.0034666669 0.91000003 1.602836e-38
-0.072919525 0.0026061905 0.91149998 1.6399305e-38
-0.1017343 0.0069561908 0.91300005 1.269379e-38
-0.099039055 0.0081529533 0.91060001 1.1315533e-38
-0.076928258 0.0078095244 0.91100001 1.7794831e-38
-0.073909529 0.0060866671 0.91300005 1.7508922e-38
-0.096885405 0.011856827 0.91100001 1.5023716e-38
-0.13633303 -0.036335558 0.91566676 1.6960682e-38
-0.051414289 -0.035728574 0.91500002 1.5500099e-38
-0.048340004 -0.037869148 0.9162001 1.6505902e-38
-0.044540003 -0.039300002 0.91700006 1.6598759e-38
-0.13572954 -0.032731429 0.91650003 1.6042686e-38
-0.13284478 -0.031103179 0.9156667 1.2879294e-38
-0.052723948 -0.032033607 0.91614294 1.5120764e-38
-0.049780004 -0.033186667 0.91700006 1.3640996e-38
-0.13158223 -0.027073337 0.917 1.1593939e-38
-0.12868096 -0.027014289 0.91500008 1.0595655e-38
-0.055020005 -0.026200002 0.91700006 1.1674624e-38
-0.053815559 -0.02821683 0.91633338 1.288615e-38
-0.1271235 -0.022980636 0.91633338 1.3100404e-38
-0.12488668 -0.020086668 0.91700006 1.539915e-38
-0.056682862 -0.022383813 0.9156667 1.3621553e-38
-0.12488668 -0.018340001 0.91700006 1.3465951e-38
-0.060128577 -0.016557144 0.91500002 1.3918904e-38
-0.058385719 -0.018300001 0.91500002 1.3914975e-38
-0.12130509 -0.013089208 0.91633338 1.0672749e-38
-0.11938572 -0.012200001 0.91500002 1.1139119e-38
-0.060931623 -0.012744955 0.91660005 1.3545504e-38
-0.1178271 -0.0078545585 0.91642863 1.058378e-38
-0.11415715 -0.0061000003 0.91500002 1.0496978e-38
-0.065357149 -0.0069714291 0.91500002 1.3181056e-38
-0.063281909 -0.0082914289 0.91650003 1.4009005e-38
-0.11210048 -0.0026161908 0.91600001 1.0481145e-38
-0.10842699 -0.001453016 0.9156667 1.0391082e-38
-0.07058572 -0.00087142864 0.91500002 1.4553271e-38
-0.067162864 -0.0026156465 0.9158572 1.5391258e-38
-0.063753337 -0.004366667 0.91700006 1.6137802e-38
-0.10697772 0.002269143 0.9162001 1.0206308e-38
-0.070637152 0.0026174604 0.91566676 1.7511038e-38
-0.068993345 0.0026200002 0.91700006 1.7696509e-38
-0.10567334 0.0061133336 0.91700006 1.2900379e-38
-0.10311906 0.0078428574 0.91500008 1.3724044e-38
-0.072772004 0.0075045722 0.9162001 1.7333464e-38
-0.13931429 -0.035923813 0.92000002 1.7516416e-38
-0.047022223 -0.036507942 0.92000002 1.3729254e-38
-0.044685718 -0.036800005 0.92000002 1.5119369e-38
-0.13867392 -0.032081909 0.92040008 1.7240531e-38
-0.047689803 -0.032168712 0.92000008 1.2797961e-38
-0.044685718 -0.032419052 0.92000002 1.4289239e-38
-0.13683525 -0.02719143 0.921 1.6226752e-38
-0.13405715 -0.026285715 0.92000002 1.4926616e-38
-0.051716961 -0.026472002 0.92040008 1.7143331e-38
-0.048009764 -0.027402144 0.92075002 1.8335414e-38
-0.044319529 -0.026766192 0.92149997 1.6126614e-38
-0.13610478 -0.022830479 0.92200005 1.5860866e-38
-0.13186446 -0.0225127 0.921 1.1144828e-38
-0.12821588 -0.02073651 0.92000002 1.2824557e-38
-0.055824131 -0.020751113 0.92066669 1.4087992e-38
-0.052112382 -0.022986287 0.9212001 1.9092047e-38
-0.1308362 -0.018440001 0.92200005 9.5772626e-39
-0.12718669 -0.017542858 0.921 1.0693669e-38
-0.12354287 -0.01664762 0.92000002 1.437422e-38
-0.057890482 -0.017543811 0.921 1.3729868e-38
-0.12556764 -0.01317143 0.92200011 1.0118168e-38
-0.12372192 -0.013160637 0.92133343 1.0580206e-38
-0.058789849 -0.013160637 0.92133331 1.3729498e-38
-0.12556763 -0.0096590482 0.92200005 9.0085204e-39
-0.12217207 -0.0078920638 0.92066669 1.0303933e-38
-0.061625402 -0.007885715 0.92000002 1.5026747e-38
-0.12029906 -0.0043904763 0.92200005 1.2324257e-38
-0.11720192 -0.0037987304 0.92066669 1.0854206e-38
-0.11419684 -0.0014603175 0.92000002 1.2139167e-38
-0.065714292 -0.00087619055 0.92000002 1.7421343e-38
-0.062838733 -0.0032146033 0.92066669 1.6313962e-38
-0.11503048 0.00087809528 0.92200005 1.5667341e-38
-0.11207467 0.0022811431 0.92080003 1.4830759e-38
-0.066822864 0.0022796192 0.92080003 1.8160336e-38
-0.14037429 -0.02207143 0.92700005 1.6135299e-38
-0.13772224 -0.021436511 0.92500007 1.6043815e-38
-0.13419843 -0.020849209 0.92500007 1.5108479e-38
-0.052052386 -0.020878416 0.92633343 1.7984981e-38
-0.047900002 -0.023214288 0.92566675 1.7517502e-38
-0.044047624 -0.023785716 0.92500007 1.5210023e-38
-0.13578343 -0.01712743 0.92700005 1.6500446e-38
-0.13272715 -0.01675524 0.92600006 1.225155e-38
-0.1295 -0.016738096 0.92500007 9.0922046e-39
-0.056000479 -0.016755238 0.92600006 1.4376997e-38
-0.05385429 -0.018540001 0.92700005 1.5497082e-38
-0.13507715 -0.013242858 0.92700005 1.6589774e-38
-0.13213849 -0.012877524 0.92620009 1.2066081e-38
-0.12861906 -0.013214288 0.92500013 9.9315403e-39
-0.056605149 -0.012872572 0.92580003 1.4746602e-38
-0.13154572 -0.008828572 0.92700005 1.2820925e-38
-0.12789702 -0.0079383682 0.92614299 1.1508569e-38
-0.12421429 -0.0061666672 0.92500007 1.3350972e-38
-0.060785718 -0.0070476197 0.92500007 1.5764007e-38
-0.057853743 -0.0081925187 0.92642868 1.7796989e-38
-0.12231182 -0.0030005716 0.9266001 1.4927972e-38
-0.062173814 -0.0022042859 0.92600012 1.7140852e-38
-0.059151433 -0.0035314288 0.92700005 1.6779261e-38
-0.13905716 -0.022142859 0.93000007 1.6043822e-38
-0.050485719 -0.02037143 0.93000007 1.8622068e-38
-0.04666857 -0.02111581 0.93160003 1.6959955e-38
-0.13728572 -0.015057144 0.93000007 1.6595897e-38
-0.05204929 -0.016611192 0.93025017 1.6958943e-38
-0.047931433 -0.017752383 0.93200004 1.9454287e-38
-0.13679366 -0.012113018 0.9306668 1.6503351e-38
-0.052293342 -0.01240889 0.9306668 1.9549776e-38
-0.13566001 -0.008865715 0.93100005 1.6318244e-38
-0.13273753 -0.007265524 0.93040007 1.4016236e-38
-0.055800002 -0.0070857145 0.93000007 1.872036e-38
-0.052589938 -0.0084903408 0.93142867 1.9637631e-38
-0.048085719 -0.015138096 0.93500006 2.0561414e-38
-0.048110958 -0.012472858 0.93550003 2.0560316e-38
-0.048451118 -0.0092142876 0.93633336 1.8712013e-38
