# .PCD v0.7 - Point Cloud Data file format
VERSION 0.7
FIELDS x y z rgb
SIZE 4 4 4 4
TYPE F F F F
COUNT 1 1 1 1
WIDTH 560
HEIGHT 1
VIEWPOINT 0 0 0 1 0 0 0
POINTS 560
DATA ascii
-0.13487239 -0.05572572 0.84800005 1.8530224e-38
-0.13176 -0.061000004 0.85400003 2.2315664e-38
-0.12688001 -0.061000004 0.85400003 2.341769e-38
-0.12281334 -0.061000004 0.85400003 2.341769e-38
-0.11956001 -0.061000004 0.85400003 2.341769e-38
-0.11224001 -0.061000004 0.85400003 2.341769e-38
-0.10817334 -0.061000004 0.85400003 2.341769e-38
-0.10410667 -0.061000004 0.85400003 2.341769e-38
-0.077266671 -0.061000004 0.85400003 2.341769e-38
-0.074013337 -0.061000004 0.85400003 2.341769e-38
-0.13566762 -0.058492385 0.85300004 1.8804288e-38
-0.13229693 -0.057629004 0.85222226 2.0839463e-38
-0.12752762 -0.057672814 0.85288894 2.3325496e-38
-0.12258922 -0.057642333 0.85244453 2.3325854e-38
-0.11784127 -0.057702865 0.85333341 2.2038364e-38
-0.11287767 -0.05765821 0.85266674 2.2131634e-38
-0.10789269 -0.057597678 0.85177785 2.3325854e-38
-0.10299725 -0.057582226 0.85155565 2.3325496e-38
-0.097503029 -0.057690635 0.85316676 2.3325496e-38
-0.091906667 -0.057746667 0.85400003 2.3325854e-38
-0.087026671 -0.057746675 0.85400003 2.3233659e-38
-0.082146667 -0.057543341 0.85400003 2.3141823e-38
-0.077266671 -0.057746675 0.85400003 2.3049628e-38
-0.072619058 -0.057281915 0.85400003 2.2865957e-38
-0.067913339 -0.056526672 0.85400003 2.0373026e-38
-0.13540256 -0.052700322 0.85133338 1.8346914e-38
-0.13219346 -0.052714508 0.85155565 2.0098656e-38
-0.12722901 -0.052674502 0.85088897 2.2315302e-38
-0.12227006 -0.052633233 0.85022223 1.5401796e-38
-0.11753355 -0.052688681 0.85111123 8.1090858e-39
-0.11264233 -0.052674923 0.85088897 8.1266721e-39
-0.10777968 -0.052672815 0.85088897 2.1211126e-38
-0.10267659 -0.052554291 0.85160011 2.3233659e-38
-0.097293682 -0.052968841 0.8532728 2.3233659e-38
-0.091906674 -0.052866671 0.85400003 2.3233659e-38
-0.087433346 -0.05408667 0.85400003 2.3141466e-38
-0.082146674 -0.054493338 0.85400003 2.3049629e-38
-0.077266678 -0.05368001 0.85400003 2.3049628e-38
-0.072386675 -0.053680003 0.85400003 2.3049628e-38
-0.067506671 -0.053680003 0.85400003 1.9542204e-38
-0.13582668 -0.049613338 0.85400003 1.8347965e-38
-0.13257334 -0.049613338 0.85400003 2.0192278e-38
-0.12741573 -0.048160955 0.85350007 1.9445055e-38
-0.1226544 -0.047923394 0.85288894 1.1611752e-38
-0.11768741 -0.04788636 0.85222232 1.714913e-38
-0.11281756 -0.047886357 0.85222238 1.2082e-38
-0.10833279 -0.048418239 0.85342866 1.438513e-38
-0.10248001 -0.048800003 0.85400003 1.8908421e-38
-0.096786678 -0.048800003 0.85400003 2.0198064e-38
-0.092720002 -0.049613338 0.85400003 2.2037997e-38
-0.12200001 -0.044733338 0.85400003 1.3937827e-38
-0.11760801 -0.044082671 0.85400003 1.4563807e-38
-0.11305334 -0.044733338 0.85400003 8.4126028e-39
-0.13451429 -0.07092572 0.85600007 1.9824939e-38
-0.13410667 -0.068072379 0.85600007 1.991858e-38
-0.11358286 -0.066188574 0.85800004 2.341769e-38
-0.087434292 -0.066188574 0.85800004 2.341769e-38
-0.082531437 -0.066188574 0.85800004 2.341769e-38
-0.078445718 -0.066188574 0.85800004 2.341769e-38
-0.134112 -0.063218288 0.85760003 2.0012214e-38
-0.12790401 -0.062564574 0.85760003 2.341769e-38
-0.1217543 -0.062920004 0.85800004 2.341769e-38
-0.11703239 -0.06287238 0.85733336 2.341769e-38
-0.11256763 -0.063218579 0.85649997 2.341769e-38
-0.10692096 -0.063663818 0.85700005 2.341769e-38
-0.10167315 -0.062179815 0.85680008 2.341769e-38
-0.097110488 -0.062370896 0.85685718 2.341769e-38
-0.092265405 -0.062872387 0.8573333 2.341769e-38
-0.087366357 -0.062872387 0.8573333 2.341769e-38
-0.082403176 -0.062823504 0.85666668 2.341769e-38
-0.077492863 -0.063014768 0.85650003 2.341769e-38
-0.072613344 -0.062551118 0.85666674 2.341769e-38
-0.068751752 -0.061686359 0.85600013 2.2121143e-38
-0.082339056 -0.059512384 0.85600007 2.3325854e-38
-0.071740955 -0.059512384 0.85600007 2.3049989e-38
-0.067664765 -0.058697149 0.85600007 1.9633667e-38
-0.086904392 -0.052012194 0.85600007 2.3232937e-38
-0.082339056 -0.052175246 0.85600007 2.3233657e-38
-0.077447623 -0.051360004 0.85600013 2.3325853e-38
-0.072556198 -0.051360004 0.85600013 2.3050347e-38
-0.067664772 -0.051360004 0.85600013 1.8892889e-38
-0.13298795 -0.047320005 0.85666668 1.9915698e-38
-0.12962286 -0.046468575 0.85600007 2.0016907e-38
-0.10679621 -0.046468578 0.85600013 1.3021602e-38
-0.10190477 -0.046468578 0.85600013 1.669754e-38
-0.097013339 -0.046468578 0.85600013 1.6516748e-38
-0.091919191 -0.047648717 0.85628581 1.8904824e-38
-0.087320648 -0.048147727 0.85688889 1.8439906e-38
-0.082424134 -0.048147727 0.85688889 2.0464598e-38
-0.077991031 -0.048379596 0.85685718 2.0737952e-38
-0.073090963 -0.049408101 0.85750008 2.0380659e-38
-0.068192862 -0.049408101 0.85750002 1.6687033e-38
-0.1331943 -0.04494286 0.85800004 1.8810075e-38
-0.12768064 -0.043285299 0.85755551 1.1599514e-38
-0.12310096 -0.042935874 0.85600007 8.1309713e-39
-0.11861715 -0.041984767 0.85600007 7.3830058e-39
-0.11231811 -0.04269651 0.85666668 5.3468042e-39
-0.10690667 -0.04325122 0.85688889 9.3914533e-39
-0.10203747 -0.043262437 0.8571111 1.2789714e-38
-0.097330481 -0.043460954 0.85699999 1.19578e-38
-0.092337154 -0.044942863 0.85800004 1.1689521e-38
-0.086617149 -0.04494286 0.85800004 1.0853693e-38
-0.08334858 -0.04494286 0.85800004 1.2161663e-38
-0.13350476 -0.071257144 0.86000001 2.1672816e-38
-0.13205068 -0.067092195 0.86120003 2.2590453e-38
-0.12704954 -0.066394292 0.86066675 2.341769e-38
-0.12215163 -0.067061335 0.86080009 2.341769e-38
-0.11690438 -0.067061335 0.86080009 2.341769e-38
-0.11203849 -0.067420579 0.86120003 2.341769e-38
-0.10772344 -0.067061335 0.86080009 2.341769e-38
-0.10261905 -0.066497147 0.86200011 2.341769e-38
-0.097361647 -0.067603819 0.86114293 2.341769e-38
-0.092686914 -0.067875952 0.8612501 2.341769e-38
-0.087760381 -0.067420579 0.86120003 2.341769e-38
-0.0829162 -0.068139061 0.86200011 2.341769e-38
-0.077930167 -0.067539059 0.86133337 2.341769e-38
-0.073031627 -0.067123048 0.86160004 2.341769e-38
-0.069700003 -0.067240953 0.86100006 2.3322561e-38
-0.13132066 -0.064158738 0.86000001 2.341769e-38
-0.12695239 -0.064704768 0.86000001 2.341769e-38
-0.12203811 -0.064704768 0.86000001 2.341769e-38
-0.11876191 -0.064704768 0.86000001 2.341769e-38
-0.10238096 -0.064704768 0.86000001 2.341769e-38
-0.097466677 -0.064704768 0.86000001 2.341769e-38
-0.072160959 -0.064780004 0.86100006 2.341769e-38
-0.069619052 -0.064704768 0.86000001 2.3411886e-38
-0.13350476 -0.045047622 0.86000001 1.890083e-38
-0.089276195 -0.045047622 0.86000001 1.0582107e-38
-0.081085719 -0.045047622 0.86000001 1.2895296e-38
-0.077225141 -0.046073146 0.86080009 1.3995505e-38
-0.072782323 -0.046762183 0.86142862 1.3901482e-38
-0.069233663 -0.045699686 0.86200011 1.2347432e-38
-0.13545716 -0.041868575 0.86200005 1.9178808e-38
-0.1321874 -0.041602142 0.86075002 1.5289737e-38
-0.12695239 -0.040133335 0.86000001 9.8343995e-39
-0.12203811 -0.040133335 0.86000001 9.3752641e-39
-0.11712383 -0.040133335 0.86000001 5.7890722e-39
-0.11220953 -0.040133335 0.86000001 5.1472832e-39
-0.10737716 -0.040164448 0.86066675 1.1222631e-38
-0.10238096 -0.040133335 0.86000001 1.4261106e-38
-0.097057149 -0.04054286 0.86000001 1.3433139e-38
-0.092647634 -0.041813333 0.86088896 1.1950182e-38
-0.087773971 -0.041834924 0.86133337 1.3531909e-38
-0.082873024 -0.041846141 0.86155558 1.5466228e-38
-0.078811437 -0.043510478 0.86200005 1.3544093e-38
-0.068139061 -0.040226668 0.86200011 1.6597369e-38
-0.06485524 -0.040226668 0.86200005 1.8719653e-38
-0.13545716 -0.037763812 0.86200005 1.8533436e-38
-0.13217334 -0.037763815 0.86200011 1.556483e-38
-0.12719779 -0.037748888 0.86166668 1.1578547e-38
-0.12247483 -0.037386399 0.86142862 1.2314308e-38
-0.1173962 -0.037763812 0.86200011 1.0941444e-38
-0.11247049 -0.037411977 0.86200011 9.1961809e-39
-0.10787314 -0.037928004 0.86200011 1.2882964e-38
-0.10302953 -0.03817429 0.86200005 1.8530174e-38
-0.097693346 -0.038584765 0.86200011 1.9998052e-38
-0.13655715 -0.077796191 0.86900002 2.1393683e-38
-0.13324668 -0.075313337 0.86900002 2.2866677e-38
-0.10096953 -0.075313337 0.86900002 2.3142183e-38
-0.096831433 -0.075727142 0.86900002 2.3234011e-38
-0.093520962 -0.075313337 0.86900002 2.3229346e-38
-0.13251252 -0.07209947 0.86728585 2.3141466e-38
-0.12801895 -0.071857676 0.86722231 2.341769e-38
-0.12272877 -0.072021537 0.86720008 2.341769e-38
-0.11752541 -0.07183969 0.86700004 2.3325854e-38
-0.11277334 -0.071466677 0.86750007 2.3417331e-38
-0.10760178 -0.071697019 0.8681429 2.2865599e-38
-0.10303715 -0.071653344 0.86725008 2.3141825e-38
-0.098353103 -0.071961671 0.86600012 2.3325496e-38
-0.092838578 -0.07220953 0.86650008 2.3325496e-38
-0.087491117 -0.07098572 0.86666673 2.341769e-38
-0.082133107 -0.07161238 0.86675006 2.341769e-38
-0.07734064 -0.071839698 0.86700004 2.341769e-38
-0.07299199 -0.071580276 0.86671436 2.3049631e-38
-0.13263334 -0.068376198 0.86500007 2.341769e-38
-0.12769048 -0.068376198 0.86500013 2.341769e-38
-0.12274763 -0.068376198 0.86500007 2.341769e-38
-0.11945239 -0.068376198 0.86500007 2.341769e-38
-0.10627144 -0.068376198 0.86500007 2.341769e-38
-0.1029762 -0.068376198 0.86500013 2.341769e-38
-0.07661429 -0.068376198 0.86500007 2.341769e-38
-0.073319055 -0.068376198 0.86500007 2.341769e-38
-0.073319055 -0.045309525 0.86500007 1.0122883e-38
-0.13592859 -0.04201429 0.86500007 1.9453597e-38
-0.078026533 -0.04154354 0.86500013 1.389997e-38
-0.072719924 -0.042164076 0.86500013 1.3912526e-38
-0.067826994 -0.042563498 0.86500013 1.7238784e-38
-0.13273685 -0.035451114 0.86566675 1.6401045e-38
-0.12769048 -0.035423812 0.86500013 1.1395572e-38
-0.12192382 -0.035423812 0.86500007 1.6036245e-38
-0.11780477 -0.035423812 0.86500013 1.7965788e-38
-0.11286192 -0.035423812 0.86500007 1.4823629e-38
-0.10750715 -0.035835713 0.86500007 1.2341321e-38
-0.10264669 -0.03608286 0.86500007 1.4107791e-38
-0.098108262 -0.036274925 0.86566675 1.4659862e-38
-0.092684597 -0.03699749 0.86681819 1.3351795e-38
-0.087249212 -0.037154607 0.8670001 1.6022972e-38
-0.082169153 -0.037364002 0.86800003 1.5373638e-38
-0.07720504 -0.037715785 0.86900008 1.2873943e-38
-0.071734771 -0.037416667 0.86825001 1.2509843e-38
-0.066763707 -0.037090059 0.86544454 1.7606465e-38
-0.13290763 -0.032193337 0.86677784 1.6495033e-38
-0.1278217 -0.032159895 0.86588901 1.1301583e-38
-0.12293683 -0.032175981 0.86633343 1.4922778e-38
-0.11789557 -0.032152068 0.86566675 2.1203467e-38
-0.11294891 -0.032152068 0.86566681 1.79608e-38
-0.10761067 -0.032064505 0.86736381 1.538625e-38
-0.1025062 -0.032445475 0.86800003 1.6384525e-38
-0.097271435 -0.033211842 0.86871433 1.8246778e-38
-0.092279531 -0.033518575 0.86900002 1.5733713e-38
-0.087313816 -0.033518575 0.86900002 1.5933251e-38
-0.083589531 -0.033932384 0.86900002 1.3432259e-38
-0.070347622 -0.033932384 0.86900002 1.1020736e-38
-0.066934936 -0.033053335 0.86766672 1.6960029e-38
-0.13159144 -0.028966669 0.86900002 1.3911367e-38
-0.12828097 -0.028966671 0.86900008 1.1118275e-38
-0.12248763 -0.02855286 0.86900002 1.4559708e-38
-0.11743112 -0.028116828 0.86833334 1.9817407e-38
-0.11266878 -0.028622288 0.86860001 1.8890364e-38
-0.13219716 -0.080648579 0.87300003 2.341769e-38
-0.12720858 -0.080648579 0.87300003 2.341769e-38
-0.075660005 -0.080648579 0.87300003 2.341769e-38
-0.071502864 -0.080648579 0.87300003 1.9633387e-38
-0.13536763 -0.078065723 0.87200004 2.24075e-38
-0.13204619 -0.077443101 0.8720001 2.341769e-38
-0.12701429 -0.07720603 0.87166679 2.341769e-38
-0.12206403 -0.077225722 0.871889 2.3417328e-38
-0.117305 -0.077027865 0.8720001 2.3325129e-38
-0.11213268 -0.07677348 0.87214297 2.2679772e-38
-0.10711778 -0.077225722 0.871889 2.2865592e-38
-0.10236885 -0.077697292 0.87185729 2.3048553e-38
-0.097188003 -0.078249723 0.87220001 2.2493224e-38
-0.09219797 -0.077248029 0.87214297 2.0932022e-38
-0.087300003 -0.07649143 0.87300009 2.3050348e-38
-0.081966683 -0.076748177 0.87185729 2.341769e-38
-0.077204764 -0.077206045 0.87166679 2.341769e-38
-0.072186567 -0.077165827 0.87122238 2.0929141e-38
-0.1111562 -0.073827624 0.87100005 2.3141106e-38
-0.10700858 -0.073827624 0.87100005 2.2681928e-38
-0.0904181 -0.073827624 0.87100005 2.2590453e-38
-0.087100014 -0.073827624 0.87100005 2.3234019e-38
-0.083781913 -0.073827624 0.87100005 2.341769e-38
-0.076316193 -0.035669528 0.87100005 1.084671e-38
-0.073827624 -0.035669528 0.87100005 1.2223873e-38
-0.10037239 -0.030692384 0.87100005 1.8362595e-38
-0.097054295 -0.030692384 0.87100005 1.9912845e-38
-0.091745339 -0.031356003 0.87100011 1.7678524e-38
-0.086768202 -0.031356003 0.87100011 1.5933616e-38
-0.081962146 -0.032161668 0.87150013 1.7141159e-38
-0.077243708 -0.032391429 0.8721112 1.2406069e-38
-0.072459288 -0.032179765 0.8720001 1.1670692e-38
-0.068020955 -0.030692384 0.87100005 1.6033059e-38
-0.13562715 -0.026959525 0.87100005 1.6963592e-38
-0.1322611 -0.026925581 0.87185729 1.4644669e-38
-0.12701494 -0.026564445 0.87166679 1.1394811e-38
-0.12227183 -0.026378859 0.87100011 1.2983791e-38
-0.11696287 -0.025715239 0.87100005 1.981811e-38
-0.11165392 -0.026378859 0.87100011 1.7972753e-38
-0.10700858 -0.027374284 0.87100017 1.7797005e-38
-0.10210869 -0.027394393 0.87166679 1.7788318e-38
-0.097202875 -0.027414924 0.87233341 1.9644149e-38
-0.09226466 -0.027429739 0.87277782 1.7409888e-38
-0.087457389 -0.027628336 0.87250006 1.6680924e-38
-0.082727149 -0.028684288 0.87300003 1.63161e-38
-0.070671432 -0.028268574 0.87300003 1.1392376e-38
-0.068010859 -0.027769718 0.87300009 1.5939055e-38
-0.13671063 -0.022448573 0.87300014 1.6781729e-38
-0.1319596 -0.022686126 0.87300014 1.4190135e-38
-0.12720859 -0.022448575 0.87300009 1.1313022e-38
-0.12215821 -0.0224363 0.87255561 1.1609775e-38
-0.11714191 -0.022430161 0.87233341 1.3176782e-38
-0.11215714 -0.022430161 0.87233341 1.0964074e-38
-0.10725429 -0.02328 0.87300009 1.2431995e-38
-0.10392858 -0.023280002 0.87300003 1.5078011e-38
-0.08896286 -0.024111429 0.87300003 1.3996919e-38
-0.13541938 -0.017447937 0.87233341 1.714837e-38
-0.13319486 -0.01712743 0.87300009 1.6873182e-38
-0.1164 -0.019122858 0.87300003 1.4483999e-38
-0.11307429 -0.019122858 0.87300003 1.9906521e-38
-0.14131621 -0.087800004 0.87800002 1.9178821e-38
-0.14361113 -0.083055571 0.87500012 1.8808972e-38
-0.1378143 -0.081854299 0.87700003 2.0284842e-38
-0.132615 -0.081737392 0.87575001 2.341769e-38
-0.12802596 -0.081737384 0.87575006 2.3141822e-38
-0.12250002 -0.080833338 0.87500012 2.1026366e-38
-0.11750001 -0.080833338 0.87500012 2.0924794e-38
-0.11250001 -0.080833338 0.87500012 2.0373771e-38
-0.10750001 -0.080833338 0.87500012 2.1020243e-38
-0.10250001 -0.080833338 0.87500012 2.2682644e-38
-0.098333344 -0.080833338 0.87500006 2.3325849e-38
-0.09281715 -0.081110485 0.87800002 2.0655082e-38
-0.086963817 -0.081110485 0.87800002 2.2958154e-38
-0.082690492 -0.081018105 0.87700003 2.341769e-38
-0.07756643 -0.081737384 0.87575006 2.341769e-38
-0.07416667 -0.080833338 0.87500006 2.341769e-38
-0.13916668 -0.079166673 0.87500006 1.9812354e-38
-0.11583334 -0.079166673 0.87500006 2.3417661e-38
-0.11250001 -0.079166673 0.87500006 2.1849277e-38
-0.090833336 -0.079166673 0.87500006 2.3416967e-38
-0.087500006 -0.079166673 0.87500012 2.3050348e-38
-0.083333343 -0.079166673 0.87500006 2.341769e-38
-0.085833341 -0.025833335 0.87500006 1.5843582e-38
-0.082278676 -0.026535431 0.87620002 1.4178764e-38
-0.077588573 -0.027529527 0.87600005 1.3422714e-38
-0.07304804 -0.027287217 0.87585723 1.3142551e-38
-0.069166668 -0.025833335 0.87500006 1.4452083e-38
-0.13333334 -0.021666668 0.87500006 1.6224168e-38
-0.10762095 -0.020857144 0.87600011 1.3172807e-38
-0.10234033 -0.022523811 0.87600005 1.5007688e-38
-0.097500011 -0.023333333 0.87500012 1.7611506e-38
-0.092306413 -0.022986399 0.87542868 1.2243704e-38
-0.087649047 -0.022816351 0.87650001 1.3894254e-38
-0.083200961 -0.023831429 0.87800002 1.1575702e-38
-0.069166668 -0.024166668 0.87500006 1.4081142e-38
-0.13125001 -0.017916668 0.87500006 1.4277675e-38
-0.12769492 -0.017524762 0.87633336 1.1602238e-38
-0.12285811 -0.017992519 0.87585723 1.2448143e-38
-0.11801882 -0.017931668 0.87575001 1.3184309e-38
-0.11237262 -0.017961668 0.87725002 1.7598432e-38
-0.10762095 -0.019188574 0.87600011 1.5106728e-38
-0.10452382 -0.019232383 0.87800002 1.7225401e-38
-0.13234724 -0.013517144 0.87620002 1.595088e-38
-0.12960953 -0.014215239 0.87800002 1.4181906e-38
-0.13554667 -0.090083815 0.88400006 2.341769e-38
-0.13245143 -0.091242857 0.88300008 2.341769e-38
-0.1270602 -0.092147432 0.88120002 2.341769e-38
-0.1215162 -0.091242865 0.88300002 2.2958511e-38
-0.11786668 -0.090083815 0.88400006 2.3417689e-38
-0.1428 -0.086520009 0.88200003 1.9270662e-38
-0.13771927 -0.087335005 0.88174999 2.0838376e-38
-0.13183729 -0.088171981 0.8817144 2.341769e-38
-0.12727006 -0.088111542 0.88111115 2.2590087e-38
-0.12232848 -0.087804876 0.88177782 1.9821364e-38
-0.11693588 -0.087492704 0.88333338 2.0839821e-38
-0.11188763 -0.086650804 0.88333338 2.1853248e-38
-0.10692191 -0.086716197 0.88400006 2.2499329e-38
-0.10187049 -0.085032389 0.88400006 2.3141825e-38
-0.097660959 -0.085032389 0.88400006 2.249718e-38
-0.091767631 -0.085032389 0.88400006 2.2866318e-38
-0.088400006 -0.085032389 0.88400006 2.3050348e-38
-0.082506672 -0.086716197 0.88400006 2.341769e-38
-0.076613337 -0.085032389 0.88400006 2.341769e-38
-0.07408762 -0.085032389 0.88400006 2.2035116e-38
-0.14241271 -0.084217153 0.88133335 1.8716433e-38
-0.13768047 -0.084791914 0.88150007 2.0836581e-38
-0.13279937 -0.084153019 0.88066673 2.341769e-38
-0.12780952 -0.084228575 0.88000005 2.2312776e-38
-0.12279947 -0.083984233 0.88057154 1.8440927e-38
-0.11746572 -0.083905719 0.88100004 1.8993733e-38
-0.11243144 -0.083905719 0.88100004 1.9546931e-38
-0.10787659 -0.083718859 0.88080007 1.9823529e-38
-0.10362287 -0.083485715 0.88100004 2.2039077e-38
-0.09774857 -0.082646675 0.88100004 2.1942212e-38
-0.093240008 -0.082740963 0.88200003 2.0751226e-38
-0.088159248 -0.083123058 0.88160002 2.2957795e-38
-0.083097786 -0.083937153 0.88133335 2.341769e-38
-0.079179689 -0.084217153 0.88133335 2.341769e-38
-0.073752388 -0.082971431 0.88000005 2.2131983e-38
-0.10140953 -0.020952383 0.88000005 1.4558856e-38
-0.098057151 -0.020952385 0.88000005 1.6941916e-38
-0.093866676 -0.020952383 0.88000005 1.0674512e-38
-0.087161914 -0.020952383 0.88000005 1.5483028e-38
-0.082673147 -0.021632385 0.8804 1.0842369e-38
-0.078001902 -0.022644445 0.88066673 1.305969e-38
-0.07293313 -0.022633865 0.88022226 1.2227072e-38
-0.12236191 -0.015923811 0.88000005 1.2355939e-38
-0.11817144 -0.015923811 0.88000005 1.3277953e-38
-0.11314287 -0.015923811 0.88000005 1.9269866e-38
-0.10815462 -0.016767938 0.88033342 1.704964e-38
-0.10296405 -0.01740405 0.88075006 1.7044209e-38
-0.098131441 -0.017612064 0.88066673 1.8153869e-38
-0.093099058 -0.017612064 0.88066667 1.6048525e-38
-0.087802485 -0.017458096 0.88140005 1.8607289e-38
-0.082996674 -0.017859049 0.88249999 1.0664454e-38
-0.078149527 -0.018486669 0.8823334 1.4561444e-38
-0.073135242 -0.017652065 0.88266671 1.4374193e-38
-0.069772705 -0.017652065 0.88266671 1.5664156e-38
-0.13167939 -0.010903493 0.88066673 1.5675423e-38
-0.12749834 -0.012371192 0.88075 1.3812429e-38
-0.12228331 -0.012738702 0.88109106 1.0964806e-38
-0.11676 -0.012600001 0.88200003 1.4475056e-38
-0.11183176 -0.012611851 0.88288891 1.7330243e-38
-0.10716116 -0.013289143 0.88320011 1.4390092e-38
-0.10283315 -0.013969145 0.88360006 1.6684905e-38
-0.097067438 -0.013289143 0.88320011 1.5292632e-38
-0.09236899 -0.013091701 0.8828572 1.788957e-38
-0.088299058 -0.01387524 0.88300002 1.8611602e-38
-0.13049525 -0.0092609534 0.88400006 1.4118509e-38
-0.12672327 -0.008046804 0.8828572 1.1959844e-38
-0.12195303 -0.0075682541 0.88311112 1.1956618e-38
-0.11696552 -0.0075724879 0.88355553 1.2607807e-38
-0.11365715 -0.0092609534 0.88400006 1.1339782e-38
-0.13769621 -0.090389527 0.88700002 2.1213638e-38
-0.11755429 -0.092465721 0.88800001 2.341769e-38
-0.11216591 -0.091189146 0.88819999 2.341769e-38
-0.10752667 -0.091016673 0.88900006 2.341769e-38
-0.10244668 -0.090593338 0.88900012 2.341769e-38
-0.097366676 -0.090593338 0.88900012 2.341769e-38
-0.093415573 -0.091157787 0.88900012 2.341769e-38
-0.085513338 -0.090593338 0.88900006 2.341769e-38
-0.082126677 -0.090593338 0.88900012 2.341769e-38
-0.077017151 -0.09140604 0.88866663 2.3416957e-38
-0.11243906 -0.088766679 0.8876667 2.2590812e-38
-0.10733239 -0.088064194 0.88740009 2.2774121e-38
-0.10237049 -0.087987944 0.88833344 2.3325854e-38
-0.097000144 -0.087578923 0.8878572 2.2774481e-38
-0.092182867 -0.087955251 0.88800001 2.341769e-38
-0.087076515 -0.08792191 0.8876667 2.341769e-38
-0.081519529 -0.088277623 0.88700002 2.341769e-38
-0.076930486 -0.08792191 0.8876667 2.3417326e-38
-0.080252387 -0.016050477 0.88700002 1.5317012e-38
-0.077718101 -0.016050477 0.88700002 1.7972006e-38
-0.10728477 -0.010981905 0.88700002 1.3276221e-38
-0.1018783 -0.011657715 0.88700002 1.475521e-38
-0.097147629 -0.010981905 0.88700002 1.1944054e-38
-0.092079051 -0.010981905 0.88700002 1.3539194e-38
-0.086512074 -0.012116509 0.8876667 1.1678634e-38
-0.082315244 -0.013174559 0.88842869 1.548601e-38
-0.077385344 -0.013716 0.88900006 1.6881843e-38
-0.071804777 -0.014360953 0.88700002 1.5312012e-38
-0.13295096 -0.0073966673 0.88775003 1.5579935e-38
-0.12840381 -0.0059133335 0.88700002 1.1587459e-38
-0.11223619 -0.0073971432 0.88775003 1.1145244e-38
-0.10770763 -0.0078290477 0.88875002 1.2722599e-38
-0.10244668 -0.0084666666 0.88900006 1.2720391e-38
-0.097030893 -0.0080948314 0.88814288 1.1148715e-38
-0.092182867 -0.008456191 0.88800001 9.1962103e-39
-0.087580003 -0.0088847624 0.88849998 1.0212098e-38
-0.13208 -0.0042333337 0.88900006 1.4927353e-38
-0.12742333 -0.0038100006 0.88900006 1.1764308e-38
-0.12276667 -0.003386667 0.88900006 1.2043052e-38
-0.11763448 -0.0035540953 0.88860005 1.2498999e-38
-0.11252096 -0.0042301593 0.88833344 1.1966352e-38
-0.10752668 -0.0042333337 0.88900012 1.1713487e-38
-0.10244668 -0.0042333337 0.88900006 1.2265158e-38
-0.10279049 -0.095996201 0.89200008 2.341769e-38
-0.097488582 -0.096637145 0.89400005 2.3417689e-38
-0.094191432 -0.097585723 0.89100003 2.341769e-38
-0.085994288 -0.096211433 0.89400005 2.341769e-38
-0.11625429 -0.094191432 0.89100003 2.341769e-38
-0.11328429 -0.093767151 0.89100003 2.341769e-38
-0.10776857 -0.09351258 0.89099997 2.341769e-38
-0.10267715 -0.09334287 0.89099997 2.341769e-38
-0.097585723 -0.09334287 0.89099997 2.341769e-38
-0.092146441 -0.092572153 0.89175004 2.341769e-38
-0.087528989 -0.092629403 0.89228582 2.341769e-38
-0.08240477 -0.093448594 0.89200008 2.341769e-38
-0.078068577 -0.094191432 0.89100003 2.341769e-38
-0.08146286 -0.011031429 0.89100003 1.5687322e-38
-0.07679572 -0.011455715 0.89100003 1.3912924e-38
-0.072250009 -0.011898573 0.8925001 1.2143184e-38
-0.068965718 -0.011068572 0.89400005 1.271897e-38
-0.10607143 -0.0059400005 0.89100003 1.2630372e-38
-0.10267715 -0.0059400005 0.89100003 1.2722527e-38
-0.098434292 -0.0059400005 0.89100003 1.3737732e-38
-0.092494294 -0.0059400005 0.89100003 1.1982806e-38
-0.087063439 -0.0066188574 0.89099997 1.1212582e-38
-0.082403809 -0.00764381 0.89200002 1.3069835e-38
-0.07759393 -0.0078646429 0.89287508 1.3615784e-38
-0.074074291 -0.008514286 0.89400005 1.1580703e-38
-0.1322419 -0.0019809525 0.89200008 1.4369897e-38
-0.12847374 -0.0015274285 0.89099997 1.1676824e-38
-0.12304287 -0.00084857148 0.89100003 1.2228144e-38
-0.11795144 -0.0012728572 0.89100003 1.241003e-38
-0.11286001 -0.001697143 0.89099997 1.1953425e-38
-0.1078281 -0.0016976192 0.8915 1.1050514e-38
-0.10289323 -0.0023367859 0.89287508 1.198569e-38
-0.097791083 -0.0027617859 0.89287508 1.2908029e-38
-0.092959188 -0.0030367349 0.89314294 1.2628554e-38
-0.087697148 -0.0042571435 0.89400005 1.1673953e-38
-0.13026857 0.0008514286 0.89400005 1.2614934e-38
-0.12700383 0.0025533333 0.89300007 1.2422962e-38
-0.12251556 0.0023631745 0.8926667 1.2044157e-38
-0.11784915 0.0015314285 0.89280003 1.1958782e-38
-0.11324 0.0012771429 0.89400005 1.1603694e-38
-0.10898286 0.0008514286 0.89400005 1.179559e-38
-0.09275353 -0.097196199 0.89680004 2.341769e-38
-0.08835239 -0.097582102 0.89720005 2.341769e-38
-0.083626673 -0.096426673 0.89600003 2.341769e-38
-0.092160001 -0.094720006 0.89600003 2.341769e-38
-0.089600004 -0.094720006 0.89600003 2.341769e-38
-0.075946674 -0.0059733335 0.89600003 1.6766609e-38
-0.072045721 -0.0074361907 0.89600003 1.3423863e-38
-0.068437338 -0.0073386668 0.89600003 1.2804037e-38
-0.13598287 -0.0017104764 0.89800006 1.6041283e-38
-0.1342724 -0.00085523818 0.89800006 1.5763599e-38
-0.09813334 -0.00085333339 0.89600003 1.2814751e-38
-0.092160001 -0.00085333339 0.89600003 1.2999497e-38
-0.087925404 -0.0017069842 0.89633334 1.2515512e-38
-0.083102621 -0.0027759527 0.89725012 1.6592342e-38
-0.077740006 -0.0034161913 0.89700001 1.8259764e-38
-0.072641276 -0.0025625399 0.89733338 1.7513179e-38
-0.068770483 -0.0029885718 0.89700007 1.2525651e-38
-0.13598287 0.00085523818 0.89800006 1.5304441e-38
-0.13259168 0.0027759529 0.89674997 1.4928792e-38
-0.12885334 0.0042666672 0.89600003 1.3152941e-38
-0.12202667 0.0042666672 0.89600003 1.1395188e-38
-0.11648 0.0038400004 0.89600003 1.104437e-38
-0.11159506 0.0035897146 0.89720005 1.0871865e-38
-0.10707016 0.0031336509 0.89700007 1.1058365e-38
-0.10276001 0.0025631748 0.89666677 1.1894586e-38
-0.098028578 0.0023504766 0.89700001 1.2629284e-38
-0.093382381 0.0023514288 0.8975001 1.2718609e-38
-0.089229852 0.001425397 0.89800012 1.3637982e-38
-0.069274291 0.00085523818 0.89800006 1.2623217e-38
-0.13598287 0.0094076199 0.89800006 1.5766113e-38
-0.13298954 0.0064142868 0.89800006 1.5110309e-38
-0.12738383 0.0068396833 0.89766681 1.4717431e-38
-0.12193798 0.0072027212 0.89714301 1.4721743e-38
-0.11759524 0.0064142868 0.89800006 1.3890144e-38
-0.11374667 0.0059866672 0.89800006 1.325196e-38
-0.10861524 0.0059866672 0.89800006 1.3433454e-38
-0.081519052 -0.0008580953 0.90100002 1.8447094e-38
-0.078086674 -0.00085809536 0.90100002 1.8818368e-38
-0.090958104 0.0042904764 0.90100002 1.1891017e-38
-0.087017164 0.0031495241 0.90166676 1.2808979e-38
-0.08306817 0.0020869391 0.9018572 1.5214773e-38
-0.078410007 0.002364286 0.90224999 1.7422449e-38
-0.073046036 0.0025793652 0.90233338 1.750814e-38
-0.069582865 0.0034371431 0.90200007 1.6861994e-38
-0.13266154 0.0087525724 0.90100002 1.4653696e-38
-0.12785619 0.0094390493 0.90100002 1.6691338e-38
-0.12356572 0.0094390484 0.90100002 1.7055767e-38
-0.11721581 0.0087525724 0.90100002 1.5844677e-38
-0.11228858 0.0079447627 0.90175003 1.5196416e-38
-0.10713667 0.0079452386 0.90175003 1.5384786e-38
-0.10216413 0.0077275136 0.90144455 1.5484159e-38
-0.097083919 0.0077336514 0.90211117 1.5481645e-38
-0.092347145 0.0064433338 0.90200007 1.5112826e-38
-0.088580005 0.0060200002 0.90300006 1.5762179e-38
-0.13502 0.0129 0.90300006 1.6131996e-38
-0.13315144 0.01159762 0.90200007 1.5671413e-38
-0.12771 0.011609999 0.90300006 1.779951e-38
-0.12288922 0.012031747 0.90233338 1.8443802e-38
-0.11818381 0.01160381 0.90250009 1.6129937e-38
-0.11438001 0.01118 0.90300006 1.5667174e-38
-0.10578001 0.01118 0.90300006 1.5298404e-38
-0.10148001 0.01118 0.90300006 1.5388803e-38
-0.098900005 0.01118 0.90300006 1.5475633e-38
-0.083604768 0.0043095243 0.90500003 1.3006719e-38
-0.076709531 0.0043095243 0.90500003 1.7235542e-38
-0.091939054 0.0087977154 0.90560007 1.7702298e-38
-0.086945124 0.0079844054 0.90612513 1.8166066e-38
-0.082061917 0.007776191 0.90700012 1.8165011e-38
-0.077257715 0.0070870481 0.90740007 1.7887746e-38
-0.072598584 0.0066265087 0.90750003 1.8259035e-38
-0.068316191 0.0077828579 0.90800005 1.5484532e-38
-0.13201906 0.013519365 0.90600008 1.5763991e-38
-0.12744597 0.014257858 0.90725005 1.7886691e-38
-0.11741334 0.013814762 0.90650004 1.7421027e-38
-0.11278692 0.013156192 0.9057501 1.6774204e-38
-0.10808751 0.013162263 0.90612507 1.6318269e-38
-0.10295865 0.013441907 0.90628588 1.7975237e-38
-0.097380839 0.013172977 0.90687507 1.7422401e-38
-0.092529535 0.012106667 0.90800011 1.6597017e-38
-0.087773338 0.011674287 0.90800005 1.7424645e-38
-0.082152389 0.011241905 0.90800011 1.9362146e-38
-0.077133343 0.0095333336 0.91000003 1.9179946e-38
-0.071500003 0.0091000004 0.91000003 1.9549061e-38
-0.067600004 0.0095333336 0.91000003 1.2065456e-38
