# .PCD v0.7 - Point Cloud Data file format
VERSION 0.7
FIELDS x y z
SIZE 4 4 4
TYPE F F F
COUNT 1 1 1
WIDTH 1453
HEIGHT 1
VIEWPOINT 0 0 0 1 0 0 0
POINTS 1453
DATA ascii
0.41505083 -0.15730488 0.98463631
0.42491409 -0.15787652 0.98299998
0.43534482 -0.15725863 0.98320001
0.44532201 -0.15678526 0.98356253
0.45428631 -0.15759651 0.98360002
0.46612567 -0.15803531 0.98530775
0.47470555 -0.15825137 0.98468757
0.48511598 -0.15722314 0.98150009
0.49503419 -0.1572932 0.98300004
0.5046621 -0.15791698 0.98262495
0.51620817 -0.15903419 0.98000002
0.52619511 -0.15885499 0.98100007
0.53493601 -0.1578953 0.9814167
-0.24462886 -0.14016095 0.98800004
-0.23839203 -0.14016095 0.98800004
-0.22428493 -0.14134316 0.98800004
-0.2138406 -0.14252394 0.98418194
-0.20625047 -0.14226566 0.9841429
-0.19421449 -0.14067817 0.98800004
-0.18393008 -0.14088099 0.98580009
-0.1751169 -0.14096674 0.98640007
-0.16452126 -0.14109176 0.98314297
-0.15530723 -0.14048083 0.98300004
-0.14503473 -0.14055228 0.9835
-0.13469405 -0.14036651 0.98220009
-0.1241196 -0.14177021 0.98400009
-0.1135735 -0.14308587 0.98481834
-0.1049108 -0.14435066 0.98400015
-0.095365785 -0.1444034 0.98400009
-0.084794439 -0.14471947 0.98318195
-0.074211627 -0.14365612 0.98300004
-0.064556211 -0.14514484 0.98426074
-0.055387542 -0.14553601 0.9848237
-0.045324311 -0.14638682 0.9855001
-0.035530388 -0.14672178 0.98342866
-0.025726678 -0.14817104 0.98450005
-0.014839973 -0.14780027 0.98375005
-0.0044060815 -0.14804383 0.98600006
0.005139688 -0.14739557 0.98369235
0.014579375 -0.14797997 0.98266667
0.024590261 -0.14841187 0.98100007
0.034784544 -0.14911558 0.98225003
0.045117337 -0.14726329 0.98214293
0.055427104 -0.14873873 0.98180008
0.063425064 -0.14974365 0.98300004
0.085488237 -0.14974363 0.98300004
0.097487286 -0.14861357 0.98233342
0.10348155 -0.14856315 0.98200005
0.13705921 -0.1495913 0.98200005
0.14325815 -0.1495913 0.98200005
0.15668923 -0.1495913 0.98200005
0.1746662 -0.14959131 0.98200005
-0.3536112 -0.13098347 0.98900002
-0.34238061 -0.13289236 0.98266667
-0.33482069 -0.13419984 0.98352939
-0.32577667 -0.13435738 0.98334998
-0.31613669 -0.13507563 0.98410004
-0.30466077 -0.1350724 0.98428571
-0.29547042 -0.13439672 0.98366678
-0.28533611 -0.1346049 0.98266667
-0.27444592 -0.13464853 0.98468417
-0.26625001 -0.13553214 0.98340017
-0.255799 -0.13735647 0.98419994
-0.24465296 -0.1365433 0.98344445
-0.23489073 -0.13733228 0.98255563
-0.2227712 -0.13711073 0.98177785
-0.21558848 -0.13826756 0.98085719
-0.20508699 -0.13912737 0.98071438
-0.1954442 -0.13802683 0.98200005
-0.18469247 -0.13800929 0.98250002
-0.17578584 -0.13765506 0.98171437
-0.16961607 -0.13814078 0.98100007
-0.14123315 -0.13916789 0.98100007
-0.12059101 -0.13916789 0.98100007
-0.11801074 -0.13916789 0.98100007
-0.51280689 -0.12001879 0.98400003
-0.50348836 -0.12254143 0.98440009
-0.49484953 -0.12482446 0.9837001
-0.48567054 -0.12336562 0.98440009
-0.47439116 -0.12348486 0.98700005
-0.46355838 -0.12430167 0.9845835
-0.45522654 -0.12496968 0.98357153
-0.44459921 -0.12686153 0.98312503
-0.43551609 -0.12745129 0.98410004
-0.42341152 -0.12608519 0.98381823
-0.41576648 -0.12500545 0.98600006
-0.40610886 -0.12535867 0.98545468
-0.39452603 -0.12611729 0.98386669
-0.38458878 -0.12631799 0.98347068
-0.37509876 -0.12524222 0.98366672
-0.36470592 -0.12471418 0.986
-0.35518232 -0.12568808 0.98285723
-0.34610635 -0.12704805 0.98100007
-0.32649633 -0.12992394 0.98100007
-0.50349927 -0.11977485 0.98200005
-0.41361448 -0.11977485 0.98200005
0.53776789 -0.170894 0.99833339
0.54540604 -0.17106241 0.99757159
0.55284286 -0.17100811 0.99900007
0.098244108 -0.16022716 0.99700004
0.10375105 -0.16022716 0.99700004
0.13443255 -0.16074909 0.99700004
0.14229961 -0.16127102 0.99700004
0.20663321 -0.16022718 0.9970001
0.21589541 -0.16054858 0.99900007
0.22579487 -0.16166462 0.99862504
0.23455146 -0.16176887 0.99900007
0.2448041 -0.16223791 0.99866676
0.2518937 -0.16264048 0.99900007
0.37635291 -0.16499324 0.99425006
0.38511881 -0.16331908 0.99675006
0.3952792 -0.16308089 0.99599999
0.40518528 -0.1636586 0.995
0.41492856 -0.163661 0.99638468
0.42531916 -0.16267741 0.99410009
0.43475229 -0.16273737 0.9932
0.4462789 -0.16268083 0.99285722
0.45542666 -0.16525595 0.99527276
0.46577752 -0.16528077 0.99523532
0.4752875 -0.16545759 0.99494439
0.48507929 -0.16569845 0.99490494
0.49564129 -0.16559592 0.99564296
0.50508803 -0.16570079 0.99552637
0.51419926 -0.16665381 0.99610007
0.5257414 -0.16726491 0.9953751
0.53545451 -0.16706547 0.99363649
0.54447699 -0.16733204 0.9931429
0.55507326 -0.16715474 0.99472743
0.56501532 -0.16765313 0.99460012
0.57346213 -0.16953053 0.99800003
-0.14251079 -0.15061204 0.99900007
-0.13410242 -0.15152724 0.99900007
-0.12588063 -0.15196061 0.99807715
-0.11460321 -0.15199186 0.99775016
-0.10583431 -0.15119031 0.99660009
-0.093617983 -0.15068115 0.99600005
-0.085861526 -0.15167119 0.99840015
-0.071231134 -0.15202864 0.99800003
-0.063302718 -0.15242872 0.9938001
-0.052748233 -0.15172397 0.99600005
-0.044122238 -0.15365702 0.99680007
-0.036052685 -0.15136516 0.995
-0.025261326 -0.15204899 0.99469995
-0.014936013 -0.15356834 0.99546164
-0.0052406862 -0.1541272 0.99466664
0.0042278823 -0.15578574 0.9961251
0.014471868 -0.15592912 0.99569237
0.025459878 -0.15659152 0.99684632
0.034574736 -0.1547384 0.99600011
0.045843884 -0.15511601 0.995
0.053213257 -0.15498459 0.99350005
0.064619184 -0.15595594 0.99512511
0.075129867 -0.1552209 0.99357158
0.085354708 -0.15790153 0.99550009
0.095809586 -0.15647694 0.99233341
0.10458785 -0.15669936 0.99250013
0.11446058 -0.1573385 0.99372739
0.12611857 -0.1575869 0.99350011
0.13575177 -0.15749981 0.99236369
0.14658783 -0.15729916 0.99357152
0.15601617 -0.15589912 0.99233341
0.16568856 -0.15674062 0.99400002
0.17402612 -0.1571448 0.99400008
0.18479714 -0.15702727 0.99185729
0.19487727 -0.15660857 0.99500006
0.20445766 -0.15766363 0.99400014
0.21516596 -0.15755995 0.99333352
0.22434196 -0.15762578 0.9937501
0.2348216 -0.15745026 0.99415392
0.24375787 -0.15770739 0.99262512
0.38302395 -0.15942362 0.99200004
0.39206913 -0.15942362 0.99200004
0.40876803 -0.15942362 0.99200004
0.41346458 -0.15942362 0.99200004
-0.33445224 -0.14171474 0.99650013
-0.32557118 -0.14085755 0.99475002
-0.31416431 -0.14108977 0.9970001
-0.30769584 -0.14074181 0.9970001
-0.2940596 -0.14039385 0.99700004
-0.28601772 -0.14143771 0.9970001
-0.2752907 -0.14174527 0.99550003
-0.2635051 -0.14278913 0.99550003
-0.25419247 -0.14195895 0.9933334
-0.24484189 -0.14242721 0.99400014
-0.23504812 -0.14242254 0.99475008
-0.22596703 -0.14333835 0.99280006
-0.21523809 -0.14585952 0.99440002
-0.20429233 -0.14583905 0.99710006
-0.19351749 -0.144336 0.99536377
-0.18426993 -0.14504097 0.9940002
-0.17498301 -0.14432369 0.99253863
-0.16435391 -0.14615162 0.99557161
-0.15533376 -0.1457545 0.99385726
-0.14491828 -0.14607254 0.99300003
-0.13537198 -0.1461163 0.99442112
-0.12567884 -0.14652769 0.99392313
-0.11643644 -0.14686304 0.99250007
-0.10463424 -0.14787941 0.99120009
-0.095385179 -0.14823389 0.99257153
-0.08598043 -0.14863926 0.99050009
-0.075476274 -0.14852931 0.99322224
-0.051494814 -0.14903739 0.99200004
-0.044710897 -0.1488643 0.99200004
-0.50019866 -0.13086773 0.99600005
-0.48173541 -0.13021597 0.99900007
-0.47380897 -0.13219717 0.99816674
-0.4644708 -0.1326258 0.99354547
-0.45615372 -0.13180019 0.99516672
-0.44600075 -0.13184434 0.99550009
-0.43243295 -0.13107549 0.99440002
-0.42391461 -0.13051528 0.99200004
-0.41524753 -0.13171616 0.99399996
-0.40476349 -0.13140661 0.99612504
-0.39481431 -0.13136622 0.99450004
-0.38542068 -0.13172676 0.99524999
-0.37520391 -0.1319142 0.99800009
-0.36572927 -0.13249922 0.99650002
-0.35766444 -0.13303468 0.99400008
-0.34371752 -0.13921022 0.99600005
-0.33688912 -0.13855797 0.99133337
-0.32297486 -0.13893068 0.99400008
-0.31552899 -0.1380288 0.99250007
-0.30645975 -0.13844506 0.99300003
-0.29456621 -0.13806842 0.9931429
-0.28411567 -0.13846242 0.99250001
-0.27675539 -0.13865221 0.99200004
-0.26622424 -0.13954896 0.99100006
-0.25579795 -0.13954896 0.99100006
-0.52202547 -0.12533486 0.99900007
-0.51470262 -0.12483461 0.99646169
-0.50479645 -0.12705511 0.99200004
-0.49480799 -0.1279491 0.99300015
-0.48377225 -0.12589452 0.99240005
-0.47470361 -0.12683968 0.99207699
-0.4662452 -0.12861814 0.9912858
-0.45603633 -0.12923838 0.99150008
-0.4492729 -0.12904285 0.99000007
-0.41156435 -0.12826492 0.99200004
-0.40780032 -0.12839422 0.99300003
-0.38025397 -0.12930354 0.99200004
-0.37405506 -0.12855662 0.99425
-0.36495805 -0.12902252 0.99250007
-0.35938036 -0.12930354 0.99200004
0.22742434 -0.17026888 1.0070001
0.23484057 -0.17026888 1.0070001
0.38624683 -0.17154479 1.0067501
0.3971957 -0.17166348 1.0090001
0.41665372 -0.17094243 1.006
0.42469597 -0.17070559 1.0075001
0.43515858 -0.17114227 1.0080001
0.44407219 -0.17094508 1.0078751
0.45528427 -0.17253812 1.0067
0.46400943 -0.1728522 1.0056667
0.47650999 -0.17185597 1.006
0.4847748 -0.17244543 1.0053334
0.49638429 -0.17180693 1.0043333
0.50586015 -0.17226763 1.0056666
0.51537812 -0.17164612 1.00425
0.52482361 -0.17292768 1.0075715
0.53598708 -0.17268734 1.0065001
0.54505348 -0.17420056 1.0046668
0.55553579 -0.17519504 1.0054002
0.56491858 -0.17471875 1.0057141
0.57503021 -0.1744421 1.0058572
0.5809958 -0.17334732 1.0065
-0.050254151 -0.16215569 1.0090001
-0.044930775 -0.16315888 1.0086666
-0.036027037 -0.16177183 1.00825
-0.025201205 -0.16215569 1.0090001
-0.014797864 -0.16215569 1.0090001
-0.0050047874 -0.16262363 1.008625
0.0051196273 -0.16207534 1.0085
0.01626217 -0.16213937 1.0047274
0.025114398 -0.16299984 1.0033333
0.032017864 -0.16224186 1.0056
0.045635894 -0.16326867 1.005
0.054177459 -0.16228159 1.0065
0.065153673 -0.16288859 1.007
0.074824728 -0.1622816 1.0065
0.084518418 -0.16258614 1.0046155
0.094342798 -0.16220629 1.0021819
0.10561546 -0.1626461 1.00225
0.11479656 -0.1617496 1.0021111
0.12531205 -0.1629715 1.005875
0.13659555 -0.16383907 1.0044
0.14523105 -0.16405119 1.0042001
0.15443529 -0.16365989 1.006875
0.16565326 -0.1624274 1.006
0.17463835 -0.16278458 1.0039475
0.18413478 -0.16265717 1.0016668
0.19501279 -0.1625136 1.0046668
0.20437288 -0.16345794 1.0039999
0.21544299 -0.16367304 1.0042502
0.22529127 -0.1658639 1.0035714
0.23447287 -0.16548868 1.001706
0.24543323 -0.16498768 1.0026667
0.25134483 -0.16453817 1.001
0.38513088 -0.1672007 1
0.39448994 -0.16733806 1.0038573
0.40518576 -0.16842031 1.0054001
0.41466299 -0.16808172 1.0023333
0.4246653 -0.16667929 1.0017143
0.43595755 -0.16673186 1.0033334
0.44530612 -0.16696826 1.0030001
0.45507011 -0.1685514 1.0018001
0.46472335 -0.16929665 1.00125
0.47301269 -0.16896175 1.0013335
0.49406213 -0.16837437 1.0020001
0.5046041 -0.16837437 1.0020001
0.51778162 -0.16942346 1.0020001
0.52217412 -0.16942346 1.0020001
0.53306752 -0.16942346 1.0020001
0.56469363 -0.16942346 1.0020001
-0.34502706 -0.15038584 1.008
-0.338664 -0.15038584 1.008
-0.25435317 -0.15038584 1.008
-0.23503053 -0.15129098 1.0070001
-0.22708458 -0.15093952 1.0070002
-0.21225211 -0.15208171 1.0070001
-0.20474522 -0.15151703 1.005
-0.19383174 -0.15117829 1.00625
-0.18403962 -0.15117829 1.00625
-0.17534755 -0.15129097 1.0070001
-0.16468695 -0.15287876 1.0056924
-0.15549491 -0.15299092 1.0047059
-0.14643766 -0.15352289 1.0049167
-0.13536224 -0.15521845 1.0051112
-0.1233765 -0.15539172 1.0042858
-0.11451136 -0.15660913 1.0061667
-0.10413373 -0.15568264 1.0052941
-0.094761059 -0.15569761 1.0049525
-0.08496093 -0.15540396 1.0051669
-0.075575121 -0.15530983 1.0045557
-0.065718681 -0.15656045 1.0061251
-0.054378249 -0.15690008 1.0052859
-0.045173079 -0.15784979 1.001182
-0.034834687 -0.15718716 1.0025626
-0.025274161 -0.15749776 1.0035336
-0.015134581 -0.15817718 1.0031112
-0.0051071853 -0.15914403 1.0033334
0.0044968547 -0.15915459 1.0034001
0.012818914 -0.15893254 1.0020001
0.02351366 -0.15982196 1.0010002
0.035882175 -0.15882181 1.0013001
0.043717973 -0.15890174 1.0008571
0.054511871 -0.15887946 1.0009999
0.06474264 -0.15976875 1.0006667
0.076095 -0.15861532 1
0.12694633 -0.15966231 1
0.14866336 -0.15982196 1.001
0.15573472 -0.15987518 1.0013335
0.1635268 -0.15976875 1.0006667
0.19585869 -0.15861531 1
-0.38247365 -0.1407477 1.0070001
-0.36500832 -0.14102724 1.0090001
-0.35139015 -0.14616434 1.008
-0.34466472 -0.14524178 1.0035264
-0.3355332 -0.14623651 1.0029413
-0.32459787 -0.14556579 1.0042105
-0.3151089 -0.14543998 1.0034668
-0.30452821 -0.14416918 1.0035238
-0.295708 -0.14488581 1.0043889
-0.28465539 -0.14569369 1.0033749
-0.27453849 -0.14530452 1.0035
-0.26573092 -0.1463528 1.0032501
-0.25537005 -0.14673761 1.0038888
-0.24539904 -0.14786758 1.0028335
-0.23455319 -0.14694598 1.0018001
-0.22719865 -0.14786617 1.0028334
-0.21014404 -0.14949068 1.0020001
-0.20440324 -0.14877036 1.0028001
-0.19792579 -0.14750692 1.0042002
-0.18890923 -0.14873788 1.0040001
-0.17471132 -0.14863913 1.0033334
-0.16797601 -0.1484416 1.0020001
-0.1525144 -0.14949068 1.0020001
-0.52373374 -0.13152233 1.0070001
-0.51507628 -0.13180365 1.0061251
-0.50419217 -0.13244532 1.0048001
-0.4953261 -0.13253181 1.004643
-0.48505178 -0.13451375 1.0058889
-0.47592726 -0.13552354 1.003
-0.46323326 -0.13698275 1.006
-0.45457116 -0.13683014 1.0058572
-0.4446041 -0.13646287 1.0055
-0.4357098 -0.13624302 1.0048499
-0.42561603 -0.13591737 1.0063334
-0.4138144 -0.13685775 1.0047336
-0.40462437 -0.13543308 1.0051
-0.39476854 -0.13630673 1.0053334
-0.38444266 -0.13643068 1.0029289
-0.37497428 -0.13676922 1.0041765
-0.36611962 -0.13717581 1.006091
-0.52348655 -0.12915663 1.005
-0.5181362 -0.12863708 1.003
0.48433852 -0.18047814 1.0170001
0.49075845 -0.18047813 1.0170001
0.5356977 -0.18154292 1.0170001
0.54960746 -0.18154292 1.0170001
0.55668467 -0.18146659 1.012125
0.56315589 -0.18144672 1.0125
0.5743317 -0.1811859 1.015
0.58394301 -0.18204774 1.0155714
0.076140299 -0.17089494 1.0170001
0.082381867 -0.17089495 1.0170001
0.13573968 -0.17223449 1.018625
0.14511885 -0.17276795 1.018625
0.15855122 -0.1707269 1.016
0.16574869 -0.1707269 1.016
0.17441629 -0.17062607 1.0154001
0.18564171 -0.1711302 1.0184001
0.19464093 -0.17113021 1.0184001
0.20170435 -0.17106299 1.0180001
0.21571681 -0.17205159 1.0167501
0.22478992 -0.17275104 1.0149287
0.23013446 -0.17549859 1.0190001
0.24835992 -0.17229791 1.0190001
0.25275666 -0.17284009 1.0180001
0.38243949 -0.17455292 1.0135001
0.39580306 -0.17366296 1.0145001
0.40550727 -0.17344061 1.0147501
0.41474912 -0.17394964 1.0146251
0.42521808 -0.17466031 1.0141251
0.43483555 -0.17435247 1.0142308
0.44435462 -0.17511281 1.0136667
0.45484611 -0.17570539 1.0128001
0.46595001 -0.17649929 1.0125
0.47680575 -0.17596637 1.0135001
0.48475334 -0.17687041 1.0134001
0.49644756 -0.17652193 1.0137273
0.50521451 -0.17676392 1.0133333
0.51503658 -0.17751527 1.01425
0.52591294 -0.1773314 1.014643
0.53564793 -0.17702873 1.0143751
0.54448539 -0.17792125 1.0129091
0.55274701 -0.17835484 1.011
0.56870198 -0.17835484 1.011
0.57561588 -0.17923693 1.0110002
0.58294344 -0.17823723 1.0123334
-0.18047467 -0.1605621 1.0190001
-0.1744442 -0.16136226 1.0190001
-0.16595006 -0.16105165 1.017875
-0.15524642 -0.16050228 1.01525
-0.14547411 -0.16125888 1.0166667
-0.13451515 -0.16128002 1.0168
-0.12432088 -0.16220631 1.0166668
-0.11441715 -0.16280405 1.0158572
-0.10507185 -0.16300175 1.0142502
-0.094934694 -0.16285701 1.0150001
-0.085114583 -0.16356497 1.0171001
-0.075807177 -0.16321754 1.0163335
-0.065637864 -0.16292576 1.0171
-0.055478133 -0.16386327 1.0152001
-0.046144683 -0.1658165 1.0120001
-0.033508398 -0.16480309 1.0162002
-0.02539104 -0.1648393 1.0146667
-0.01567696 -0.16579117 1.0154445
-0.0054525672 -0.1667939 1.0144616
0.0042603808 -0.16628255 1.01375
0.015318427 -0.16682789 1.0160002
0.027294125 -0.16671117 1.011
0.035166737 -0.16582696 1.0140001
0.042905755 -0.16510077 1.0128001
0.054705262 -0.16598034 1.0130001
0.064759374 -0.16719991 1.0146667
0.074116707 -0.16716646 1.0137501
0.084482364 -0.16707893 1.0126363
0.095290534 -0.16722295 1.0126667
0.10584392 -0.16788001 1.0132501
0.11604831 -0.1668621 1.0151252
0.12582599 -0.16628829 1.0132501
0.1348968 -0.16782804 1.0139
0.14489731 -0.16891168 1.0115001
0.15517034 -0.16803694 1.013182
0.16466387 -0.16667642 1.0113639
0.17488155 -0.1676867 1.0105002
0.1856145 -0.16792533 1.013
0.19470209 -0.16739459 1.0116366
0.20430283 -0.1682902 1.012
0.21464145 -0.16823453 1.0116667
0.22225747 -0.16866119 1.01
0.24576411 -0.16899519 1.012
0.25147945 -0.16866119 1.01
-0.35205933 -0.15128098 1.0140002
-0.34474915 -0.15279935 1.0128001
-0.33426434 -0.15171053 1.0145
-0.32477382 -0.15232554 1.0146667
-0.31567073 -0.15217029 1.0155001
-0.30595106 -0.15213901 1.0150001
-0.29468468 -0.15209353 1.0158751
-0.2846173 -0.15086284 1.01475
-0.27536774 -0.1524802 1.0160835
-0.26541489 -0.15353234 1.0156112
-0.25557491 -0.15338543 1.0143572
-0.24458344 -0.15439469 1.0139375
-0.23528759 -0.15672486 1.0152106
-0.22541051 -0.15500675 1.0154706
-0.21735366 -0.15368956 1.014125
-0.2043813 -0.1551559 1.0123334
-0.195053 -0.15541096 1.016
-0.18503146 -0.15635645 1.0152942
-0.17501295 -0.15642121 1.01375
-0.16515493 -0.15802732 1.013
-0.15380749 -0.15834156 1.0105002
-0.1448746 -0.1579949 1.0116667
-0.13545516 -0.15855606 1.013
-0.12407225 -0.15832129 1.0115001
-0.1149257 -0.15882337 1.0120001
-0.10896327 -0.15945911 1.0120001
-0.084098861 -0.15955366 1.0126002
-0.074537262 -0.15945911 1.0120001
-0.06644994 -0.15964821 1.0132002
-0.057856623 -0.15945911 1.0120001
-0.53426325 -0.14135803 1.0190001
-0.52273834 -0.14029114 1.0190001
-0.51399642 -0.14173463 1.0178751
-0.50395465 -0.14240433 1.0159233
-0.49384287 -0.14228515 1.018
-0.48616648 -0.14207551 1.0165001
-0.47054788 -0.1412193 1.018
-0.46287456 -0.142248 1.0162001
-0.45619336 -0.1415845 1.0146668
-0.44475484 -0.142984 1.01475
-0.43538904 -0.14186184 1.016875
-0.42584968 -0.14228995 1.0161251
-0.41547149 -0.14177181 1.015
-0.40671799 -0.14285596 1.0170001
-0.39518744 -0.14285596 1.0170002
-0.38615105 -0.14303651 1.0157501
-0.37386557 -0.14205772 1.0138335
-0.36645532 -0.14238307 1.013
-0.35190415 -0.14871638 1.011
-0.33187169 -0.14942205 1.011
-0.32797158 -0.14977489 1.011
-0.31414384 -0.14977489 1.011
-0.30350718 -0.14977489 1.011
-0.29579556 -0.14977489 1.011
-0.28702027 -0.14977489 1.011
-0.27797908 -0.14871638 1.011
-0.26308769 -0.14871638 1.011
-0.22032279 -0.14962675 1.01
-0.21926017 -0.14962675 1.01
-0.19588257 -0.14962675 1.01
-0.53145337 -0.13832419 1.0150001
-0.52565193 -0.13655156 1.0130001
-0.51543349 -0.1368506 1.0132501
-0.50547498 -0.1371745 1.0117335
-0.49495327 -0.13768254 1.0120627
-0.48706576 -0.13946509 1.0130001
-0.4787721 -0.13974044 1.0150001
-0.46617746 -0.13879764 1.0120001
-0.43293688 -0.13821988 1.0132002
-0.4270286 -0.13911191 1.0130001
-0.40497646 -0.13939625 1.0125002
-0.39809364 -0.13953394 1.0135001
-0.36609358 -0.13879764 1.0120001
0.59290117 -0.19014919 1.029
0.15661035 -0.18045293 1.029
0.38899258 -0.18243021 1.028
0.39077517 -0.18225273 1.0270001
0.40566254 -0.18107164 1.0264
0.41508651 -0.18117747 1.0270001
0.42102924 -0.18117747 1.0270001
0.4355489 -0.1813595 1.026
0.44444519 -0.18033068 1.0222
0.45392358 -0.18104514 1.02625
0.46359229 -0.18161304 1.0246001
0.47525734 -0.18198656 1.0255001
0.48499617 -0.18285385 1.0236669
0.49580163 -0.18333064 1.0255001
0.5054121 -0.18275353 1.0246923
0.51465815 -0.18272738 1.024375
0.52493435 -0.18255551 1.0226667
0.5353362 -0.18457076 1.0245001
0.54462707 -0.18509923 1.0245
0.55489397 -0.18494093 1.0252001
0.56820011 -0.18610439 1.0245001
0.5760529 -0.18565707 1.026
0.58407187 -0.18622129 1.0235455
0.59052026 -0.18689829 1.023
-0.12150156 -0.17059073 1.028
-0.11673713 -0.17034182 1.0265
-0.088384181 -0.17141657 1.0265
-0.062317263 -0.17042479 1.027
-0.057274215 -0.17078356 1.027
-0.046874244 -0.17059073 1.028
-0.03531532 -0.1704801 1.0273335
-0.024138076 -0.17042479 1.0270001
-0.014407651 -0.1724745 1.0264001
-0.0060072546 -0.1715671 1.021
0.0056791925 -0.17172916 1.0258001
0.014744689 -0.17129968 1.0258001
0.025196206 -0.17140172 1.0245715
0.034683917 -0.1717037 1.0250001
0.045396265 -0.17172979 1.0258001
0.0557018 -0.17236885 1.0248573
0.065647572 -0.17326254 1.0237859
0.074012049 -0.1741759 1.0231819
0.08387427 -0.17382076 1.02325
0.094401494 -0.17232327 1.0255001
0.10496714 -0.17354931 1.0243686
0.11493331 -0.17382151 1.0242274
0.12508602 -0.17418256 1.0248698
0.13508356 -0.17628063 1.0243125
0.14581944 -0.17671517 1.0245
0.15477115 -0.17590892 1.0248749
0.16395257 -0.17529798 1.0264616
0.17531791 -0.17447066 1.0255001
0.18513745 -0.17515235 1.0257001
0.19492406 -0.17563257 1.026
0.20595688 -0.17513379 1.0267501
0.21461549 -0.17628878 1.0253572
0.22341613 -0.17771043 1.0247142
0.23660485 -0.17530422 1.0266001
0.24423638 -0.1744048 1.0251
0.25215501 -0.17619608 1.0257143
0.39538547 -0.17784733 1.0243335
0.40480646 -0.17825992 1.0226002
0.41563961 -0.17786001 1.0233752
0.426193 -0.17829481 1.0228001
0.43414527 -0.17798102 1.021
0.44757268 -0.17869368 1.0210001
0.45374924 -0.17905 1.021
0.47542089 -0.17942579 1.0231431
0.49770159 -0.17905001 1.0210001
-0.30512172 -0.16213776 1.029
-0.28455216 -0.16106041 1.029
-0.2748087 -0.16106041 1.029
-0.26668915 -0.16106041 1.029
-0.25586307 -0.16106041 1.029
-0.24467507 -0.16190299 1.0275
-0.23445018 -0.16292964 1.0272001
-0.22435521 -0.16243979 1.0275
-0.21472399 -0.16213776 1.0290002
-0.20446968 -0.16294529 1.0279093
-0.19553447 -0.1629 1.0270002
-0.18610141 -0.16251995 1.0246001
-0.17601606 -0.16354743 1.0243335
-0.16330999 -0.16519538 1.0256667
-0.15690184 -0.16477446 1.0261251
-0.14473723 -0.1650658 1.0271
-0.13586842 -0.16531001 1.0245999
-0.1251405 -0.1666851 1.0238333
-0.11673553 -0.16693483 1.021
-0.10566854 -0.16819391 1.0265
-0.094173752 -0.16806886 1.0235555
-0.084199585 -0.16768713 1.024
-0.075957246 -0.16779299 1.0247778
-0.064931966 -0.16686977 1.0227778
-0.054546218 -0.16838615 1.0233334
-0.040267054 -0.16794655 1.0250001
-0.036119934 -0.16745499 1.0220001
-0.024643805 -0.16842081 1.0222858
-0.01435901 -0.16958477 1.0228573
-0.0051936265 -0.16926317 1.0200001
0.0057166158 -0.16855121 1.0200002
0.013586299 -0.16819523 1.0200001
0.037960798 -0.16912846 1.0213335
0.045246821 -0.16966145 1.0224001
0.054934859 -0.16937381 1.0206667
0.060804397 -0.16926317 1.0200001
0.094071694 -0.16926317 1.0200001
0.12304644 -0.16819523 1.0200001
-0.4648954 -0.15040983 1.028
-0.43947881 -0.15014075 1.028
-0.41460305 -0.15121706 1.028
-0.39647955 -0.15193017 1.0270001
-0.3601746 -0.15752156 1.0270001
-0.35441899 -0.15639117 1.0228668
-0.34382647 -0.15643159 1.023375
-0.33588192 -0.15643685 1.0241001
-0.32531568 -0.15712795 1.0244167
-0.3143898 -0.15620108 1.0234548
-0.30461368 -0.15719241 1.0236669
-0.29487786 -0.15619099 1.0238999
-0.28480759 -0.15600584 1.0240771
-0.27616706 -0.15725173 1.0244446
-0.26484072 -0.15869614 1.0253334
-0.25471759 -0.15819533 1.0244001
-0.24495754 -0.15985273 1.023
-0.23046719 -0.15996477 1.0220001
-0.22516136 -0.15907612 1.0231669
-0.21632141 -0.1587263 1.0248573
-0.20439398 -0.1590191 1.0228001
-0.19632824 -0.15889473 1.0220001
-0.53307605 -0.14286724 1.026
-0.52495986 -0.14433768 1.0250001
-0.51588583 -0.14600275 1.0235
-0.50348699 -0.14634016 1.024
-0.49614027 -0.14583795 1.0231428
-0.48528382 -0.14408024 1.0247
-0.47550997 -0.1430506 1.025
-0.46440902 -0.14620782 1.0238889
-0.45618337 -0.14602205 1.023625
-0.4436959 -0.1471754 1.0248334
-0.43568042 -0.14647551 1.0237693
-0.42362338 -0.14671102 1.0244286
-0.41409889 -0.14703104 1.0233637
-0.40425798 -0.1465966 1.0242667
-0.39485085 -0.14663365 1.0235335
-0.38505286 -0.14669512 1.0237858
-0.37562212 -0.14612639 1.0216666
0.50656271 -0.19126298 1.0362002
0.51307118 -0.19099331 1.0365002
0.52775633 -0.1901743 1.0350001
0.53708631 -0.19058773 1.03725
0.54522258 -0.19325091 1.036
0.55584377 -0.19169644 1.0362002
0.56446594 -0.19188212 1.0358572
0.57222712 -0.19144276 1.0360001
0.5861097 -0.19229808 1.0371001
0.59418476 -0.19198248 1.0350001
0.013839377 -0.18111877 1.039
0.026410352 -0.18003094 1.039
0.035337575 -0.18039356 1.039
0.045267936 -0.18156199 1.0378001
0.056034137 -0.18003094 1.039
0.066856109 -0.18003094 1.039
0.08699517 -0.18094446 1.0380001
0.096341752 -0.18123108 1.03575
0.10397698 -0.1814497 1.0353
0.11520715 -0.18275577 1.0380001
0.1247741 -0.18186076 1.0363333
0.13067822 -0.18311803 1.0380001
0.14880982 -0.18231866 1.0350001
0.15577759 -0.18164532 1.03425
0.1655204 -0.18288037 1.0373334
0.17527136 -0.18203126 1.0380001
0.18624012 -0.18231238 1.0365
0.19519997 -0.18273228 1.0363637
0.20556143 -0.18248427 1.0366365
0.21396761 -0.1823476 1.037143
0.22318316 -0.18186897 1.034
0.2356049 -0.18116546 1.035375
0.24544737 -0.18265317 1.0363078
0.25502926 -0.18364999 1.0355884
0.39646411 -0.18446718 1.033375
0.40499133 -0.18557987 1.0357275
0.4143571 -0.18521354 1.0341249
0.42462587 -0.18578465 1.0353334
0.43467608 -0.18565068 1.0350626
0.4448646 -0.18609515 1.0337498
0.45590985 -0.18578185 1.0353334
0.46455762 -0.18599048 1.0346
0.47526181 -0.18691699 1.0349412
0.48427105 -0.18814614 1.0357502
0.49640098 -0.18834288 1.0351429
0.50427675 -0.18834744 1.0333
0.51399249 -0.18732135 1.0336001
0.52463281 -0.18667573 1.0331539
0.53216851 -0.18764371 1.0330001
0.54739904 -0.18962307 1.0320001
0.55490768 -0.18899409 1.0325
0.56314266 -0.18875867 1.0320001
0.57623172 -0.1893647 1.0365001
0.58165789 -0.18909065 1.0350001
-0.23243715 -0.1711634 1.0380001
-0.19694467 -0.17007661 1.0380001
-0.16184217 -0.17208423 1.0370001
-0.15529603 -0.17208423 1.0370001
-0.14439914 -0.17203885 1.0348572
-0.13636804 -0.17211087 1.0352858
-0.12592764 -0.1724104 1.0332501
-0.11357772 -0.17214271 1.033
-0.10534639 -0.1705038 1.034
-0.092296086 -0.17305675 1.0320001
-0.085570708 -0.17367031 1.0344286
-0.074479721 -0.17199433 1.0340002
-0.0654421 -0.17331891 1.0351669
-0.054504614 -0.17352574 1.0342503
-0.04451111 -0.17385791 1.0359
-0.034896392 -0.1740139 1.0343637
-0.024665294 -0.1754896 1.0340002
-0.015071953 -0.17685626 1.0352499
-0.0045813564 -0.17593962 1.034125
0.0058198469 -0.1760789 1.0334616
0.014576578 -0.17649418 1.0344001
0.023741962 -0.1766565 1.0351429
0.036400665 -0.17647082 1.0330001
0.045044228 -0.17667727 1.033
0.054901026 -0.17598617 1.0338182
0.065199211 -0.17748928 1.0318002
0.075683706 -0.17839436 1.0326667
0.084948473 -0.17823739 1.0340002
0.094905399 -0.17648688 1.031
0.10495029 -0.17845789 1.0320001
0.11635081 -0.17989855 1.0320001
0.1282942 -0.17989855 1.0320001
0.13263726 -0.17989855 1.0320001
0.145395 -0.17989855 1.0320001
0.16708291 -0.17907795 1.0335001
0.17451149 -0.1785377 1.0335
0.18402499 -0.17899132 1.0330001
0.1950687 -0.17989855 1.0320001
0.2032119 -0.1793583 1.0320001
0.23668963 -0.17881803 1.0320001
0.24483147 -0.17881803 1.0320001
0.25128466 -0.17864476 1.031
-0.36310664 -0.16311899 1.0366
-0.35494193 -0.16290918 1.0360001
-0.34501719 -0.16247849 1.0354375
-0.33452043 -0.16186455 1.0341251
-0.32390112 -0.16227858 1.0340002
-0.31469551 -0.16132808 1.0330001
-0.30350077 -0.16156137 1.0333335
-0.29484263 -0.16306147 1.0360001
-0.28473246 -0.16385992 1.0350001
-0.2754311 -0.16416684 1.0350001
-0.26486382 -0.16432686 1.0360001
-0.25463116 -0.16272303 1.0350001
-0.24470964 -0.16532178 1.0368001
-0.23535633 -0.16681725 1.0346251
-0.22479822 -0.16714473 1.0342001
-0.21575254 -0.16646707 1.0358181
-0.20458843 -0.16683266 1.0332859
-0.19478968 -0.16791233 1.0350001
-0.18522568 -0.16801579 1.0342222
-0.17537087 -0.16774128 1.0370001
-0.16546556 -0.1686186 1.0335001
-0.15462212 -0.16809596 1.0325
-0.14545386 -0.16855913 1.0316668
-0.13497157 -0.16878267 1.0317501
-0.53351778 -0.15036947 1.0370001
-0.52351665 -0.15145519 1.0370001
-0.51478851 -0.15036947 1.0370001
-0.50502944 -0.15239385 1.0360001
-0.49454162 -0.1528558 1.0364547
-0.48502564 -0.15186906 1.0364546
-0.47482362 -0.1525384 1.0355
-0.46576238 -0.15166789 1.0347501
-0.45587319 -0.15145521 1.0370001
-0.44456872 -0.15105894 1.0328001
-0.43450561 -0.15096469 1.0355
-0.42476553 -0.15345748 1.0366666
-0.41471201 -0.15295492 1.034889
-0.40449721 -0.15281923 1.0325716
-0.39333975 -0.15364535 1.0346667
-0.38463399 -0.15327404 1.034125
-0.37803724 -0.15209205 1.0330001
-0.36525732 -0.15921269 1.0345
-0.29556733 -0.15918367 1.0308001
-0.54221642 -0.14754951 1.03625
-0.53575402 -0.14658183 1.0332501
-0.52862298 -0.14734052 1.031
-0.50548828 -0.14915468 1.0316
-0.49486876 -0.14942911 1.033
-0.4840706 -0.14723925 1.0326155
-0.475658 -0.14731656 1.0316668
-0.45385647 -0.14856395 1.0320001
-0.43255824 -0.14906773 1.033
-0.42712411 -0.14906982 1.033
-0.40822002 -0.14949945 1.031
0.55423194 -0.20024374 1.0480001
0.19487473 -0.1901868 1.0470001
0.20589018 -0.1901868 1.0470001
0.21360099 -0.1901868 1.0470001
0.24527043 -0.191283 1.0470001
0.2540828 -0.19150226 1.0470001
0.26004332 -0.19054857 1.0400001
0.39693198 -0.19351511 1.0484
0.40464503 -0.19311212 1.0480001
0.41496515 -0.1927467 1.049
0.42573625 -0.19237922 1.0470001
0.43519929 -0.19367494 1.0466924
0.44527763 -0.19268592 1.0473334
0.45563602 -0.19301981 1.0462143
0.46455771 -0.1924714 1.0457001
0.47506997 -0.19281392 1.046375
0.48529029 -0.19325368 1.0458001
0.49500513 -0.19222558 1.0451667
0.50514829 -0.19422214 1.045125
0.51666498 -0.19501881 1.0445001
0.52641135 -0.19262002 1.0443333
0.53541934 -0.19420275 1.0450001
0.54554951 -0.19606923 1.0447501
0.55527633 -0.19705707 1.0446668
0.56446123 -0.19556993 1.0450001
0.57398808 -0.1952022 1.0445001
0.5845598 -0.19642521 1.0448002
0.59507912 -0.19682834 1.0450001
0.6024332 -0.19776577 1.0465001
-0.095840544 -0.18066537 1.049
-0.089770466 -0.18066537 1.049
-0.074319378 -0.18176368 1.049
-0.064173386 -0.18297069 1.0469999
-0.055654448 -0.1824961 1.0474166
-0.043191861 -0.18177399 1.0480001
-0.036124397 -0.18171966 1.0473334
-0.025005195 -0.18154329 1.0452001
-0.014678836 -0.18283522 1.0457
-0.0039848401 -0.18262793 1.0458572
0.0049416963 -0.18255985 1.0451667
0.015727019 -0.18423741 1.0454544
0.025240593 -0.18318167 1.0445384
0.034160439 -0.18311265 1.0454
0.044184085 -0.18622951 1.0457001
0.054159153 -0.18391778 1.0450001
0.065221444 -0.18348454 1.0448891
0.07564646 -0.18429653 1.0446668
0.085730232 -0.1846856 1.0448002
0.093346529 -0.18488936 1.0443001
0.10576161 -0.18650495 1.0454001
0.11537025 -0.18658656 1.0452501
0.12459421 -0.18738787 1.0452728
0.13510694 -0.18522811 1.04375
0.14498539 -0.18586612 1.0466669
0.1550917 -0.18634516 1.0480001
0.16407697 -0.18663304 1.0455
0.1750304 -0.18624012 1.0433
0.18402541 -0.1860196 1.0445002
0.19531782 -0.18739657 1.0436667
0.20553067 -0.18664587 1.041
0.21549693 -0.18692681 1.0447
0.22395693 -0.18627194 1.0447
0.23465364 -0.18559098 1.0430001
0.24404709 -0.18717957 1.0417778
0.25488365 -0.18872939 1.0450001
0.39576584 -0.1894602 1.0430001
0.40509319 -0.1894602 1.0430001
0.41332325 -0.1894602 1.0430001
0.42868596 -0.1894602 1.0430001
0.43362397 -0.1894602 1.0430001
0.49891552 -0.1894602 1.0430001
-0.35504329 -0.17061786 1.0480001
-0.34504646 -0.17061785 1.0480002
-0.33501279 -0.17061785 1.0480001
-0.32453811 -0.17061785 1.0480001
-0.29366538 -0.1717151 1.0480001
-0.2881524 -0.1717151 1.0480001
-0.27216476 -0.17116648 1.0480001
-0.2649979 -0.1717151 1.0480001
-0.25444445 -0.17140161 1.0480002
-0.24472749 -0.17309417 1.0468574
-0.23495042 -0.1726608 1.0432857
-0.22442849 -0.17237422 1.0416666
-0.21187083 -0.17264746 1.0470001
-0.20498967 -0.17166083 1.0435001
-0.19439934 -0.17299554 1.0441251
-0.18366006 -0.17252594 1.0426365
-0.17468974 -0.17276099 1.043077
-0.16563985 -0.17392176 1.0442858
-0.15456717 -0.17516312 1.0424001
-0.14566651 -0.17598392 1.0417144
-0.13441162 -0.17565501 1.0423079
-0.1243477 -0.1773304 1.0441431
-0.11394881 -0.1760895 1.044
-0.1049554 -0.17605914 1.0440001
-0.096139632 -0.17675705 1.0430001
-0.084176302 -0.17806137 1.0453
-0.074523039 -0.17746215 1.0448183
-0.066236898 -0.17823339 1.0433334
-0.054551229 -0.17826724 1.043
-0.045684177 -0.17809688 1.0431429
-0.035296865 -0.17836882 1.0420001
-0.026135053 -0.17945978 1.0420001
-0.003661219 -0.1794598 1.0420001
0.0040127742 -0.17945978 1.0420001
-0.47825506 -0.16309254 1.049
-0.40541419 -0.16089593 1.049
-0.39442104 -0.16134825 1.0478572
-0.38358629 -0.16361822 1.0476665
-0.37547857 -0.16518712 1.048
-0.36715508 -0.16616893 1.0437778
-0.35423356 -0.16793458 1.0434445
-0.34407231 -0.16688161 1.0422858
-0.33503208 -0.16731493 1.0442308
-0.32440007 -0.16745181 1.0433
-0.3146899 -0.16738036 1.045154
-0.30468401 -0.1677916 1.0459093
-0.29469821 -0.16782291 1.0432857
-0.28444153 -0.1683737 1.0431668
-0.27477685 -0.16822721 1.0438572
-0.26564872 -0.16820721 1.0419
-0.25599003 -0.1675812 1.0427499
-0.24553956 -0.16875245 1.0422858
-0.23913272 -0.16947824 1.041
-0.21406567 -0.16957591 1.0416
-0.20518051 -0.16947824 1.041
-0.54447103 -0.15230249 1.0438573
-0.53791451 -0.1525505 1.0420001
-0.51562202 -0.15255052 1.0420002
-0.50472319 -0.15517002 1.0425001
-0.49490729 -0.15679346 1.0425714
-0.48511624 -0.15670273 1.043
-0.47499353 -0.15641893 1.0433
-0.46402636 -0.15544181 1.0448002
-0.45547083 -0.15529789 1.0448461
-0.44424251 -0.15682876 1.046077
-0.43554208 -0.15551482 1.0438
-0.42567098 -0.15742119 1.0457143
-0.4152385 -0.15731299 1.0452501
-0.40540752 -0.15809418 1.0450001
-0.39526042 -0.1577311 1.0426
-0.38474753 -0.15879157 1.0434287
-0.3769128 -0.15658592 1.0472499
0.43735728 -0.20103455 1.0560001
0.44372058 -0.20118114 1.05725
0.4682447 -0.20104674 1.0580001
0.50497758 -0.20215446 1.0580001
0.53618139 -0.20089471 1.0572001
0.54568291 -0.2025598 1.0559092
0.55117202 -0.20547764 1.0580001
0.56715316 -0.20319206 1.0566667
0.57479846 -0.20272854 1.0568572
0.58512181 -0.20260346 1.0572311
0.59593999 -0.20222299 1.0545001
0.60454065 -0.20259136 1.0545001
-0.053807758 -0.1910772 1.0580001
-0.047129046 -0.1910772 1.0580001
0.016303267 -0.19089662 1.057
0.025601078 -0.19057153 1.0552
0.034619577 -0.1914538 1.0560001
0.045874916 -0.19127111 1.0550001
0.052926235 -0.19173239 1.0555
0.078022942 -0.19200329 1.057
0.08713384 -0.19186705 1.05625
0.095648192 -0.19189432 1.0564002
0.10674404 -0.1923437 1.0540001
0.11447933 -0.19243833 1.0553334
0.12552789 -0.19263235 1.0543751
0.13581347 -0.19237605 1.0560001
0.14502767 -0.192623 1.0549999
0.15393879 -0.19189703 1.0552
0.1668292 -0.19126883 1.056
0.17612983 -0.19178239 1.0534999
0.18650277 -0.19217403 1.053375
0.19550186 -0.19300053 1.0518751
0.20374274 -0.1937573 1.0525001
0.21484844 -0.19366752 1.0526668
0.22474419 -0.19216026 1.0530001
0.23534279 -0.19292727 1.056
0.24634822 -0.19317648 1.0526668
0.25628135 -0.19427054 1.052143
0.26107818 -0.19421981 1.053
0.39475369 -0.19550081 1.052
0.40381581 -0.19651648 1.0535001
0.41334632 -0.1961951 1.05425
0.42378816 -0.19564697 1.05575
0.43386132 -0.1976302 1.0532858
0.44521204 -0.19684993 1.0526668
0.45430517 -0.19748187 1.05375
0.46531054 -0.19752558 1.05325
0.47498512 -0.19808501 1.0545454
0.48475033 -0.19674242 1.0527501
0.49636421 -0.19674021 1.0539001
0.50471902 -0.19816481 1.0535384
0.51662225 -0.19910751 1.0536001
0.52613407 -0.19799802 1.0535555
0.53514618 -0.19822946 1.0522858
0.54420805 -0.19898298 1.0510001
0.5663231 -0.19971657 1.051
0.5753535 -0.19861619 1.051
0.58332503 -0.19903301 1.0517501
0.60226011 -0.19861618 1.051
-0.25440928 -0.18090928 1.059
-0.23658256 -0.1801701 1.059
-0.21541333 -0.18127887 1.059
-0.20503984 -0.18097076 1.0572001
-0.19480249 -0.18173276 1.0573334
-0.18528192 -0.18178949 1.0571249
-0.17515039 -0.18066262 1.0553999
-0.16490071 -0.18185368 1.0575
-0.15603016 -0.18141684 1.0555
-0.14450064 -0.18148345 1.05375
-0.13547665 -0.18244761 1.0540001
-0.1253337 -0.18226066 1.0564286
-0.11417159 -0.18330824 1.0557779
-0.10497769 -0.18351384 1.0535002
-0.095095277 -0.18306354 1.0536667
-0.084936716 -0.18371506 1.0560002
-0.075040713 -0.184782 1.0552502
-0.066234231 -0.18703912 1.0550002
-0.053272747 -0.18717963 1.0547502
-0.044840999 -0.18696922 1.0548003
-0.034203935 -0.18716773 1.0558184
-0.024384325 -0.18632658 1.0556924
-0.015236923 -0.18816778 1.0541003
-0.0053694677 -0.18753821 1.0544376
0.0054114256 -0.18800031 1.0549288
0.013398576 -0.18872608 1.0560001
0.025912276 -0.18779072 1.052
0.034566753 -0.18779042 1.052
0.043117397 -0.189813 1.051
0.055466708 -0.18842196 1.0545001
0.064383373 -0.18837094 1.054
0.075248472 -0.18925129 1.054
0.083583266 -0.18978994 1.057
0.094365977 -0.1891166 1.0532501
0.10164306 -0.18925127 1.054
0.11351704 -0.18871263 1.051
0.13415778 -0.1890794 1.051
0.14530745 -0.18926281 1.051
0.15491334 -0.18888728 1.0530001
0.164178 -0.18947135 1.0540001
0.17249057 -0.18944621 1.051
0.22774564 -0.1896324 1.0500001
0.23492621 -0.1896324 1.0500001
-0.50573379 -0.17003043 1.0580001
-0.38301584 -0.17348199 1.0554001
-0.37542999 -0.17348062 1.0542667
-0.36520523 -0.17242467 1.054
-0.35541266 -0.17380176 1.054
-0.34469444 -0.1744664 1.054
-0.3349269 -0.1735552 1.0525
-0.32454309 -0.17305019 1.0535384
-0.31497964 -0.17393474 1.054
-0.30513173 -0.17371771 1.0544287
-0.29562312 -0.17394322 1.054
-0.28408295 -0.172757 1.0537274
-0.27513382 -0.17468356 1.05375
-0.26421106 -0.17639026 1.0547059
-0.25467768 -0.17630343 1.0538571
-0.2454237 -0.17729197 1.0535383
-0.23510312 -0.1776433 1.0555
-0.22377086 -0.17729312 1.0557778
-0.21487217 -0.17627445 1.0538001
-0.20471261 -0.17679466 1.0521001
-0.19507965 -0.17709549 1.05225
-0.18551384 -0.17720121 1.0523335
-0.17563114 -0.17770936 1.0526252
-0.1661015 -0.17837527 1.052143
-0.1549975 -0.17880905 1.0510001
-0.14674817 -0.17918858 1.0500001
-0.12002493 -0.1791493 1.0530001
-0.11479574 -0.17876652 1.0507501
-0.10605833 -0.1793718 1.0500001
-0.54297936 -0.16021219 1.059
-0.53072351 -0.16021219 1.059
-0.52478129 -0.16107456 1.059
-0.51547277 -0.16329271 1.0580001
-0.50513327 -0.16337912 1.0561668
-0.49493629 -0.16342519 1.0561001
-0.48469993 -0.16341645 1.0534167
-0.47545287 -0.16252367 1.0543638
-0.46477991 -0.16213185 1.0554445
-0.45484707 -0.1622933 1.0547694
-0.4451758 -0.16290031 1.0543078
-0.43433294 -0.16115123 1.05425
-0.42487678 -0.16217364 1.0545386
-0.41547257 -0.16185433 1.0538001
-0.40488324 -0.16361997 1.0554287
-0.39614496 -0.16432253 1.0528573
-0.38609773 -0.16741401 1.052
-0.55288404 -0.15788257 1.056375
-0.54491043 -0.15718742 1.0562727
-0.53622526 -0.1575515 1.0585001
-0.52467 -0.15600014 1.053
-0.51611221 -0.15798146 1.0525715
-0.50724328 -0.15896407 1.0507501
-0.4963862 -0.15885061 1.0500001
-0.47263512 -0.15857577 1.0500001
-0.46678025 -0.15841088 1.0500001
-0.4564963 -0.1579015 1.0510001
0.54713488 -0.21067569 1.0675001
0.55080897 -0.21057701 1.067
0.59346724 -0.2111356 1.067
0.61292547 -0.21169417 1.0670002
0.11666855 -0.2003974 1.0663335
0.12523098 -0.20033474 1.0660001
0.14485785 -0.20033474 1.0660001
0.15887703 -0.20033474 1.0660001
0.16224164 -0.20033474 1.0660001
0.22560838 -0.20033474 1.0660001
0.23532836 -0.20033476 1.0660001
0.24187063 -0.20033474 1.0660001
0.26392043 -0.20425627 1.069
0.40822276 -0.20353313 1.0652001
0.41668987 -0.20284833 1.0660001
0.42611185 -0.20331381 1.06625
0.43535095 -0.20398182 1.0653077
0.44574949 -0.20461069 1.0650001
0.45499569 -0.20364587 1.0643333
0.46522692 -0.2034861 1.0633637
0.47570002 -0.20336995 1.0650001
0.48577279 -0.20324044 1.0654615
0.49515855 -0.20368391 1.065625
0.50398505 -0.20513152 1.0643333
0.51497823 -0.20440431 1.0644546
0.52554154 -0.2050398 1.0643333
0.53517461 -0.20481607 1.0655454
0.54433429 -0.20698883 1.0638667
0.55919069 -0.20741977 1.0680001
0.56550026 -0.20509493 1.0636667
0.57556665 -0.2075703 1.06375
0.58491373 -0.20725539 1.0637001
0.59422123 -0.20773037 1.0632223
0.60476065 -0.20797724 1.0641668
0.61106819 -0.20838018 1.0615001
-0.12173469 -0.19064684 1.0680001
-0.11469707 -0.19057709 1.0667145
-0.10459156 -0.19121774 1.0664999
-0.09505742 -0.19058384 1.0658573
-0.083893664 -0.19135161 1.06725
-0.074946076 -0.19140209 1.0666667
-0.062181812 -0.19176504 1.0680001
-0.055703189 -0.19223307 1.0644001
-0.044607829 -0.19220598 1.06425
-0.03368501 -0.19226179 1.0654286
-0.025023023 -0.19240756 1.0646667
-0.014610121 -0.19459181 1.0651001
-0.0047595045 -0.19401726 1.0647274
0.0042551612 -0.19391321 1.0640001
0.015425161 -0.1932079 1.0636251
0.026180241 -0.19540358 1.0640001
0.034738343 -0.19522797 1.0631002
0.044393852 -0.19494742 1.0640001
0.054940317 -0.19422311 1.063077
0.064655401 -0.19360608 1.0627501
0.074061923 -0.19461322 1.064
0.084959544 -0.19540493 1.0634546
0.093417503 -0.1958237 1.063143
0.10279451 -0.19476122 1.064
0.11619525 -0.19672816 1.0634001
0.12419531 -0.19666013 1.0635556
0.13481526 -0.19686595 1.062
0.14358185 -0.19675744 1.0617502
0.15613906 -0.19636407 1.0626156
0.1646461 -0.19642557 1.06235
0.17400965 -0.19683984 1.0619093
0.18454643 -0.19723013 1.0634288
0.19415678 -0.19736187 1.0626667
0.20763859 -0.19754504 1.0630001
0.21432596 -0.19782275 1.0615001
0.22447197 -0.19689634 1.0615001
0.23478746 -0.1962827 1.0616363
0.24409451 -0.19698949 1.06225
0.25459048 -0.19921699 1.0648001
0.26123002 -0.1992116 1.0615001
0.416942 -0.19958301 1.062
0.42476326 -0.19958301 1.062
0.43202591 -0.19958301 1.062
0.4913398 -0.19828421 1.0610001
-0.38389137 -0.18246029 1.0646
-0.34782201 -0.18041401 1.067
-0.33528647 -0.18041401 1.0670002
-0.32570484 -0.18140277 1.06625
-0.31414437 -0.1826483 1.067
-0.30412132 -0.18232913 1.067
-0.29169264 -0.18153116 1.067
-0.28506941 -0.18153118 1.067
-0.27555695 -0.18132702 1.0658001
-0.26509124 -0.18230699 1.0650001
-0.25514919 -0.18484165 1.0667502
-0.2442259 -0.18353023 1.0656251
-0.23510055 -0.18336783 1.0657501
-0.22475393 -0.18399014 1.0660001
-0.21547632 -0.18466967 1.0657501
-0.20403056 -0.18499577 1.0655001
-0.19431965 -0.18653104 1.0672858
-0.18411174 -0.18618838 1.0670002
-0.17427014 -0.18557169 1.0672858
-0.16442069 -0.18693127 1.0672001
-0.15497616 -0.1871516 1.0663334
-0.14650707 -0.1871023 1.0669091
-0.13315837 -0.1887832 1.0680001
-0.12510033 -0.18728349 1.0649999
-0.11664861 -0.18701307 1.0626001
-0.10484955 -0.18846388 1.062
-0.094905347 -0.18735197 1.0620002
-0.086200818 -0.18751948 1.064
-0.075799063 -0.1881859 1.062
-0.059597824 -0.18957579 1.062
-0.53186297 -0.17051932 1.0680001
-0.52579814 -0.17174347 1.0663334
-0.51556492 -0.17185719 1.0652002
-0.50940037 -0.17051256 1.0610001
-0.47174829 -0.17051932 1.0680001
-0.46454036 -0.17065257 1.0665001
-0.45513865 -0.17023194 1.0662001
-0.3934314 -0.17146742 1.0623335
-0.38550121 -0.17705122 1.06025
-0.37396771 -0.17792001 1.0641001
-0.36578712 -0.17708234 1.06375
-0.35602853 -0.17751174 1.0630001
-0.34316453 -0.17890427 1.0630001
-0.3359682 -0.17793362 1.0617144
-0.32448938 -0.17884688 1.0630001
-0.3145557 -0.17979404 1.0633334
-0.30534485 -0.17829786 1.0617778
-0.29557568 -0.17830317 1.0624001
-0.28586715 -0.17767845 1.0611429
-0.2780692 -0.17812058 1.0600001
-0.55440331 -0.162985 1.06625
-0.54422021 -0.16180015 1.0636002
-0.53526169 -0.16504903 1.0659446
-0.52524585 -0.16601783 1.062308
-0.51630443 -0.16768569 1.0635002
-0.50479025 -0.16733631 1.0639093
-0.49458966 -0.16842405 1.0658573
-0.48442742 -0.16812789 1.0658334
-0.47338301 -0.16648903 1.06725
-0.46443069 -0.16658317 1.0625
-0.45658016 -0.16664946 1.0623335
-0.44482246 -0.1669829 1.0655454
-0.43468183 -0.16658041 1.0642501
-0.42594004 -0.16789162 1.0655
-0.41439453 -0.16719556 1.064625
-0.4039124 -0.16717996 1.0610001
-0.39833102 -0.16829082 1.0610001
0.41471741 -0.21049057 1.0780001
0.42537853 -0.2120707 1.0780001
0.43324202 -0.2127479 1.0780001
0.45101053 -0.21049057 1.0780001
0.46785146 -0.21103032 1.075
0.47504729 -0.21112847 1.0755
0.48516512 -0.21216993 1.0763334
0.49515212 -0.21238801 1.0761667
0.50513244 -0.212799 1.0749167
0.51516539 -0.21245347 1.0764999
0.52611125 -0.21314894 1.0763572
0.53480965 -0.21346413 1.0743999
0.5440284 -0.21412149 1.0743573
0.55273294 -0.21321641 1.0718335
0.56843543 -0.21142292 1.077
0.57628971 -0.21220051 1.0752221
0.58530229 -0.21283518 1.074
0.59601271 -0.2137854 1.073
0.60512406 -0.21488896 1.0738748
0.6145016 -0.21557023 1.0745556
-0.010553367 -0.20071371 1.074
-0.00446476 -0.2016511 1.0766001
0.0069868118 -0.20033258 1.0780001
0.014642392 -0.20033258 1.0780001
0.021541867 -0.20033258 1.0780001
0.046509195 -0.20071371 1.074
0.056843698 -0.20057434 1.07175
0.064693742 -0.20184064 1.0746666
0.074646711 -0.20138326 1.0758572
0.085606471 -0.20198694 1.0754446
0.094949141 -0.20176449 1.0735999
0.10457867 -0.20247714 1.0774001
0.11065973 -0.20240198 1.077
0.12500525 -0.20280115 1.0722859
0.13454616 -0.2025419 1.0732501
0.14440672 -0.20232348 1.0718001
0.15439831 -0.20277789 1.0738572
0.16257837 -0.20440386 1.0756668
0.17641428 -0.20376113 1.07375
0.18541861 -0.20362473 1.072091
0.19443505 -0.20380889 1.0745001
0.20572004 -0.20254725 1.0737778
0.21528251 -0.20290998 1.0724286
0.22510217 -0.20424491 1.0738335
0.2354255 -0.20440814 1.073143
0.24545825 -0.20299028 1.0732858
0.25540346 -0.20243298 1.0741668
0.26273534 -0.20665771 1.0756668
0.41523141 -0.20707422 1.072
0.42593402 -0.20859455 1.0715716
0.43520784 -0.20888016 1.0716667
0.44496959 -0.20839083 1.0730001
0.45553276 -0.20893471 1.0732223
0.46359277 -0.2089536 1.0730001
0.4749372 -0.20800243 1.0710001
0.4851912 -0.20775813 1.0716667
0.49495658 -0.20800243 1.0710001
0.50329483 -0.20800242 1.0710001
0.51562244 -0.20905569 1.0718001
0.52435684 -0.20898762 1.0726
0.53634751 -0.20912376 1.0710001
0.54104251 -0.20912375 1.0710001
0.56592286 -0.20824519 1.0722501
-0.2347201 -0.19151163 1.0760001
-0.22113542 -0.19207491 1.0760001
-0.21887131 -0.19207491 1.0760001
-0.19283403 -0.19094835 1.0760001
-0.18264553 -0.19094835 1.0760001
-0.17574917 -0.19110541 1.0745001
-0.16494933 -0.19321975 1.076875
-0.15573291 -0.19442846 1.0778
-0.14405988 -0.1930826 1.0774168
-0.13470498 -0.193379 1.0760715
-0.12513387 -0.19441588 1.0757779
-0.11543657 -0.19435439 1.075
-0.10520637 -0.19585606 1.0771667
-0.094984338 -0.19494781 1.0758572
-0.085388295 -0.19519351 1.0725001
-0.073818132 -0.19563021 1.073875
-0.064968251 -0.19537982 1.0748888
-0.055106509 -0.19632542 1.0746001
-0.04680495 -0.19662687 1.0762501
-0.035143327 -0.19726977 1.0752728
-0.025213448 -0.19766375 1.0727
-0.015513983 -0.19807059 1.0710001
-0.0045171208 -0.19875085 1.0715001
0.0058146473 -0.19734971 1.0710001
0.015210217 -0.19688092 1.0715001
0.023843374 -0.19791038 1.0710001
0.03570129 -0.19917111 1.07175
0.044059929 -0.19835703 1.0722001
0.052653454 -0.19818756 1.0725
0.065534808 -0.19791038 1.0710001
0.075831361 -0.19802126 1.0716001
0.08187335 -0.19791038 1.0710001
0.096521698 -0.19903174 1.0710001
0.10424974 -0.19958924 1.074
0.11185808 -0.19958924 1.0740001
0.151593 -0.19996618 1.0700001
0.17748509 -0.19996618 1.0700001
0.19999996 -0.19996618 1.0700001
0.20225143 -0.19996618 1.0700001
-0.38343367 -0.18553598 1.0740002
-0.3756732 -0.18501645 1.0734705
-0.36568394 -0.18418796 1.0744616
-0.35546732 -0.18346377 1.0739334
-0.34528267 -0.18417864 1.0748334
-0.33399498 -0.18437344 1.0762501
-0.32512268 -0.18549167 1.0748334
-0.31638199 -0.18541686 1.0741251
-0.3053771 -0.1855258 1.0725715
-0.29413611 -0.18478052 1.0743334
-0.28467304 -0.1851759 1.0730001
-0.27565494 -0.1853388 1.0745001
-0.2651988 -0.18688628 1.0745001
-0.25445771 -0.18786965 1.0745001
-0.24302185 -0.18907075 1.0760001
-0.23534085 -0.18902861 1.0751431
-0.22548604 -0.18929254 1.0730001
-0.21414284 -0.18852089 1.0750002
-0.205991 -0.18856367 1.0752501
-0.19679624 -0.18982178 1.0760001
-0.1854946 -0.18851984 1.0750002
-0.17733847 -0.18816911 1.0730001
-0.14136402 -0.18911611 1.072
-0.13910833 -0.18911611 1.072
-0.55777484 -0.1711459 1.079
-0.54337877 -0.17326798 1.077143
-0.53568256 -0.17214233 1.071143
-0.5121634 -0.17501354 1.075
-0.50468385 -0.17396511 1.0749232
-0.49581978 -0.17419183 1.0751251
-0.48508143 -0.17260376 1.0754
-0.47508177 -0.17431939 1.0753334
-0.46615219 -0.17515936 1.075111
-0.45506653 -0.17500472 1.0755001
-0.44582814 -0.17378995 1.074737
-0.43496346 -0.17327866 1.0754001
-0.42584747 -0.17329942 1.0760001
-0.41530958 -0.17264754 1.0762858
-0.40422708 -0.17295556 1.0734001
-0.39842948 -0.17591135 1.0736001
-0.36399752 -0.17980097 1.0700001
-0.33371958 -0.17934863 1.074
-0.56208479 -0.16761649 1.0756668
-0.55625403 -0.1671761 1.07525
-0.54639482 -0.16734253 1.0763334
-0.50575054 -0.16987698 1.0710001
-0.49898976 -0.16987698 1.0710001
-0.47814402 -0.16819498 1.0710001
-0.4432134 -0.16987698 1.0710001
-0.43588918 -0.16987698 1.0710001
-0.42349446 -0.16987698 1.0710001
-0.4161703 -0.16987698 1.0710001
