# .PCD v0.7 - Point Cloud Data file format
VERSION 0.7
FIELDS x y z
SIZE 4 4 4
TYPE F F F
COUNT 1 1 1
WIDTH 741
HEIGHT 1
VIEWPOINT 0 0 0 1 0 0 0
POINTS 741
DATA ascii
-0.3092708 0.072280459 0.62900001
-0.31356657 0.081492648 0.62766671
-0.30183747 0.059787981 0.63800001
-0.30431733 0.065813586 0.6342122
-0.29915661 0.065211996 0.63825005
-0.31100291 0.077680029 0.63050008
-0.30492553 0.074975707 0.63473219
-0.29906115 0.073819861 0.63900006
-0.31287199 0.085825942 0.63152456
-0.30761376 0.084689565 0.6365872
-0.31413814 0.091882326 0.63259268
-0.30852664 0.091097429 0.63688892
0.25747126 -0.21327959 0.64495659
0.26116812 -0.21142909 0.64255553
0.21764454 -0.20531707 0.64827788
0.22571886 -0.20294645 0.64527684
0.23452115 -0.20286869 0.64243186
0.24584916 -0.20339847 0.64191854
0.25546557 -0.20458122 0.64378273
0.26281521 -0.20574476 0.64539397
0.22745131 -0.19747785 0.64885724
0.23507519 -0.19591469 0.64696759
0.24503271 -0.19532622 0.64655775
0.25288939 -0.19686604 0.64735299
0.23852424 -0.18923816 0.64900005
0.24250728 -0.18923816 0.64900005
-0.29484728 0.057001114 0.64536858
-0.28904235 0.057376631 0.64850008
-0.29529709 0.06461928 0.64417905
-0.28974366 0.060139298 0.64900005
-0.30143699 0.078290902 0.64000005
-0.2970027 0.074920848 0.64483529
-0.30296257 0.084722258 0.64066666
-0.2975474 0.083559558 0.64356118
-0.30592591 0.090128981 0.64000005
0.21525383 -0.20427559 0.65452403
0.22126718 -0.20086193 0.65100008
0.26475513 -0.20178363 0.65313792
0.27044618 -0.20185181 0.65800005
0.21809249 -0.19650361 0.6574738
0.22415952 -0.19438285 0.65342879
0.23210648 -0.19097108 0.65090913
0.24937765 -0.1902103 0.65000004
0.25644588 -0.1935458 0.65250003
0.26479948 -0.1952637 0.65678793
0.27050388 -0.19661178 0.65730006
0.22554173 -0.18550482 0.65664071
0.23513927 -0.1847724 0.65395761
0.24495962 -0.1845533 0.65320694
0.25443387 -0.18517177 0.65530449
0.26257676 -0.18756332 0.65875012
0.22742745 -0.17773443 0.65883344
0.23479803 -0.17619234 0.65794867
0.24482673 -0.17574814 0.65795422
0.25314939 -0.17662877 0.65875697
-0.28371862 0.04811516 0.65695
-0.27831885 0.048879646 0.65750003
-0.28425938 0.054870319 0.65315944
-0.278541 0.054221179 0.65748143
-0.2914061 0.06603466 0.65077281
-0.28569913 0.064587817 0.65455455
-0.27978215 0.061708014 0.65850008
-0.2926338 0.074956343 0.65109533
-0.28635257 0.073585525 0.65434545
-0.27975544 0.072464086 0.65600002
0.20856626 -0.20591423 0.66459268
0.21162003 -0.20385215 0.66261297
0.21430577 -0.19469793 0.66416162
0.26889747 -0.19273716 0.66100001
0.27167922 -0.19273716 0.66100001
0.21730664 -0.1855177 0.66527265
0.22140172 -0.18256189 0.66188896
0.25950909 -0.18201013 0.66100001
0.26569691 -0.18389273 0.66327655
0.27197939 -0.18382107 0.6680001
0.2186002 -0.17706753 0.66757894
0.22424626 -0.17445883 0.66452372
0.2344401 -0.17141309 0.66118187
0.24426186 -0.17081921 0.66094989
0.25571656 -0.17301011 0.66208822
0.26469845 -0.17562203 0.66670161
0.27104232 -0.17554487 0.66800004
0.22694348 -0.16605009 0.66713566
0.23518142 -0.1648407 0.66411382
0.24491127 -0.16499661 0.66402775
0.25459599 -0.165296 0.66612345
0.26101583 -0.16765186 0.66860002
0.22957157 -0.159501 0.66866672
0.23573774 -0.15725307 0.66824454
0.24485342 -0.15627116 0.66793829
0.25285515 -0.15783596 0.66888231
-0.27690059 0.046290293 0.66589373
-0.27565777 0.054424547 0.66475749
-0.28145748 0.066815168 0.66175008
-0.27845439 0.064450555 0.66541463
-0.28178307 0.071227506 0.66240001
-0.27889112 0.070846826 0.66571438
0.20803833 -0.2020651 0.67130005
0.21052709 -0.20027186 0.67000002
0.20843475 -0.19493976 0.67404348
0.21103717 -0.19394733 0.67171997
0.20886075 -0.18702011 0.67510003
0.21250179 -0.18423398 0.67255551
0.27220625 -0.18156546 0.67000002
0.21518269 -0.17512946 0.67405885
0.22048941 -0.17059587 0.671
0.26739749 -0.17196248 0.67016667
0.27114892 -0.17852569 0.67000002
0.21763763 -0.16513337 0.67520404
0.22323826 -0.16347027 0.67195457
0.25884637 -0.16122872 0.671
0.26582372 -0.16539536 0.67379034
0.27114329 -0.16486906 0.67658329
0.21860062 -0.15815699 0.67791671
0.22506022 -0.15494013 0.6745882
0.2338234 -0.15294075 0.67195839
0.24508083 -0.15141563 0.67109984
0.2559377 -0.15419887 0.67205453
0.26266408 -0.15536042 0.67543995
0.22763978 -0.14848159 0.67769235
0.23551905 -0.14540519 0.67597473
0.24508387 -0.14530638 0.67463636
0.25407192 -0.14598222 0.6760183
0.26128998 -0.14864451 0.67733335
0.23879409 -0.13950303 0.67740005
0.24373989 -0.13913256 0.6776154
-0.26662496 0.036722049 0.67889476
-0.27312735 0.044164386 0.67224997
-0.26812994 0.044762567 0.6763044
-0.27231237 0.056314975 0.67304254
-0.26913714 0.053271223 0.67681485
-0.27405694 0.064808644 0.67332441
-0.26932868 0.064962856 0.67519999
0.20960498 -0.18253526 0.68177783
0.20969555 -0.1764424 0.68371445
0.2120932 -0.17319058 0.68321878
0.20951608 -0.16915207 0.6875
0.21378806 -0.16510005 0.68458706
0.26807809 -0.16077951 0.68099999
0.27138099 -0.16139629 0.68120003
0.2164944 -0.15477727 0.68284005
0.22141975 -0.15188125 0.68000001
0.26814327 -0.15458818 0.68287998
0.27169648 -0.15595037 0.68400002
0.2181735 -0.14588439 0.68730301
0.22425246 -0.1445615 0.68302315
0.23167096 -0.14182971 0.68016666
0.257292 -0.14180456 0.68099993
0.26510721 -0.14440599 0.68432653
0.27167112 -0.14564155 0.68731046
0.21939684 -0.13886262 0.68900001
0.22576891 -0.13523713 0.68662959
0.23462938 -0.13476495 0.68202615
0.2447973 -0.13444459 0.68072468
0.2549617 -0.13475138 0.68314511
0.26450413 -0.1353053 0.68760782
0.27158925 -0.139584 0.68900001
0.22727513 -0.12687939 0.68880004
0.23499125 -0.12575296 0.68689466
0.24485809 -0.12494589 0.68573421
0.25462258 -0.12525922 0.68737274
0.26151371 -0.12795861 0.68855566
0.24473722 -0.11937164 0.68854553
0.2512922 -0.11866391 0.68900001
-0.26324558 0.036239415 0.68440741
-0.2590239 0.036557235 0.68833339
-0.26393688 0.045069296 0.68464601
-0.26566935 0.055200517 0.68374234
-0.2705524 0.063506879 0.68150002
-0.26683372 0.061464127 0.68230772
0.20885281 -0.16428365 0.69326323
0.21147837 -0.16353033 0.69076192
0.20907158 -0.15753664 0.69322217
0.21310727 -0.15407471 0.69147515
0.21456541 -0.14466113 0.69402033
0.27721676 -0.14025226 0.69880009
0.21661916 -0.135572 0.69575876
0.22055314 -0.13286602 0.6920625
0.26902878 -0.13155392 0.69550008
0.27125761 -0.13535093 0.69346672
0.21806993 -0.12742412 0.69831586
0.223727 -0.12399234 0.69421756
0.23232475 -0.12096617 0.69116676
0.25706038 -0.12089363 0.69114292
0.2661168 -0.12446997 0.69594133
0.27269438 -0.12633854 0.69847369
0.22610041 -0.11583266 0.69722217
0.23490825 -0.11535063 0.6936745
0.24475302 -0.11418448 0.69274682
0.25491503 -0.11497662 0.69394034
0.26263827 -0.11579093 0.69795841
0.22956756 -0.10940839 0.69900006
0.23568471 -0.10712249 0.69778359
0.24487922 -0.10563269 0.69775856
0.25422874 -0.10721963 0.69799989
0.26063615 -0.1093296 0.69850004
-0.25643459 0.028073583 0.69638896
-0.26412493 0.030924968 0.69205886
-0.25526109 0.034760967 0.69456816
-0.249933 0.033986025 0.69800001
-0.26064587 0.046436056 0.69087517
-0.25688151 0.044815361 0.69510537
-0.26167199 0.0548518 0.69225019
-0.2563054 0.054409441 0.69600004
0.20903309 -0.14519165 0.70539999
0.21167959 -0.14446515 0.70382768
0.2091939 -0.13641901 0.70622224
0.21215694 -0.13419417 0.70371813
0.27623746 -0.13736676 0.70100009
0.21609612 -0.12499106 0.70453489
0.22069015 -0.1205584 0.70000005
0.26746917 -0.12073063 0.70100003
0.21822403 -0.11596448 0.70594591
0.22265957 -0.11291566 0.70221221
0.26708341 -0.1140921 0.70299989
0.27107149 -0.11430924 0.70558333
0.21924654 -0.10787036 0.70812505
0.22513217 -0.10522567 0.70507914
0.23364407 -0.1027161 0.70078278
0.24460369 -0.10085633 0.69999993
0.25579467 -0.102643 0.70066673
0.2650508 -0.10433909 0.70581985
0.27111143 -0.10576519 0.70891678
0.22734384 -0.09802302 0.70759088
0.23486373 -0.095103458 0.70486319
0.2450432 -0.095135875 0.70378113
0.25490153 -0.095187142 0.70520008
0.26314494 -0.097801484 0.70807153
0.23686683 -0.087916799 0.70786941
0.24519047 -0.087411657 0.70785713
0.25213885 -0.088948242 0.70800006
-0.25276881 0.018906146 0.708
-0.2487123 0.017990362 0.70600003
-0.25436535 0.024335826 0.70352286
-0.2470732 0.025772441 0.70422804
-0.25093055 0.0370651 0.70200002
-0.24756388 0.034572795 0.70471442
-0.25268167 0.045052674 0.70431387
-0.24820249 0.045708604 0.70817858
-0.25325248 0.051665403 0.70300007
0.20965008 -0.13194448 0.71000004
0.20968416 -0.12553169 0.71420002
0.21250018 -0.12429678 0.71297562
0.20945401 -0.11748066 0.71700001
0.21397665 -0.11487816 0.71515775
0.21678594 -0.10501462 0.7148751
0.22099656 -0.10152301 0.7111429
0.26978862 -0.1001204 0.71100003
0.27251503 -0.10297071 0.71275002
0.21856332 -0.096752368 0.71670008
0.2242648 -0.094263561 0.71273458
0.23152855 -0.090400577 0.71066666
0.25895134 -0.091059141 0.71000004
0.26604959 -0.094273865 0.71245956
0.2726236 -0.095078945 0.71680003
0.21987221 -0.088951319 0.71900004
0.225785 -0.085123956 0.71605486
0.23421603 -0.084135987 0.71170014
0.24463657 -0.082707539 0.71103013
0.25549701 -0.084264383 0.71170384
0.26404664 -0.085687652 0.71539134
0.27161357 -0.089553826 0.71820009
0.22777933 -0.077694073 0.71861535
0.23503812 -0.075355224 0.71676815
0.24512906 -0.07506074 0.71516913
0.25462928 -0.075003892 0.71679235
0.26152366 -0.076240718 0.71857899
0.23697841 -0.068828955 0.71850002
0.24557379 -0.068706922 0.71880001
0.25277808 -0.068446681 0.71899998
0.027731989 -0.00052327907 0.71900004
0.05748599 -0.00037272053 0.71900004
0.063852839 -0.00074911676 0.71900004
0.076901726 -0.0011255131 0.71900004
0.085429072 -0.0015361271 0.71899998
0.094093934 -0.0013992558 0.71899998
0.10585341 -0.0007833346 0.71899998
0.38685721 -0.0035984432 0.71800017
0.3951982 -0.0035906129 0.71800023
0.40605998 -0.0036297659 0.71800023
0.41528648 -0.0039428626 0.71795845
0.016889431 0.0010073992 0.71900004
0.026072137 0.0023189185 0.71831578
0.034940582 0.0033912421 0.71899992
0.046230823 0.0038360744 0.71899992
0.055140384 0.0036888565 0.71899992
0.065090403 0.0036098026 0.71875012
0.074943043 0.0037523559 0.71876937
0.085157521 0.0040108077 0.71857917
0.09434402 0.0037496178 0.71812487
0.10476021 0.0027682416 0.71899992
0.11094231 0.0026384499 0.71900004
0.40992856 0.0003795434 0.71800005
0.41494173 0.00078958645 0.71799999
-0.24491085 0.01819299 0.71545446
-0.23888017 0.01954264 0.71775007
-0.24255696 0.02525286 0.71219057
-0.23808794 0.024962667 0.71678376
-0.2431618 0.035515487 0.7145592
-0.23859234 0.031946503 0.71785724
-0.24449383 0.044036306 0.71417409
-0.25196075 0.051404767 0.71150005
-0.2486036 0.050996169 0.71100003
0.2126029 -0.1119415 0.72000003
0.21276227 -0.10448095 0.72366667
0.21630351 -0.095337078 0.7244252
0.27638522 -0.094452418 0.72000003
0.21796536 -0.085503608 0.72502965
0.22094981 -0.08357843 0.72206247
0.26818398 -0.082060181 0.72166675
0.27266026 -0.084272802 0.7229616
0.21890259 -0.078233659 0.72666681
0.22445458 -0.074378096 0.72366154
0.23110366 -0.071333095 0.72100002
0.25917044 -0.071333088 0.72100002
0.26686907 -0.074647993 0.72388589
0.2724674 -0.076322213 0.7267502
0.22706294 -0.06635344 0.72739029
0.23477563 -0.0648956 0.72279692
0.24499485 -0.063649848 0.72217327
0.25538322 -0.064067222 0.72358841
0.26394686 -0.065784223 0.7257393
0.27049482 -0.0672618 0.72800004
0.22918303 -0.059405744 0.72840005
0.23532605 -0.05683215 0.72717786
0.24468657 -0.055481274 0.72607964
0.25461689 -0.055129793 0.72676498
0.26178265 -0.057697009 0.72857153
0.24576356 -0.049629211 0.72893345
0.25130841 -0.049226709 0.72900003
0.34540033 -0.01063303 0.72761548
0.38565549 -0.011037285 0.72725004
0.39445999 -0.011023743 0.72637504
-0.055445738 -0.0016022016 0.72634792
-0.044579946 -0.0012357299 0.72787511
-0.035204988 -0.001420037 0.72705269
-0.024803825 -0.0011411671 0.72900003
-0.014228342 -0.0015832711 0.72733343
-0.0047340896 -0.0021866125 0.72580951
0.0050214073 -0.0027134405 0.72449994
0.015276453 -0.0036596479 0.72507906
0.024769571 -0.0032470438 0.72391683
0.034981098 -0.0030974734 0.72392672
0.045161393 -0.0032454582 0.72363406
0.0746435 -0.0041704471 0.72348642
0.11509144 -0.0029196357 0.72362155
0.12521319 -0.0033565913 0.72400004
0.13510658 -0.0039458596 0.7243489
0.14456996 -0.0035022057 0.72429413
0.15498626 -0.0030323348 0.72405005
0.16496715 -0.0033467538 0.72428906
0.17544219 -0.0039604669 0.72433323
0.18491688 -0.0037058706 0.72351229
0.19460976 -0.0033159582 0.72394896
0.2051276 -0.0037142495 0.72539049
0.21537352 -0.0042479667 0.72582227
0.22446607 -0.0036786313 0.72578734
0.23501112 -0.0038550643 0.72641194
0.24477315 -0.0040056794 0.7251206
0.25476828 -0.0044201813 0.72484004
0.26484561 -0.0043273647 0.72526783
0.27480677 -0.0048254682 0.7246362
0.28533641 -0.0041564936 0.72456264
0.29538694 -0.0045047435 0.7249667
0.30475101 -0.0047489647 0.72378701
0.31527609 -0.0046294271 0.72504836
0.32503554 -0.0046224636 0.72435611
0.33522412 -0.0051513449 0.72398472
0.34482267 -0.0047958284 0.72182775
0.35492218 -0.0048258812 0.72143656
0.36524719 -0.004796023 0.72255361
0.3749961 -0.0046673911 0.72156966
0.38422248 -0.0052473973 0.72072715
0.39506385 -0.0059482516 0.72096568
0.40433213 -0.0063952035 0.72105896
-0.23585275 0.0093099 0.72771442
-0.13965875 0.0064825541 0.72800004
-0.12348838 0.0052193543 0.72900003
-0.11447895 0.005117585 0.72899997
-0.10442311 0.0056067407 0.7281
-0.094919555 0.0048105028 0.72750008
-0.085441187 0.0052632159 0.72705382
-0.075468644 0.0046063173 0.72537506
-0.065244012 0.0046532 0.72446787
-0.05520558 0.0051978542 0.72506487
-0.045308314 0.0053242836 0.72590667
-0.035114355 0.0050659077 0.72481567
-0.025044885 0.0050605577 0.72541302
-0.015015996 0.0048369053 0.72442222
-0.0049043037 0.0047802781 0.72260934
0.0051377835 0.0045870943 0.72162527
0.014898192 0.0049457848 0.7202633
0.024733551 0.0063164844 0.72036827
0.035310693 0.0060498477 0.720617
0.044534709 0.0058959466 0.72042841
0.055015538 0.0076394267 0.72061914
0.065283462 0.0086752912 0.7201876
0.075304285 0.0084843757 0.72000015
0.084583782 0.0085651455 0.72000003
0.096937008 0.0075710705 0.72000015
0.10526047 0.0075296336 0.72066665
0.11545893 0.0051135011 0.72155732
0.12530465 0.0050127767 0.72163057
0.13518077 0.0045888298 0.72177976
0.14462942 0.0046877274 0.72255737
0.15475912 0.0049473783 0.7240321
0.1650425 0.0053795311 0.72476542
0.17491178 0.0049595581 0.72553349
0.18485211 0.0052124737 0.72498572
0.19499126 0.004730674 0.72401631
0.20517099 0.0045474865 0.726129
0.21498129 0.0045426609 0.72636068
0.22513992 0.0053940024 0.72716397
0.23497266 0.0052999961 0.72703147
0.24515559 0.0049804021 0.72579706
0.25526628 0.0049619265 0.72569513
0.26509294 0.0048783845 0.72611117
0.27482113 0.0046250657 0.72456723
0.28515714 0.0041736071 0.72552538
0.29522213 0.0040727141 0.72633362
0.3053402 0.0048527606 0.7267167
0.31495333 0.0052112523 0.72651637
0.32486841 0.0047893059 0.72670019
0.33495399 0.0047181672 0.72554272
0.34476849 0.0044066347 0.72460353
0.3549636 0.0043840124 0.7251367
0.36475348 0.0049893567 0.72439671
0.3753036 0.0052574058 0.72493643
0.38506392 0.0051715481 0.72385299
0.39515749 0.0050506354 0.72320318
0.40481722 0.0049477271 0.72232318
0.41479173 0.0052448167 0.72258008
0.42173448 0.007000024 0.72610003
-0.23452441 0.015188511 0.72464925
-0.22777312 0.01378949 0.72777283
-0.092297927 0.010307771 0.72900003
-0.084954992 0.010809544 0.72850007
-0.075040467 0.011686976 0.72736001
-0.064741336 0.012238896 0.72772217
-0.055382993 0.012952344 0.72797287
-0.044798646 0.012457674 0.72788006
-0.035156198 0.013020192 0.72761101
-0.024602918 0.014465035 0.72714561
-0.014868436 0.014877543 0.72598463
-0.0048274882 0.014659817 0.72570312
0.0051784883 0.014502048 0.72553128
0.01536575 0.014340069 0.72450018
0.025379375 0.014506849 0.72412157
0.034932002 0.015204421 0.72524554
0.04441075 0.015115557 0.72421879
0.05459163 0.014819453 0.72486371
0.064996473 0.014695562 0.72500026
0.075203158 0.014692402 0.72398537
0.085180216 0.014275783 0.7235173
0.094676338 0.014414738 0.72371441
0.1046872 0.015118788 0.72425765
0.11497309 0.015179738 0.72562903
0.12511459 0.014448083 0.72684777
0.13516466 0.014574481 0.72709554
0.14504449 0.014440826 0.72701639
0.15448819 0.014111245 0.72739637
0.16545287 0.013205534 0.72825015
0.17491941 0.012903916 0.72841388
0.1848214 0.012587911 0.72838724
0.1947442 0.011658512 0.72834778
0.20430325 0.010951433 0.72884619
0.21698615 0.010816613 0.72900003
0.22599815 0.010918382 0.72900003
0.23562796 0.011155841 0.72900003
0.24531199 0.011416299 0.72853845
0.25453436 0.011602035 0.72809517
0.262945 0.01176362 0.72800004
0.27582943 0.010833022 0.72764289
0.28267962 0.011678194 0.72790921
0.31660357 0.01357116 0.7280001
0.32477984 0.010960571 0.7280001
0.33681542 0.01320082 0.72796297
0.34436539 0.014866034 0.72796685
0.36515057 0.011563992 0.7280001
0.37683091 0.011055848 0.72800004
0.38664412 0.013111551 0.7278499
0.3953208 0.012549235 0.7276333
0.40554735 0.013041153 0.72697496
0.41461146 0.014083843 0.72677797
0.42021766 0.011769362 0.72500008
-0.23336914 0.025175316 0.7243104
-0.22958706 0.020993445 0.72900003
-0.021991571 0.020230185 0.72900003
-0.015069096 0.02081731 0.72900003
0.0073240525 0.021841511 0.72900003
0.015247391 0.022133533 0.72774267
0.024898002 0.021812012 0.72703707
0.035860851 0.021326274 0.72877783
0.044584893 0.021905128 0.72730446
0.054965619 0.022122657 0.72533333
0.064326696 0.021235131 0.72763175
0.075215906 0.021393187 0.72661543
0.085587166 0.021387562 0.72704554
0.094761409 0.021804551 0.72648376
0.10437613 0.021976724 0.72619998
0.11519971 0.022449652 0.72772008
0.12105566 0.022427602 0.72877783
0.13753995 0.020230185 0.72900003
0.14421906 0.020420998 0.72900003
0.15326302 0.020484604 0.72900003
0.1688002 0.02193954 0.72874999
0.1739668 0.023558615 0.7275238
0.18307552 0.022122791 0.72850007
0.22321784 0.021470485 0.72900003
0.34364077 0.020202434 0.72800004
-0.24055478 0.037723146 0.72050005
-0.2362311 0.034889638 0.72525001
-0.24133042 0.042660996 0.72112501
-0.23870483 0.041391291 0.72342861
0.21339589 -0.093749702 0.73322856
0.21389614 -0.084512189 0.73363835
0.21599963 -0.076198988 0.73476785
0.2212106 -0.072785079 0.73128575
0.27517241 -0.075402081 0.73025
0.21958999 -0.066119581 0.73753351
0.2231413 -0.063889526 0.73305011
0.26781288 -0.061740082 0.73183334
0.27244827 -0.06281279 0.7322222
0.21976824 -0.059960492 0.73900002
0.2251837 -0.055161264 0.73479164
0.23427458 -0.052075692 0.73150009
0.24046163 -0.050127115 0.73100001
0.25718918 -0.051083811 0.73100001
0.26561391 -0.054103259 0.73328871
0.27229062 -0.055011757 0.73586971
0.22694571 -0.047167841 0.73689294
0.23514524 -0.045028053 0.7347579
0.2449109 -0.044301294 0.73261678
0.25510022 -0.045117486 0.73336565
0.26437855 -0.046039529 0.73713958
0.27208912 -0.048335515 0.73871434
0.23791136 -0.037507541 0.73782349
0.24460517 -0.036696434 0.73716253
0.2538459 -0.037509259 0.73734397
0.26203614 -0.039807506 0.7383334
0.22575992 -0.011735516 0.73680949
0.23413153 -0.011461829 0.73480004
0.24506889 -0.011887088 0.73630786
0.2547842 -0.011959966 0.73712498
0.26614547 -0.011617667 0.7344349
0.27469543 -0.012335777 0.73374087
-0.19457386 -0.00096299639 0.73874998
-0.1850065 -0.0013671744 0.73863637
-0.12450527 -0.00089596392 0.73500001
0.21401298 -0.0087253572 0.73130006
0.22587244 -0.0090069082 0.73233336
0.23371948 -0.0085389083 0.73059988
0.24493888 -0.0093705077 0.73087502
0.2546064 -0.0094278222 0.7312727
0.26383922 -0.0091712531 0.73025
0.29371527 -0.0093656015 0.73050004
0.31616774 -0.0095501374 0.73000002
0.32538411 -0.0095501374 0.73000002
0.33152834 -0.0095501374 0.73000002
-0.20247824 0.0053249015 0.73627281
-0.19497417 0.0051786029 0.73341012
-0.18523434 0.0049944059 0.73418784
-0.17512378 0.0049811965 0.73228079
-0.16496763 0.005090374 0.73081511
-0.15458618 0.0048705195 0.73043311
-0.14461458 0.0049884249 0.73094523
-0.13435279 0.005240167 0.73096704
-0.12477522 0.0052306079 0.73062956
-0.11521 0.005263818 0.73062164
-0.10578743 0.0043075192 0.730739
0.22661816 0.0095706936 0.73100001
0.2877506 0.0087932916 0.73000002
0.29454768 0.0087932935 0.72999984
0.30195916 0.0090799071 0.73000002
0.32666415 0.0095576011 0.73000002
0.35533729 0.0087932916 0.73000002
0.36570573 0.0095576011 0.73000002
0.37223396 0.0095576011 0.73000002
-0.22472242 0.014652894 0.7346521
-0.20202331 0.014292097 0.73757154
-0.1947899 0.015160839 0.73595113
-0.18470505 0.015099084 0.73495173
-0.17496249 0.014968265 0.73400003
-0.16513024 0.014806627 0.73354709
-0.1549702 0.0146355 0.73340672
-0.14473934 0.014470467 0.73300016
-0.13529287 0.015519464 0.73429543
-0.12559095 0.01523944 0.73368859
-0.11547899 0.015216531 0.73259413
-0.10520556 0.015088719 0.73217195
-0.095326476 0.015081966 0.73267198
-0.085028209 0.01571089 0.73164713
-0.07480628 0.016577518 0.73084229
-0.06479346 0.017130926 0.73049998
-0.0534501 0.017631341 0.73082131
-0.044960782 0.017401632 0.73131233
-0.035294186 0.017858688 0.73010695
-0.028421994 0.018219776 0.73000002
0.12492812 0.019493626 0.73000002
0.15853588 0.018332744 0.73111111
0.1649393 0.017597174 0.73109698
0.17518283 0.017386612 0.73100036
0.18549195 0.017227244 0.73112148
0.19574562 0.016509885 0.7315253
0.20552878 0.01582359 0.7328409
0.21451825 0.01510357 0.73185194
0.22508733 0.0153623 0.73138899
0.23510513 0.015934201 0.73328555
0.24451289 0.016124252 0.73242301
0.25490218 0.016297787 0.73227525
0.26532999 0.015653929 0.73122919
0.27442744 0.015664501 0.73163271
0.28500968 0.015264096 0.73053032
0.294815 0.014923794 0.73071426
0.30500433 0.015264457 0.73165065
0.31446773 0.014772326 0.73020387
0.32516575 0.015010947 0.73033309
0.3348099 0.016193347 0.73093003
0.34646225 0.014341615 0.72999978
0.35532835 0.01348054 0.73036712
0.36497706 0.015191754 0.73074418
0.37509373 0.015537377 0.73138982
0.38409257 0.01617521 0.73061687
0.39494857 0.016153745 0.73016655
0.40518197 0.017314574 0.73019046
0.41217154 0.018729316 0.73000002
-0.23024161 0.026204901 0.73142856
-0.22817211 0.024810972 0.73535901
-0.1923925 0.021262225 0.7383334
-0.18479723 0.021821208 0.73833346
-0.17436868 0.022231592 0.73788476
-0.1653489 0.023684584 0.73828918
-0.15454738 0.02337442 0.73752409
-0.14489451 0.023482691 0.73668766
-0.13552454 0.024109429 0.73781848
-0.12499611 0.023560192 0.73697394
-0.11468367 0.023847654 0.73637801
-0.10437873 0.023968987 0.7357254
-0.094424769 0.02353874 0.73595661
-0.084643997 0.023016572 0.73466665
-0.074584812 0.022942225 0.73369026
-0.065174118 0.023424935 0.73371434
-0.054507099 0.022817843 0.7318486
-0.045806739 0.023655038 0.7330789
-0.035107486 0.022946488 0.73258823
-0.02534757 0.02334623 0.73094624
-0.015403755 0.024178864 0.73132151
-0.0046262257 0.022591157 0.73121607
0.0034763652 0.023159837 0.73054534
0.01177161 0.025862873 0.73000002
0.025468152 0.024843791 0.73000002
0.034428511 0.021786554 0.73000002
0.042748839 0.023315173 0.73000002
0.062205613 0.023569942 0.73000002
0.088062644 0.023315173 0.73000002
0.12534875 0.021139234 0.7316364
0.1345458 0.021678876 0.73042089
0.14445648 0.021635532 0.73133326
0.15578687 0.021319428 0.73144442
0.16443232 0.021564715 0.73111111
0.17555107 0.021357188 0.73100001
0.18703246 0.021507798 0.73133337
0.19505 0.021495672 0.7316668
0.20562294 0.020789612 0.73528582
0.21547739 0.020528188 0.73420006
0.2243499 0.020576293 0.731125
0.23650615 0.021137435 0.73400003
0.24374239 0.021088069 0.7322858
0.29713225 0.020304186 0.73166674
0.30546883 0.021218067 0.73680007
0.34381685 0.020257935 0.73000002
0.36659122 0.020285686 0.73100001
0.37253574 0.022160063 0.73514295
-0.23211421 0.035005435 0.73177791
-0.22810833 0.033762917 0.73592001
0.21389426 -0.073487476 0.74432242
0.21646 -0.065145753 0.74422228
0.2180787 -0.055158414 0.74603128
0.22060978 -0.053584516 0.74183333
0.21902445 -0.048045333 0.74775004
0.22410478 -0.043808717 0.74356002
0.23096536 -0.041446924 0.74000001
0.26823443 -0.042775653 0.74109089
0.2728608 -0.043102358 0.74347055
0.22676468 -0.035197515 0.74534106
0.23406786 -0.034293469 0.74137956
0.24541327 -0.032014437 0.74013627
0.25610286 -0.032986395 0.7408666
0.26509526 -0.035031721 0.74461704
0.2727533 -0.036400288 0.74712503
0.22826175 -0.026054878 0.7474668
0.23475951 -0.024911698 0.74564147
0.24526042 -0.025326867 0.74386364
0.25530013 -0.025281379 0.74442875
0.264541 -0.025193162 0.74705702
0.23559555 -0.016590517 0.74546343
0.24482496 -0.016580632 0.74388373
0.25501743 -0.016723566 0.74386126
0.26466322 -0.01718192 0.74463409
-0.20695969 0.0041426751 0.74217653
-0.22170106 0.016178176 0.7433126
-0.21623801 0.014131177 0.74822217
-0.20469272 0.014802773 0.74269241
-0.22322121 0.025091307 0.74307853
-0.21930681 0.022845861 0.74800009
-0.20140751 0.022792332 0.74142867
-0.19485489 0.024507536 0.74023235
-0.18476123 0.026259793 0.74112827
-0.17540835 0.026772117 0.74103218
-0.16340637 0.027015418 0.73999995
-0.15759324 0.027355831 0.74185723
-0.13435662 0.025993977 0.74100006
-0.11798495 0.027545629 0.74100006
-0.22424516 0.031906486 0.74270588
-0.18627939 0.030074684 0.74600005
0.21199247 -0.072631747 0.75000006
0.21369067 -0.063070439 0.75209999
0.2093301 -0.053529993 0.75750005
0.21351312 -0.054155983 0.75406253
0.21582487 -0.045058947 0.75537032
0.22091067 -0.041918539 0.75042862
0.21805145 -0.035428975 0.75702947
0.22208305 -0.033988185 0.75178128
0.26959476 -0.031406149 0.75000006
0.27429339 -0.032399219 0.75120002
0.21544661 -0.023151102 0.75490922
0.22382048 -0.025041781 0.7524038
0.2682139 -0.024600651 0.75000012
0.27403948 -0.025614969 0.75111544
-0.21294479 0.017372524 0.75325936
-0.20896661 0.014845237 0.7523334
-0.22041926 0.027618444 0.75000012
-0.21547787 0.023781994 0.75293332
0.2092219 -0.050524306 0.76000005
0.21082108 -0.050922163 0.76000005
0.2151017 -0.041029587 0.76100004
0.21564743 -0.034024924 0.76384205
0.21488009 -0.027720487 0.7637918
0.21090303 -0.040317018 0.77800006
0.21247056 -0.035301436 0.77313894
0.2103546 -0.028615791 0.77000004
