# .PCD v0.7 - Point Cloud Data file format
VERSION 0.7
FIELDS x y z
SIZE 4 4 4
TYPE F F F
COUNT 1 1 1
WIDTH 689
HEIGHT 1
VIEWPOINT 0 0 0 1 0 0 0
POINTS 689
DATA ascii
-0.19177763 -0.12625667 0.77300006
-0.18797411 -0.12644497 0.77280003
-0.18257526 -0.12588859 0.77300006
-0.17712744 -0.12647752 0.77300006
-0.17391114 -0.1263251 0.77266669
-0.19545858 -0.12294382 0.77300006
-0.19220595 -0.12286454 0.77250004
-0.18751135 -0.12261077 0.77090001
-0.18247209 -0.12272602 0.77070004
-0.17755811 -0.12253612 0.77127278
-0.17310417 -0.12270012 0.77262509
-0.19509049 -0.11999906 0.77300006
-0.19192217 -0.11793586 0.77263653
-0.18708095 -0.11738415 0.77033341
-0.18259269 -0.11730389 0.77092314
-0.17791826 -0.11791548 0.77123088
-0.17368454 -0.11922406 0.77275002
-0.19067335 -0.11337334 0.77300006
-0.18756731 -0.11253895 0.77233344
-0.18282689 -0.11266688 0.77220005
-0.1788943 -0.11410953 0.77300006
-0.18478382 -0.10969239 0.77300006
-0.20179811 -0.13131715 0.77900004
-0.19717777 -0.13194668 0.77833337
-0.19264744 -0.1313442 0.77739996
-0.18770191 -0.13131717 0.77900004
-0.18250857 -0.13131715 0.77900004
-0.17674534 -0.1317084 0.77780002
-0.1731606 -0.13220744 0.77900004
-0.16940159 -0.13230637 0.77900004
-0.20550764 -0.12760763 0.77900004
-0.20219462 -0.12738922 0.77766675
-0.19737276 -0.12749335 0.77560002
-0.19293812 -0.1285762 0.77500004
-0.18722509 -0.12884128 0.77600002
-0.18254477 -0.12859526 0.77600002
-0.17836572 -0.12888095 0.77550006
-0.17219621 -0.12785487 0.77600002
-0.1698962 -0.12760763 0.77900004
-0.20550764 -0.1238981 0.77900004
-0.20182057 -0.12244613 0.77785712
-0.19780955 -0.12203175 0.77500004
-0.17153049 -0.12239449 0.77700007
-0.1698962 -0.1238981 0.77900004
-0.20134 -0.11748439 0.77780002
-0.19707145 -0.11735715 0.77500004
-0.19411907 -0.11588096 0.77500004
-0.17606318 -0.11647271 0.77566671
-0.17340541 -0.11741208 0.77700007
-0.19679068 -0.11386877 0.77740002
-0.19306955 -0.11275606 0.77671427
-0.18083334 -0.11219049 0.77500004
-0.17780523 -0.11255788 0.77715391
-0.17434762 -0.11425334 0.77900004
-0.19100098 -0.10847207 0.77833337
-0.18754983 -0.10801414 0.7768333
-0.18247908 -0.10805239 0.77669233
-0.17879906 -0.10906 0.77900004
-0.18696001 -0.10460858 0.77900004
-0.18318328 -0.10351036 0.77871436
-0.20608002 -0.13664001 0.78400004
-0.20183049 -0.13629144 0.78200006
-0.1975289 -0.13640764 0.78266668
-0.19264001 -0.13589334 0.78400004
-0.18890668 -0.13514668 0.78400004
-0.17098668 -0.13664001 0.78400004
-0.16760764 -0.1372705 0.78333342
-0.16238478 -0.13652383 0.7833333
-0.15904 -0.13664001 0.78400004
-0.15082668 -0.13888001 0.78400004
-0.21202144 -0.13078906 0.78250003
-0.20773146 -0.13264814 0.78127283
-0.20287335 -0.13370097 0.78100002
-0.19785143 -0.13425809 0.78100002
-0.19264764 -0.13388667 0.78100002
-0.18724191 -0.13370363 0.78080004
-0.18275838 -0.13385335 0.78142864
-0.1776084 -0.13443582 0.78160006
-0.17170906 -0.13380048 0.78049999
-0.16704711 -0.13219237 0.78018188
-0.16231164 -0.13226031 0.78106672
-0.15856525 -0.13207477 0.78350008
-0.21241072 -0.12774357 0.78325003
-0.20826763 -0.12719017 0.78100002
-0.16697238 -0.12697658 0.78060007
-0.16260646 -0.12784722 0.78319997
-0.15904 -0.12917334 0.78400004
-0.21130668 -0.12394667 0.78400004
-0.20759849 -0.12324726 0.78240007
-0.20454763 -0.12198382 0.78100002
-0.17033239 -0.12198382 0.78100002
-0.16769886 -0.12297887 0.78260005
-0.20280002 -0.11960001 0.78000003
-0.17139597 -0.11732319 0.78133339
-0.16949335 -0.11797334 0.78400004
-0.1974881 -0.11215763 0.78250003
-0.19388573 -0.11068572 0.78000003
-0.17571113 -0.11127557 0.78066671
-0.17278334 -0.11264429 0.78200001
-0.19637334 -0.10976001 0.78400004
-0.19269411 -0.10715049 0.78240007
-0.18051429 -0.10697144 0.78000003
-0.17711416 -0.10743767 0.7821539
-0.17347559 -0.10926223 0.7840001
-0.19040002 -0.10378668 0.78400004
-0.18736711 -0.10234395 0.78114289
-0.1820462 -0.10190143 0.78100002
-0.17914286 -0.10286286 0.78266668
-0.18654811 -0.098496668 0.78350008
-0.18307947 -0.098203816 0.78371435
-0.1600543 -0.14502573 0.78900003
-0.15855144 -0.14502573 0.78900003
-0.20589143 -0.14051715 0.78900003
-0.20063144 -0.14051715 0.78900003
-0.18610382 -0.14101811 0.78900003
-0.18259716 -0.14126858 0.78900003
-0.17808859 -0.14051715 0.78900003
-0.17121762 -0.1404281 0.78850007
-0.16742635 -0.14089939 0.78833342
-0.16239335 -0.14174287 0.78850007
-0.15730561 -0.14196678 0.78777784
-0.15384763 -0.14184001 0.78800005
-0.21088383 -0.13733715 0.78800005
-0.20762002 -0.13791144 0.78700006
-0.20286286 -0.13848573 0.78600001
-0.19986859 -0.13848573 0.78600001
-0.19112669 -0.13766383 0.78700006
-0.18719445 -0.137906 0.78757155
-0.18244287 -0.13814637 0.78833342
-0.17743322 -0.1381954 0.78800005
-0.17313907 -0.13791335 0.78700006
-0.16618288 -0.1392343 0.78600001
-0.16189811 -0.13866192 0.78700006
-0.15714946 -0.13755679 0.78661555
-0.1526731 -0.13729262 0.78775007
-0.14934477 -0.1358362 0.78800005
-0.15648656 -0.13268609 0.78712511
-0.15247527 -0.13369748 0.78866673
-0.1495343 -0.13450572 0.78900003
-0.16206573 -0.12538573 0.78600001
-0.15838572 -0.12783477 0.78725004
-0.21075001 -0.12299858 0.78750002
-0.20753019 -0.12112129 0.78666675
-0.1666435 -0.12167208 0.78700006
-0.16291133 -0.12301499 0.78828585
-0.20700145 -0.11925001 0.78750002
-0.17035811 -0.11632381 0.78800005
-0.16790642 -0.11812437 0.78857154
-0.20138288 -0.11271429 0.78900003
-0.19949859 -0.11174715 0.78750002
-0.17121701 -0.11239191 0.78850007
-0.16907144 -0.11496858 0.78900003
-0.19647507 -0.10761715 0.78800005
-0.19388001 -0.10554858 0.78600001
-0.17572239 -0.10663572 0.78850007
-0.17304209 -0.10768239 0.78883338
-0.19242612 -0.1030364 0.78740007
-0.18938859 -0.10105715 0.78600001
-0.17718573 -0.10301157 0.78785723
-0.19111335 -0.098437153 0.78900003
-0.18783881 -0.096758515 0.78757155
-0.18178824 -0.096702263 0.78712511
-0.1787831 -0.097654298 0.78875005
-0.18602543 -0.093387946 0.78866673
-0.18255828 -0.093157306 0.78883338
-0.17959145 -0.093928576 0.78900003
-0.18654382 -0.1502924 0.79300004
-0.19107525 -0.14576097 0.79300004
-0.18674453 -0.14656669 0.79225004
-0.18239002 -0.14613858 0.79300004
-0.16590065 -0.14626446 0.7930001
-0.16243258 -0.14644592 0.79179996
-0.15895334 -0.14690001 0.79100001
-0.21018001 -0.14087334 0.79100001
-0.20867334 -0.14087334 0.79100001
-0.20013811 -0.14274001 0.79300004
-0.197192 -0.14162192 0.79157144
-0.19228216 -0.14232764 0.79175007
-0.18808222 -0.14288224 0.79100001
-0.18185468 -0.14358534 0.79100001
-0.17725715 -0.1428124 0.79200006
-0.17280287 -0.1421178 0.79233336
-0.16820477 -0.14331526 0.792
-0.16422668 -0.14388667 0.79100001
-0.21093336 -0.13936667 0.79100001
-0.20867334 -0.13936667 0.79100001
-0.19737335 -0.13936667 0.79100001
-0.19285335 -0.13936667 0.79100001
-0.1563343 -0.1306562 0.79300004
-0.15277925 -0.13166459 0.79180002
-0.14903398 -0.13294891 0.79166669
-0.15820001 -0.12656 0.79100001
-0.21120097 -0.12144001 0.79200006
-0.1621422 -0.12141702 0.79185712
-0.15935525 -0.12461429 0.79300004
-0.20382319 -0.11585937 0.79166669
-0.16637462 -0.11636223 0.79166669
-0.16402191 -0.11845201 0.79220003
-0.20315906 -0.11253049 0.7930001
-0.17100668 -0.11224668 0.79100001
-0.16794498 -0.11256763 0.79220003
-0.20013811 -0.10799906 0.79300004
-0.19888002 -0.10772668 0.79100001
-0.17186812 -0.10704048 0.79150003
-0.1694251 -0.10900604 0.7930001
-0.19644859 -0.10312825 0.79233336
-0.19360667 -0.10094667 0.79100001
-0.17612936 -0.10139867 0.79100001
-0.17335097 -0.10299215 0.79224998
-0.19271953 -0.097301908 0.79200006
-0.17635398 -0.097221598 0.79133338
-0.17446002 -0.097425722 0.7930001
-0.18807182 -0.092451625 0.79180002
-0.18185468 -0.091454662 0.79100001
-0.17750096 -0.092994295 0.79224998
-0.17446001 -0.094404764 0.79300004
-0.18642619 -0.089061439 0.79250002
-0.1822456 -0.089128859 0.79214293
-0.17899144 -0.089873336 0.79300004
-0.1873643 -0.15095572 0.79650003
-0.18392001 -0.15124001 0.79800004
-0.171 -0.15200001 0.79800004
-0.16802573 -0.15133572 0.79650003
-0.19558129 -0.14801431 0.79700011
-0.19224644 -0.14792548 0.79550004
-0.1870143 -0.14915715 0.79500002
-0.18187757 -0.14890885 0.79714292
-0.17747478 -0.14709477 0.79750007
-0.17243916 -0.14794084 0.79762495
-0.16797493 -0.14827208 0.79566669
-0.16305748 -0.14940731 0.79633343
-0.15788192 -0.14649621 0.79700005
-0.19685715 -0.14461429 0.79500002
-0.19307144 -0.14461429 0.79500002
-0.17609906 -0.14497811 0.79700005
-0.17273669 -0.14432667 0.79550004
-0.15218572 -0.13098572 0.79500002
-0.14840001 -0.13098572 0.79500002
-0.15620953 -0.12742858 0.79525006
-0.15239456 -0.12758 0.79609102
-0.14840001 -0.12795717 0.79500002
-0.21692574 -0.12124509 0.79733342
-0.21327049 -0.12084 0.79550004
-0.16127144 -0.12038572 0.79500002
-0.15762572 -0.12244192 0.79571432
-0.15245372 -0.12241715 0.79640001
-0.14858668 -0.12280954 0.796
-0.215992 -0.118104 0.79800004
-0.21183313 -0.11768476 0.7972222
-0.20807849 -0.11731811 0.79680008
-0.16157366 -0.11711905 0.79566669
-0.15712287 -0.11765239 0.79699999
-0.15292607 -0.11797132 0.79787499
-0.14793009 -0.11819158 0.79771429
-0.21558669 -0.11425334 0.79800004
-0.21171694 -0.11335835 0.79750001
-0.20750038 -0.1122084 0.79754543
-0.20392764 -0.11068096 0.796
-0.1660924 -0.11148541 0.79633331
-0.16243513 -0.11233798 0.79700005
-0.15788822 -0.11381926 0.79780006
-0.15428001 -0.11476 0.79800004
-0.20672002 -0.10868001 0.79800004
-0.20237701 -0.10742001 0.79671443
-0.17086193 -0.10574763 0.79500002
-0.16764371 -0.10726049 0.79649997
-0.16441336 -0.10817334 0.79800004
-0.20171691 -0.10294739 0.79775
-0.19882268 -0.10206421 0.79619998
-0.17150953 -0.10179462 0.79566669
-0.16830356 -0.10276151 0.79757148
-0.19706586 -0.097772509 0.79737502
-0.19307144 -0.096157148 0.79500002
-0.1721081 -0.097502202 0.79610008
-0.16948001 -0.098040007 0.79800004
-0.19532001 -0.091960013 0.79800004
-0.19222353 -0.092241816 0.79650003
-0.17637621 -0.090842478 0.79619998
-0.17363511 -0.092728175 0.79714286
-0.19127241 -0.087659813 0.79760003
-0.18750003 -0.086762324 0.79614294
-0.18247144 -0.086314283 0.79500002
-0.17800391 -0.087408677 0.79670006
-0.19076002 -0.0836 0.79800004
-0.18758996 -0.08278212 0.7974444
-0.18241949 -0.082616895 0.79718184
-0.17830907 -0.083329052 0.79783338
-0.18670669 -0.07929334 0.79800004
-0.18269268 -0.0791343 0.79785717
-0.17305145 -0.15544002 0.80400002
-0.18178573 -0.15276286 0.80200005
-0.17779486 -0.15226649 0.80260003
-0.17344144 -0.15171479 0.80049998
-0.17752382 -0.14857143 0.80000001
-0.22205716 -0.12098287 0.80400002
-0.21976002 -0.12021715 0.80400002
-0.22129144 -0.11868572 0.80400002
-0.21768954 -0.11762857 0.80200005
-0.15138935 -0.11571467 0.80039996
-0.14875716 -0.11595334 0.801
-0.21104763 -0.1104762 0.80000001
-0.15684476 -0.11209887 0.80180007
-0.15263239 -0.11307049 0.80400002
-0.14870171 -0.11225372 0.80400002
-0.21054763 -0.10756096 0.801
-0.20778587 -0.10710667 0.80085725
-0.20495239 -0.10742858 0.80000001
-0.16533335 -0.10590477 0.80000001
-0.16192572 -0.10739011 0.80200005
-0.15792605 -0.10868604 0.80366671
-0.15314287 -0.10949715 0.80400002
-0.14724083 -0.10810669 0.80342859
-0.21030954 -0.10400668 0.80300003
-0.20712455 -0.10346549 0.80324996
-0.20376764 -0.10149969 0.80133337
-0.16628218 -0.10195022 0.80142868
-0.16305166 -0.1035126 0.80377775
-0.14690778 -0.10293389 0.80400002
-0.20149298 -0.097918108 0.80200005
-0.19851494 -0.095825404 0.80066669
-0.17109144 -0.095476195 0.80200005
-0.16770643 -0.09779644 0.80225003
-0.16462858 -0.098011434 0.80400002
-0.20138288 -0.093417153 0.80400002
-0.19834384 -0.09230572 0.80100006
-0.17153049 -0.092381909 0.80166668
-0.16922286 -0.093417153 0.80400002
-0.19746235 -0.088087097 0.80228579
-0.1940262 -0.087291911 0.80049998
-0.17578289 -0.086746678 0.80133337
-0.17386173 -0.088843055 0.80280012
-0.1957781 -0.084122866 0.80300003
-0.19265366 -0.082709536 0.80166674
-0.17672807 -0.081874713 0.80177784
-0.17491239 -0.084782861 0.80200005
-0.19066288 -0.078868575 0.80400002
-0.18729082 -0.076954298 0.80266666
-0.18213716 -0.076625317 0.80114287
-0.17862415 -0.077717468 0.80266666
-0.18300572 -0.074274294 0.80400002
-0.18115811 -0.15582667 0.80600005
-0.17732 -0.15582667 0.80600011
-0.15224445 -0.11181652 0.80600011
-0.15692328 -0.10647974 0.80600011
-0.15271562 -0.10708553 0.80660009
-0.14968573 -0.10669906 0.80600011
-0.20802478 -0.10106985 0.80600011
-0.1618052 -0.10169034 0.8062858
-0.15813462 -0.10277398 0.80733341
-0.15313524 -0.10388573 0.80800003
-0.14968573 -0.10362858 0.80600005
-0.2062324 -0.09849906 0.80800003
-0.20409906 -0.097566992 0.80666673
-0.16657335 -0.095952384 0.80600011
-0.16230929 -0.097770244 0.80675012
-0.15929145 -0.099268578 0.80800003
-0.20290382 -0.092999056 0.80700004
-0.17062192 -0.090690479 0.80700004
-0.1676563 -0.092667527 0.8071112
-0.16390859 -0.094651438 0.80800003
-0.21608478 -0.086740956 0.80600005
-0.21469715 -0.087725721 0.80800003
-0.2011162 -0.089043818 0.80600005
-0.17235544 -0.08717715 0.80720007
-0.21416573 -0.082135245 0.80600005
-0.19727811 -0.083670482 0.80600005
-0.19344002 -0.080600008 0.80600005
-0.17578477 -0.080600008 0.80600005
-0.17376825 -0.082270488 0.80733341
-0.19214383 -0.078395247 0.80700004
-0.18960191 -0.07599429 0.80600005
-0.17680827 -0.077017784 0.80600011
-0.17402476 -0.078682549 0.80733341
-0.18720955 -0.073375627 0.80760002
-0.18241863 -0.072268881 0.80661541
-0.17797989 -0.073544502 0.80800003
-0.18237716 -0.068487622 0.80800003
-0.21629144 -0.10000572 0.81400001
-0.21333525 -0.10141308 0.81285727
-0.15627715 -0.10143779 0.81100005
-0.15258645 -0.1015293 0.81225002
-0.14962097 -0.1015562 0.81400001
-0.21629144 -0.098455243 0.81400001
-0.21225023 -0.097001396 0.81363648
-0.20802829 -0.097319059 0.81100005
-0.16139621 -0.095784768 0.81240004
-0.15780646 -0.098242626 0.81224996
-0.21629144 -0.093028575 0.81400001
-0.21241528 -0.092253327 0.81400007
-0.2072898 -0.092532255 0.81257159
-0.2044286 -0.091800004 0.81000012
-0.16634524 -0.091470011 0.81050003
-0.16294171 -0.092226677 0.81240016
-0.21522859 -0.085628577 0.81000006
-0.21348841 -0.087032773 0.81160015
-0.20543811 -0.087601908 0.81400001
-0.20307735 -0.087694488 0.8120001
-0.19980001 -0.085628577 0.81000006
-0.17048572 -0.086400002 0.81000006
-0.16724852 -0.087244689 0.81200004
-0.16395685 -0.088562548 0.81333339
-0.2125562 -0.083201528 0.81040001
-0.20062225 -0.082881272 0.81333339
-0.19773048 -0.081872381 0.81099999
-0.17139748 -0.08261016 0.81066674
-0.16826454 -0.083066911 0.81325006
-0.19674534 -0.078187495 0.81285727
-0.19329755 -0.076174483 0.81120008
-0.1751143 -0.076371431 0.81000006
-0.17245297 -0.077331059 0.8120001
-0.16926032 -0.079332702 0.81400001
-0.19229335 -0.072736196 0.81250006
-0.18795162 -0.070886485 0.81080002
-0.17689778 -0.071668997 0.81111109
-0.17442858 -0.072872385 0.81400001
-0.19148383 -0.068996198 0.81400001
-0.18790168 -0.067535006 0.81274998
-0.18239048 -0.066870861 0.81080008
-0.17797428 -0.067707621 0.81250012
-0.1868324 -0.063181907 0.81400001
-0.18245888 -0.062835686 0.81272745
-0.17858239 -0.063142389 0.81350005
-0.15076478 -0.10025144 0.81600004
-0.14861619 -0.10037429 0.81700003
-0.21500477 -0.097023815 0.81500006
-0.15701735 -0.096016198 0.81700003
-0.15250555 -0.097571246 0.81700003
-0.14879811 -0.098159052 0.81800008
-0.16067144 -0.091590479 0.81500006
-0.1578722 -0.092884965 0.81820011
-0.21224625 -0.087547421 0.81833345
-0.20831735 -0.086940013 0.81800002
-0.20413812 -0.086157151 0.81500006
-0.1620369 -0.087339774 0.81700003
-0.15938002 -0.089180008 0.81900012
-0.20709002 -0.082680002 0.81900007
-0.20325875 -0.082960963 0.81666672
-0.16580133 -0.082200199 0.81580001
-0.16331758 -0.082652181 0.81788903
-0.20202002 -0.078780003 0.81900007
-0.19895792 -0.076569341 0.81540006
-0.17097048 -0.075382859 0.81600004
-0.16760893 -0.077329792 0.81718189
-0.16380002 -0.078780003 0.81900007
-0.19724715 -0.072750002 0.81700003
-0.19404763 -0.070633337 0.81500006
-0.17218344 -0.072171815 0.81660002
-0.16841112 -0.072509848 0.8186667
-0.19578001 -0.068640009 0.81900007
-0.19263113 -0.06714794 0.81666672
-0.17563334 -0.066834286 0.81600004
-0.17271037 -0.068131752 0.81811118
-0.16926001 -0.068640009 0.81900007
-0.19137335 -0.063530482 0.81850004
-0.18845762 -0.061392386 0.81600004
-0.17662637 -0.062505722 0.81700009
-0.17342001 -0.064220004 0.81900012
-0.18686116 -0.058753338 0.81820005
-0.18249749 -0.05750585 0.81820023
-0.17974001 -0.059913337 0.81700003
-0.15090764 -0.096174292 0.82100004
-0.14934382 -0.096174292 0.82100004
-0.15559906 -0.092264771 0.82100004
-0.15293276 -0.092666291 0.82180005
-0.14892381 -0.094840959 0.82300001
-0.16029048 -0.086009532 0.82100004
-0.15731564 -0.087657526 0.82180005
-0.2111143 -0.082881913 0.82100004
-0.20772192 -0.081758097 0.82150006
-0.20407715 -0.080536194 0.82100004
-0.1609941 -0.081826486 0.82140011
-0.15832955 -0.083867624 0.82300001
-0.20614192 -0.079164766 0.82300001
-0.20319907 -0.077470168 0.82166672
-0.16330735 -0.077015117 0.82157153
-0.20143907 -0.074461907 0.82300001
-0.19938573 -0.071935236 0.82100004
-0.16625524 -0.072369523 0.8215
-0.16439906 -0.07358858 0.82200003
-0.19730066 -0.068025716 0.82100004
-0.17123716 -0.066461906 0.82100004
-0.16726157 -0.067516282 0.82172734
-0.19516858 -0.063488573 0.82300001
-0.19336478 -0.062626667 0.82200003
-0.17671049 -0.06020667 0.82100004
-0.17217585 -0.062136196 0.82209098
-0.1690962 -0.064193338 0.82200003
-0.19074193 -0.057574291 0.82249999
-0.1879178 -0.056036513 0.82100004
-0.17763525 -0.057125404 0.82166672
-0.17478953 -0.057218097 0.82300001
-0.18696477 -0.052662387 0.82225001
-0.18223272 -0.052401382 0.82122231
-0.17818573 -0.052684497 0.8221429
-0.18576287 -0.049380004 0.82300001
-0.18262765 -0.049380004 0.82300007
-0.17896986 -0.048857465 0.82300007
-0.15070002 -0.091614291 0.82499999
-0.14808591 -0.091747247 0.82620001
-0.15575907 -0.085746676 0.82600003
-0.15248097 -0.087509871 0.82645464
-0.14898001 -0.087494932 0.8276667
-0.21628022 -0.082069911 0.82700008
-0.21257684 -0.08151906 0.82566679
-0.20978573 -0.080928579 0.82500005
-0.15716819 -0.082364962 0.82680005
-0.15282926 -0.083125584 0.82900012
-0.14922 -0.084479056 0.82900006
-0.21615557 -0.078098737 0.82833338
-0.21225859 -0.077846669 0.82775003
-0.20752721 -0.076951958 0.82681823
-0.16107145 -0.077785723 0.82500005
-0.15787995 -0.077696048 0.82792312
-0.15316764 -0.07974191 0.82900006
-0.20606573 -0.073425718 0.82900006
-0.2034592 -0.072172388 0.82757157
-0.16199717 -0.072085805 0.82681823
-0.15948921 -0.073832706 0.8276667
-0.20135906 -0.068562388 0.8275001
-0.19858319 -0.065843493 0.8263334
-0.16578573 -0.066 0.82500005
-0.1637255 -0.067577861 0.82750005
-0.19774795 -0.062320959 0.82833338
-0.19407144 -0.060500003 0.82500005
-0.17050001 -0.060500003 0.82500005
-0.166932 -0.062206864 0.82680005
-0.16343144 -0.063951433 0.82900006
-0.19501239 -0.05763524 0.82900006
-0.19333622 -0.057449847 0.8263334
-0.17521429 -0.057357147 0.82500005
-0.17239504 -0.057464872 0.82655567
-0.16922128 -0.05868794 0.82900012
-0.19233462 -0.052811116 0.8276667
-0.18935716 -0.051071431 0.82500005
-0.1759278 -0.052353334 0.82539999
-0.17258044 -0.052798416 0.82744449
-0.19132796 -0.048160955 0.82900012
-0.18806596 -0.047342546 0.82700002
-0.18307143 -0.047142863 0.82499999
-0.17717326 -0.047173604 0.82681823
-0.17343208 -0.048687305 0.82900012
-0.18661049 -0.043791432 0.82850003
-0.18208668 -0.043352701 0.8276667
-0.17795366 -0.043107621 0.82800007
-0.15116286 -0.082308576 0.83100003
-0.14902732 -0.081646681 0.83233345
-0.21606001 -0.075185716 0.83100003
-0.21289431 -0.075185716 0.83100003
-0.15591145 -0.075977147 0.83100003
-0.15269697 -0.077139817 0.83159989
-0.14914668 -0.078540005 0.83300006
-0.21245468 -0.07282801 0.83300012
-0.20814575 -0.072020009 0.83100003
-0.15760206 -0.072068982 0.83157146
-0.15381382 -0.072942391 0.8325001
-0.20666334 -0.067830004 0.83300006
-0.20351954 -0.066915244 0.83150005
-0.16154812 -0.067311913 0.83150005
-0.15857096 -0.06818524 0.8325001
-0.20178914 -0.06292972 0.83220005
-0.16540858 -0.060940005 0.83100003
-0.16355971 -0.06262318 0.83233345
-0.20071335 -0.059500005 0.83300006
-0.19757353 -0.05814724 0.83179998
-0.17015715 -0.056191433 0.83100003
-0.16746803 -0.05814724 0.83179998
-0.19579653 -0.053109527 0.83233345
-0.17036191 -0.053880956 0.83200002
-0.16898002 -0.054740004 0.83300006
-0.19299971 -0.046994921 0.83166671
-0.17293303 -0.046203494 0.83166671
-0.1907343 -0.043528575 0.83100003
-0.18752287 -0.041371625 0.83220005
-0.18282002 -0.040362861 0.83100003
-0.17738526 -0.04117953 0.83150005
-0.17432287 -0.043580957 0.83200002
-0.1821267 -0.038193338 0.83300012
-0.17770669 -0.038873337 0.83300006
-0.15030001 -0.076342866 0.83500004
-0.14870954 -0.076342866 0.83500004
-0.21550953 -0.07236667 0.83500004
-0.21312383 -0.071571432 0.83500004
-0.15586668 -0.070776194 0.83500004
-0.1515909 -0.072212659 0.83585721
-0.148947 -0.072480962 0.83633339
-0.21212542 -0.067782864 0.83733338
-0.20835239 -0.066800006 0.83500004
-0.16143334 -0.066004768 0.83500004
-0.156895 -0.067297384 0.83625001
-0.15279144 -0.068811618 0.83820009
-0.14942192 -0.069517151 0.83900005
-0.21176858 -0.06341143 0.83749998
-0.20794424 -0.062940001 0.83655548
-0.20384607 -0.061763495 0.83500004
-0.16154273 -0.062411845 0.83557147
-0.15800016 -0.063449673 0.83728576
-0.21014954 -0.05833048 0.83900005
-0.2074216 -0.058768578 0.83766669
-0.20274001 -0.05748117 0.83700001
-0.19880953 -0.056461908 0.83500004
-0.16630311 -0.056363098 0.83649999
-0.16252287 -0.058606248 0.83788896
-0.20056097 -0.053536195 0.83900005
-0.1979724 -0.052579526 0.83650005
-0.17097621 -0.05089524 0.83500004
-0.16787042 -0.052038021 0.83827281
-0.1968943 -0.04782667 0.83700001
-0.19483335 -0.045328576 0.83500004
-0.17082839 -0.046733525 0.83740008
-0.16846383 -0.048703179 0.83833337
-0.19530001 -0.04384286 0.83700001
-0.19256763 -0.041700318 0.8366667
-0.17654288 -0.040557146 0.83500004
-0.17338286 -0.04228159 0.83766675
-0.19133775 -0.037819624 0.83780003
-0.18724859 -0.037210003 0.83574998
-0.18210953 -0.035785716 0.83500004
-0.17741212 -0.036984634 0.83642858
-0.17499146 -0.037555244 0.83900011
-0.18726572 -0.033939049 0.83850002
-0.18261859 -0.032930002 0.8382501
-0.17896859 -0.03377175 0.83766669
-0.15260716 -0.06617596 0.84224999
-0.1497781 -0.068080954 0.84100002
-0.15737811 -0.061453968 0.8416667
-0.15495144 -0.06262286 0.84300005
-0.20781669 -0.056166194 0.84250009
-0.20424287 -0.055265717 0.84100002
-0.16219287 -0.055666193 0.84100002
-0.15927239 -0.057369526 0.84249997
-0.20260973 -0.052456576 0.84219998
-0.19943716 -0.050460003 0.84100002
-0.16579716 -0.050460003 0.84100002
-0.16280732 -0.052129842 0.84211111
-0.15976858 -0.053791434 0.84300005
-0.19921939 -0.047332387 0.84233344
-0.16728288 -0.046830073 0.84157151
-0.16378286 -0.048171435 0.84300005
-0.1970797 -0.042517781 0.84233344
-0.17132477 -0.042149533 0.84140009
-0.16826543 -0.04306921 0.84266663
-0.19670001 -0.039340004 0.84300005
-0.19409749 -0.037644766 0.84100002
-0.17308065 -0.038253974 0.84266675
-0.19176906 -0.033298098 0.84250009
-0.15049049 -0.065185718 0.84500003
-0.14888096 -0.065185718 0.84500003
-0.15587048 -0.060571432 0.84800005
-0.15248425 -0.062488575 0.84585726
-0.14914525 -0.062881432 0.84650004
-0.21004286 -0.055528574 0.84500003
-0.15716574 -0.057225037 0.84628588
-0.21041572 -0.053207144 0.84650004
-0.20703444 -0.052361775 0.84585726
-0.20360477 -0.050700005 0.84500003
-0.16014762 -0.051504768 0.84500003
-0.1585381 -0.053919051 0.84500003
-0.20594287 -0.049264766 0.84800005
-0.20213866 -0.047513526 0.84560007
-0.16248414 -0.047268897 0.84600008
-0.20109716 -0.04441905 0.84800005
-0.1987762 -0.041847624 0.84500003
-0.16673216 -0.04148167 0.84575003
-0.16391943 -0.043679811 0.84619999
-0.19751811 -0.037488572 0.84650004
-0.1688962 -0.038291909 0.84650004
-0.15161715 -0.06080953 0.85133338
-0.15623811 -0.055857148 0.85000002
-0.15289767 -0.057807796 0.85272741
-0.14884001 -0.058560006 0.85400003
-0.21128573 -0.051000003 0.85000002
-0.20966668 -0.051000003 0.85000002
-0.15741448 -0.052417528 0.85200006
-0.15435144 -0.054429527 0.85300004
-0.21081336 -0.048336193 0.85300004
-0.20759583 -0.047482293 0.85080004
-0.20480953 -0.046952385 0.85000002
-0.16109525 -0.046952385 0.85000002
-0.15780452 -0.048072565 0.85290921
-0.20623127 -0.043390863 0.85320008
-0.2027341 -0.042620577 0.85080004
-0.15081906 -0.056251433 0.85600007
-0.14918858 -0.056251433 0.85600007
-0.15324421 -0.052713152 0.85680008
-0.15571049 -0.046468575 0.85600007
-0.15394144 -0.048590954 0.85750002
-0.1517881 -0.052509051 0.86150002
-0.15075715 -0.055195242 0.86500007
-0.14910953 -0.055195242 0.86500007
