# .PCD v0.7 - Point Cloud Data file format
VERSION 0.7
FIELDS x y z
SIZE 4 4 4
TYPE F F F
COUNT 1 1 1
WIDTH 452
HEIGHT 1
VIEWPOINT 0 0 0 1 0 0 0
POINTS 452
DATA ascii
0.018102858 -0.075763814 0.70400006
0.022796191 -0.075763814 0.70400006
0.027489526 -0.075763814 0.70400012
0.032182857 -0.075763814 0.70400006
0.036205716 -0.075763814 0.70400006
0.059672385 -0.075763814 0.70400006
0.062354289 -0.075763814 0.70400012
0.014080001 -0.071070477 0.70400006
0.017540002 -0.072175816 0.70300019
0.022715237 -0.072155714 0.70150012
0.027404606 -0.072190329 0.70183343
0.032103334 -0.072232381 0.70225006
0.037474528 -0.07227131 0.7026251
0.042868752 -0.072341487 0.70331258
0.047570005 -0.071958579 0.70350003
0.052014101 -0.071452774 0.70380002
0.058046281 -0.071586668 0.70380002
0.062287863 -0.072334997 0.70325005
0.014080001 -0.069059052 0.70400006
0.017340664 -0.067363381 0.70246166
0.022866666 -0.067259938 0.70138472
0.027434526 -0.066910401 0.70258331
0.032184508 -0.067091681 0.70306671
0.037497327 -0.066956848 0.70306259
0.04274388 -0.067129903 0.70346683
0.047558736 -0.067653336 0.70333332
0.052247621 -0.067653343 0.70333338
0.057904284 -0.067957051 0.70370001
0.062560104 -0.067516677 0.70330006
0.065036193 -0.067718096 0.70400006
0.01826036 -0.063493222 0.70362502
0.021908028 -0.063999467 0.70314294
0.03821715 -0.063695244 0.70400012
0.012524858 -0.077310584 0.70710009
0.017352574 -0.077616587 0.70620006
0.022591295 -0.077964358 0.70657146
0.027579367 -0.077360325 0.70633334
0.032228574 -0.077214293 0.70500004
0.038101908 -0.076876201 0.70600003
0.042400956 -0.076724775 0.70666665
0.047523431 -0.076334864 0.70679998
0.052803624 -0.077186666 0.70720005
0.057461429 -0.077380292 0.70649999
0.061184764 -0.077773347 0.70600003
0.011968132 -0.073113926 0.7073077
0.015442858 -0.074528575 0.70500004
0.04767143 -0.074528575 0.70500004
0.052819051 -0.074080959 0.70500004
0.057071429 -0.073857144 0.70500004
0.01281143 -0.069451436 0.708
0.015442858 -0.065128572 0.70500004
0.031557146 -0.065128572 0.70500004
0.044985719 -0.065128572 0.70500004
0.047671434 -0.06512858 0.7050001
0.052371431 -0.065128572 0.70500004
0.057295244 -0.065576196 0.70500004
0.062442861 -0.06512858 0.7050001
0.065128572 -0.065128572 0.70500004
0.013478453 -0.062001318 0.70762503
0.016785715 -0.061771434 0.70500004
0.023222145 -0.061361991 0.70675009
0.027593654 -0.062588573 0.70666665
0.032315321 -0.06261152 0.70691669
0.037748665 -0.061729789 0.70663637
0.042585351 -0.06203869 0.70630765
0.047268003 -0.061810479 0.70700002
0.052529167 -0.061956558 0.70712495
0.057765853 -0.062074173 0.70693338
0.062398907 -0.061775614 0.70684618
0.065290242 -0.061922621 0.70675004
0.013350858 -0.057853717 0.708
0.017186034 -0.058522221 0.70766675
0.020902859 -0.058662862 0.708
0.054617148 -0.058662862 0.708
0.057988577 -0.058662862 0.708
0.06203429 -0.058662862 0.708
0.065405719 -0.058662862 0.708
0.011462858 -0.051920004 0.708
0.011462858 -0.048548575 0.708
0.013566907 -0.081401676 0.71225005
0.017620834 -0.08132989 0.71162504
0.022383017 -0.081391916 0.71216673
0.02737958 -0.081687935 0.71277791
0.032617144 -0.081543334 0.71350014
0.037791952 -0.081938267 0.71209097
0.042478766 -0.082244664 0.71250004
0.047336616 -0.081763491 0.71344459
0.052362543 -0.081750475 0.71200013
0.057350289 -0.082028762 0.71180004
0.061302625 -0.080947861 0.71125001
0.027047619 -0.079114288 0.71000004
0.032468334 -0.079142146 0.71025002
0.037866667 -0.079114288 0.71000004
0.042640638 -0.079188578 0.71066666
0.047081638 -0.078598373 0.71057147
0.051390477 -0.079114288 0.71000004
0.062209524 -0.079114288 0.71000004
0.010142858 -0.071000002 0.71000004
0.0088400003 -0.068000004 0.71400005
0.012001227 -0.067465186 0.7114287
0.0088400003 -0.063920006 0.71400005
0.010846549 -0.062373456 0.71187508
0.027723812 -0.060180955 0.71000004
0.032457147 -0.060180955 0.71000004
0.03651429 -0.060180955 0.71000004
0.012055621 -0.056488004 0.71120006
0.018595241 -0.056461904 0.71000004
0.022471517 -0.056700263 0.71109098
0.027099883 -0.056907747 0.71137512
0.032534823 -0.056932688 0.71168762
0.037670549 -0.057134092 0.71178585
0.042336397 -0.056769054 0.71207154
0.047454711 -0.056941971 0.71181262
0.052552316 -0.056906059 0.7113573
0.057216723 -0.056352478 0.71136367
0.0622022 -0.056567911 0.71169239
0.01263254 -0.052453347 0.71066666
0.017626369 -0.052875537 0.71181262
0.022426246 -0.05232678 0.71355563
0.027181109 -0.052322701 0.71350014
0.032632705 -0.052347463 0.71383351
0.03706 -0.053380005 0.71400005
0.042160004 -0.053720005 0.71400005
0.047600001 -0.053720005 0.71400005
0.051000003 -0.053720005 0.71400005
0.057800006 -0.053720009 0.71400011
0.063240007 -0.052942861 0.71400011
0.065960005 -0.052360006 0.71400011
0.01367105 -0.048320577 0.71060002
0.017671548 -0.048934169 0.71362513
0.022440001 -0.049640007 0.71400011
0.026520004 -0.049640007 0.71400011
0.065960005 -0.049640004 0.71400005
0.019173335 -0.091073342 0.71900004
0.02232324 -0.091621153 0.71900004
0.027390478 -0.091073342 0.71900004
0.01315418 -0.088126674 0.71855557
0.01779143 -0.087588586 0.71849996
0.022581432 -0.087590024 0.71850002
0.027371431 -0.087590016 0.71849996
0.032619156 -0.086607531 0.71855557
0.037591748 -0.086121283 0.71766675
0.042389169 -0.086146086 0.717875
0.047583539 -0.086080149 0.71814287
0.052364767 -0.086000204 0.71780008
0.05781348 -0.086182192 0.71900004
0.013695238 -0.084225722 0.71900004
0.017754287 -0.083991431 0.71700001
0.02250286 -0.0838743 0.71600002
0.026594287 -0.0838743 0.71600002
0.032753337 -0.083932862 0.71650004
0.048437148 -0.083913341 0.71633339
0.053870481 -0.083874293 0.71600002
0.055234291 -0.083874293 0.71600002
0.062587246 -0.08367791 0.71900004
0.037777524 -0.051688384 0.71600002
0.04229334 -0.051842622 0.71625
0.047766671 -0.051860482 0.71650004
0.05271405 -0.052372143 0.71650004
0.057088263 -0.052083809 0.71644449
0.061797526 -0.051702667 0.71620005
0.017766668 -0.04646524 0.71750003
0.022544764 -0.047137149 0.71733338
0.027483592 -0.047345575 0.71730763
0.032786254 -0.047810063 0.71718746
0.037725717 -0.048248004 0.71760005
0.042146482 -0.048850294 0.7184
0.04773429 -0.048729964 0.71881819
0.052531026 -0.04900939 0.71900004
0.057640959 -0.048375316 0.71853846
0.062616602 -0.048060283 0.71799999
0.065052383 -0.046563812 0.71900004
0.022597143 -0.044509526 0.71900004
0.025336193 -0.044509526 0.71900004
0.024000002 -0.092571437 0.72000003
0.027442224 -0.092157148 0.72033346
0.03230413 -0.092099369 0.72166675
0.03761667 -0.091057941 0.72250003
0.042867411 -0.091009222 0.72211123
0.04756372 -0.091691151 0.72170013
0.052296035 -0.091860972 0.72250009
0.057961408 -0.092105664 0.72279996
0.06162715 -0.09123572 0.72300005
0.011265307 -0.087085731 0.72000003
0.033208169 -0.089044914 0.72000003
0.037398573 -0.088861436 0.72050005
0.042543337 -0.08851859 0.72050005
0.047314294 -0.088457152 0.72000003
0.052037828 -0.088296339 0.72028583
0.057219435 -0.088232003 0.72040004
0.062418837 -0.087113023 0.72022229
0.065142862 -0.086400002 0.72000003
0.011657144 -0.08434286 0.72000003
0.065142862 -0.08434286 0.72000003
0.014400001 -0.045942862 0.72000003
0.037028573 -0.045942862 0.72000003
0.042971432 -0.046400007 0.72000003
0.047314294 -0.045942865 0.72000003
0.052212253 -0.046530619 0.72000003
0.056914292 -0.045942865 0.72000003
0.014450001 -0.044037621 0.72250009
0.017869703 -0.042611375 0.72168761
0.022665545 -0.04239472 0.72118187
0.027602034 -0.042430103 0.7209335
0.032167148 -0.043025054 0.72170007
0.037167337 -0.043636855 0.72270006
0.042677145 -0.0440531 0.72275007
0.047489211 -0.044047944 0.72266674
0.052512068 -0.04379778 0.72233337
0.057945319 -0.042916339 0.72185731
0.062515244 -0.042592064 0.72133344
0.065188095 -0.042543337 0.72050005
0.019968573 -0.039248575 0.72300005
0.023058813 -0.038890716 0.72275007
0.027122671 -0.038962286 0.72280008
0.063578099 -0.038789526 0.72300005
0.065142862 -0.039085716 0.72000003
0.054547623 -0.095976196 0.72500002
0.056619052 -0.095976196 0.72500002
0.037285715 -0.093214288 0.72500002
0.046952382 -0.094595246 0.72500002
0.052706353 -0.094595246 0.72500008
0.055928577 -0.094595246 0.72500002
0.013405715 -0.041324575 0.7256
0.033142857 -0.040738098 0.72500002
0.037285715 -0.041198418 0.72500002
0.042824764 -0.041442621 0.72524995
0.047664769 -0.041447308 0.72533333
0.052200411 -0.041345991 0.72528577
0.056619052 -0.040738098 0.72500002
0.013269438 -0.037542861 0.72636366
0.017273813 -0.037310481 0.72549999
0.021914637 -0.036483116 0.72527266
0.027825283 -0.036492124 0.72545451
0.032505397 -0.037343815 0.72616667
0.037382144 -0.037379883 0.72687495
0.042484034 -0.037577953 0.72761548
0.047289088 -0.037302677 0.72806674
0.052656673 -0.037411906 0.72749996
0.057356112 -0.037583988 0.72718191
0.061622676 -0.037385721 0.72700006
0.013885715 -0.033325717 0.72900003
0.017518571 -0.032781906 0.72850007
0.022175714 -0.032570474 0.72766674
0.027727781 -0.032577936 0.72783339
0.03242055 -0.033014834 0.72871435
0.03707486 -0.03374229 0.72900003
0.042351436 -0.034020003 0.72900003
0.023605715 -0.029854288 0.72900003
0.025688574 -0.029854288 0.72900003
0.059176195 -0.035505716 0.73100001
0.060568575 -0.035505716 0.73100001
0.01462 -0.031328574 0.73100001
0.016012382 -0.031328574 0.73100001
0.033417143 -0.031328574 0.73100001
0.037892658 -0.031925309 0.73100007
0.042467624 -0.032024764 0.73100007
0.047214508 -0.032529376 0.73153853
0.052708335 -0.032622304 0.7314167
0.057331946 -0.032016192 0.73207706
0.062007837 -0.032745183 0.73155552
0.014660001 -0.027921906 0.73300004
0.017441669 -0.027906431 0.7325834
0.022100683 -0.027575513 0.73171437
0.027874833 -0.027873607 0.73171443
0.03258894 -0.0277548 0.7328462
0.037523959 -0.028396638 0.73276943
0.042583816 -0.029319052 0.73300004
0.047835477 -0.028979763 0.73325008
0.052387759 -0.028637553 0.73342866
0.055224765 -0.028660955 0.73400003
0.063440003 -0.029977145 0.73200005
0.014680001 -0.024466669 0.73400003
0.017812859 -0.024100479 0.7335
0.022426244 -0.023512382 0.73333335
0.026895717 -0.024100479 0.7335
0.059580956 -0.030140955 0.73600006
0.061683811 -0.030140955 0.73600006
0.038552385 -0.02593524 0.73600006
0.042787146 -0.026653809 0.73650002
0.04757347 -0.02654109 0.73614293
0.052571431 -0.026285715 0.73600006
0.057712216 -0.027229266 0.7365455
0.062251672 -0.027179763 0.73650002
0.014746668 -0.021766987 0.73733342
0.017363217 -0.021572025 0.73662502
0.022347758 -0.020944221 0.73657155
0.027554883 -0.021585835 0.73712498
0.03230929 -0.022473814 0.73750013
0.037109874 -0.022672469 0.73772728
0.042280689 -0.022795515 0.73814291
0.047938991 -0.022632319 0.73806685
0.052702706 -0.022484604 0.73783344
0.057502784 -0.022988942 0.73838472
0.062437966 -0.023627894 0.73900002
0.014780001 -0.018299049 0.73900002
0.017934287 -0.018638097 0.73850006
0.02145143 -0.018638097 0.73850006
0.026040955 -0.019002859 0.73900002
0.038761906 -0.020438097 0.74000001
0.041580953 -0.020438097 0.74000001
0.045809526 -0.020438097 0.74000001
0.058495246 -0.020438097 0.74000001
0.063005723 -0.021001907 0.74000001
0.065542862 -0.021142859 0.74000001
0.017365715 -0.016799619 0.74120009
0.023120239 -0.01711881 0.74125004
0.027707858 -0.017471191 0.74125004
0.032477461 -0.017649526 0.74133325
0.037437145 -0.017657673 0.74166667
0.042386115 -0.017659288 0.74175
0.04733916 -0.01766254 0.74188894
0.052300088 -0.017667383 0.74208343
0.057282865 -0.017679259 0.74255562
0.061719287 -0.018214764 0.74275005
0.065808579 -0.019105716 0.74300003
0.017686827 -0.01414905 0.74283338
0.022997623 -0.013326829 0.74300003
0.027590636 -0.012733969 0.74283338
0.032163009 -0.013115095 0.74284625
0.036560323 -0.014388255 0.74300003
0.063502386 -0.016673813 0.74500006
0.065985717 -0.017028574 0.74500006
0.013820193 -0.011540573 0.74800009
0.017753335 -0.011361906 0.74566668
0.021640476 -0.010997619 0.74500006
0.034293655 -0.011115874 0.74500006
0.03795376 -0.012229102 0.74566668
0.042635839 -0.012788929 0.74612498
0.047601908 -0.012786668 0.74600005
0.052610956 -0.012794762 0.74650002
0.057606436 -0.012799287 0.74675006
0.062537089 -0.012789821 0.74618745
0.065985717 -0.014900001 0.74500006
0.014960001 -0.0092609534 0.74800003
0.018364383 -0.0083990479 0.74740005
0.022959223 -0.0079535069 0.74700004
0.027733335 -0.0078203185 0.74666667
0.032437623 -0.0081079062 0.74690002
0.037738733 -0.0092568267 0.74766672
0.043217786 -0.0087860329 0.74800009
0.047444575 -0.0086910492 0.74800009
0.050579052 -0.0092609534 0.74800003
0.062689528 -0.0092609534 0.74800003
0.012142858 -0.010714286 0.75000006
0.012884882 -0.0071565476 0.751625
0.016736573 -0.0062927618 0.75099999
0.021785716 -0.0053571435 0.75000006
0.027161431 -0.0050033336 0.75050008
0.03252238 -0.0053604767 0.75050002
0.037372991 -0.0063038971 0.75072736
0.042034052 -0.0062592863 0.75125003
0.047423497 -0.0059568253 0.75066668
0.052387018 -0.0069608665 0.75163645
0.057269849 -0.0078726998 0.75166672
0.062068447 -0.0074629937 0.75157148
0.013254049 -0.0021497621 0.75225008
0.017195558 -0.002149683 0.75233334
0.022211747 -0.002148889 0.75233334
0.026961241 -0.0024378099 0.75290012
0.031976003 -0.0030110478 0.75280005
0.037577145 -0.0029689798 0.75257152
0.042288959 -0.0030100953 0.75260007
0.046889149 -0.003297905 0.75280005
0.050917145 -0.0035857146 0.75300002
0.057523813 -0.0050333338 0.75500005
0.062557146 -0.0050333338 0.75500005
0.01222381 -0.0035952383 0.75500005
0.028761907 -0.00071904768 0.75500005
0.032716669 -0.0010785715 0.75500005
0.036959048 -0.0010066668 0.75500005
0.042423815 -0.0010785715 0.75500005
0.047774155 -0.0013355104 0.75514299
0.052705243 -0.0019780954 0.75550008
0.057645805 -0.0021608733 0.75658339
0.062713236 -0.0021612702 0.75688887
0.065693341 -0.0007219048 0.75800002
0.013661906 0.0014380954 0.75500005
0.017291589 0.002163016 0.75650001
0.022329632 0.0021620106 0.75633335
0.027378254 0.0021623811 0.75650012
0.032419052 0.0021621166 0.75644445
0.03750667 0.002164762 0.7573334
0.04255493 0.0021650796 0.75733334
0.047844239 0.0016838094 0.75733334
0.052453615 0.0017526533 0.75742859
0.056308575 0.0007219048 0.75800002
0.016603811 0.0050533335 0.75800002
0.022379048 0.0050533335 0.75800008
0.027432382 0.0050533335 0.75800002
0.032485716 0.0050533335 0.75800008
0.035373334 0.0050533335 0.75800002
0.047047626 0.0036190478 0.76000011
0.053597622 0.0036214287 0.76050007
0.057453066 0.0025888437 0.76085728
0.06191048 0.0020318097 0.76120013
0.013806667 0.0094466675 0.76300001
0.017457971 0.0074014608 0.76166677
0.022470476 0.007975027 0.7611112
0.027306773 0.007492804 0.7612223
0.032852523 0.0075670755 0.76171434
0.03787531 0.0074034291 0.76186681
0.042654376 0.0070564514 0.7614547
0.047442764 0.0063852384 0.76170009
0.052260835 0.0061703576 0.76212507
0.05704334 0.0054500001 0.76300001
0.061766669 0.0050866669 0.76300001
0.019620001 0.010900001 0.76300001
0.022526667 0.010900001 0.76300001
0.02841429 0.0094714295 0.76500005
0.032057144 0.0094714295 0.76500005
0.044442859 0.0094714295 0.76500005
0.047357149 0.0094714295 0.76500005
0.052809667 0.0088540139 0.76557148
0.057852864 0.008214049 0.76650006
0.061662048 0.0082443552 0.76685709
0.013860954 0.011673334 0.76600003
0.01731039 0.012537229 0.76609093
0.022606036 0.013126351 0.76566672
0.02773167 0.012407381 0.76625013
0.032851961 0.012411747 0.76655561
0.037221909 0.012408573 0.7663334
0.042354684 0.012415318 0.7667501
0.047336791 0.012246072 0.76762503
0.052343428 0.012135811 0.76760012
0.056807622 0.011459048 0.76800001
0.019004287 0.015350001 0.76750004
0.022644764 0.015340002 0.76700008
0.027794287 0.015360001 0.76800001
0.032914292 0.015360001 0.76800001
0.037302863 0.015360001 0.76800001
0.041691434 0.015360001 0.76800001
0.013933334 0.013933334 0.77000004
0.049133338 0.013933334 0.77000004
0.053533338 0.013933334 0.77000004
0.057955377 0.01310041 0.77028579
0.062251672 0.012304048 0.77125001
0.065436192 0.01176381 0.77200001
0.013969525 0.015440001 0.77200001
0.01776032 0.017762383 0.77166671
0.022753017 0.018350476 0.77066666
0.027165081 0.018355768 0.77088892
0.032329049 0.018370003 0.77150005
0.037513334 0.018389525 0.77233332
0.042666115 0.01802437 0.77241677
0.047553882 0.016482858 0.77157146
0.052152146 0.015793096 0.77125001
0.05738667 0.015450001 0.77250004
0.061103813 0.015460001 0.77300006
0.064380005 0.014060001 0.77700001
0.065860003 0.014060001 0.77700001
0.015500001 0.019190477 0.77500004
