# .PCD v0.7 - Point Cloud Data file format
VERSION 0.7
FIELDS x y z
SIZE 4 4 4
TYPE F F F
COUNT 1 1 1
WIDTH 490
HEIGHT 1
VIEWPOINT 0 0 0 1 0 0 0
POINTS 490
DATA ascii
-0.14208478 -0.13030574 0.77300012
-0.13619524 -0.13030572 0.77300006
-0.1325143 -0.13030572 0.77300006
-0.12809715 -0.13030572 0.77300006
-0.15659824 -0.12694028 0.77300012
-0.15268593 -0.12647752 0.77300006
-0.14705297 -0.12673943 0.77280003
-0.14248581 -0.12710798 0.77227277
-0.13740996 -0.1271238 0.77155554
-0.13225698 -0.12711415 0.77150005
-0.12782398 -0.12757859 0.77283335
-0.16122572 -0.12294382 0.77300006
-0.15702049 -0.12389859 0.77283335
-0.15268593 -0.12382724 0.77300006
-0.14620744 -0.1232383 0.77300006
-0.1422506 -0.12297934 0.77230006
-0.13737038 -0.12267832 0.77133334
-0.13260572 -0.12297577 0.77236366
-0.12719619 -0.12425525 0.77200001
-0.12425525 -0.12425525 0.77200001
-0.14502953 -0.11999906 0.77300006
-0.14208478 -0.11926287 0.77300012
-0.13722858 -0.11874968 0.77171433
-0.17538001 -0.13098001 0.77700001
-0.17238954 -0.13177505 0.77820003
-0.16654687 -0.13184324 0.77860004
-0.16226858 -0.13189048 0.77800006
-0.15713757 -0.13177867 0.77671438
-0.15212125 -0.13161595 0.77700007
-0.14732382 -0.13177811 0.77733344
-0.14235477 -0.13271573 0.77850002
-0.13764477 -0.13173316 0.7762
-0.13208906 -0.13283096 0.77700001
-0.12711315 -0.13289353 0.77780002
-0.12373906 -0.13189049 0.778
-0.1763161 -0.12699631 0.7767778
-0.1721233 -0.12780116 0.77566671
-0.1675543 -0.12807028 0.77640003
-0.16217966 -0.12755628 0.7750001
-0.1579524 -0.12916668 0.77500004
-0.15197735 -0.12893811 0.7754001
-0.14835715 -0.12842858 0.77500004
-0.12681493 -0.127307 0.77566671
-0.12407953 -0.12851191 0.77550006
-0.17667018 -0.12255684 0.77833337
-0.17212448 -0.12262763 0.77566665
-0.16751979 -0.12249738 0.77592319
-0.16247013 -0.12249094 0.77515388
-0.15754166 -0.12145267 0.77557153
-0.15232928 -0.12130976 0.7755
-0.14854167 -0.12215477 0.77500004
-0.13507144 -0.12030953 0.77500004
-0.13191953 -0.12083381 0.77600002
-0.12733556 -0.12215208 0.77733344
-0.12358001 -0.12284001 0.77700001
-0.17608953 -0.11825715 0.77850002
-0.17264241 -0.11799549 0.77800012
-0.16738352 -0.1177597 0.77766675
-0.16224499 -0.11779334 0.77788895
-0.15716211 -0.11787087 0.77840012
-0.15211317 -0.11789773 0.77759999
-0.14704984 -0.11749049 0.77588886
-0.14269684 -0.11681842 0.77633333
-0.13788667 -0.11741272 0.77700007
-0.1325964 -0.11866915 0.77780002
-0.12681429 -0.11809027 0.77766669
-0.12358001 -0.11692001 0.77700001
-0.17583144 -0.11499525 0.77900004
-0.15580001 -0.11499525 0.77900004
-0.15179373 -0.11440172 0.77900004
-0.14744954 -0.11410572 0.77800006
-0.14281668 -0.11425334 0.77900004
-0.12612382 -0.11499525 0.77900004
-0.1238981 -0.11425334 0.77900004
-0.17098668 -0.13664001 0.78400004
-0.16669333 -0.13626668 0.78399998
-0.16240001 -0.13701335 0.78400004
-0.15754668 -0.13664001 0.7840001
-0.1519364 -0.1370282 0.78280002
-0.14771304 -0.1370216 0.78333342
-0.14216992 -0.13709792 0.78320009
-0.13841763 -0.1369262 0.78350008
-0.1324861 -0.13665983 0.78240007
-0.12706429 -0.13675192 0.78250003
-0.12437525 -0.13703811 0.78200006
-0.17501906 -0.13480191 0.78200006
-0.17182001 -0.13363904 0.78100008
-0.16884477 -0.13388667 0.78100002
-0.16161335 -0.13480191 0.78200006
-0.15714477 -0.13480191 0.78200006
-0.1525473 -0.13468699 0.78133339
-0.14782858 -0.13445716 0.78000009
-0.14262858 -0.13445716 0.78000003
-0.13742858 -0.13445716 0.78000009
-0.13371429 -0.13445716 0.78000003
-0.12405715 -0.13445716 0.78000003
-0.12586477 -0.12735429 0.78200006
-0.12437525 -0.12660953 0.78200006
-0.17853335 -0.12207621 0.78000009
-0.17814192 -0.11752191 0.78100002
-0.17249143 -0.11544001 0.78000003
-0.16714287 -0.11514287 0.78000009
-0.16268572 -0.11514287 0.78000009
-0.15921906 -0.1156381 0.78000009
-0.14224952 -0.1154381 0.78200006
-0.13738668 -0.11648001 0.78400004
-0.13219135 -0.11679324 0.78222227
-0.12867905 -0.11603335 0.78100002
-0.17546667 -0.11424001 0.78400004
-0.17196381 -0.11271572 0.78250009
-0.16769122 -0.11281545 0.78333336
-0.16221607 -0.11343349 0.78285724
-0.15695858 -0.11264334 0.78200001
-0.15253787 -0.11193405 0.78225005
-0.14714204 -0.11181905 0.78200012
-0.14272654 -0.11249796 0.78228581
-0.13104001 -0.11312001 0.78400004
-0.12732063 -0.11242667 0.78177786
-0.12405715 -0.11142857 0.78000003
-0.15605335 -0.10976001 0.78400004
-0.15232001 -0.10976001 0.78400004
-0.14709336 -0.10901334 0.78400004
-0.1436089 -0.10926223 0.7840001
-0.12659086 -0.10780077 0.78280002
-0.12353633 -0.10797442 0.78342861
-0.1621583 -0.14562689 0.78900003
-0.15734915 -0.14562689 0.78900003
-0.14502573 -0.14502573 0.78900003
-0.14202002 -0.14502573 0.78900003
-0.12774287 -0.14540145 0.78900003
-0.12398572 -0.14652859 0.78900003
-0.1720051 -0.14045779 0.78866673
-0.16745102 -0.14192043 0.78844452
-0.16289908 -0.14188044 0.78822225
-0.15744928 -0.1420259 0.7882728
-0.15272605 -0.14221081 0.78866673
-0.14722374 -0.14226696 0.78870004
-0.1421942 -0.14174448 0.7883001
-0.13745333 -0.14196065 0.78866673
-0.13292795 -0.14194065 0.78855562
-0.12762132 -0.14235289 0.78781825
-0.12361906 -0.1430997 0.78666675
-0.17549857 -0.13800144 0.78750002
-0.17313907 -0.13791335 0.787
-0.16842858 -0.13848573 0.78600001
-0.16169144 -0.13848573 0.78600001
-0.15832287 -0.13886002 0.78600001
-0.15270859 -0.1392343 0.78600001
-0.14746858 -0.1392343 0.78600001
-0.1444743 -0.13848573 0.78600001
-0.13698858 -0.13848573 0.78600001
-0.13249716 -0.13848573 0.78600001
-0.12733954 -0.1393224 0.78650004
-0.12351429 -0.13998286 0.78600001
-0.13791335 -0.1161762 0.78700006
-0.18144161 -0.11311874 0.78833342
-0.17793812 -0.11232597 0.78772736
-0.17362431 -0.11062429 0.78750008
-0.16718099 -0.11053906 0.78600001
-0.16244 -0.11078858 0.78600001
-0.15894668 -0.11053906 0.78600001
-0.14099954 -0.11137477 0.78750008
-0.13773987 -0.11265756 0.78785729
-0.13331215 -0.11193524 0.78750002
-0.12875429 -0.11004001 0.78600001
-0.1810943 -0.10895715 0.78900003
-0.17752175 -0.10730512 0.78890914
-0.1722683 -0.10753572 0.78850007
-0.167427 -0.10736287 0.78833342
-0.16236357 -0.10721776 0.7882728
-0.15722935 -0.10752173 0.78840005
-0.1523473 -0.10731662 0.78800011
-0.1476562 -0.10643144 0.78700006
-0.14233497 -0.10714383 0.78772736
-0.13749185 -0.10743896 0.78888893
-0.13298436 -0.10743896 0.78888893
-0.1293743 -0.10687286 0.78750002
-0.177788 -0.10414801 0.78900003
-0.16155715 -0.10444858 0.78900003
-0.15629715 -0.10444858 0.78900003
-0.15254001 -0.10407286 0.78900003
-0.14723288 -0.10328834 0.78875005
-0.14282654 -0.10355199 0.78871435
-0.137812 -0.10384744 0.78900003
-0.13150001 -0.10444858 0.78900003
-0.12688001 -0.1502924 0.79300004
-0.16719308 -0.14738411 0.79128569
-0.16325025 -0.14798237 0.79174995
-0.15594001 -0.14690001 0.79100001
-0.15292668 -0.14614668 0.79100001
-0.14810534 -0.14690001 0.79099995
-0.1424394 -0.1477159 0.79133338
-0.13769735 -0.14720076 0.79180008
-0.1327204 -0.14704974 0.79180002
-0.12767982 -0.14787906 0.79139996
-0.12430001 -0.14840667 0.79100001
-0.17176002 -0.14238001 0.79100001
-0.15292668 -0.14388667 0.79100001
-0.18201239 -0.10724382 0.79300004
-0.12656 -0.10622001 0.79100001
-0.17690048 -0.10192001 0.79124993
-0.17273144 -0.10258098 0.792
-0.1677441 -0.10234722 0.79185718
-0.16255657 -0.10258954 0.79161549
-0.1577964 -0.10212878 0.79200006
-0.15276286 -0.10147779 0.79188889
-0.1477778 -0.10103112 0.79166669
-0.14192134 -0.10150001 0.79180002
-0.13733763 -0.10116667 0.79124999
-0.13252668 -0.10248952 0.79128581
-0.12858796 -0.10266954 0.79266667
-0.17597049 -0.0989362 0.79300004
-0.17143905 -0.0989362 0.79300004
-0.16766286 -0.0989362 0.79300004
-0.1623762 -0.0989362 0.79300004
-0.15406859 -0.0989362 0.79300004
-0.14727144 -0.0989362 0.7930001
-0.14274001 -0.0989362 0.79300004
-0.13820858 -0.098558582 0.79300004
-0.13216667 -0.0989362 0.7930001
-0.14042382 -0.15105049 0.79700005
-0.13680896 -0.15135372 0.79540008
-0.13266668 -0.15162002 0.796
-0.12963429 -0.15162 0.796
-0.17609906 -0.14649621 0.79700005
-0.1715835 -0.14732257 0.796
-0.17711113 -0.14396605 0.79700005
-0.17352986 -0.14423081 0.79566669
-0.12649977 -0.10598692 0.79775006
-0.12388001 -0.10640001 0.79800004
-0.14310001 -0.10070001 0.79500002
-0.12656935 -0.10231868 0.79580003
-0.12371843 -0.10175303 0.79533339
-0.17605621 -0.096742555 0.79566669
-0.1727144 -0.097805433 0.79610002
-0.16741376 -0.097412124 0.79642862
-0.16283739 -0.097512394 0.79525006
-0.15772808 -0.097555771 0.79518193
-0.15204383 -0.097512387 0.79525006
-0.14770541 -0.096954606 0.79533339
-0.14254571 -0.09724731 0.79566669
-0.13671049 -0.097287625 0.79600012
-0.1325562 -0.096954606 0.79533339
-0.12720993 -0.097412385 0.79642862
-0.12326857 -0.098234296 0.79649997
-0.17534001 -0.094880961 0.79700005
-0.17165191 -0.093800485 0.79750001
-0.16788985 -0.093440317 0.79766667
-0.16286249 -0.09373638 0.79759997
-0.15722144 -0.094180487 0.79750007
-0.15289512 -0.093863271 0.79757148
-0.14763144 -0.093609206 0.79766661
-0.14228077 -0.094600767 0.79720014
-0.13747382 -0.094180487 0.79750001
-0.13290763 -0.093414284 0.79744446
-0.12837918 -0.093435593 0.79762501
-0.12382826 -0.093440324 0.79766673
-0.1729524 -0.095238104 0.80000001
-0.17644003 -0.092420958 0.80200005
-0.17338336 -0.092037149 0.80200005
-0.16685715 -0.090666674 0.80000007
-0.1621425 -0.091366857 0.80080003
-0.15767105 -0.091546945 0.80200011
-0.1518724 -0.091579691 0.80133337
-0.14675762 -0.091104291 0.80050004
-0.14275573 -0.092056669 0.80050009
-0.13796224 -0.09146636 0.80033338
-0.13257144 -0.090666674 0.80000001
-0.12705982 -0.091366865 0.80080003
-0.12404572 -0.091120005 0.80400002
-0.17190287 -0.08920572 0.80400002
-0.16767526 -0.088137627 0.80300003
-0.16277365 -0.089040957 0.80366671
-0.15697144 -0.08920572 0.80400002
-0.15199582 -0.088931434 0.80360001
-0.14755358 -0.088110246 0.80274999
-0.14253455 -0.087857157 0.80345452
-0.13708064 -0.088298425 0.80311108
-0.13228592 -0.087934189 0.80288887
-0.12773123 -0.087959379 0.80311108
-0.12419887 -0.088363431 0.80400002
-0.13246858 -0.084994301 0.80400008
-0.12825716 -0.084611431 0.80400002
-0.17578477 -0.087508574 0.80600005
-0.17290621 -0.086549059 0.80600011
-0.16689746 -0.085752711 0.80633342
-0.16192645 -0.086628348 0.80675006
-0.15723622 -0.087067954 0.80666679
-0.15308437 -0.086362734 0.80657154
-0.14760993 -0.085555054 0.8064
-0.14200953 -0.085205719 0.80600011
-0.13778763 -0.085589528 0.80600005
-0.12512191 -0.085205719 0.80600005
-0.12281906 -0.085973337 0.80600005
-0.17714439 -0.082646862 0.80800003
-0.17292301 -0.082778789 0.80800003
-0.16831619 -0.083389528 0.80700004
-0.15147112 -0.083808899 0.80733341
-0.14643595 -0.082499601 0.80742866
-0.14204827 -0.08215747 0.80622232
-0.13747959 -0.082179695 0.80644459
-0.13262211 -0.08206173 0.80680007
-0.12758192 -0.082428575 0.8070001
-0.14313143 -0.07926096 0.80800003
-0.1589143 -0.085628577 0.81000006
-0.17665716 -0.081000008 0.81000006
-0.1724143 -0.081385717 0.81000006
-0.16695398 -0.082061909 0.81033337
-0.16246478 -0.082530916 0.81127292
-0.15706365 -0.082777523 0.81080002
-0.15203463 -0.081804767 0.81033337
-0.14888573 -0.081771433 0.81000006
-0.12589811 -0.081871435 0.81100005
-0.12326287 -0.084500961 0.81400001
-0.17657864 -0.077071764 0.8120001
-0.17252445 -0.077361912 0.81233346
-0.1674879 -0.077164091 0.81257164
-0.16237009 -0.078333676 0.81290925
-0.15718001 -0.077426672 0.81300014
-0.15250336 -0.077410959 0.81283349
-0.147677 -0.077314779 0.8118335
-0.14254843 -0.076646075 0.81145459
-0.13742998 -0.077447005 0.81160015
-0.13213208 -0.077267632 0.81133342
-0.1275208 -0.077284619 0.81150019
-0.12326287 -0.075973347 0.81400007
-0.1480705 -0.073647633 0.81400001
-0.14186858 -0.073647633 0.81400001
-0.13721716 -0.073647633 0.81400001
-0.13233167 -0.072268344 0.81375009
-0.12784445 -0.072056927 0.8135556
-0.12481334 -0.072097152 0.81400001
-0.12481334 -0.068996198 0.81400001
-0.11781716 -0.063012578 0.81280005
-0.12286048 -0.082037151 0.81650007
-0.16222382 -0.075290486 0.81500006
-0.1234143 -0.079171434 0.81500006
-0.17677176 -0.072420634 0.81766677
-0.17220667 -0.072189055 0.81725001
-0.16735487 -0.072410665 0.81580001
-0.16253345 -0.072321802 0.81655556
-0.15764096 -0.072204962 0.81700003
-0.15295002 -0.072489053 0.81625003
-0.14737704 -0.071745723 0.81588894
-0.14215969 -0.07146731 0.81566668
-0.1375543 -0.071496204 0.8160001
-0.13428096 -0.070633337 0.81500006
-0.12209366 -0.072325617 0.81655562
-0.17758 -0.068900011 0.81900012
-0.17121001 -0.068250008 0.81900007
-0.167895 -0.068055004 0.81900012
-0.16302001 -0.068640009 0.81900012
-0.15789431 -0.068751439 0.81900012
-0.15151875 -0.068351761 0.8186667
-0.14737958 -0.067841172 0.81877786
-0.14258595 -0.067785516 0.81811118
-0.13794763 -0.067803502 0.81833345
-0.13280784 -0.067569532 0.8174001
-0.1276065 -0.067692004 0.81700003
-0.1221963 -0.06771186 0.81722224
-0.11875715 -0.067528576 0.81500006
-0.14170001 -0.064220004 0.81900012
-0.13806002 -0.064740002 0.81900012
-0.13260001 -0.063960001 0.81900012
-0.12714002 -0.063960001 0.81900012
-0.12216401 -0.063959435 0.81700003
-0.17631954 -0.067634761 0.82100004
-0.17373925 -0.067712955 0.82100004
-0.16654572 -0.066461906 0.82100004
-0.16263619 -0.066461906 0.82100004
-0.15677191 -0.06685286 0.82100004
-0.153514 -0.066983178 0.82100004
-0.17681201 -0.06373886 0.8222
-0.1726983 -0.063253522 0.82200003
-0.16772597 -0.063605957 0.82200003
-0.16256669 -0.063531518 0.82172734
-0.1573326 -0.063401587 0.82188892
-0.15240723 -0.063846678 0.82185721
-0.14748642 -0.06384667 0.82185721
-0.14278954 -0.062280688 0.82185721
-0.13761525 -0.06177048 0.82100004
-0.13214192 -0.060988583 0.82100004
-0.12750161 -0.061013021 0.82133341
-0.12275907 -0.061323676 0.82100004
-0.13716668 -0.058785718 0.82300007
-0.13246383 -0.058785718 0.82300007
-0.12854478 -0.058785718 0.82300001
-0.176 -0.060500003 0.82500005
-0.17207146 -0.060500007 0.82500005
-0.16785239 -0.060929529 0.82550007
-0.16264287 -0.060500007 0.82500005
-0.15792859 -0.060500007 0.82500005
-0.15254083 -0.06117348 0.82499999
-0.14724286 -0.061128575 0.82499999
-0.14378573 -0.060500003 0.82500005
-0.17649746 -0.057518732 0.82733345
-0.17262763 -0.057541277 0.8276667
-0.1675525 -0.058129847 0.82855558
-0.16201125 -0.05789391 0.82820004
-0.15727386 -0.057625718 0.82681817
-0.15221429 -0.057572175 0.82811111
-0.14752223 -0.057587624 0.82833338
-0.14263651 -0.057524979 0.82744449
-0.13788891 -0.056731116 0.82733345
-0.13305333 -0.056685399 0.82666671
-0.12750721 -0.056970265 0.82700008
-0.12316287 -0.057698645 0.8267144
-0.17635143 -0.052472383 0.82850003
-0.17310309 -0.053095486 0.82900006
-0.15790477 -0.054477148 0.82900006
-0.15237811 -0.054477148 0.82900012
-0.14843048 -0.054477148 0.82900006
-0.14250906 -0.054082382 0.82900006
-0.13711397 -0.053424452 0.82900006
-0.13200811 -0.053079054 0.82875007
-0.12711334 -0.05334926 0.82900012
-0.12395525 -0.054477148 0.82900006
-0.17606382 -0.049740002 0.82900006
-0.17290573 -0.048950478 0.82900006
-0.12711334 -0.049740002 0.82900006
-0.16699144 -0.056191437 0.83100003
-0.16303429 -0.056191433 0.83100003
-0.17065524 -0.052660957 0.83150005
-0.16779001 -0.054343335 0.83300006
-0.16263334 -0.053946674 0.83300012
-0.15753838 -0.052663002 0.83242869
-0.15292954 -0.052296199 0.83200002
-0.14792368 -0.052626535 0.83185726
-0.14298478 -0.051970482 0.83100003
-0.13770857 -0.051442862 0.83100003
-0.13058573 -0.051442862 0.83100003
-0.12742001 -0.051442862 0.83100003
-0.12293525 -0.052498102 0.83100003
-0.1734262 -0.04909762 0.83150005
-0.15311334 -0.049980003 0.83300006
-0.14722 -0.049300004 0.83300012
-0.14195049 -0.049166672 0.83266681
-0.13692641 -0.048812386 0.83242869
-0.13232762 -0.047540959 0.83200002
-0.12773201 -0.047541149 0.83200008
-0.12304705 -0.049250104 0.83140004
-0.17097621 -0.050100002 0.83500004
-0.16744287 -0.051390372 0.83588886
-0.16278382 -0.05107829 0.83540004
-0.1582524 -0.050100006 0.83500004
-0.15348096 -0.050100002 0.83500004
-0.1719503 -0.0470981 0.83820003
-0.16712116 -0.047245905 0.838
-0.16182001 -0.047031436 0.83699995
-0.1568708 -0.046980217 0.83611107
-0.15201262 -0.046955664 0.83566666
-0.14711906 -0.046123814 0.83500004
-0.14234763 -0.046123814 0.83500004
-0.1378943 -0.045964766 0.83500004
-0.12644286 -0.045328576 0.83500004
-0.12288358 -0.046805482 0.83650005
-0.16220668 -0.043947622 0.83900011
-0.15741239 -0.043548096 0.83900005
-0.15249747 -0.043113649 0.83833337
-0.14731619 -0.042459052 0.83724999
-0.14268859 -0.042246033 0.83700007
-0.13779588 -0.042213656 0.83633333
-0.13294613 -0.042191222 0.83588892
-0.12767664 -0.042075068 0.83645457
-0.1232908 -0.042777464 0.83700007
-0.13743621 -0.039153337 0.83900005
-0.13184288 -0.039153337 0.83900011
-0.12864667 -0.039153337 0.83900005
-0.17140383 -0.045654289 0.84100002
-0.17221287 -0.043755718 0.84300005
-0.16762064 -0.042505298 0.84211117
-0.16272224 -0.041681912 0.8416667
-0.15801278 -0.041547623 0.8422001
-0.15310445 -0.040880956 0.8416667
-0.1497781 -0.040848576 0.84100002
-0.1669943 -0.038537145 0.84300005
-0.16298002 -0.038537145 0.84300005
-0.15816288 -0.038537145 0.84300005
-0.15254287 -0.037734292 0.84300005
-0.14750595 -0.037676908 0.84175003
-0.14267068 -0.037670482 0.84160006
-0.13712573 -0.03688667 0.84200001
-0.13231429 -0.03688667 0.84200001
-0.12737739 -0.037510719 0.84250003
-0.12444287 -0.038537145 0.84300005
-0.17525335 -0.042803813 0.84800005
-0.17269209 -0.04162794 0.84600008
-0.12312858 -0.041042861 0.84500003
-0.1721224 -0.038293336 0.84650004
-0.16883905 -0.037180003 0.84500009
