# .PCD v0.7 - Point Cloud Data file format
VERSION 0.7
FIELDS x y z
SIZE 4 4 4
TYPE F F F
COUNT 1 1 1
WIDTH 508
HEIGHT 1
VIEWPOINT 0 0 0 1 0 0 0
POINTS 508
DATA ascii
-0.16858667 -0.12135334 0.76300001
-0.16495335 -0.12135334 0.76300001
-0.18203002 -0.11626667 0.76300001
-0.17803335 -0.11844668 0.76300001
-0.17149335 -0.11699335 0.76300001
-0.16842 -0.11819416 0.76271433
-0.16350001 -0.11990001 0.76300001
-0.18704401 -0.11205202 0.76300001
-0.17222002 -0.11408667 0.76300001
-0.16931334 -0.11408667 0.76300001
-0.1916343 -0.1250743 0.76800001
-0.18724573 -0.1250743 0.76800001
-0.18139431 -0.1250743 0.76800001
-0.17773716 -0.1250743 0.76800001
-0.17188573 -0.1250743 0.76800001
-0.1660343 -0.1250743 0.76800001
-0.16310859 -0.1250743 0.76800001
-0.15798858 -0.1250743 0.76800001
-0.1913421 -0.12196239 0.76683331
-0.1878688 -0.1220781 0.76755559
-0.18237922 -0.12183144 0.76600003
-0.17730002 -0.12184943 0.7661112
-0.17316467 -0.12207395 0.76637506
-0.16773105 -0.12306249 0.76640004
-0.16226822 -0.12247895 0.76662511
-0.15760192 -0.12187205 0.76709098
-0.15423097 -0.12133858 0.76750004
-0.19064668 -0.11774191 0.76550007
-0.18724287 -0.11730001 0.76499999
-0.18238138 -0.11801267 0.76557148
-0.17720477 -0.11697621 0.76499999
-0.17340001 -0.11802858 0.76500005
-0.16666073 -0.11730002 0.76499999
-0.16247146 -0.11730002 0.76499999
-0.15743938 -0.11735049 0.76533335
-0.1528261 -0.11740418 0.76687497
-0.19090287 -0.11410287 0.76800001
-0.18663478 -0.11290335 0.7665
-0.18240336 -0.11308924 0.76610011
-0.17752479 -0.11380342 0.76528579
-0.17258786 -0.11256476 0.76625001
-0.16731186 -0.11289006 0.76654547
-0.16240235 -0.11285101 0.76718187
-0.15754309 -0.11275369 0.76735723
-0.15280193 -0.11259096 0.76766676
-0.14932573 -0.11132382 0.76733339
-0.1865143 -0.10898286 0.76800001
-0.16457143 -0.10898286 0.76800001
-0.16196191 -0.13030572 0.77300006
-0.15680858 -0.13030574 0.77300012
-0.18626668 -0.12686667 0.77000004
-0.18248479 -0.12749946 0.77128577
-0.17708883 -0.12735835 0.77074999
-0.17289512 -0.12712723 0.77157146
-0.16801476 -0.12662493 0.77150005
-0.16239354 -0.12699631 0.77077782
-0.15732048 -0.12758334 0.77099997
-0.15424882 -0.12633833 0.77125001
-0.15373287 -0.12291382 0.7705
-0.15114763 -0.11734001 0.77166671
-0.14861429 -0.11624334 0.77250004
-0.18553334 -0.11073334 0.77000004
-0.18260001 -0.11073335 0.7700001
-0.17791267 -0.11144409 0.77057147
-0.17233334 -0.11073335 0.7700001
-0.16866668 -0.11073334 0.77000004
-0.16353336 -0.11073335 0.7700001
-0.15072381 -0.11396191 0.77200001
-0.14832571 -0.11234763 0.77100003
-0.18601525 -0.10955048 0.77200001
-0.18299946 -0.10879022 0.7725715
-0.17703602 -0.10904668 0.77260005
-0.17242481 -0.10853933 0.77228582
-0.16785859 -0.10805239 0.7705
-0.16269612 -0.10742711 0.77138472
-0.1575388 -0.1070528 0.77142876
-0.15254653 -0.10758815 0.7709232
-0.14787048 -0.10782526 0.77149999
-0.18621811 -0.13131715 0.77900004
-0.18326858 -0.13143525 0.77749997
-0.17721675 -0.13156669 0.77671427
-0.17271528 -0.13194668 0.77833337
-0.16780478 -0.13202003 0.77814299
-0.1621884 -0.13173316 0.77620006
-0.15708001 -0.1326305 0.778
-0.15367207 -0.13147461 0.77700007
-0.18526192 -0.12916668 0.77500004
-0.17123811 -0.12916668 0.77500004
-0.16754764 -0.12916669 0.77500004
-0.15291063 -0.1271245 0.77671438
-0.15207 -0.12173001 0.77700001
-0.15096 -0.11914001 0.77700001
-0.14874001 -0.11914001 0.77700001
-0.19018002 -0.10582001 0.77700001
-0.18777621 -0.10705408 0.77522224
-0.18230952 -0.1068393 0.77500004
-0.17809185 -0.10660204 0.77500004
-0.17315799 -0.10625811 0.77557153
-0.16754764 -0.10554763 0.77500004
-0.16459525 -0.10554763 0.77500004
-0.15130953 -0.10554763 0.77500004
-0.14835715 -0.10554763 0.77500004
-0.19018002 -0.10434001 0.77700001
-0.18732794 -0.10291842 0.77744448
-0.18235409 -0.10214249 0.77761549
-0.1777366 -0.10323466 0.77759999
-0.1727905 -0.10382192 0.77866673
-0.16745543 -0.10299124 0.778
-0.16225502 -0.10226748 0.77684635
-0.15736082 -0.10192564 0.77684617
-0.15229182 -0.10256975 0.77653861
-0.14744501 -0.10267501 0.77700001
-0.15654193 -0.098673336 0.77900004
-0.1520195 -0.097682349 0.77863652
-0.14754024 -0.098296434 0.77749997
-0.18741335 -0.13514668 0.78400004
-0.18368001 -0.13514668 0.78400004
-0.17546667 -0.13514668 0.78400004
-0.17098668 -0.13664001 0.78400004
-0.16800003 -0.13614224 0.7840001
-0.16053334 -0.13664001 0.78400004
-0.15754668 -0.13664001 0.7840001
-0.15157335 -0.13514668 0.78400004
-0.18730763 -0.13331239 0.78200006
-0.18186097 -0.13351429 0.78100002
-0.17799811 -0.13480191 0.78200006
-0.17204003 -0.13480191 0.78200006
-0.1683162 -0.13480191 0.78200006
-0.16235811 -0.13480191 0.78200006
-0.15714477 -0.13480191 0.78200006
-0.1524 -0.13265239 0.78250003
-0.15181081 -0.12845588 0.78266668
-0.1512503 -0.12329145 0.78080004
-0.14883049 -0.12199748 0.78266668
-0.18743905 -0.1004143 0.78100002
-0.17683125 -0.10068573 0.78080004
-0.17221306 -0.1012449 0.78085726
-0.16714287 -0.10028573 0.78000009
-0.18751828 -0.097721212 0.78218192
-0.18241526 -0.097534396 0.78177786
-0.17740445 -0.097645722 0.78266668
-0.17218667 -0.097645715 0.78266674
-0.16757144 -0.097563811 0.78200006
-0.16296382 -0.097479373 0.78133339
-0.15773332 -0.096819058 0.78000009
-0.14782858 -0.097314291 0.78000009
-0.18840891 -0.094328903 0.7840001
-0.18442668 -0.094826676 0.78400004
-0.17546667 -0.094826676 0.78400004
-0.17248003 -0.094826683 0.7840001
-0.16687267 -0.093725458 0.78371435
-0.16200805 -0.093557686 0.78311116
-0.15731287 -0.092446208 0.78283346
-0.15251026 -0.093258642 0.78200001
-0.14806059 -0.094084196 0.78280002
-0.16681716 -0.14577717 0.78900003
-0.16222516 -0.14675431 0.78860003
-0.15805051 -0.14552669 0.78900003
-0.18670993 -0.14104705 0.78860009
-0.18222144 -0.14089286 0.78900003
-0.17733715 -0.14051715 0.78900003
-0.17207715 -0.14051715 0.78900003
-0.16706763 -0.14151905 0.78900003
-0.16235794 -0.14186719 0.78890914
-0.15696011 -0.14194065 0.78855562
-0.15291573 -0.14089286 0.78900003
-0.1495343 -0.14051715 0.78900003
-0.18662955 -0.13776287 0.78700006
-0.18240398 -0.138117 0.7881667
-0.17719585 -0.13815346 0.78837502
-0.1721243 -0.13837571 0.78750002
-0.16688687 -0.1380983 0.78720009
-0.16307011 -0.13816801 0.78760004
-0.15740001 -0.13866192 0.78700006
-0.15234002 -0.13753858 0.78700006
-0.14754288 -0.13717638 0.78880006
-0.15059048 -0.13260826 0.78666675
-0.14727925 -0.13295509 0.78790921
-0.15110688 -0.1273983 0.78780007
-0.14948691 -0.12770215 0.78875005
-0.1863943 -0.095068574 0.78600001
-0.18190287 -0.095068574 0.78600001
-0.17816001 -0.095068574 0.78600001
-0.18666938 -0.092459522 0.78716671
-0.18257296 -0.092410289 0.7876001
-0.17778827 -0.092268474 0.78766674
-0.17279582 -0.092016764 0.78680009
-0.16806205 -0.091679469 0.7862857
-0.16281429 -0.090951435 0.78600001
-0.15246668 -0.091230482 0.78733343
-0.14890763 -0.091846675 0.78833342
-0.18184572 -0.089420006 0.78900003
-0.17688631 -0.089119434 0.78900003
-0.17237771 -0.088818863 0.78900003
-0.16732381 -0.088330351 0.78885722
-0.1625945 -0.087676778 0.78820008
-0.15728572 -0.087880366 0.78745461
-0.15267929 -0.088076673 0.78875005
-0.16155717 -0.084911436 0.78900003
-0.15674801 -0.084310293 0.78900003
-0.15329143 -0.084911436 0.78900003
-0.18503335 -0.14576097 0.79300004
-0.18153621 -0.14685191 0.79175001
-0.17748097 -0.14576097 0.79300004
-0.16813493 -0.14752731 0.79166669
-0.16272001 -0.14539334 0.79100001
-0.15644222 -0.1463978 0.79100007
-0.15239444 -0.14635581 0.79271436
-0.14827842 -0.14626446 0.7930001
-0.18607335 -0.14388667 0.79100001
-0.18241431 -0.14324097 0.79100001
-0.17718193 -0.14325462 0.79166669
-0.17265874 -0.14325461 0.79166669
-0.16899779 -0.14338446 0.79100007
-0.16196668 -0.14388667 0.79100001
-0.15262535 -0.14328401 0.79100001
-0.14751507 -0.14258313 0.79136366
-0.14388667 -0.14087334 0.79100001
-0.18758002 -0.13936667 0.79100001
-0.14614668 -0.13936667 0.79100001
-0.14388667 -0.13861334 0.79100001
-0.14765334 -0.13032667 0.79100001
-0.14790446 -0.12831779 0.79100007
-0.18758002 -0.091153339 0.79100001
-0.14765334 -0.091153339 0.79100001
-0.18622892 -0.088715248 0.79166669
-0.18218505 -0.087083384 0.79136366
-0.17727762 -0.086471923 0.79124999
-0.17229812 -0.086202875 0.79100001
-0.16829468 -0.085729338 0.79100001
-0.16498001 -0.085126676 0.79100001
-0.1508562 -0.085988581 0.79200006
-0.14872032 -0.088426992 0.79133338
-0.18125716 -0.083831437 0.79300004
-0.17748098 -0.083831444 0.7930001
-0.17280415 -0.082250491 0.79233336
-0.16794649 -0.082085721 0.79220009
-0.16255213 -0.082268842 0.79118186
-0.15766191 -0.081682861 0.79100001
-0.15270154 -0.082305528 0.79140002
-0.16615239 -0.079300009 0.79300004
-0.16237621 -0.079300009 0.7930001
-0.15784477 -0.079300009 0.7930001
-0.15406859 -0.079300009 0.79300004
-0.18095715 -0.15067144 0.79500002
-0.1783762 -0.15105049 0.79700011
-0.17777286 -0.14839835 0.796
-0.17275982 -0.14766139 0.79600006
-0.15370001 -0.14764287 0.79500002
-0.14716168 -0.12649025 0.79650003
-0.15124001 -0.12236001 0.79800004
-0.14919087 -0.12278172 0.79680008
-0.14744002 -0.11932001 0.79800004
-0.19076002 -0.08664 0.79800004
-0.18764968 -0.086947903 0.79585719
-0.14915715 -0.087071434 0.79500002
-0.19206013 -0.082827263 0.79787499
-0.18748479 -0.082736202 0.79699999
-0.18268777 -0.082095921 0.79500002
-0.1779286 -0.081771433 0.79500002
-0.15086097 -0.081873342 0.796
-0.14928225 -0.082596511 0.79566669
-0.19159444 -0.078265719 0.79785717
-0.18764144 -0.077487148 0.79766673
-0.18278523 -0.077400446 0.79738456
-0.17766134 -0.077896588 0.79719996
-0.17250498 -0.077533275 0.7959286
-0.16769086 -0.076869331 0.79600006
-0.16272686 -0.076433532 0.79619998
-0.15747654 -0.076704077 0.79600006
-0.15244728 -0.077224076 0.79709089
-0.14921334 -0.077013344 0.79800004
-0.18924002 -0.072200015 0.79800004
-0.17176001 -0.073720008 0.79800004
-0.16796002 -0.073720008 0.79800004
-0.16314667 -0.073213339 0.79800004
-0.15656 -0.073720008 0.79800004
-0.15276001 -0.073720008 0.79800004
-0.14972001 -0.073720008 0.79800004
-0.1519981 -0.12144572 0.80200005
-0.14713143 -0.12289668 0.80150008
-0.1512343 -0.1199181 0.80200005
-0.14764056 -0.11713389 0.80085725
-0.15123112 -0.11348635 0.8033334
-0.14831112 -0.11320254 0.80133337
-0.19372572 -0.086525723 0.80400002
-0.14857143 -0.086857148 0.80000001
-0.1485623 -0.08199086 0.80159998
-0.18057144 -0.075428575 0.80000001
-0.17828572 -0.075428575 0.80000001
-0.1468543 -0.076983809 0.80033338
-0.14436001 -0.075617149 0.80200005
-0.19123811 -0.07238096 0.80000007
-0.18687366 -0.072460108 0.80088896
-0.18249907 -0.072540537 0.80177784
-0.17796762 -0.072559372 0.80200005
-0.17308572 -0.071943335 0.80150008
-0.16775875 -0.071678102 0.80066669
-0.16206136 -0.071502097 0.80039996
-0.15804517 -0.071996197 0.8005715
-0.15242787 -0.071641199 0.80025005
-0.14741398 -0.072560638 0.80200005
-0.14454001 -0.073416196 0.80300003
-0.1874432 -0.069622234 0.8033334
-0.18338859 -0.06929715 0.80400002
-0.1773905 -0.069169536 0.80400002
-0.17200628 -0.068561368 0.80371433
-0.16743846 -0.067544416 0.80345452
-0.16234908 -0.067172445 0.80333334
-0.15708633 -0.067506231 0.80338466
-0.15263282 -0.067939907 0.80355555
-0.14778286 -0.069680005 0.80400008
-0.16156572 -0.063554287 0.80400008
-0.15697144 -0.063554287 0.80400008
-0.1527562 -0.11713868 0.80600005
-0.14602858 -0.11221048 0.80700004
-0.15005715 -0.090034291 0.80800003
-0.19574288 -0.086740956 0.80600005
-0.14763874 -0.086229205 0.80600011
-0.14763874 -0.082135245 0.80600011
-0.14544001 -0.070796192 0.80800003
-0.14338794 -0.070539683 0.80800003
-0.18711621 -0.067188576 0.80720007
-0.18232307 -0.066815235 0.80640012
-0.17738344 -0.066367351 0.8062858
-0.17302135 -0.065861724 0.80600005
-0.16964382 -0.065247625 0.80600005
-0.15131381 -0.065671906 0.80650008
-0.14825498 -0.067268305 0.8065716
-0.18314669 -0.063870482 0.80800003
-0.17673397 -0.063357465 0.80800003
-0.17237334 -0.063485719 0.80800003
-0.16692026 -0.062810242 0.80675012
-0.16210225 -0.061459687 0.80666679
-0.15749145 -0.061459687 0.80666673
-0.15275323 -0.062586464 0.806889
-0.16160001 -0.059253339 0.80800003
-0.15929145 -0.059253339 0.80800003
-0.15215907 -0.11894573 0.81100005
-0.15138668 -0.11122191 0.81099999
-0.14803354 -0.11129449 0.81040001
-0.14425716 -0.11031429 0.81000006
-0.15137239 -0.10801144 0.81300002
-0.14760381 -0.10775191 0.81250012
-0.14479144 -0.10839906 0.81300002
-0.15194668 -0.10000572 0.81400001
-0.14755365 -0.1036235 0.81400001
-0.15117145 -0.096904777 0.81400001
-0.14910415 -0.096387945 0.81400001
-0.14949843 -0.09217906 0.81333339
-0.14732 -0.087000005 0.81200004
-0.14461334 -0.087386675 0.81200004
-0.14694986 -0.083126351 0.81066674
-0.18822858 -0.065571435 0.81000006
-0.14627571 -0.066769049 0.81050003
-0.14372191 -0.067223489 0.81133336
-0.18754533 -0.06243946 0.81228584
-0.18258762 -0.062020961 0.81150007
-0.17753881 -0.062044907 0.81000006
-0.17233716 -0.061560005 0.81000006
-0.16817144 -0.060942862 0.81000006
-0.15106669 -0.061507307 0.81066674
-0.14825144 -0.062904492 0.81257159
-0.14341907 -0.064344764 0.81400001
-0.1868324 -0.058918096 0.81400001
-0.18255892 -0.059007902 0.81371433
-0.17738414 -0.058093973 0.81333339
-0.17273653 -0.05809398 0.81333339
-0.16766897 -0.058055621 0.81280011
-0.16221558 -0.057860009 0.81366676
-0.15695152 -0.057473082 0.81254554
-0.15243953 -0.05725953 0.81250012
-0.14943716 -0.058844768 0.81300002
-0.15272191 -0.053491432 0.81400001
-0.1501724 -0.10504287 0.81700003
-0.14681874 -0.10590635 0.81566668
-0.14377144 -0.10569048 0.81600004
-0.15135716 -0.10323334 0.81500006
-0.14740565 -0.10168096 0.81500006
-0.14359525 -0.10245715 0.81500006
-0.14746873 -0.097534291 0.81557155
-0.14745376 -0.092340276 0.81671441
-0.14359525 -0.090814292 0.81500006
-0.14622155 -0.087792583 0.81580013
-0.14371271 -0.087779999 0.81566668
-0.14628096 -0.062246673 0.81700003
-0.14308558 -0.061353065 0.8184287
-0.19078891 -0.056844767 0.81766671
-0.18761212 -0.056316059 0.8164286
-0.18255463 -0.055930801 0.81566668
-0.17774764 -0.055109527 0.81500006
-0.17309049 -0.055109527 0.81500006
-0.16727258 -0.055447053 0.81540006
-0.1627124 -0.055531435 0.81550002
-0.15911905 -0.055109527 0.81500006
-0.14760081 -0.057376929 0.81669247
-0.14274001 -0.056940004 0.81900007
-0.19137335 -0.052618098 0.81850004
-0.18787801 -0.052231222 0.81855565
-0.18279858 -0.052617151 0.8185001
-0.17719831 -0.052363437 0.81820011
-0.1721925 -0.052202012 0.81811124
-0.16760857 -0.052230798 0.81855565
-0.16297621 -0.052245405 0.81877786
-0.15808308 -0.052173231 0.81766677
-0.15233257 -0.051955074 0.81645465
-0.14756954 -0.052438576 0.81875014
-0.14352001 -0.053040002 0.81900007
-0.18954001 -0.049140003 0.81900007
-0.17550001 -0.049140003 0.81900007
-0.17238002 -0.049140003 0.81900007
-0.16770001 -0.049140003 0.81900007
-0.15678002 -0.049140003 0.81900012
-0.15241201 -0.048516005 0.81900007
-0.14742 -0.049140003 0.81900007
-0.1446524 -0.085227624 0.82100004
-0.14500476 -0.083867624 0.82300001
-0.1462162 -0.057079051 0.82100004
-0.1437141 -0.057391811 0.82100004
-0.18531144 -0.050823811 0.82100004
-0.18140191 -0.050823811 0.82100004
-0.1462162 -0.050823811 0.82100004
-0.14387049 -0.050823811 0.82100004
-0.1902343 -0.046970479 0.82200003
-0.18729375 -0.048192248 0.82185721
-0.18240526 -0.047948815 0.82200003
-0.17785096 -0.047543336 0.82175004
-0.17251429 -0.047137856 0.82150006
-0.16788615 -0.047696192 0.82100004
-0.16263621 -0.047696188 0.82100004
-0.15716287 -0.046914291 0.82100004
-0.15208049 -0.046523336 0.82100004
-0.14722496 -0.047406286 0.82140011
-0.14293893 -0.048019189 0.82271427
-0.17635715 -0.044677146 0.82300001
-0.17191558 -0.044154607 0.82300007
-0.1671019 -0.043693144 0.8222
-0.16224669 -0.043409631 0.82211113
-0.15737601 -0.043061692 0.82211119
-0.15267694 -0.043062117 0.82211113
-0.14853191 -0.044285238 0.82300001
-0.14922 -0.086058103 0.82900006
-0.14692858 -0.084071435 0.82500005
-0.18700001 -0.046357147 0.82500005
-0.18307143 -0.046357147 0.82500005
-0.19060192 -0.043315239 0.82700002
-0.18726479 -0.042808257 0.82733333
-0.1824435 -0.042554446 0.82749999
-0.17748734 -0.042277146 0.82627273
-0.17271252 -0.041292656 0.82700008
-0.16762827 -0.040922541 0.8263334
-0.16333145 -0.040537141 0.82650006
-0.15792859 -0.040071435 0.82500005
-0.15202992 -0.040405147 0.82539999
-0.14694914 -0.042006478 0.82600003
-0.14305729 -0.043107349 0.82728583
-0.18159048 -0.03868667 0.82900006
-0.17764287 -0.037897147 0.82900012
-0.17322154 -0.038055051 0.82900012
-0.16704068 -0.037558779 0.82900012
-0.16275553 -0.037280411 0.82785726
-0.15795849 -0.036851238 0.82680005
-0.15258086 -0.037159916 0.82700002
-0.14869367 -0.03816032 0.82900012
-0.16027334 -0.033160001 0.82900006
-0.15711525 -0.033160001 0.82900012
-0.15343082 -0.033423178 0.82900012
-0.14518002 -0.088060006 0.83300006
-0.14359334 -0.088060006 0.83300006
-0.14756 -0.082506672 0.83300006
-0.1907343 -0.040362861 0.83100003
-0.18915144 -0.040362861 0.83100003
-0.14347717 -0.040427621 0.83233345
-0.1907343 -0.038780004 0.83100003
-0.1877943 -0.038033336 0.83200002
-0.18289337 -0.036947623 0.83133334
-0.17807144 -0.035614289 0.83100003
-0.17207208 -0.036156192 0.83133334
-0.16778287 -0.035614289 0.83100003
-0.14775106 -0.036898479 0.83140004
-0.18088001 -0.034113336 0.83300006
-0.17691335 -0.03411334 0.83300006
-0.17215335 -0.03411334 0.83300006
-0.16709501 -0.032704525 0.8325001
-0.16291879 -0.032265447 0.83214301
-0.15749431 -0.030865718 0.83100003
-0.15257545 -0.03216248 0.8318001
-0.14896667 -0.034072384 0.83200002
-0.16184002 -0.029353335 0.83300006
-0.15787335 -0.029353335 0.83300006
-0.15470001 -0.029353335 0.83300006
-0.14570287 -0.085989527 0.83600003
-0.14348572 -0.086091436 0.83700001
-0.15030001 -0.083500005 0.83500004
-0.14552858 -0.083500005 0.83500004
-0.14348572 -0.083700009 0.83700001
-0.19051716 -0.035871431 0.83700001
-0.18703143 -0.035814293 0.83566666
-0.14592621 -0.036978573 0.83500004
-0.14386636 -0.038558416 0.83766669
-0.19051716 -0.034277145 0.83700001
-0.18687175 -0.033226036 0.83733338
-0.18252368 -0.032182183 0.83585715
-0.17740956 -0.03182191 0.83533335
-0.17256668 -0.031809531 0.83500004
-0.16938573 -0.031014288 0.83500004
-0.15095016 -0.031569213 0.83566666
-0.14795905 -0.033100002 0.83749998
