# .PCD v0.7 - Point Cloud Data file format
VERSION 0.7
FIELDS x y z
SIZE 4 4 4
TYPE F F F
COUNT 1 1 1
WIDTH 626
HEIGHT 1
VIEWPOINT 0 0 0 1 0 0 0
POINTS 626
DATA ascii
-0.3412267 -0.13664001 0.78400004
-0.33693334 -0.13701335 0.78399998
-0.33376002 -0.13664001 0.78400004
-0.36594573 -0.14502573 0.78900003
-0.36444288 -0.14502573 0.78900003
-0.3674486 -0.14202 0.78900003
-0.36288869 -0.14200021 0.78888893
-0.35839242 -0.14174286 0.78850007
-0.3532989 -0.1413697 0.78816676
-0.34791145 -0.14202002 0.78900003
-0.34340286 -0.14151905 0.78900003
-0.33288288 -0.14051715 0.78900003
-0.32987717 -0.14051715 0.78900003
-0.36717072 -0.13752572 0.78800005
-0.36273289 -0.13717078 0.78790009
-0.35777611 -0.13725927 0.78755558
-0.35305622 -0.13753238 0.78740007
-0.3475025 -0.1378018 0.78637511
-0.34242985 -0.13765399 0.78600007
-0.33701503 -0.13645834 0.78725004
-0.33264828 -0.13741504 0.78844452
-0.32792538 -0.13683964 0.78837502
-0.3223629 -0.13600859 0.78900003
-0.36741173 -0.13261989 0.78800005
-0.3626892 -0.13284746 0.78727281
-0.35745257 -0.13291827 0.78850001
-0.35222173 -0.13292733 0.78855562
-0.34776446 -0.13294604 0.78866673
-0.34256801 -0.13316984 0.78900003
-0.33752096 -0.13308516 0.78860009
-0.33291274 -0.13312703 0.78862506
-0.32775199 -0.1331085 0.78881818
-0.3223629 -0.1337543 0.78900003
-0.31935716 -0.13450572 0.78900003
-0.36762732 -0.12827238 0.78866673
-0.36286303 -0.12921827 0.78883338
-0.35798061 -0.12879485 0.78900003
-0.35279572 -0.12962145 0.78900003
-0.34941432 -0.12999715 0.78900003
-0.33588859 -0.12999715 0.78900003
-0.33288288 -0.12999715 0.78900003
-0.36838001 -0.14539334 0.79100001
-0.36100382 -0.14576097 0.79300004
-0.35602194 -0.14633238 0.79200006
-0.35324439 -0.14591601 0.79220003
-0.3481648 -0.14576097 0.79300004
-0.35708004 -0.14388667 0.79100001
-0.35256004 -0.14388667 0.79100001
-0.34719002 -0.14415953 0.79250002
-0.34190652 -0.14282687 0.79180002
-0.33776629 -0.14229345 0.79144448
-0.33255604 -0.1431282 0.79180002
-0.3272287 -0.14237346 0.79188895
-0.32311583 -0.1419909 0.79242867
-0.32732335 -0.13899001 0.79100001
-0.32244584 -0.13847926 0.79166669
-0.31946573 -0.13594286 0.79300004
-0.3471286 -0.13078573 0.79149997
-0.3433432 -0.13104859 0.79233336
-0.33774447 -0.13032667 0.79100007
-0.33171779 -0.1308289 0.79100007
-0.32732335 -0.13070334 0.79100001
-0.32217559 -0.13133112 0.79099995
-0.31946573 -0.13216667 0.7930001
-0.36657202 -0.12640934 0.79100001
-0.36265469 -0.12640935 0.79100001
-0.35737967 -0.12641494 0.79166669
-0.35270831 -0.12812033 0.79133338
-0.34892005 -0.12914573 0.79300004
-0.33694956 -0.12841125 0.79220003
-0.33220497 -0.1273798 0.79227287
-0.32764399 -0.12797375 0.79242867
-0.32285333 -0.12858796 0.79266667
-0.31946573 -0.12914573 0.79300004
-0.36780101 -0.12385906 0.7930001
-0.36175907 -0.12360731 0.7930001
-0.35873812 -0.12461429 0.79300004
-0.33003908 -0.12461429 0.79300004
-0.31768 -0.15884002 0.79800004
-0.35599336 -0.15105049 0.79700005
-0.35238668 -0.15174668 0.79800004
-0.36550066 -0.14726192 0.79566669
-0.36236748 -0.14740781 0.79700005
-0.35744241 -0.14896619 0.796
-0.35248724 -0.14834301 0.79642862
-0.3475818 -0.14778478 0.79666662
-0.34280631 -0.14717773 0.7974
-0.33720365 -0.14725125 0.79780006
-0.33213678 -0.14714737 0.79700005
-0.32720575 -0.14729716 0.79640007
-0.32296959 -0.14712138 0.79685724
-0.31996003 -0.14592001 0.79800004
-0.34298575 -0.14461429 0.79500002
-0.33844289 -0.14461429 0.79500002
-0.33238575 -0.14461429 0.79500002
-0.32935718 -0.14461429 0.79500002
-0.32125184 -0.14315198 0.79528582
-0.31919166 -0.14235239 0.79760003
-0.32027146 -0.13855715 0.79500002
-0.31866574 -0.13733113 0.79666674
-0.34601432 -0.13098572 0.79500002
-0.31879941 -0.13283239 0.79700005
-0.35510004 -0.12644286 0.79500002
-0.35243529 -0.12645096 0.79625005
-0.34755 -0.12701164 0.79638469
-0.34282595 -0.12741238 0.79590911
-0.3387261 -0.12629524 0.79566669
-0.32708573 -0.12644286 0.79500002
-0.32223225 -0.12674953 0.79557151
-0.31840003 -0.12735811 0.796
-0.36699194 -0.12144572 0.79575002
-0.36271474 -0.12198655 0.79557151
-0.35746282 -0.12279885 0.79592866
-0.35276663 -0.12219361 0.79781818
-0.34758011 -0.12249648 0.79789996
-0.34276 -0.12236002 0.79799998
-0.33741906 -0.12323167 0.79750001
-0.33226568 -0.12265854 0.79636365
-0.32738453 -0.12289159 0.7961539
-0.32290608 -0.12293795 0.7968334
-0.31899953 -0.12380239 0.79750001
-0.36679313 -0.11766911 0.79618186
-0.36221623 -0.11795263 0.79775
-0.35796002 -0.11894 0.79800004
-0.35264 -0.11932001 0.79800004
-0.34884003 -0.11932001 0.79800004
-0.32756004 -0.11932001 0.79800004
-0.32452002 -0.11932001 0.79800004
-0.37721333 -0.11121334 0.79800004
-0.37279636 -0.11161134 0.79722226
-0.36760893 -0.1124092 0.79750007
-0.36252001 -0.11476 0.79800004
-0.37620005 -0.10716002 0.79800004
-0.37236124 -0.10714866 0.79791665
-0.36809334 -0.10665335 0.79800004
-0.37392002 -0.10412001 0.79800004
-0.36692366 -0.10307868 0.79700005
-0.37137145 -0.15544002 0.80400002
-0.36728764 -0.15646097 0.80400008
-0.3629486 -0.15620573 0.80400002
-0.35376003 -0.15620573 0.80400002
-0.34993145 -0.15544002 0.80400002
-0.32757258 -0.15666516 0.80400002
-0.32249868 -0.15710111 0.8024286
-0.3187924 -0.15748191 0.80400008
-0.37137145 -0.15390858 0.80400002
-0.36717641 -0.15237984 0.80319995
-0.36285657 -0.15212575 0.80266666
-0.35739717 -0.15257144 0.801
-0.35158786 -0.15268573 0.80079997
-0.34731373 -0.15219145 0.80220002
-0.34275621 -0.15145226 0.80257148
-0.33788449 -0.15110604 0.80266666
-0.33261374 -0.15168953 0.80360001
-0.32746857 -0.15152428 0.80150008
-0.32302535 -0.15211259 0.80260003
-0.34133336 -0.14857143 0.80000001
-0.33904764 -0.14857143 0.80000001
-0.3207981 -0.14894286 0.80200005
-0.31927049 -0.14665145 0.80200005
-0.31851685 -0.14193273 0.80266666
-0.31726289 -0.13766897 0.80039996
-0.3185086 -0.13442858 0.80200005
-0.34057146 -0.12114286 0.80000001
-0.33752382 -0.12114286 0.80000007
-0.32076192 -0.12190477 0.80000001
-0.31923813 -0.12190477 0.80000001
-0.36230892 -0.11611144 0.80033338
-0.35746098 -0.11655582 0.80200005
-0.35267597 -0.11733879 0.80228573
-0.34720388 -0.11762341 0.80200011
-0.34239829 -0.11769731 0.80250013
-0.33790272 -0.11819118 0.80254549
-0.33259496 -0.11804806 0.80200005
-0.32725528 -0.11699933 0.80200005
-0.3227852 -0.11792916 0.80200005
-0.31923813 -0.11961906 0.80000001
-0.38063049 -0.11329969 0.80200005
-0.36609194 -0.11196715 0.80250001
-0.36237091 -0.11293361 0.80200011
-0.35889575 -0.11363763 0.80350006
-0.34380573 -0.11409143 0.80400002
-0.38050732 -0.10751683 0.80066669
-0.37898228 -0.10751684 0.80066669
-0.3681227 -0.10856002 0.8016001
-0.37884957 -0.10464191 0.80200005
-0.36615431 -0.1604324 0.80600005
-0.36461908 -0.1604324 0.80600005
-0.37076002 -0.15582667 0.80600005
-0.3670755 -0.15736191 0.80600005
-0.36461908 -0.15736191 0.80600005
-0.35174891 -0.15807082 0.8070001
-0.34760189 -0.15753673 0.806889
-0.34300849 -0.15711007 0.80733341
-0.3385905 -0.15621334 0.80800003
-0.33265528 -0.15672383 0.80666673
-0.32009718 -0.15582667 0.80600005
-0.31702667 -0.15582667 0.80600011
-0.34235811 -0.15429144 0.80600005
-0.33740193 -0.15409905 0.80700004
-0.33297002 -0.15400335 0.80650002
-0.3207413 -0.15230638 0.80633342
-0.31828648 -0.15222357 0.80725008
-0.31842062 -0.14714058 0.80720007
-0.31779429 -0.14200953 0.80600005
-0.31779429 -0.13586858 0.80600005
-0.32009718 -0.13279811 0.80600005
-0.32089144 -0.12158477 0.80800003
-0.31935239 -0.12158477 0.80800003
-0.35540766 -0.11591049 0.80600005
-0.35233718 -0.11591049 0.80600005
-0.33698481 -0.11591049 0.80600011
-0.33314669 -0.11591049 0.80600005
-0.32126194 -0.11759143 0.8070001
-0.31935239 -0.11773714 0.80800003
-0.36660671 -0.11067334 0.80700004
-0.36261591 -0.11088382 0.80666679
-0.35799146 -0.11228001 0.80750006
-0.35233265 -0.1134693 0.80775005
-0.34750688 -0.11241947 0.80666679
-0.34239188 -0.11219021 0.80685717
-0.3378014 -0.11347866 0.80742866
-0.33231741 -0.11339834 0.80725008
-0.32741052 -0.11374763 0.80700004
-0.32287279 -0.11418096 0.80680001
-0.37014097 -0.10696381 0.80800003
-0.36794969 -0.10743321 0.80657154
-0.36046004 -0.10913619 0.80700004
-0.35936764 -0.10850286 0.80800003
-0.34466097 -0.10976953 0.80600005
-0.34714288 -0.16122858 0.81000006
-0.3371143 -0.15737143 0.81000006
-0.31628573 -0.15505715 0.81000006
-0.31648481 -0.15215239 0.81200004
-0.31422988 -0.15259558 0.81333339
-0.31750774 -0.14753878 0.81228578
-0.317707 -0.14378129 0.81166673
-0.31938669 -0.13997334 0.81200004
-0.32119557 -0.12305842 0.81266677
-0.31861335 -0.12218668 0.81200004
-0.32017335 -0.11551049 0.81400001
-0.31938669 -0.11832001 0.81200004
-0.35655433 -0.11154858 0.81000006
-0.35285145 -0.11093145 0.81000006
-0.34020004 -0.11031429 0.81000006
-0.3371143 -0.11108574 0.81000006
-0.33248574 -0.11093145 0.81000006
-0.32728621 -0.1111543 0.81050003
-0.32248345 -0.11249602 0.81240004
-0.36713812 -0.10684478 0.81100005
-0.36295494 -0.10714413 0.81066668
-0.35775939 -0.10740381 0.81133336
-0.35308731 -0.10742392 0.8125456
-0.34726539 -0.10734498 0.81088895
-0.3426418 -0.10756744 0.81140006
-0.33780229 -0.10739011 0.81240016
-0.33236954 -0.10743964 0.81160015
-0.32781336 -0.10789419 0.81244457
-0.32314131 -0.10848858 0.8136667
-0.37111098 -0.10226715 0.81350005
-0.36760128 -0.10205484 0.81357157
-0.36235741 -0.10231223 0.81338477
-0.35777992 -0.10319324 0.81333339
-0.35273337 -0.10388192 0.81400007
-0.34808192 -0.10388191 0.81400007
-0.3426455 -0.10395594 0.81371433
-0.3372286 -0.10465716 0.81400001
-0.33335239 -0.10465715 0.81400001
-0.36901337 -0.098455243 0.81400001
-0.31606266 -0.1475362 0.81620008
-0.31435716 -0.14902858 0.81500006
-0.3179794 -0.14250763 0.81766671
-0.32167068 -0.13799182 0.81860012
-0.32526001 -0.13182001 0.81900007
-0.32370001 -0.13338003 0.81900012
-0.32320243 -0.12803596 0.81724995
-0.32056668 -0.11720477 0.81500006
-0.32135338 -0.11282636 0.81700009
-0.32600003 -0.1063381 0.81500006
-0.32144716 -0.10675953 0.81675005
-0.31979716 -0.10893334 0.81700003
-0.35704762 -0.10090477 0.81500006
-0.35260573 -0.10096619 0.81550002
-0.34724098 -0.10098668 0.81566668
-0.34254003 -0.10143779 0.81722236
-0.33743274 -0.10192795 0.81700003
-0.33271244 -0.10223906 0.81700009
-0.32773069 -0.10274051 0.81686693
-0.32291049 -0.1030682 0.8174001
-0.36636195 -0.097023815 0.81500006
-0.36281228 -0.097320169 0.81750005
-0.35802004 -0.097500011 0.81900012
-0.353093 -0.098099463 0.81842875
-0.34710002 -0.099060014 0.81900012
-0.33267003 -0.098670006 0.81900007
-0.3274886 -0.098391443 0.81900012
-0.32370001 -0.099060006 0.81900007
-0.36608517 -0.093040578 0.81820005
-0.36270005 -0.094380006 0.81900012
-0.35724002 -0.094380006 0.81900007
-0.31562895 -0.14673749 0.82100004
-0.31354383 -0.14699811 0.82100004
-0.31838614 -0.14110458 0.8222
-0.3215183 -0.13609354 0.8222
-0.31932592 -0.13797162 0.8222
-0.3260543 -0.13370572 0.82100004
-0.32203257 -0.13277376 0.8221429
-0.32214481 -0.12666857 0.82100004
-0.32175431 -0.11273239 0.82200003
-0.32057813 -0.10738191 0.82300001
-0.31979907 -0.10555715 0.82100004
-0.32136175 -0.1015903 0.82180005
-0.31979907 -0.10399334 0.82100004
-0.3519991 -0.096734613 0.82133341
-0.34758765 -0.097073339 0.82200003
-0.34226108 -0.097880267 0.82100004
-0.33719647 -0.097542629 0.82100004
-0.33270049 -0.096565247 0.82100004
-0.32800907 -0.096565247 0.82100004
-0.32275334 -0.097843505 0.82188886
-0.31744286 -0.099543817 0.82300001
-0.36598623 -0.091201432 0.82200003
-0.36213014 -0.09186133 0.82160008
-0.35711262 -0.091984615 0.82200003
-0.35270303 -0.093912259 0.82271427
-0.34670508 -0.093795881 0.82300007
-0.3420167 -0.093382865 0.82225001
-0.33727464 -0.093120962 0.82166672
-0.33299503 -0.093623005 0.8221429
-0.32796833 -0.094169118 0.82300007
-0.36656162 -0.088047944 0.82300007
-0.36290383 -0.088178575 0.82300001
-0.3597686 -0.088570483 0.82300001
-0.37107623 -0.16501048 0.82900006
-0.37186575 -0.16153657 0.82900012
-0.36777732 -0.16241539 0.82842863
-0.3641426 -0.16356224 0.82700002
-0.3814702 -0.15621112 0.82700002
-0.37096861 -0.15831144 0.82700002
-0.31741312 -0.13715692 0.8265
-0.32187527 -0.13142636 0.8263334
-0.31851563 -0.13256802 0.82660002
-0.32189795 -0.12793811 0.82720006
-0.3223542 -0.12179907 0.82814294
-0.32292196 -0.11735525 0.82700008
-0.32291526 -0.11448096 0.82900006
-0.32134861 -0.10790382 0.82700002
-0.32056099 -0.10317811 0.82700002
-0.31975716 -0.10342763 0.82900006
-0.32164785 -0.096337862 0.82575005
-0.31937858 -0.097661912 0.82700008
-0.3559286 -0.090357147 0.82500005
-0.35226196 -0.091404766 0.82499999
-0.34859526 -0.091404766 0.82499999
-0.34320784 -0.090715252 0.82540005
-0.33734381 -0.090430163 0.82566679
-0.33236751 -0.091155797 0.82614291
-0.32677218 -0.091901697 0.82633334
-0.32213619 -0.092151441 0.82700008
-0.31975716 -0.092374295 0.82900012
-0.36588097 -0.086166672 0.82500005
-0.36201084 -0.086305082 0.8263334
-0.35752013 -0.087605625 0.82736373
-0.35253921 -0.087541908 0.82811111
-0.34727547 -0.087487996 0.8276
-0.34234262 -0.087753803 0.82825005
-0.33711979 -0.088175476 0.82850003
-0.33212224 -0.0875654 0.82833338
-0.32738891 -0.0875654 0.82833338
-0.32323107 -0.08858458 0.82900012
-0.36646241 -0.08353667 0.82750005
-0.36367655 -0.084411129 0.82833338
-0.34975907 -0.084479056 0.82900006
-0.37434575 -0.16540858 0.83100003
-0.37223527 -0.1632981 0.83100003
-0.36801431 -0.16382572 0.83100003
-0.31814882 -0.14204971 0.83140004
-0.31812668 -0.13883334 0.83300006
-0.3205286 -0.12900287 0.83100003
-0.31894574 -0.12900287 0.83100003
-0.32369432 -0.12425429 0.83100003
-0.32171306 -0.11717748 0.83133334
-0.32368478 -0.11176921 0.83233345
-0.32182893 -0.10710001 0.83300006
-0.3205286 -0.10209429 0.83100003
-0.31971335 -0.09599334 0.83300006
-0.31894574 -0.092597149 0.83100003
-0.34585431 -0.08626572 0.83100003
-0.34110573 -0.08626572 0.83100003
-0.33873144 -0.08626572 0.83100003
-0.32527715 -0.08626572 0.83100003
-0.321841 -0.087390803 0.83166671
-0.31932956 -0.088745721 0.83200002
-0.36731336 -0.081713341 0.83300006
-0.36250821 -0.083411299 0.83185714
-0.35750636 -0.084025405 0.83233345
-0.3530159 -0.083497152 0.83233345
-0.34791037 -0.08343143 0.83255559
-0.34270829 -0.084818736 0.83233345
-0.33705106 -0.083270885 0.83271438
-0.33260173 -0.083793096 0.83200008
-0.32764861 -0.084170476 0.83220005
-0.32447335 -0.08488667 0.83300006
-0.32201624 -0.12624954 0.83900005
-0.31885716 -0.12515144 0.83700001
-0.32178861 -0.12186572 0.83633327
-0.3182593 -0.12216214 0.83699995
-0.3208786 -0.11650239 0.83500004
-0.31770331 -0.11734302 0.83816671
-0.32216048 -0.11242811 0.83574998
-0.31803057 -0.11273777 0.8384546
-0.31405002 -0.11213382 0.838
-0.32123685 -0.10769811 0.83766669
-0.31783003 -0.1094043 0.83850002
-0.32106993 -0.10265849 0.83820003
-0.31923717 -0.10375144 0.83800006
-0.32148355 -0.097750172 0.83900011
-0.3191216 -0.09167017 0.83700007
-0.34274763 -0.085090481 0.83500004
-0.32142267 -0.0854901 0.83579999
-0.31925479 -0.088082388 0.83700001
-0.36740005 -0.080319054 0.83500004
-0.36183333 -0.081114292 0.83500004
-0.35706195 -0.0811143 0.83500004
-0.35229051 -0.080716677 0.83500004
-0.34720096 -0.080955245 0.83500004
-0.34274766 -0.08190953 0.83500004
-0.33837384 -0.08071667 0.83500004
-0.33206874 -0.081000686 0.8350001
-0.32693669 -0.081783339 0.83574998
-0.32342693 -0.082403108 0.838
-0.37102383 -0.078025721 0.83600003
-0.36736155 -0.077388763 0.83599997
-0.36183333 -0.077138096 0.83500004
-0.35725155 -0.077178322 0.83544445
-0.35294643 -0.077280112 0.83655554
-0.34769177 -0.077352382 0.83733338
-0.34224668 -0.077383175 0.83766669
-0.33769289 -0.077191427 0.83775002
-0.33255163 -0.077354372 0.8373636
-0.32735002 -0.077956937 0.83811122
-0.36617509 -0.072788768 0.83620006
-0.36263999 -0.072591253 0.83760005
-0.35754573 -0.073690169 0.83800006
-0.35238004 -0.074311435 0.83900011
-0.34758574 -0.074311435 0.83900011
-0.3435905 -0.074311435 0.83900005
-0.3387962 -0.074311435 0.83900005
-0.33267018 -0.074311435 0.83900011
-0.36429432 -0.069351435 0.83700001
-0.32438573 -0.12735143 0.84100002
-0.31717718 -0.12094381 0.84100002
-0.31756502 -0.10678929 0.84150004
-0.31424034 -0.10866255 0.84100002
-0.32076097 -0.1002381 0.84200001
-0.31807172 -0.10342762 0.84185725
-0.32095191 -0.097489528 0.84249997
-0.31958002 -0.096915245 0.84100002
-0.32034001 -0.09393429 0.84300005
-0.31958002 -0.092109531 0.84100002
-0.31929812 -0.087373018 0.8416667
-0.32104993 -0.082353339 0.84185719
-0.3267886 -0.076090485 0.84100002
-0.32320899 -0.077794604 0.84211111
-0.36122954 -0.071284764 0.84100002
-0.35762528 -0.07168524 0.84100002
-0.35241905 -0.072085716 0.84100002
-0.34708673 -0.072142228 0.8416667
-0.34235528 -0.072501637 0.84185719
-0.33754465 -0.072501644 0.84185719
-0.33273402 -0.072501637 0.84185719
-0.32774639 -0.073575564 0.84277779
-0.3227486 -0.074665718 0.84300005
-0.36610287 -0.068242863 0.84300005
-0.36233562 -0.069258109 0.84233332
-0.35727143 -0.069045722 0.84300005
-0.35222495 -0.06870164 0.84300005
-0.3477343 -0.068422861 0.84274995
-0.34282002 -0.069045722 0.84300005
-0.33800286 -0.069848575 0.84300005
-0.33318573 -0.069848582 0.84300011
-0.3259286 -0.12956667 0.84500003
-0.32431906 -0.12956667 0.84500003
-0.31627145 -0.10864286 0.84500003
-0.31412542 -0.10810636 0.84500003
-0.31816313 -0.10148929 0.84575003
-0.32062477 -0.098529533 0.84800005
-0.31900954 -0.099337146 0.84800005
-0.32062477 -0.092876196 0.84800005
-0.31925002 -0.087470956 0.84650004
-0.31929812 -0.083008192 0.84619999
-0.32090995 -0.078495823 0.84619999
-0.31910571 -0.077315629 0.84740013
-0.33880478 -0.070014291 0.84500003
-0.33075717 -0.070014291 0.84500003
-0.32724276 -0.070739597 0.84542865
-0.32252175 -0.072045721 0.84620011
-0.31929812 -0.073014289 0.84619999
-0.36726856 -0.065968387 0.84680003
-0.36289418 -0.066565566 0.84549999
-0.35811907 -0.065990478 0.84500015
-0.35302228 -0.065722235 0.84500015
-0.34653053 -0.06582953 0.84500009
-0.34217703 -0.06653893 0.84687501
-0.33665177 -0.066899367 0.84633332
-0.332614 -0.067759052 0.84700006
-0.32789335 -0.068647623 0.84800005
-0.36649758 -0.062509716 0.84800005
-0.36229795 -0.063155815 0.84800005
-0.35777527 -0.062994286 0.84800005
-0.35251433 -0.06291905 0.84700006
-0.34848249 -0.062787622 0.84740013
-0.34485334 -0.063801907 0.84800005
-0.31808001 -0.10142858 0.85200006
-0.32094765 -0.096446678 0.85100007
-0.31857833 -0.097804055 0.85225004
-0.32073098 -0.093259528 0.85150003
-0.31964001 -0.093533337 0.85400003
-0.31970096 -0.087628573 0.852
-0.31788918 -0.082193531 0.85280007
-0.31737599 -0.07726644 0.85175008
-0.31808794 -0.072424226 0.85171431
-0.34080955 -0.065571435 0.85000002
-0.33190477 -0.066380955 0.85000002
-0.32721272 -0.066702649 0.8506667
-0.32223377 -0.067462295 0.85140008
-0.31923336 -0.067100003 0.85400003
-0.36509526 -0.061523814 0.85000002
-0.36185718 -0.06071429 0.85000008
-0.35700005 -0.06071429 0.85000008
-0.35295242 -0.06071429 0.85000002
-0.34742129 -0.06154763 0.85033339
-0.34296486 -0.06243027 0.85133344
-0.33741489 -0.062264781 0.85109097
-0.33215433 -0.062429853 0.85133344
-0.32748196 -0.062670097 0.85240012
-0.32272491 -0.062593229 0.85355562
-0.31964001 -0.064253338 0.85400003
-0.36659861 -0.058118574 0.85350007
-0.36207318 -0.058639247 0.85280007
-0.35691869 -0.058112118 0.85257155
-0.3525629 -0.058127306 0.85166669
-0.34769765 -0.058490958 0.8530001
-0.34208804 -0.058722675 0.85400003
-0.3374016 -0.058536835 0.85366672
-0.33265334 -0.05856001 0.85400003
-0.32818004 -0.058966674 0.85400003
-0.32289335 -0.059373342 0.85400003
-0.31875813 -0.095382862 0.85600007
-0.32076287 -0.091412388 0.85700005
-0.31843752 -0.092264764 0.85733336
-0.32038859 -0.088045716 0.85600007
-0.31791055 -0.087084919 0.85685718
-0.31549716 -0.082339063 0.85600013
-0.31386667 -0.083969526 0.85600007
-0.3159048 -0.077040002 0.85600007
-0.31875813 -0.067664765 0.85600007
-0.32038859 -0.061958101 0.85600007
-0.31840232 -0.062505148 0.85680002
-0.37016574 -0.056382861 0.85800004
-0.36632574 -0.056295242 0.85666674
-0.36278099 -0.056794927 0.85600013
-0.35870478 -0.056251433 0.85600007
-0.35218287 -0.056251433 0.85600007
-0.34769523 -0.056317147 0.85700005
-0.34299859 -0.056757625 0.85750002
-0.33695686 -0.056295242 0.85666674
-0.33180195 -0.056251433 0.85600013
-0.32729238 -0.057132386 0.85700005
-0.3221086 -0.057472393 0.85685718
-0.31855127 -0.058289148 0.85720009
-0.37016574 -0.054748576 0.85800004
-0.3668972 -0.054748576 0.85800004
-0.36199433 -0.054748576 0.85800004
-0.35695276 -0.053365402 0.85766667
-0.35239097 -0.053695239 0.85749996
-0.34837526 -0.054203816 0.85800004
-0.34401718 -0.054748576 0.85800004
-0.33748001 -0.054748576 0.85800004
-0.33421144 -0.054748576 0.85800004
-0.31746161 -0.096797459 0.86133337
-0.31442478 -0.096051432 0.86200005
-0.31651908 -0.09266001 0.86100006
-0.31442481 -0.092767626 0.86200011
-0.3159886 -0.087965719 0.86000007
-0.31333107 -0.087392002 0.86079997
-0.31606668 -0.082916193 0.86200005
-0.31287622 -0.084361911 0.86000001
-0.32024765 -0.071257144 0.86000001
-0.32024765 -0.069619052 0.86000001
-0.31860954 -0.06634286 0.86000001
-0.31801018 -0.063165724 0.86133337
-0.31746227 -0.057422228 0.86133337
-0.37063909 -0.052479051 0.86100006
-0.36776614 -0.05263086 0.86080009
-0.3625721 -0.051638737 0.86066675
-0.35874733 -0.051092707 0.86066675
-0.35300952 -0.051600002 0.86000001
-0.34754926 -0.052692067 0.86000007
-0.34280196 -0.052227359 0.86054552
-0.33803344 -0.052376628 0.86054552
-0.33242723 -0.053298861 0.861
-0.32711703 -0.052468102 0.86083335
-0.32230687 -0.052685376 0.86072731
-0.31860954 -0.054876193 0.86000001
-0.31643003 -0.082204767 0.86750001
-0.31376952 -0.082569525 0.86700004
-0.31682411 -0.078230076 0.86728585
-0.31387144 -0.079909526 0.86500007
-0.32097429 -0.072292387 0.86750007
-0.31738701 -0.07137832 0.86811113
-0.31366763 -0.071175247 0.86900002
-0.32120287 -0.068534292 0.86700004
-0.31909239 -0.066960007 0.86800003
-0.31730288 -0.061893813 0.86650002
-0.31684193 -0.055766668 0.86750007
-0.32102573 -0.075486675 0.87100005
-0.31770766 -0.075486675 0.87100005
-0.31438956 -0.075486675 0.87100005
-0.31770766 -0.073827624 0.87100005
-0.31438956 -0.073827624 0.87100005
-0.31699908 -0.067216516 0.87133348
-0.31356001 -0.068020955 0.87100005
-0.3170605 -0.061836194 0.87150007
-0.31608003 -0.066059053 0.87800002
-0.31357145 -0.066059053 0.87800002
