# .PCD v0.7 - Point Cloud Data file format
VERSION 0.7
FIELDS x y z
SIZE 4 4 4
TYPE F F F
COUNT 1 1 1
WIDTH 419
HEIGHT 1
VIEWPOINT 0 0 0 1 0 0 0
POINTS 419
DATA ascii
-0.10754667 -0.12571335 0.76300001
-0.10754668 -0.12280668 0.76300001
-0.13824001 -0.1250743 0.76800001
-0.13209601 -0.12565945 0.76800007
-0.12726858 -0.1250743 0.76800001
-0.12214859 -0.1250743 0.76800001
-0.11746744 -0.12565945 0.76800007
-0.11268288 -0.12625757 0.76757151
-0.10898286 -0.12800001 0.76800001
-0.13677716 -0.12214858 0.76800007
-0.13238858 -0.12214858 0.76800007
-0.12726858 -0.1221486 0.76800007
-0.12214858 -0.12214858 0.76800007
-0.11776001 -0.12214858 0.76800007
-0.11222424 -0.12233838 0.76657158
-0.10782858 -0.12021429 0.76500005
-0.13165715 -0.11922286 0.76800001
-0.1275124 -0.11922286 0.76800001
-0.12117334 -0.11873525 0.76800001
-0.11776 -0.11863773 0.76800007
-0.11257961 -0.11769533 0.76758337
-0.10840572 -0.11789287 0.76650006
-0.10898286 -0.11483429 0.76800001
-0.1472927 -0.1306273 0.77200001
-0.14268261 -0.13017929 0.77225006
-0.13104191 -0.13030572 0.77300006
-0.12736097 -0.13030574 0.77300012
-0.1224962 -0.13058953 0.77250004
-0.11736655 -0.13081607 0.77228582
-0.11258858 -0.13098574 0.77266669
-0.10962144 -0.13095763 0.77250004
-0.15092002 -0.12657334 0.77000004
-0.14740002 -0.12686667 0.77000004
-0.14235859 -0.12695003 0.77050012
-0.13708359 -0.127175 0.77074999
-0.1331 -0.12796667 0.77000004
-0.1276 -0.1276 0.77000004
-0.12251969 -0.12765557 0.77033341
-0.11783468 -0.12810667 0.77039999
-0.11293334 -0.12833335 0.77000004
-0.15193187 -0.12257314 0.77066666
-0.14748593 -0.12253693 0.77044445
-0.14226668 -0.12246668 0.7700001
-0.15170191 -0.11910077 0.77100009
-0.14733525 -0.11840636 0.77222234
-0.14216903 -0.11797312 0.77161551
-0.13729677 -0.11747103 0.7709167
-0.13275637 -0.11686963 0.77090913
-0.12743795 -0.11704144 0.77050006
-0.1227926 -0.11676297 0.77000004
-0.1177 -0.11605 0.77000004
-0.11220001 -0.11513334 0.7700001
-0.13693143 -0.11410953 0.77300006
-0.1325143 -0.11410953 0.77300006
-0.12736097 -0.11410954 0.77300012
-0.12258611 -0.11346153 0.77260011
-0.1177143 -0.11329954 0.77249998
-0.11251604 -0.11325096 0.77216667
-0.12538192 -0.13576858 0.77900004
-0.12241429 -0.13576858 0.77900004
-0.11776223 -0.13553619 0.77766675
-0.11276953 -0.13576858 0.77900004
-0.10831811 -0.13576858 0.77900004
-0.14633144 -0.13302954 0.77600002
-0.14300382 -0.1333724 0.77800006
-0.13746285 -0.13155143 0.77600002
-0.13267143 -0.13288504 0.77700007
-0.12755063 -0.1332581 0.77671438
-0.12243494 -0.13302952 0.77600002
-0.11745938 -0.13371018 0.77566671
-0.11248 -0.13394001 0.77700001
-0.10837874 -0.13356161 0.77766669
-0.15120667 -0.11667334 0.77700007
-0.14761905 -0.11625001 0.77500004
-0.14392859 -0.11588096 0.77500004
-0.15096532 -0.11245539 0.77757144
-0.1471343 -0.11238128 0.77633345
-0.14260557 -0.11230938 0.77583349
-0.13762049 -0.11189239 0.7755
-0.13227101 -0.11157894 0.77588886
-0.1273613 -0.11149949 0.77627277
-0.12234219 -0.11115226 0.77585721
-0.1177743 -0.11097544 0.77579999
-0.11307429 -0.11085621 0.77600002
-0.15060668 -0.10906 0.77900004
-0.14719145 -0.10835449 0.77820003
-0.14251371 -0.10734018 0.77827293
-0.13752021 -0.10802896 0.77800006
-0.13428476 -0.10906 0.77900004
-0.12538192 -0.10906 0.77900004
-0.12151715 -0.10892001 0.778
-0.11721525 -0.10907905 0.77649999
-0.11322001 -0.10878001 0.77700007
-0.14722462 -0.14654791 0.78181821
-0.15118667 -0.14150476 0.78200006
-0.14736106 -0.14221334 0.78254545
-0.14410667 -0.14186668 0.78400004
-0.12096001 -0.14112002 0.78400004
-0.11872001 -0.14112002 0.78400004
-0.11274668 -0.14112002 0.7840001
-0.10752001 -0.14112002 0.78400004
-0.14763153 -0.13788503 0.78181821
-0.14265506 -0.13773964 0.7826001
-0.13781454 -0.1376293 0.78325003
-0.13215104 -0.13683131 0.78142864
-0.12758072 -0.13801359 0.78225011
-0.12293937 -0.13858573 0.78233337
-0.11767048 -0.13852668 0.78200001
-0.11236255 -0.13840827 0.78133339
-0.10834286 -0.13874592 0.78240007
-0.14040001 -0.13445716 0.78000003
-0.13742858 -0.13445716 0.78000009
-0.15123974 -0.10696218 0.78228581
-0.14783393 -0.10614705 0.7816
-0.14150476 -0.10501143 0.78200006
-0.13732144 -0.10531572 0.78150004
-0.13237269 -0.10705793 0.78173351
-0.12751897 -0.10706495 0.78218192
-0.12297219 -0.10674249 0.78160006
-0.11747175 -0.10631811 0.78066671
-0.11222305 -0.10671639 0.78140014
-0.10817334 -0.10651535 0.78333336
-0.15008001 -0.10378668 0.78400004
-0.14703146 -0.10299589 0.78366673
-0.14298974 -0.10287964 0.78280002
-0.13738668 -0.10304002 0.78399998
-0.1326578 -0.1032889 0.7840001
-0.12768 -0.10304002 0.78400004
-0.12277335 -0.10293336 0.78400004
-0.11725884 -0.10250754 0.7831111
-0.11241667 -0.1023481 0.78300005
-0.10724574 -0.10203241 0.78200006
-0.10292611 -0.10173448 0.78200006
-0.10729195 -0.097926773 0.78381819
-0.10299589 -0.097772382 0.78366673
-0.10352191 -0.094584771 0.78200006
-0.14269525 -0.14655676 0.78800005
-0.13751143 -0.14502573 0.78900003
-0.13300286 -0.14502573 0.78900003
-0.12774286 -0.14502573 0.78900003
-0.12248287 -0.14502573 0.78900003
-0.1179743 -0.14502573 0.78900003
-0.11271429 -0.1465286 0.78900003
-0.1074089 -0.14796954 0.78866673
-0.1043162 -0.14634287 0.78800005
-0.14236356 -0.14330167 0.78675008
-0.13761498 -0.14232898 0.78714293
-0.1328343 -0.14259049 0.78800005
-0.12741905 -0.14241049 0.78700006
-0.12247001 -0.14269382 0.78650004
-0.11734515 -0.14252383 0.78680009
-0.11178096 -0.14350395 0.7877143
-0.10694858 -0.14356244 0.78685725
-0.1043162 -0.14409143 0.78800005
-0.13698858 -0.13998286 0.78600001
-0.13249716 -0.13998286 0.78600001
-0.15554573 -0.10670286 0.78900003
-0.15394525 -0.10663572 0.78850007
-0.15629715 -0.10444858 0.78900003
-0.1519703 -0.10306286 0.78760004
-0.1474686 -0.10105716 0.78600001
-0.14148001 -0.10105715 0.78600001
-0.13773715 -0.10105715 0.78600001
-0.13235939 -0.10214096 0.78666675
-0.12725715 -0.10105715 0.78600001
-0.12201716 -0.10105716 0.78600001
-0.11902287 -0.10105715 0.78600001
-0.11453144 -0.10105715 0.78600001
-0.15084574 -0.098312393 0.78800005
-0.14761831 -0.09821143 0.78840011
-0.1423066 -0.097801305 0.78821439
-0.13738503 -0.097799055 0.7882728
-0.13290901 -0.098367199 0.78844452
-0.12780061 -0.098458968 0.788091
-0.12243112 -0.098394915 0.78866673
-0.11788692 -0.097612157 0.78841674
-0.11351117 -0.097810052 0.78836375
-0.11947715 -0.093928576 0.78900003
-0.11396667 -0.093427621 0.78900003
-0.10670286 -0.093928576 0.78900003
-0.10444858 -0.093177147 0.78900003
-0.14274001 -0.1502924 0.79300004
-0.13594286 -0.1502924 0.79300004
-0.13216668 -0.1502924 0.7930001
-0.12839049 -0.1502924 0.79300004
-0.12310382 -0.1502924 0.79300004
-0.11857239 -0.1502924 0.79300004
-0.14539334 -0.14991334 0.79100001
-0.14249873 -0.14903399 0.79166669
-0.13762765 -0.14797539 0.79214299
-0.13235907 -0.14765294 0.79157144
-0.12747429 -0.14784096 0.79200006
-0.12284572 -0.14771588 0.79133338
-0.1174363 -0.14823928 0.79099995
-0.11262335 -0.14953667 0.79100001
-0.15744668 -0.10622001 0.79100001
-0.15775631 -0.10189916 0.79255563
-0.15398611 -0.10150001 0.79180002
-0.15820001 -0.098686673 0.79100001
-0.15331334 -0.0989362 0.79300004
-0.14765334 -0.095673338 0.79100001
-0.13786002 -0.095673338 0.79100001
-0.13258667 -0.095673338 0.79100001
-0.12693667 -0.096050009 0.79100001
-0.12279334 -0.095673345 0.79100007
-0.11124223 -0.096175566 0.79100007
-0.10772668 -0.095673345 0.79100007
-0.14764859 -0.094325408 0.79233336
-0.14238001 -0.094166681 0.79100007
-0.13786002 -0.093413338 0.79100001
-0.13271168 -0.093501203 0.79175007
-0.12747429 -0.093530491 0.79200006
-0.12240613 -0.093123406 0.79128569
-0.11733494 -0.092543818 0.79144442
-0.11181621 -0.092444763 0.79100001
-0.10794191 -0.09222953 0.79100001
-0.10471334 -0.091153339 0.79100001
-0.14074764 -0.15196021 0.79540008
-0.13740695 -0.15278409 0.79585719
-0.13255493 -0.15300731 0.79533339
-0.12761207 -0.15237778 0.796
-0.12273477 -0.15114571 0.79550004
-0.14797346 -0.092324138 0.79677778
-0.14264825 -0.091538802 0.79554552
-0.13704287 -0.090857141 0.79500002
-0.13266668 -0.090970486 0.796
-0.1277988 -0.090944365 0.79671425
-0.12276001 -0.090932697 0.79566669
-0.11735716 -0.090100013 0.79500002
-0.11281429 -0.090100013 0.79500002
-0.10751429 -0.090100005 0.79500002
-0.10372858 -0.090100005 0.79500002
-0.14603524 -0.087073721 0.7978
-0.14229897 -0.08747457 0.79729998
-0.13744508 -0.087326355 0.79733336
-0.13294445 -0.087362863 0.79766667
-0.1276401 -0.087372154 0.79775
-0.1223089 -0.087362863 0.79766667
-0.1177346 -0.087350704 0.79755557
-0.11253335 -0.087141998 0.79690909
-0.10716858 -0.087310873 0.79580003
-0.10372858 -0.087071441 0.79500002
-0.14592001 -0.084360003 0.79800004
-0.14174001 -0.083980002 0.79800004
-0.13756001 -0.083751999 0.79800004
-0.13300002 -0.083600007 0.79800004
-0.12874401 -0.083751999 0.79800004
-0.11244547 -0.082814053 0.79775
-0.10684794 -0.082597785 0.79566669
-0.10372858 -0.083285719 0.79500002
-0.11108439 -0.078868002 0.79780006
-0.10701123 -0.078169525 0.79688883
-0.15084572 -0.091120005 0.80400002
-0.15084572 -0.089588575 0.80400002
-0.14857143 -0.088380963 0.80000001
-0.14740762 -0.08228001 0.80314291
-0.14297882 -0.081509769 0.80175
-0.13769525 -0.081052385 0.801
-0.13238613 -0.080956474 0.80085725
-0.12704045 -0.081782438 0.80088902
-0.12279477 -0.082369693 0.8008334
-0.11788382 -0.082125284 0.80015397
-0.14165716 -0.078868583 0.80400008
-0.1364962 -0.077814922 0.80366671
-0.13263975 -0.077746674 0.80371433
-0.12787431 -0.078102857 0.80400002
-0.12284245 -0.077993475 0.80400002
-0.11722706 -0.077334486 0.80240005
-0.11263648 -0.076869942 0.80142862
-0.10769715 -0.075617149 0.80200005
-0.11715429 -0.074274294 0.80400008
-0.11256 -0.074274294 0.80400008
-0.10769715 -0.074089527 0.80200005
-0.14891811 -0.080600008 0.80600005
-0.14727274 -0.077720523 0.80654556
-0.14200954 -0.076761909 0.80600011
-0.13842732 -0.076506041 0.80600011
-0.13203049 -0.07599429 0.80600005
-0.12742478 -0.07599429 0.80600005
-0.12205144 -0.075994298 0.80600011
-0.15005715 -0.074643813 0.80800003
-0.14697908 -0.073720388 0.80800003
-0.14236191 -0.074643813 0.80800003
-0.13812953 -0.074259058 0.80800003
-0.13220164 -0.073957831 0.80771434
-0.12691969 -0.073843502 0.80766672
-0.12204833 -0.073227867 0.80725008
-0.11764064 -0.072274923 0.80733341
-0.11256029 -0.072147764 0.80714297
-0.10814058 -0.072452955 0.80760002
-0.14636667 -0.071443819 0.81099999
-0.14282002 -0.072103433 0.81059998
-0.13744991 -0.071503632 0.81080008
-0.1322743 -0.071376339 0.81085718
-0.12733874 -0.071000323 0.81033337
-0.12304287 -0.070585713 0.81000006
-0.11802858 -0.070200011 0.81000012
-0.11262858 -0.070200004 0.81000006
-0.10722858 -0.070200011 0.81000012
-0.14679557 -0.068366349 0.81266677
-0.1427069 -0.067352392 0.81288898
-0.13756505 -0.067479834 0.81272745
-0.13234858 -0.067333974 0.81266677
-0.12770477 -0.067333974 0.81266677
-0.12258858 -0.067243472 0.81327283
-0.11725525 -0.067532964 0.81320012
-0.11231747 -0.067389213 0.81333339
-0.10737652 -0.067204669 0.81111121
-0.10427144 -0.066423818 0.81100005
-0.13566667 -0.064344764 0.81400001
-0.13256574 -0.064344764 0.81400001
-0.12791431 -0.064344764 0.81400001
-0.12481334 -0.064344764 0.81400001
-0.11706096 -0.064344764 0.81400001
-0.11396001 -0.064344764 0.81400001
-0.10698286 -0.063569531 0.81400001
-0.10465715 -0.063569531 0.81400001
-0.14592382 -0.065976195 0.81500006
-0.14646097 -0.063880958 0.81800002
-0.14214955 -0.062586293 0.8174001
-0.13800077 -0.062229913 0.81680006
-0.13242859 -0.061642859 0.81675005
-0.1276065 -0.061467249 0.81700003
-0.12245001 -0.062453344 0.81633347
-0.11730064 -0.062145405 0.81566668
-0.11242896 -0.06219944 0.81640005
-0.10844715 -0.061718099 0.81775004
-0.13758668 -0.058853339 0.81850004
-0.1330108 -0.058971114 0.81833339
-0.12714002 -0.058500003 0.81900012
-0.12199619 -0.058853336 0.81850004
-0.11731062 -0.058821637 0.81728572
-0.11324287 -0.058012925 0.8184287
-0.10998001 -0.058500003 0.81900007
-0.10530001 -0.046020001 0.81900007
-0.10270858 -0.04590762 0.81700003
-0.10530001 -0.043680005 0.81900007
-0.10305239 -0.043867625 0.81766671
-0.14717716 -0.061061911 0.82200003
-0.1446524 -0.060988575 0.82100004
-0.10633905 -0.06020667 0.82100004
-0.14500476 -0.058785718 0.82300001
-0.14207336 -0.057194289 0.82266665
-0.13732831 -0.056428168 0.82128584
-0.13219494 -0.056319684 0.82133341
-0.12760572 -0.056364767 0.82200003
-0.12285938 -0.056342226 0.82166672
-0.11838038 -0.056140769 0.82100004
-0.11217886 -0.055855047 0.82139999
-0.10748591 -0.058045149 0.82140011
-0.13638288 -0.054082859 0.82300001
-0.13246381 -0.054082863 0.82300007
-0.12932858 -0.054082859 0.82300001
-0.12227429 -0.054082859 0.82300001
-0.11735791 -0.053429525 0.82260007
-0.11273049 -0.05349461 0.82200003
-0.10346286 -0.050947621 0.82300001
-0.10321143 -0.047696192 0.82100004
-0.14614287 -0.056571431 0.82500005
-0.14378573 -0.055785719 0.82500005
-0.10737858 -0.056247145 0.82600009
-0.10475334 -0.056708574 0.82700002
-0.14614287 -0.052642863 0.82499999
-0.14248286 -0.052741278 0.82655567
-0.13786736 -0.052246943 0.82585722
-0.13294668 -0.051919051 0.82600009
-0.12750116 -0.052416384 0.82639998
-0.12236124 -0.052246939 0.82585728
-0.1174643 -0.051464289 0.82500005
-0.11196429 -0.051464289 0.82500005
-0.10767144 -0.052657466 0.82522225
-0.10475334 -0.0535581 0.82700002
-0.14570953 -0.049620003 0.82700002
-0.14257865 -0.04857837 0.82842863
-0.13724512 -0.047852039 0.82863647
-0.13230798 -0.047256369 0.82827282
-0.12745389 -0.04755443 0.82828593
-0.12244554 -0.04780915 0.82840008
-0.11733963 -0.047785915 0.82800007
-0.11276573 -0.047312386 0.82799995
-0.10825557 -0.047868047 0.82700002
-0.1045 -0.049500003 0.82500005
-0.13106096 -0.043423813 0.82900006
-0.11211239 -0.043423813 0.82900006
-0.10860413 -0.043913972 0.82833338
-0.10313334 -0.057913337 0.83300006
-0.14268439 -0.04576629 0.83140004
-0.13797238 -0.045639053 0.83100003
-0.12188001 -0.045111433 0.83100003
-0.1187143 -0.045111433 0.83100003
-0.14121334 -0.043633334 0.83300006
-0.13679831 -0.042956766 0.83220005
-0.13253105 -0.041535109 0.83185714
-0.12777756 -0.042440686 0.83185726
-0.12286763 -0.042805083 0.83233345
-0.11806604 -0.04278826 0.83200002
-0.11285772 -0.04226229 0.83100003
-0.10763429 -0.041945718 0.83100003
-0.14261964 -0.042226862 0.83660001
-0.13805714 -0.04097905 0.8355
-0.12723809 -0.040557146 0.83500004
-0.12246667 -0.040557146 0.83500004
-0.11690001 -0.040557146 0.83500004
-0.11212858 -0.040557146 0.83500004
-0.10920858 -0.040654287 0.83700001
-0.13746496 -0.038476765 0.83820009
-0.13248287 -0.038307622 0.838
-0.12728831 -0.038402315 0.83757144
-0.12202805 -0.037484765 0.83744442
-0.11727333 -0.037494287 0.83766669
-0.11277892 -0.037971839 0.83814293
-0.10946953 -0.039153337 0.83900005
-0.14337048 -0.040848576 0.84100002
-0.10812858 -0.040848576 0.84100002
-0.14132933 -0.037376571 0.8422001
-0.13696286 -0.036443334 0.84100002
-0.13215715 -0.036042862 0.84100002
-0.12735143 -0.036042862 0.84100002
-0.14566192 -0.041042861 0.84500003
