# .PCD v0.7 - Point Cloud Data file format
VERSION 0.7
FIELDS x y z
SIZE 4 4 4
TYPE F F F
COUNT 1 1 1
WIDTH 472
HEIGHT 1
VIEWPOINT 0 0 0 1 0 0 0
POINTS 472
DATA ascii
-0.12695017 -0.13608891 0.77800006
-0.12188715 -0.13596524 0.77800006
-0.11775969 -0.13553619 0.77766669
-0.11262667 -0.13559429 0.77800006
-0.1073927 -0.13627748 0.77766675
-0.10245451 -0.13685431 0.77766669
-0.097469799 -0.13620532 0.77785718
-0.092619054 -0.13633621 0.77800006
-0.087050162 -0.13626319 0.77900004
-0.082521342 -0.13615297 0.77780002
-0.079180002 -0.13542001 0.77700001
-0.13154954 -0.13155049 0.77600002
-0.12780116 -0.13223356 0.77566671
-0.12255033 -0.13214779 0.77516669
-0.11749048 -0.13227101 0.77588892
-0.11248001 -0.13246001 0.77700007
-0.10723947 -0.13238381 0.7765556
-0.1026545 -0.13219398 0.77544451
-0.097533822 -0.13226239 0.77583337
-0.092500009 -0.13246001 0.77700001
-0.087320015 -0.13246001 0.77700007
-0.082140006 -0.13246001 0.77700001
-0.078126043 -0.13185303 0.77633333
-0.13172096 -0.12875906 0.77700007
-0.12752685 -0.12738991 0.77645463
-0.12256479 -0.12729393 0.7762
-0.11782138 -0.12750901 0.77718192
-0.11279102 -0.12858614 0.77744448
-0.1071675 -0.12853646 0.77757144
-0.10242466 -0.12809154 0.77744448
-0.09736304 -0.12800272 0.77609098
-0.092526034 -0.12805451 0.77722222
-0.087603569 -0.12827335 0.77772731
-0.082532667 -0.12872587 0.77871436
-0.078076772 -0.12903981 0.77780002
-0.13066667 -0.14112002 0.78400004
-0.12768 -0.14112002 0.7840001
-0.12245334 -0.14112002 0.78400004
-0.11797334 -0.14112002 0.78400004
-0.11274668 -0.14112002 0.7840001
-0.10693207 -0.14149779 0.78333342
-0.10216288 -0.14168668 0.78299999
-0.097728893 -0.14100002 0.78333342
-0.092468575 -0.14168668 0.78300005
-0.087062396 -0.1422462 0.78299999
-0.082933106 -0.1422012 0.78275001
-0.079893336 -0.14186668 0.78400004
-0.1315178 -0.13772479 0.7816667
-0.1276443 -0.13881001 0.78150004
-0.12305714 -0.13853373 0.78120005
-0.1176331 -0.13848215 0.78175002
-0.11231525 -0.13834953 0.78100002
-0.10780763 -0.13903302 0.78066671
-0.1025143 -0.1389143 0.78000003
-0.097314298 -0.13891432 0.78000009
-0.092857145 -0.13891432 0.78000009
-0.088152394 -0.13841906 0.78000009
-0.08218953 -0.13872001 0.78100002
-0.079689533 -0.13852572 0.78200006
-0.13222858 -0.13445716 0.78000003
-0.13198666 -0.1263303 0.78120005
-0.12851429 -0.12554286 0.78000003
-0.11588572 -0.12554286 0.78000003
-0.11226667 -0.12639304 0.78066671
-0.10764953 -0.12625271 0.78133339
-0.10271001 -0.12615573 0.78150004
-0.097396195 -0.12565017 0.78066671
-0.092232384 -0.12570381 0.78100002
-0.086710006 -0.12615573 0.78150004
-0.082160003 -0.12613717 0.78000003
-0.077881917 -0.12625271 0.78133339
-0.13155049 -0.12359175 0.7833333
-0.12727845 -0.12239846 0.78236371
-0.1226762 -0.12267494 0.78066677
-0.11752268 -0.12228765 0.78200012
-0.11278057 -0.12277448 0.78320003
-0.1076239 -0.12322011 0.78327274
-0.10223578 -0.12312932 0.78355557
-0.097688586 -0.12229525 0.78299999
-0.092453703 -0.12227584 0.78287506
-0.087641917 -0.12296339 0.78355557
-0.083062604 -0.12358124 0.78371435
-0.077205345 -0.12439468 0.78400004
-0.12693334 -0.11722668 0.78400004
-0.12247697 -0.11770212 0.78319997
-0.11792223 -0.11842 0.78366673
-0.12245334 -0.11424001 0.78400004
-0.13150001 -0.14502573 0.78900003
-0.12799335 -0.14502573 0.78900003
-0.12285858 -0.14615288 0.78900003
-0.1179743 -0.14502573 0.78900003
-0.11271428 -0.14577715 0.78900003
-0.10745429 -0.14652859 0.78900003
-0.10294573 -0.14652859 0.78900003
-0.095892072 -0.14696765 0.78866673
-0.092406511 -0.14724907 0.78883338
-0.088062488 -0.14686972 0.78760004
-0.08249858 -0.14625001 0.78750002
-0.13150001 -0.14352287 0.78900003
-0.12741715 -0.14315905 0.78700006
-0.12184115 -0.14372306 0.78680003
-0.11737572 -0.14287573 0.78750002
-0.11242858 -0.14315906 0.78700006
-0.10755715 -0.14428382 0.78700006
-0.10264002 -0.14459684 0.78666675
-0.097742051 -0.14399022 0.78685725
-0.09207429 -0.1444743 0.78600001
-0.089080006 -0.1444743 0.78600001
-0.080845714 -0.1444743 0.78600001
-0.13289885 -0.12181087 0.78660005
-0.12950286 -0.12052001 0.78600001
-0.11153716 -0.12052002 0.78600001
-0.10667144 -0.1208943 0.78600001
-0.10255429 -0.12052002 0.78600001
-0.086584769 -0.12101907 0.78600001
-0.081832387 -0.12153286 0.7865001
-0.077983499 -0.12222286 0.78733337
-0.13191716 -0.11767524 0.78700006
-0.12950286 -0.11752572 0.78600001
-0.11715144 -0.11640286 0.78600001
-0.11248817 -0.11773612 0.7874167
-0.10734815 -0.11785758 0.78822231
-0.10272826 -0.11772382 0.78733337
-0.097438417 -0.11767398 0.78700012
-0.092204876 -0.1176906 0.78711116
-0.087842226 -0.11787355 0.78833342
-0.082630724 -0.11793643 0.78875005
-0.078082547 -0.11787399 0.78833342
-0.13183367 -0.11307175 0.78800005
-0.12737858 -0.11239118 0.78675014
-0.12206906 -0.11201972 0.78730011
-0.11798807 -0.11280036 0.78818184
-0.11269607 -0.11419893 0.78887504
-0.10745429 -0.11421715 0.78900003
-0.10294572 -0.11421715 0.78900003
-0.097385161 -0.11376631 0.78900003
-0.092408985 -0.1138743 0.78885722
-0.087917149 -0.11496858 0.78900003
-0.13150001 -0.10745429 0.78900003
-0.12799335 -0.10820573 0.78900003
-0.12348478 -0.10845619 0.78900003
-0.13150001 -0.10444858 0.78900003
-0.095915243 -0.1563343 0.79300004
-0.093413338 -0.15594001 0.79100001
-0.12612477 -0.1502924 0.79300004
-0.12385906 -0.1502924 0.79300004
-0.11630668 -0.1502924 0.79300004
-0.11253048 -0.1502924 0.79300004
-0.10950953 -0.1502924 0.79300004
-0.10157953 -0.15067002 0.79300004
-0.097084761 -0.15250573 0.79175001
-0.09309049 -0.15271145 0.79100001
-0.089873336 -0.15104763 0.79300004
-0.1306562 -0.14727144 0.79300004
-0.12740587 -0.14743769 0.79157144
-0.12211572 -0.14850047 0.79150003
-0.11756985 -0.14771588 0.79133338
-0.11224668 -0.14840667 0.79100007
-0.10799906 -0.14878193 0.7930001
-0.10210571 -0.14825544 0.79180002
-0.09748134 -0.14870802 0.79100001
-0.092660002 -0.14991334 0.79100007
-0.086097151 -0.14878191 0.79300004
-0.082183823 -0.14853176 0.79166669
-0.13484667 -0.12128668 0.79100001
-0.13484667 -0.11978001 0.79100001
-0.085126676 -0.11526 0.79100001
-0.08211334 -0.11526 0.79100007
-0.07834667 -0.11526 0.79100001
-0.11576223 -0.11124223 0.79100007
-0.11224668 -0.11149335 0.79100001
-0.10772668 -0.11149334 0.79100001
-0.10245334 -0.11149335 0.79099995
-0.097556673 -0.11111668 0.79100001
-0.09266001 -0.11134267 0.79100001
-0.087441437 -0.11231667 0.79150003
-0.082228258 -0.11240307 0.79211122
-0.07834667 -0.11224668 0.79100001
-0.13032667 -0.10772667 0.79100001
-0.12731335 -0.10682267 0.79100001
-0.12197567 -0.10711933 0.79128575
-0.11775657 -0.10824629 0.7926001
-0.11290811 -0.10913191 0.79300004
-0.10799906 -0.10950953 0.7930001
-0.10271239 -0.10950953 0.79300004
-0.09726318 -0.10932541 0.79166669
-0.092736833 -0.10932541 0.79166669
-0.087607622 -0.10950953 0.79300004
-0.078544766 -0.10950953 0.79300004
-0.13032667 -0.10320668 0.79100007
-0.12785143 -0.10333572 0.792
-0.12400605 -0.10438636 0.79233336
-0.12692001 -0.15580001 0.79800004
-0.12185334 -0.15630668 0.79800004
-0.11772652 -0.15646176 0.79750001
-0.11248001 -0.15580001 0.79800004
-0.10792001 -0.15580001 0.79800004
-0.10243049 -0.15553969 0.79666674
-0.09918572 -0.15521429 0.79500002
-0.091085717 -0.15560476 0.79700005
-0.087290481 -0.15560476 0.79700005
-0.084254295 -0.15560476 0.79700005
-0.13131525 -0.15105049 0.79700005
-0.12786001 -0.1527112 0.79675001
-0.12225524 -0.15258987 0.79622227
-0.11774273 -0.1528388 0.79614294
-0.11245451 -0.15311843 0.7972222
-0.10701059 -0.15254922 0.79688895
-0.10267296 -0.15332554 0.79619998
-0.09918572 -0.15370001 0.79500002
-0.091085717 -0.15408668 0.79700005
-0.087240964 -0.15248393 0.79655552
-0.082874529 -0.1522831 0.79649997
-0.13098572 -0.14915715 0.79500002
-0.12114286 -0.10524286 0.79500002
-0.11705144 -0.10568762 0.79550004
-0.11222553 -0.10661391 0.79619998
-0.10722115 -0.10706858 0.79620004
-0.10247143 -0.10702489 0.79699999
-0.097576484 -0.10683191 0.7967
-0.092354037 -0.10711352 0.79663634
-0.087326981 -0.10706985 0.79733336
-0.082709923 -0.10774897 0.79675001
-0.078213967 -0.10706943 0.7973333
-0.12668048 -0.10164779 0.79650009
-0.12218922 -0.10245567 0.79688889
-0.11772619 -0.10329477 0.79750007
-0.11213344 -0.10286488 0.79769999
-0.10716001 -0.10260001 0.79799998
-0.1026 -0.10260001 0.79799998
-0.09743201 -0.10290401 0.79799998
-0.091960005 -0.10260002 0.79799998
-0.087400004 -0.1030343 0.79800004
-0.083220005 -0.10374001 0.79800004
-0.078280002 -0.10412001 0.79800004
-0.12844001 -0.099560007 0.79800004
-0.12679049 -0.15810858 0.80200005
-0.12481143 -0.15850286 0.80400002
-0.10590477 -0.15619048 0.80000001
-0.13580535 -0.15230362 0.80200005
-0.13303572 -0.15209574 0.80049998
-0.11748001 -0.10069619 0.801
-0.11366572 -0.1006962 0.801
-0.10005905 -0.10005905 0.80200005
-0.096882865 -0.1006962 0.801
-0.087619051 -0.10133334 0.80000001
-0.081889719 -0.1014082 0.80060005
-0.078192383 -0.10107715 0.801
-0.1271863 -0.09771657 0.80159998
-0.12242212 -0.097660974 0.80240005
-0.11708995 -0.09719111 0.80355555
-0.11224329 -0.097644851 0.80272728
-0.10769747 -0.097764447 0.80199999
-0.10251988 -0.097628467 0.80213344
-0.097052194 -0.097355805 0.80240005
-0.092401758 -0.097744301 0.80183339
-0.087856039 -0.097784929 0.8021667
-0.082778037 -0.097367339 0.80307692
-0.078038096 -0.097163819 0.8033334
-0.12710857 -0.094182864 0.80400002
-0.12251429 -0.094182864 0.80400002
-0.11715429 -0.093800008 0.80400002
-0.11256 -0.094182871 0.80400008
-0.10873143 -0.094182864 0.80400002
-0.13004953 -0.091573343 0.80800003
-0.12705849 -0.091567062 0.80660009
-0.12215238 -0.091420963 0.80666673
-0.11730912 -0.091410354 0.8065716
-0.1126722 -0.091304965 0.8070001
-0.10732143 -0.09220811 0.80683339
-0.10234858 -0.092665158 0.80680007
-0.097487628 -0.093649529 0.80600011
-0.092362389 -0.093130484 0.80650008
-0.087397419 -0.093125202 0.80690914
-0.082204029 -0.092957892 0.80666679
-0.078297146 -0.092881911 0.80600011
-0.1180481 -0.088824295 0.80750006
-0.11209398 -0.088495247 0.80800003
-0.10850286 -0.088495247 0.80800003
-0.077529527 -0.089811437 0.80600005
-0.13037144 -0.090257145 0.81000006
-0.10568572 -0.090257145 0.81000006
-0.10182858 -0.090257145 0.81000006
-0.097598106 -0.09098205 0.81057143
-0.092770293 -0.090918861 0.81040001
-0.087386683 -0.090480015 0.81200004
-0.082680009 -0.090405725 0.81133336
-0.079457149 -0.090257145 0.81000006
-0.13120891 -0.087902233 0.81200004
-0.12746076 -0.087289743 0.81111121
-0.12275811 -0.087241918 0.81066662
-0.11775322 -0.086410619 0.81114298
-0.11253928 -0.086865008 0.81075001
-0.10716762 -0.087084763 0.81099999
-0.10259315 -0.087273538 0.81240004
-0.097336978 -0.087624073 0.81290925
-0.092177786 -0.087528892 0.81333339
-0.087530166 -0.087528892 0.81333339
-0.082837254 -0.087481059 0.81288898
-0.079718739 -0.08745715 0.81266677
-0.13080065 -0.082814604 0.81266677
-0.12773971 -0.082836404 0.81288898
-0.12277106 -0.082672007 0.81280011
-0.11741421 -0.08294183 0.8125456
-0.11234774 -0.082904339 0.8135556
-0.10795192 -0.083144292 0.81400007
-0.10233144 -0.084500961 0.81400001
-0.096904777 -0.084500961 0.81400001
-0.09225335 -0.084500961 0.81400001
-0.089152388 -0.084500961 0.81400001
-0.081400007 -0.084500961 0.81400001
-0.079849526 -0.084500961 0.81400001
-0.13101524 -0.079849526 0.81400001
-0.12868953 -0.079849526 0.81400001
-0.12171239 -0.079849526 0.81400001
-0.1178362 -0.079849526 0.81400001
-0.1063381 -0.081500009 0.81500006
-0.10245714 -0.082276195 0.81500006
-0.097103186 -0.08156541 0.81566668
-0.092442229 -0.08156541 0.81566668
-0.087480962 -0.082035877 0.81650013
-0.082866758 -0.082725286 0.81736374
-0.078780003 -0.083460003 0.81900007
-0.13133715 -0.077713341 0.81600004
-0.12751989 -0.077720955 0.81700009
-0.12264425 -0.077401653 0.81645465
-0.11719296 -0.07724648 0.81599998
-0.11266302 -0.077696674 0.81583345
-0.1074962 -0.077626221 0.81673348
-0.10218821 -0.078000367 0.81715405
-0.09768831 -0.077638239 0.81871438
-0.092820011 -0.078000009 0.81900012
-0.089700006 -0.078000009 0.81900007
-0.11154 -0.074100003 0.81900007
-0.081318095 -0.080536194 0.82100004
-0.078190476 -0.081318095 0.82100004
-0.1305781 -0.075844765 0.82100004
-0.12823239 -0.075844765 0.82100004
-0.096956193 -0.075844765 0.82100004
-0.09304668 -0.075844765 0.82100004
-0.087146103 -0.077289149 0.82140011
-0.082210697 -0.077512071 0.82211113
-0.077597156 -0.078380957 0.82300007
-0.12736015 -0.073239326 0.82185721
-0.12285875 -0.072774924 0.82166666
-0.11786915 -0.0726301 0.82180005
-0.11251962 -0.07276915 0.82160008
-0.10720794 -0.072774924 0.82166666
-0.10256773 -0.072814286 0.82211107
-0.098165587 -0.073316328 0.82271427
-0.093123496 -0.074341275 0.82166672
-0.087731913 -0.074416667 0.82249999
-0.083867624 -0.074461907 0.82300001
-0.12682286 -0.068892382 0.82200003
-0.077785723 -0.076214299 0.82500005
-0.12885715 -0.071500003 0.82500005
-0.096060388 -0.071533911 0.82539999
-0.092027634 -0.071575768 0.82588893
-0.0874018 -0.071653657 0.82677782
-0.08252079 -0.072213247 0.82663643
-0.078005396 -0.072486989 0.82733339
-0.12701049 -0.066266045 0.82833338
-0.12240312 -0.067888185 0.82614285
-0.11728429 -0.067692876 0.82650006
-0.11256145 -0.067692876 0.82650006
-0.10783859 -0.067692868 0.82650006
-0.10253037 -0.067564398 0.82686669
-0.097289205 -0.067745887 0.82716674
-0.092201389 -0.066982761 0.82744449
-0.087496191 -0.067000322 0.82766676
-0.08283291 -0.067055143 0.82833338
-0.078388438 -0.067560688 0.82900012
-0.1275645 -0.062597968 0.82900012
-0.12217882 -0.062569767 0.82900006
-0.11786464 -0.062823549 0.82900012
-0.11267097 -0.062550485 0.82875007
-0.10737526 -0.062372386 0.82900017
-0.10184859 -0.06316191 0.82900012
-0.097900957 -0.06316191 0.82900006
-0.092374295 -0.06316191 0.82900012
-0.087637149 -0.063319817 0.82900012
-0.082900003 -0.06316191 0.82900006
-0.078335106 -0.061879326 0.82842863
-0.078952387 -0.058424767 0.82900006
-0.077560008 -0.065688573 0.83100003
-0.12583715 -0.061731432 0.83100003
-0.12425429 -0.060940005 0.83100003
-0.11713144 -0.060940005 0.83100003
-0.11475715 -0.060940005 0.83100003
-0.10209429 -0.060940009 0.83100003
-0.096805528 -0.061948385 0.83179998
-0.092597149 -0.060940009 0.83100003
-0.087848574 -0.06133572 0.83100003
-0.083100006 -0.061889719 0.83100003
-0.077560008 -0.064105719 0.83100003
-0.12742001 -0.059357148 0.83100003
-0.12249715 -0.059067622 0.8325001
-0.11763172 -0.058532111 0.83214301
-0.1121588 -0.058738369 0.83185714
-0.10697144 -0.058635246 0.83200014
-0.10225748 -0.058659054 0.83233345
-0.097580008 -0.059500005 0.83300006
-0.092820011 -0.059500005 0.83300006
-0.087990806 -0.059452385 0.83233345
-0.08276096 -0.058305446 0.83214295
-0.078540005 -0.056326669 0.83300006
-0.13024478 -0.055933338 0.83900005
-0.12720901 -0.056565404 0.83655554
-0.12266409 -0.056499463 0.83557147
-0.11690001 -0.056461912 0.83500004
-0.11212858 -0.056461912 0.83500004
-0.10735716 -0.056461912 0.83500004
-0.10224858 -0.056097142 0.8355
-0.097682104 -0.056409147 0.83660001
-0.092488967 -0.05660839 0.83719999
-0.087683819 -0.057392385 0.83700007
-0.082169853 -0.056109529 0.83766669
-0.07910572 -0.055134289 0.83900005
-0.1268962 -0.052075479 0.83800006
-0.12167377 -0.052371535 0.83744454
-0.11718001 -0.052608572 0.83700001
-0.11235271 -0.052588582 0.8366667
-0.10761429 -0.052608576 0.83700007
-0.10304269 -0.05242537 0.83754551
-0.097483814 -0.053536195 0.83900005
-0.093488574 -0.053536195 0.83900005
-0.11746001 -0.048741907 0.83900011
-0.11266573 -0.048741907 0.83900011
-0.10867049 -0.048741907 0.83900005
-0.087303817 -0.055265717 0.84100002
-0.083299056 -0.055265717 0.84100002
-0.12735143 -0.050460003 0.84100002
-0.12414762 -0.050460003 0.84100002
-0.10011905 -0.051260956 0.84100002
-0.096915245 -0.051260959 0.84100002
-0.092045724 -0.051937621 0.84224999
-0.087976836 -0.052678417 0.84233344
-0.082244769 -0.0533581 0.84249997
-0.079294294 -0.053663813 0.84100002
-0.12706922 -0.047884449 0.84266675
-0.12274001 -0.04732985 0.84233338
-0.11788002 -0.04650953 0.84200001
-0.11306858 -0.04650953 0.84200001
-0.10768715 -0.046723817 0.84224999
-0.10243474 -0.047462434 0.84209096
-0.097145714 -0.047368575 0.84299999
-0.092649721 -0.048332002 0.84300005
-0.088314295 -0.04897429 0.84300005
-0.11802001 -0.044157147 0.84300011
-0.11320287 -0.044157147 0.84300011
-0.10999144 -0.044157147 0.84300005
-0.086646035 -0.05123651 0.84500003
-0.083212391 -0.05134381 0.84500009
-0.079134934 -0.051773023 0.84500003
-0.13002667 -0.046034288 0.84800005
-0.12876192 -0.046676196 0.84500003
-0.092145242 -0.046273816 0.84500003
-0.087577291 -0.047067624 0.84585726
-0.083085723 -0.048399046 0.84700012
-0.079954289 -0.049264766 0.84800005
-0.1267065 -0.042772386 0.84740013
-0.12298204 -0.042871788 0.84537506
-0.1175981 -0.04188405 0.84575009
-0.10742614 -0.043176331 0.84628576
-0.10218137 -0.043197963 0.84671444
-0.097453028 -0.042684764 0.84566677
-0.092693023 -0.042717777 0.8463335
-0.0888381 -0.04441905 0.84800005
-0.078080006 -0.051240005 0.85400003
-0.085000008 -0.046142861 0.85000002
-0.081451438 -0.04660286 0.85100001
-0.078303814 -0.048277147 0.852
