# .PCD v0.7 - Point Cloud Data file format
VERSION 0.7
FIELDS x y z
SIZE 4 4 4
TYPE F F F
COUNT 1 1 1
WIDTH 614
HEIGHT 1
VIEWPOINT 0 0 0 1 0 0 0
POINTS 614
DATA ascii
-0.12068572 -0.12580572 0.76800001
-0.11776002 -0.12580572 0.76800007
-0.11410287 -0.1250743 0.76800001
-0.12068572 -0.12288001 0.76800001
-0.11776001 -0.12214858 0.76800007
-0.11410287 -0.12214857 0.76800007
-0.11702858 -0.11922286 0.76800001
-0.11410287 -0.11922286 0.76800001
-0.12736095 -0.13030572 0.77300006
-0.12249667 -0.13058953 0.77250004
-0.11771335 -0.13022143 0.77250004
-0.12662476 -0.12736097 0.77300012
-0.12302314 -0.12721851 0.77085721
-0.11707505 -0.12824002 0.7712
-0.11247009 -0.12717377 0.77185714
-0.10851448 -0.12647752 0.77300006
-0.12588859 -0.12368001 0.77300006
-0.12309213 -0.12246083 0.77128577
-0.11161049 -0.12262573 0.77100009
-0.10932429 -0.12331191 0.77300006
-0.12190985 -0.11945652 0.77266669
-0.11774954 -0.1170688 0.77161545
-0.11247009 -0.11835036 0.77185714
-0.10969239 -0.11999906 0.77300006
-0.10757621 -0.13576858 0.77900004
-0.10164096 -0.13576858 0.77900004
-0.13244396 -0.132232 0.77814299
-0.12769112 -0.13279101 0.77700001
-0.12254097 -0.13314383 0.77666664
-0.11750858 -0.13302955 0.77600002
-0.11265534 -0.13256529 0.77681822
-0.10751201 -0.13221087 0.77640003
-0.10227223 -0.13265985 0.77816677
-0.13196859 -0.12851335 0.77700007
-0.12925 -0.12703286 0.77550006
-0.11145239 -0.12916668 0.77500004
-0.10687333 -0.12791525 0.77525002
-0.10253648 -0.12770323 0.77715397
-0.12759297 -0.12286077 0.77620006
-0.1247381 -0.12030953 0.77500004
-0.10734002 -0.12245239 0.77611113
-0.10460858 -0.1238981 0.77900004
-0.12551144 -0.11810667 0.77750003
-0.12273505 -0.11712172 0.7754001
-0.11188826 -0.11657303 0.77633333
-0.10914905 -0.1180281 0.77700001
-0.12527461 -0.11341302 0.77833337
-0.12204888 -0.11242986 0.77666676
-0.11750859 -0.11233335 0.77600002
-0.1139212 -0.1131793 0.778
-0.12167239 -0.10906 0.77900004
-0.11796287 -0.10906001 0.77900004
-0.10154667 -0.14560001 0.78400004
-0.099306673 -0.14560001 0.78400004
-0.10627556 -0.14211558 0.78400004
-0.10212021 -0.14237165 0.78266668
-0.097776607 -0.14182395 0.78200012
-0.094088256 -0.14125651 0.78200006
-0.14112002 -0.13514668 0.78400004
-0.13843201 -0.13604268 0.78400004
-0.1324843 -0.1362043 0.78150004
-0.12735556 -0.13703749 0.78200001
-0.12242329 -0.13782266 0.78222227
-0.1175962 -0.13695002 0.78150004
-0.11245905 -0.1377835 0.78200001
-0.10752655 -0.13858233 0.78171438
-0.10254691 -0.13784453 0.78025007
-0.097535662 -0.1377418 0.78177786
-0.093743101 -0.13735263 0.78275001
-0.13770477 -0.13218781 0.78240007
-0.13371429 -0.13445716 0.78000003
-0.097625248 -0.13265096 0.78250015
-0.094826676 -0.13365334 0.78400004
-0.13664001 -0.12917334 0.78400004
-0.13347392 -0.12692535 0.78119999
-0.1010381 -0.12636128 0.78200006
-0.09864001 -0.12845716 0.78266668
-0.13124478 -0.12378763 0.78300005
-0.12884381 -0.12139367 0.78200006
-0.10550668 -0.12089843 0.78200006
-0.10352039 -0.12318287 0.78200001
-0.12788649 -0.11656915 0.78160006
-0.11068572 -0.11514287 0.78000003
-0.10724381 -0.11752268 0.78200006
-0.12690145 -0.11201572 0.78150004
-0.11190967 -0.112123 0.78114295
-0.10905068 -0.11292954 0.78320009
-0.12586477 -0.10873334 0.78200006
-0.12292065 -0.10702562 0.78222227
-0.11736102 -0.10660294 0.78107697
-0.11305143 -0.1075835 0.78266674
-0.10976001 -0.10976001 0.78400004
-0.12021334 -0.10378668 0.78400004
-0.11667906 -0.10274701 0.78366673
-0.11424001 -0.10378668 0.78400004
-0.14502573 -0.14502573 0.78900003
-0.14277144 -0.14502573 0.78900003
-0.12148096 -0.14552669 0.78900003
-0.11121143 -0.14502573 0.78900003
-0.10736414 -0.147907 0.78833336
-0.10355239 -0.14696954 0.78600001
-0.14615287 -0.14239572 0.78900003
-0.1424349 -0.14175315 0.7882728
-0.13763393 -0.14176536 0.788625
-0.13297509 -0.14123891 0.78883338
-0.12760156 -0.14223845 0.78812504
-0.12217239 -0.14241049 0.78700006
-0.11779986 -0.14256144 0.78783339
-0.11244679 -0.14243323 0.78712511
-0.10804382 -0.14397526 0.78600001
-0.14652859 -0.13751143 0.78900003
-0.14330167 -0.13730691 0.78675008
-0.13773715 -0.13848573 0.78600001
-0.13249716 -0.13848573 0.78600001
-0.12650859 -0.13998286 0.78600001
-0.11752573 -0.13998286 0.78600001
-0.092822865 -0.13549143 0.78600001
-0.14577717 -0.13375428 0.78900003
-0.1427573 -0.13290314 0.78714293
-0.095189527 -0.13191524 0.78700006
-0.092230476 -0.13272065 0.78733337
-0.14095876 -0.12944129 0.78866673
-0.13770944 -0.12703176 0.78822225
-0.1339943 -0.12501144 0.78600001
-0.10105715 -0.12501144 0.78600001
-0.097322002 -0.12734276 0.78808343
-0.092598692 -0.12866154 0.78887504
-0.089420006 -0.12849429 0.78900003
-0.13650952 -0.12348478 0.78900003
-0.13300179 -0.12211966 0.78787506
-0.10232968 -0.12204641 0.78757155
-0.099338867 -0.12278344 0.78900003
-0.13175072 -0.11823787 0.78825009
-0.12950286 -0.11902287 0.78600001
-0.10568286 -0.11692476 0.78700006
-0.10329947 -0.11810273 0.78842866
-0.13150001 -0.11346572 0.78900003
-0.12940001 -0.11200458 0.78720003
-0.10698973 -0.11224153 0.78780001
-0.10444858 -0.11421715 0.78900003
-0.1275551 -0.10729541 0.78783339
-0.11090525 -0.10715826 0.78683341
-0.1088881 -0.10813667 0.78850007
-0.12532954 -0.1043162 0.78800005
-0.12226109 -0.1027577 0.78757155
-0.11862477 -0.10164192 0.78666675
-0.11328002 -0.10277715 0.78771442
-0.11735 -0.098832868 0.7881667
-0.11418072 -0.099156916 0.78875005
-0.14236668 -0.15172629 0.79260004
-0.13971905 -0.1525581 0.79300004
-0.14659868 -0.14659868 0.79100001
-0.14221258 -0.14790447 0.79099995
-0.13788541 -0.14677197 0.79211116
-0.13216667 -0.14576098 0.7930001
-0.12709764 -0.14595479 0.79200006
-0.12269683 -0.14758922 0.79200006
-0.11736824 -0.14683127 0.79136366
-0.1123181 -0.14774716 0.79149997
-0.1508562 -0.14180668 0.79200006
-0.14900933 -0.14238 0.79100001
-0.13635334 -0.14388667 0.79100001
-0.13258667 -0.14388667 0.79100001
-0.15142001 -0.13710669 0.79100001
-0.14916001 -0.13786 0.79100001
-0.15113811 -0.13304667 0.79150003
-0.14795218 -0.13271925 0.79179996
-0.14388667 -0.13032667 0.79100001
-0.14576097 -0.12914573 0.79300004
-0.14248341 -0.12740478 0.79157144
-0.095673338 -0.12580667 0.79100001
-0.092283338 -0.12618333 0.79100001
-0.089646675 -0.12656 0.79100001
-0.14105144 -0.12370192 0.79200006
-0.13849077 -0.12210763 0.79214293
-0.096675485 -0.12230453 0.79149997
-0.09279637 -0.12221827 0.79216671
-0.089816667 -0.12227 0.79250002
-0.13661191 -0.11849668 0.79250002
-0.13401012 -0.11772896 0.79139996
-0.10123049 -0.11706477 0.79174995
-0.09809842 -0.11847144 0.79233336
-0.10366458 -0.1127183 0.79220003
-0.13049144 -0.10710762 0.79200006
-0.12882 -0.10622001 0.79100001
-0.10788935 -0.10789011 0.79220003
-0.12720516 -0.10366458 0.79220003
-0.12324858 -0.10063334 0.79149997
-0.11149335 -0.10245334 0.79100001
-0.12179398 -0.09738414 0.79266667
-0.11762763 -0.096749537 0.79100001
-0.11334573 -0.096256196 0.79166669
-0.12008286 -0.094404764 0.79300004
-0.11706191 -0.093800575 0.79300004
-0.11359144 -0.093212381 0.79250002
-0.13727143 -0.1554746 0.79633331
-0.1216 -0.15656 0.79800004
-0.11841144 -0.15636382 0.79700005
-0.13715653 -0.15231332 0.79566669
-0.13312703 -0.15249869 0.79762501
-0.12810458 -0.15150611 0.79780006
-0.12209358 -0.15247501 0.79749995
-0.11755398 -0.15244225 0.79633331
-0.1139197 -0.15130383 0.79566669
-0.13603334 -0.1486524 0.79500002
-0.13266668 -0.14858763 0.79600012
-0.12838954 -0.14870153 0.79580003
-0.12492858 -0.14915715 0.79500002
-0.15237716 -0.14176571 0.796
-0.15294611 -0.13202763 0.79580003
-0.14764287 -0.13098572 0.79500002
-0.15268382 -0.12928687 0.79760009
-0.14777833 -0.1278581 0.79675001
-0.14479619 -0.12584287 0.796
-0.14516 -0.12312001 0.79800004
-0.14241472 -0.12205307 0.79600006
-0.14113717 -0.1180442 0.79760003
-0.13748515 -0.11656591 0.79580003
-0.097114101 -0.11680973 0.79540008
-0.092410795 -0.11740571 0.79533339
-0.13724491 -0.11359266 0.79742855
-0.13370557 -0.11171414 0.79616678
-0.10174191 -0.11178263 0.79575002
-0.097820722 -0.1126258 0.79724997
-0.092217535 -0.11333449 0.79759997
-0.13376001 -0.10868001 0.79800004
-0.10676625 -0.10693557 0.79633337
-0.10343372 -0.10829315 0.79740006
-0.12873271 -0.10192286 0.79666674
-0.11068095 -0.10158476 0.796
-0.10738172 -0.1026743 0.7974
-0.12648083 -0.097233936 0.79762501
-0.12417144 -0.097671434 0.79500002
-0.11126125 -0.097448103 0.79689997
-0.10804477 -0.098319054 0.7978
-0.12540001 -0.093480006 0.79800004
-0.12197881 -0.092952862 0.79674995
-0.11758995 -0.091360822 0.79657149
-0.11237334 -0.091683343 0.79725003
-0.11729334 -0.087906674 0.79800004
-0.11349335 -0.087906674 0.79800004
-0.12940572 -0.1600343 0.80400002
-0.13184826 -0.15582161 0.8033334
-0.12744154 -0.15727392 0.80319995
-0.12411906 -0.15849049 0.80200005
-0.12723811 -0.15314287 0.80000007
-0.12419049 -0.15466668 0.80000001
-0.15216275 -0.12707268 0.80171436
-0.14857143 -0.12571429 0.80000001
-0.15225017 -0.12394223 0.8033334
-0.14774778 -0.12266695 0.80142868
-0.14616048 -0.11784524 0.80350006
-0.14338586 -0.11677852 0.80142856
-0.14216194 -0.11265716 0.80314285
-0.13807809 -0.11137716 0.801
-0.09574604 -0.11098414 0.80000007
-0.092190489 -0.1104762 0.80000007
-0.14063621 -0.10898668 0.80400008
-0.13681933 -0.10777225 0.80257148
-0.13293652 -0.10650095 0.80066669
-0.10176708 -0.10700355 0.80171436
-0.097726911 -0.10843786 0.80324996
-0.092499062 -0.10931557 0.80266666
-0.13553144 -0.10490286 0.80400002
-0.13293606 -0.10278532 0.80285716
-0.10227963 -0.10258795 0.80266672
-0.098777153 -0.10490286 0.80400002
-0.13098286 -0.097966485 0.80240005
-0.12886922 -0.096841276 0.80066669
-0.10688953 -0.096864507 0.80085725
-0.10359577 -0.097646572 0.80311114
-0.127407 -0.092495881 0.80266666
-0.12378603 -0.091250166 0.80066669
-0.11061429 -0.092303813 0.801
-0.10799102 -0.092922732 0.80257148
-0.10490286 -0.094182864 0.80400002
-0.12634286 -0.089588575 0.80400002
-0.12304275 -0.087885514 0.80244446
-0.11817001 -0.08653 0.80049998
-0.11125144 -0.087445728 0.80120003
-0.10949715 -0.088057145 0.80400008
-0.12174857 -0.082697146 0.80399996
-0.11725824 -0.082678109 0.80171436
-0.11257058 -0.082810916 0.80309099
-0.11715429 -0.078868583 0.80400008
-0.11409143 -0.078868575 0.80400002
-0.13126287 -0.15812953 0.80600005
-0.12972763 -0.15889715 0.80600005
-0.15282002 -0.12133366 0.80633342
-0.14891811 -0.1205162 0.80600005
-0.15228023 -0.11790816 0.80800003
-0.1485343 -0.11782953 0.80600005
-0.14703597 -0.11282263 0.80725008
-0.14354478 -0.11130477 0.80600005
-0.14508002 -0.10976953 0.80600005
-0.1421611 -0.10725117 0.80685723
-0.13842732 -0.10567557 0.80600011
-0.09672001 -0.10593144 0.80600005
-0.092426337 -0.10667879 0.80690914
-0.14082287 -0.10388572 0.80800003
-0.13711184 -0.10242124 0.80685729
-0.13433334 -0.1005581 0.80600005
-0.097514085 -0.10212106 0.80622232
-0.094651438 -0.1031162 0.80800003
-0.13697524 -0.099268578 0.80800003
-0.13385259 -0.097276583 0.80680001
-0.10100429 -0.097163342 0.80650002
-0.098755568 -0.098755561 0.80800003
-0.13152345 -0.092757724 0.80760002
-0.12972763 -0.092114292 0.80600005
-0.10631843 -0.09120287 0.8070001
-0.103287 -0.094060324 0.80733341
-0.13004953 -0.087725721 0.80800003
-0.12727264 -0.086959295 0.8062501
-0.10864877 -0.087133348 0.80680007
-0.12592381 -0.082564585 0.80720007
-0.12358668 -0.081367627 0.80600005
-0.11067334 -0.08070001 0.80700004
-0.10976953 -0.082902864 0.80600005
-0.12169987 -0.077803813 0.80657154
-0.11744572 -0.076761909 0.80600011
-0.11275167 -0.077409767 0.80675012
-0.12081525 -0.074643813 0.80800003
-0.11773714 -0.074643813 0.80800003
-0.11388953 -0.074643813 0.80800003
-0.15524858 -0.1158562 0.81100005
-0.1535143 -0.11648572 0.81000006
-0.15505715 -0.11262858 0.81000006
-0.15197143 -0.11262858 0.81000012
-0.14811429 -0.11031429 0.81000006
-0.15544002 -0.10826667 0.81200004
-0.15234096 -0.1078181 0.81300008
-0.14782879 -0.1075799 0.81266671
-0.14425716 -0.10645714 0.81000006
-0.15272191 -0.10465715 0.81400001
-0.14652 -0.10465715 0.81400001
-0.14287381 -0.10246524 0.81200004
-0.13962857 -0.10182858 0.81000006
-0.092130862 -0.10247067 0.81020004
-0.088933341 -0.10130668 0.81200004
-0.14109334 -0.097680002 0.81400001
-0.13819167 -0.09721595 0.81175005
-0.097161435 -0.097160481 0.81183338
-0.092095062 -0.097975053 0.81260014
-0.088933341 -0.098213337 0.81200004
-0.1358043 -0.093629047 0.81250006
-0.13315383 -0.091470011 0.81050003
-0.10256502 -0.092326432 0.81124997
-0.099107623 -0.093688577 0.81300002
-0.13230668 -0.087430485 0.81240004
-0.10671937 -0.087385409 0.81199998
-0.10414033 -0.088635564 0.81400001
-0.13101524 -0.084500961 0.81400001
-0.12842034 -0.082610801 0.81066674
-0.1079709 -0.082997292 0.81228578
-0.12651858 -0.078540482 0.8125
-0.12396668 -0.076078102 0.81099999
-0.11045049 -0.07723619 0.81099999
-0.10852899 -0.077773616 0.81314296
-0.12309588 -0.071997471 0.81288898
-0.11765126 -0.071713947 0.81127292
-0.11265104 -0.072572194 0.81240004
-0.12171239 -0.068996206 0.81400001
-0.11706096 -0.068996206 0.81400001
-0.11396001 -0.068996198 0.81400001
-0.15095049 -0.10504287 0.81700003
-0.1519143 -0.10283333 0.81800002
-0.14732583 -0.10204541 0.81655568
-0.14359525 -0.10012858 0.81500006
-0.14736065 -0.09823969 0.81866682
-0.14279461 -0.096663177 0.81633341
-0.095471434 -0.095471434 0.81500006
-0.092366673 -0.095471434 0.81500006
-0.089261912 -0.095471434 0.81500006
-0.14148381 -0.093152389 0.81850004
-0.13812985 -0.091998421 0.81633341
-0.10064604 -0.09133175 0.81500006
-0.097125962 -0.092454053 0.81750005
-0.092694499 -0.092692383 0.81788898
-0.089553975 -0.092667632 0.81766671
-0.13724804 -0.088046685 0.81814301
-0.1346105 -0.086366042 0.81700009
-0.10188338 -0.087035768 0.81663638
-0.098436005 -0.088452004 0.81900007
-0.13274714 -0.082331672 0.81750011
-0.12978286 -0.080821916 0.81600004
-0.10556096 -0.081930481 0.81619996
-0.10251266 -0.082392134 0.81827289
-0.13150801 -0.077532008 0.81900007
-0.12838571 -0.077029906 0.81700003
-0.10607906 -0.07713072 0.81599998
-0.10374001 -0.077220008 0.81900012
-0.12770191 -0.072815821 0.81860012
-0.11099525 -0.070633337 0.81500006
-0.10809471 -0.072323076 0.81655556
-0.12542668 -0.068555243 0.81800008
-0.12185049 -0.06707105 0.81700003
-0.11734858 -0.066833332 0.8160001
-0.11262882 -0.067498811 0.81699997
-0.1086045 -0.068281502 0.81871444
-0.12090001 -0.064740002 0.81900007
-0.11725267 -0.063357688 0.8184287
-0.11328287 -0.063603133 0.81871444
-0.10998001 -0.064740002 0.81900007
-0.15168953 -0.10086572 0.82100004
-0.15175526 -0.098193727 0.8222
-0.14778002 -0.096174292 0.82100004
-0.15127525 -0.094840959 0.82300001
-0.14747734 -0.092780009 0.8228001
-0.14392859 -0.092301279 0.82133341
-0.14578858 -0.087002866 0.82300007
-0.14204516 -0.087856583 0.8222
-0.13933544 -0.086478673 0.82100004
-0.097101368 -0.086821102 0.82128578
-0.092695646 -0.08743947 0.82185721
-0.089066863 -0.087813534 0.82180005
-0.14030191 -0.083083816 0.82300001
-0.13711309 -0.081954055 0.82150006
-0.09808144 -0.08242096 0.82225001
-0.094840959 -0.083867624 0.82300001
-0.13647875 -0.078024134 0.82200003
-0.13318446 -0.076366037 0.82100004
-0.10168859 -0.077439368 0.82133335
-0.099543817 -0.078380957 0.82300001
-0.13187906 -0.07304123 0.8221429
-0.1290143 -0.071153335 0.82100004
-0.10555716 -0.072717145 0.82100004
-0.1035183 -0.073136203 0.8222
-0.12768334 -0.068540953 0.82249999
-0.12432287 -0.066461906 0.82100004
-0.10642477 -0.067036517 0.82166666
-0.10424668 -0.069759049 0.82300001
-0.12225163 -0.063080959 0.82180005
-0.11869315 -0.061144955 0.82100004
-0.11204144 -0.061202388 0.82125002
-0.10816439 -0.063708 0.82180005
-0.11789238 -0.058358099 0.82249999
-0.11355906 -0.058738098 0.82233334
-0.15164287 -0.091479592 0.82499999
-0.14850001 -0.090357147 0.82500005
-0.15007144 -0.087214291 0.82500005
-0.14850001 -0.087214291 0.82500005
-0.14378573 -0.086428575 0.82500005
-0.15067779 -0.082832068 0.82833338
-0.14732561 -0.08272139 0.82722229
-0.14286192 -0.082389258 0.82614303
-0.095595241 -0.081452392 0.82500005
-0.092002869 -0.082565404 0.82566673
-0.088785723 -0.083285719 0.82500005
-0.14658827 -0.079215564 0.82900012
-0.14248233 -0.078504637 0.8278572
-0.13893144 -0.076350957 0.8265
-0.097099721 -0.077109523 0.8268463
-0.092225723 -0.078035876 0.82766676
-0.089216195 -0.076583818 0.82900006
-0.13728525 -0.072875001 0.82725012
-0.13446572 -0.071556516 0.82566679
-0.10128667 -0.072144769 0.82700008
-0.09869048 -0.072636195 0.82900006
-0.13553493 -0.068162225 0.82900012
-0.13196549 -0.067752622 0.82725
-0.12851068 -0.066535436 0.82580012
-0.10264789 -0.067119911 0.82736373
-0.13027143 -0.063951433 0.82900006
-0.12680191 -0.062512383 0.82825005
-0.12335716 -0.062071435 0.82500005
-0.10720541 -0.061596513 0.82566679
-0.10353 -0.062513337 0.82825005
-0.12186825 -0.057518732 0.82733339
-0.11729924 -0.056523245 0.82660007
-0.1122494 -0.05696613 0.82585722
-0.10742418 -0.057689615 0.82772732
-0.10342763 -0.05921429 0.82900006
-0.12158667 -0.054477148 0.82900006
-0.11754445 -0.052854292 0.82833338
-0.11303072 -0.053062629 0.82850003
-0.10848059 -0.053845532 0.82900012
-0.11684953 -0.049740002 0.82900006
-0.11369143 -0.049740002 0.82900006
-0.15116286 -0.079934292 0.83100003
-0.14929113 -0.079004765 0.83233345
-0.092670165 -0.075246036 0.83166671
-0.14008287 -0.072020002 0.83100003
-0.13850001 -0.070437148 0.83100003
-0.096926406 -0.071818098 0.83128577
-0.13716525 -0.066997148 0.8325001
-0.13375144 -0.065688573 0.83100003
-0.10051143 -0.065688573 0.83100003
-0.098650962 -0.0677481 0.83200002
-0.13566001 -0.064260006 0.83300006
-0.13238129 -0.062886991 0.83233345
-0.12931333 -0.06108667 0.83300006
-0.10096762 -0.062163815 0.83150005
-0.12728743 -0.058808196 0.83220005
-0.12425429 -0.05698286 0.83100003
-0.10526001 -0.056191433 0.83100003
-0.10287563 -0.057539623 0.83220005
-0.12253278 -0.052785721 0.83220005
-0.11080001 -0.051442862 0.83100003
-0.1066284 -0.052759435 0.83179998
-0.10392667 -0.054740004 0.83300006
-0.12181176 -0.049411114 0.83233345
-0.11719862 -0.047283497 0.83211112
-0.11226869 -0.047988255 0.83211118
-0.10868667 -0.049980003 0.83300006
-0.15143271 -0.07638064 0.83833337
-0.147414 -0.076494291 0.8366667
-0.14352289 -0.076138102 0.83566666
-0.14702478 -0.074311435 0.83900005
-0.14289391 -0.072644003 0.83820003
-0.093238845 -0.072520748 0.83677781
-0.14143144 -0.069517151 0.83900005
-0.13933334 -0.066879049 0.83600003
-0.096718729 -0.067756511 0.83700007
-0.092689529 -0.068718106 0.83900005
-0.13720286 -0.062623821 0.83660001
-0.1336 -0.061233338 0.83500004
-0.098275244 -0.063191913 0.83725005
-0.13652858 -0.059348255 0.83833337
-0.13248572 -0.057972383 0.83675003
-0.12866637 -0.056240644 0.83566666
-0.10117667 -0.057358574 0.83650005
-0.099761911 -0.059060004 0.83800006
-0.13024478 -0.052737147 0.83900005
-0.12747334 -0.052285854 0.83728576
-0.12485239 -0.051690482 0.83500004
-0.10629684 -0.050630163 0.83500004
-0.10300773 -0.05234402 0.83700001
-0.12602992 -0.047440197 0.8386001
-0.12202463 -0.046511706 0.83585715
-0.11849049 -0.045328576 0.83500004
-0.11106826 -0.045858737 0.83500004
-0.10752688 -0.046993125 0.83633333
-0.10414255 -0.048209213 0.83900011
-0.1216381 -0.04347048 0.83749998
-0.11705641 -0.042202014 0.83611113
-0.1123362 -0.042224873 0.83655554
-0.10893953 -0.042697623 0.838
-0.090722866 -0.076271437 0.84300005
-0.089117147 -0.076271437 0.84300005
-0.15168858 -0.073034696 0.84271425
-0.14760827 -0.072466359 0.84233344
-0.14497238 -0.072886668 0.84100002
-0.090507627 -0.072886668 0.84100002
-0.088511437 -0.072465718 0.84233344
-0.14531715 -0.069848575 0.84300005
-0.14273939 -0.06735906 0.84200001
-0.09531334 -0.067280002 0.84100002
-0.091344461 -0.067038737 0.84133339
-0.088476829 -0.067894928 0.84200001
-0.14075449 -0.062752575 0.84259999
-0.096326403 -0.061735108 0.84185719
-0.09253981 -0.062546864 0.84200001
-0.13638724 -0.056573529 0.84140009
-0.13375905 -0.055265717 0.84100002
-0.10011905 -0.05606667 0.84100002
-0.097641908 -0.057514928 0.84266663
-0.093131438 -0.058608577 0.84300005
-0.13568287 -0.053791434 0.84300005
-0.13275062 -0.051885042 0.84185719
-0.1006981 -0.051754288 0.84249997
-0.13140097 -0.048439052 0.84300011
-0.12862954 -0.04688286 0.84150004
-0.10254572 -0.04709103 0.84214288
-0.12648414 -0.043586992 0.84233332
-0.12298343 -0.041528195 0.84180003
-0.10667035 -0.04250817 0.84214294
-0.12123144 -0.039340004 0.84300005
-0.11767977 -0.037888814 0.84200001
-0.11330286 -0.037900005 0.84224999
-0.1094562 -0.038804766 0.84300011
-0.15210001 -0.070014291 0.84500003
-0.14807621 -0.070014291 0.84500003
-0.08852382 -0.073233336 0.84500003
-0.15167086 -0.067355432 0.84800005
-0.14750572 -0.0669 0.84633338
-0.14405239 -0.065185718 0.84500003
-0.14682515 -0.062509716 0.84800005
-0.14351086 -0.061687626 0.84560007
-0.090938099 -0.060357146 0.84500003
-0.08932858 -0.060357146 0.84500003
-0.14161216 -0.057692625 0.84725004
-0.13922381 -0.0571381 0.84500003
-0.09630318 -0.056065083 0.84500003
-0.092811622 -0.057299245 0.84740013
-0.08948715 -0.058044292 0.84650004
-0.13697049 -0.051987626 0.84500009
-0.097802863 -0.052875511 0.84671438
-0.13648763 -0.049264766 0.84800005
-0.13329734 -0.047225337 0.84619999
-0.10059524 -0.046676196 0.84500003
-0.099337146 -0.048457146 0.84800005
-0.13083428 -0.04361143 0.84800005
-0.12807073 -0.042286433 0.84575003
-0.10542382 -0.041042861 0.84500003
-0.10287198 -0.042968027 0.84671432
-0.15095875 -0.062380962 0.8506667
-0.14922224 -0.062333338 0.85000008
-0.14677049 -0.057678416 0.8530001
-0.14382541 -0.057476193 0.85000008
-0.091618419 -0.055944767 0.85133338
-0.14157081 -0.053324454 0.85266674
-0.09714286 -0.051000003 0.85000002
-0.093871303 -0.053027764 0.85285729
-0.13702542 -0.047838099 0.85133338
-0.097311907 -0.047846671 0.85150003
-0.14918858 -0.05788191 0.85600007
-0.14626858 -0.054748576 0.85800004
-0.14365049 -0.052237146 0.85700005
-0.092337146 -0.052297145 0.85800004
-0.14136572 -0.049845718 0.85800004
-0.1502343 -0.056645717 0.86200005
-0.14720993 -0.052679624 0.86160004
-0.14497145 -0.051600002 0.86000001
