# .PCD v0.7 - Point Cloud Data file format
VERSION 0.7
FIELDS x y z
SIZE 4 4 4
TYPE F F F
COUNT 1 1 1
WIDTH 587
HEIGHT 1
VIEWPOINT 0 0 0 1 0 0 0
POINTS 587
DATA ascii
-0.16112143 -0.12654334 0.77250004
-0.15763226 -0.12676798 0.77162498
-0.15261307 -0.12635647 0.77200007
-0.14684585 -0.12678845 0.77287507
-0.14355715 -0.12736095 0.77300006
-0.16168953 -0.12284839 0.77240008
-0.15780446 -0.1225727 0.77066666
-0.15263095 -0.12254621 0.77050006
-0.14738616 -0.12303431 0.77272737
-0.16122572 -0.11999906 0.77300006
-0.15719147 -0.11815737 0.77166671
-0.15265225 -0.11794983 0.77146167
-0.14843287 -0.1189916 0.77283347
-0.1553362 -0.11410953 0.77300006
-0.15386382 -0.11410953 0.77300006
-0.16544478 -0.13131715 0.77900004
-0.16219971 -0.13183431 0.77766669
-0.15737143 -0.13147335 0.77700007
-0.15209049 -0.13131717 0.77900004
-0.14696553 -0.13157277 0.77700007
-0.14232542 -0.13229768 0.77700001
-0.13752368 -0.13180858 0.77814287
-0.13356161 -0.131587 0.77766675
-0.12736034 -0.13131717 0.77900004
-0.16607869 -0.12756059 0.77780002
-0.16269717 -0.12799208 0.7753334
-0.1564762 -0.12916668 0.77500004
-0.15224192 -0.12933333 0.77600002
-0.1478651 -0.12867461 0.77500004
-0.14226787 -0.12769048 0.77500004
-0.137372 -0.12731767 0.77633339
-0.13291486 -0.12801944 0.77880013
-0.12760763 -0.12933874 0.77900004
-0.1238981 -0.12834953 0.77900004
-0.16756335 -0.12159286 0.77850002
-0.16400479 -0.12267144 0.77500004
-0.14540477 -0.12104763 0.77500004
-0.14257398 -0.12262827 0.77566671
-0.13863336 -0.12248915 0.77760005
-0.13428476 -0.1238981 0.77900004
-0.16675867 -0.11843448 0.77820003
-0.16209002 -0.11736096 0.77625
-0.15833494 -0.11647271 0.77566671
-0.15130953 -0.11588096 0.77500004
-0.1471705 -0.11712922 0.77566671
-0.14267029 -0.11778001 0.77780002
-0.13929811 -0.11929334 0.778
-0.16191366 -0.11371081 0.77866668
-0.15757492 -0.11269302 0.77677774
-0.15235443 -0.11241647 0.77657145
-0.14763404 -0.11355025 0.778
-0.14467144 -0.11499525 0.77900004
-0.15580001 -0.10831811 0.77900004
-0.1535743 -0.10831811 0.77900004
-0.12320001 -0.14112002 0.7840001
-0.16750222 -0.13680594 0.78399998
-0.16227555 -0.13738668 0.78400004
-0.15754668 -0.13589334 0.78400004
-0.15232001 -0.13589334 0.78400004
-0.14662716 -0.1369262 0.78350008
-0.14249144 -0.1372705 0.7833333
-0.13693868 -0.13693868 0.78400004
-0.13199145 -0.1372124 0.78300011
-0.12723511 -0.13745716 0.78257149
-0.12245628 -0.13804659 0.78272736
-0.11802223 -0.13676721 0.78377777
-0.17173335 -0.13365334 0.78400004
-0.16773 -0.13221239 0.78100002
-0.16310287 -0.13480191 0.78200006
-0.15640001 -0.13331239 0.78200006
-0.15220715 -0.13359953 0.78150004
-0.14839049 -0.13425809 0.78100002
-0.14262858 -0.13445716 0.78000003
-0.13766223 -0.13468699 0.78133339
-0.13198501 -0.13365787 0.7807501
-0.12728791 -0.13344519 0.78028578
-0.12234573 -0.13233946 0.7812857
-0.11841906 -0.13291594 0.78342861
-0.16877273 -0.12713715 0.78066671
-0.13128191 -0.12607525 0.78100002
-0.12737761 -0.1270043 0.78100002
-0.12247773 -0.12844419 0.78320009
-0.11872001 -0.12917334 0.78400004
-0.16853049 -0.12304096 0.78300005
-0.13583097 -0.12205953 0.78150004
-0.13281658 -0.12282991 0.78259999
-0.12768 -0.12469335 0.7840001
-0.16608192 -0.1154381 0.78200006
-0.16459239 -0.1154381 0.78200006
-0.14187716 -0.11580953 0.78200006
-0.13773659 -0.11790991 0.78260005
-0.16161335 -0.11171429 0.78200006
-0.15822858 -0.11068572 0.78000003
-0.1508 -0.11068572 0.78000003
-0.1471623 -0.11115315 0.78120005
-0.142956 -0.11272705 0.78180009
-0.15799603 -0.10691716 0.78180009
-0.1519624 -0.10677033 0.78216672
-0.14749277 -0.10779372 0.783077
-0.14410667 -0.10976001 0.78400004
-0.15605335 -0.10304001 0.78400004
-0.15288001 -0.10285336 0.78399998
-0.14858668 -0.10378668 0.78400004
-0.15780002 -0.15103716 0.78900003
-0.16681716 -0.14502573 0.78900003
-0.16215831 -0.14712974 0.78899997
-0.15738256 -0.14719653 0.78900003
-0.15404287 -0.14502573 0.78900003
-0.12774286 -0.14577717 0.78900003
-0.12398572 -0.14652859 0.78900003
-0.17185906 -0.14033906 0.78800005
-0.16753975 -0.14202927 0.78785723
-0.16269107 -0.14205085 0.78812504
-0.15761644 -0.14223041 0.78808343
-0.15267186 -0.1415143 0.78857154
-0.14752166 -0.14129959 0.78857148
-0.14210656 -0.14160688 0.78855562
-0.13751143 -0.14126858 0.78900003
-0.13271593 -0.1415143 0.78857154
-0.12737282 -0.14303355 0.78722233
-0.12312001 -0.14359874 0.78666675
-0.17678827 -0.13627778 0.78766674
-0.17292 -0.13728802 0.78600007
-0.16768001 -0.13960859 0.78600001
-0.16169144 -0.13773715 0.78600001
-0.1575743 -0.13886002 0.78600001
-0.15327272 -0.13804542 0.78633344
-0.14821716 -0.13848573 0.78600001
-0.13871938 -0.13872065 0.78733337
-0.12875429 -0.13998286 0.78600001
-0.17568402 -0.13330345 0.78900003
-0.17244643 -0.13195786 0.78725004
-0.1170743 -0.13208382 0.78800005
-0.17196214 -0.12850359 0.78675002
-0.1251705 -0.12591906 0.78700006
-0.12217858 -0.12668191 0.78825009
-0.11892636 -0.12843937 0.78866673
-0.13195786 -0.12146024 0.78725004
-0.12751941 -0.12301846 0.78762501
-0.12278344 -0.12338459 0.78900003
-0.13641334 -0.11692476 0.78700006
-0.13323851 -0.11801647 0.78785723
-0.14124875 -0.11125001 0.78750008
-0.13791387 -0.11371895 0.78844452
-0.13375428 -0.11496858 0.78900003
-0.14597143 -0.10554858 0.78600001
-0.14350441 -0.10748822 0.78787506
-0.15837634 -0.10234042 0.78600001
-0.15168144 -0.10149572 0.78650004
-0.14709184 -0.10281488 0.78800005
-0.14352287 -0.10369715 0.78900003
-0.15672699 -0.097671539 0.78822225
-0.15268889 -0.097914457 0.78783345
-0.14893316 -0.098737732 0.78900003
-0.15594001 -0.15142001 0.79100001
-0.15368001 -0.15142001 0.79100001
-0.12839049 -0.1502924 0.79300004
-0.15594001 -0.14916 0.79100001
-0.1524647 -0.14794235 0.79161543
-0.14742421 -0.14697334 0.79220009
-0.14258 -0.14710763 0.79211122
-0.13762763 -0.14646655 0.79214293
-0.13245375 -0.14668234 0.79214293
-0.12777144 -0.14812382 0.79149997
-0.12430001 -0.14840667 0.79100001
-0.16950001 -0.14388667 0.79100001
-0.15217334 -0.14388667 0.79100001
-0.14765334 -0.14388667 0.79100001
-0.14388667 -0.14388667 0.79100001
-0.13786003 -0.14388667 0.79100007
-0.13409334 -0.14388667 0.79100001
-0.18027431 -0.13275239 0.792
-0.17780803 -0.13192804 0.79157144
-0.11601334 -0.13032667 0.79100001
-0.11375334 -0.13032667 0.79100001
-0.17552668 -0.12882 0.79100001
-0.17402001 -0.12806667 0.79100001
-0.11739927 -0.12712073 0.79188889
-0.11328572 -0.12688001 0.79300004
-0.13049144 -0.12068477 0.79200006
-0.12714 -0.12080514 0.79180002
-0.12238263 -0.12106191 0.79200011
-0.11782 -0.12347477 0.79174995
-0.11300001 -0.12354667 0.79100001
-0.13118985 -0.11686572 0.79166669
-0.12768857 -0.11727506 0.79240006
-0.12385906 -0.11781715 0.79300004
-0.13702421 -0.11109735 0.79140002
-0.13285513 -0.11290698 0.79211122
-0.12914573 -0.11404096 0.79300004
-0.14125001 -0.10735001 0.79100001
-0.13761488 -0.10819183 0.79220003
-0.13367715 -0.10950953 0.79300004
-0.14589557 -0.10069557 0.79100007
-0.14255875 -0.10308667 0.792
-0.13971905 -0.1049781 0.79300004
-0.16066286 -0.096547626 0.79200006
-0.1591543 -0.096547626 0.79200006
-0.15142001 -0.095673338 0.79100001
-0.14736907 -0.097052626 0.79149997
-0.14425048 -0.0989362 0.79300004
-0.15670636 -0.093821913 0.79233336
-0.15258832 -0.092649795 0.79209095
-0.14934763 -0.094285719 0.79200006
-0.15406859 -0.089873336 0.79300004
-0.1474143 -0.15135372 0.79540008
-0.14222752 -0.15183006 0.7957778
-0.13759895 -0.15240298 0.79712504
-0.13302383 -0.15237978 0.79700005
-0.1290381 -0.15256858 0.79700005
-0.14007144 -0.14915715 0.79500002
-0.13704287 -0.14915715 0.79500002
-0.13325715 -0.14915715 0.79500002
-0.11613429 -0.12979715 0.79700005
-0.11385715 -0.12979715 0.79700005
-0.12038572 -0.12038572 0.79500002
-0.11715397 -0.12144573 0.79533339
-0.11357144 -0.12114286 0.79500002
-0.12244554 -0.11729354 0.79560006
-0.117718 -0.11771737 0.79744446
-0.11390477 -0.11770096 0.79733342
-0.13174286 -0.11130001 0.79500002
-0.12712435 -0.11227717 0.79657155
-0.12251144 -0.11339405 0.79774994
-0.1178 -0.11476 0.79800004
-0.11324 -0.11400001 0.79800004
-0.13687715 -0.10595448 0.79580003
-0.13270059 -0.10767429 0.79620004
-0.12963429 -0.10916477 0.796
-0.14147009 -0.10185457 0.79557151
-0.1374636 -0.10252836 0.79744446
-0.13391201 -0.10290401 0.79800004
-0.14564429 -0.095578581 0.79650003
-0.14245173 -0.097209685 0.79742855
-0.13870001 -0.098420009 0.79800004
-0.16058882 -0.091494054 0.79725003
-0.15818891 -0.091980651 0.796
-0.15142858 -0.090100005 0.79500002
-0.14791027 -0.092790909 0.79644448
-0.16073208 -0.088339053 0.79733342
-0.15696315 -0.08775498 0.79728574
-0.15256763 -0.088048898 0.79700011
-0.14972001 -0.088920005 0.79800004
-0.13638096 -0.15466668 0.80000001
-0.17879429 -0.12098287 0.80400002
-0.17262095 -0.12144572 0.80200005
-0.18117335 -0.11696129 0.80266666
-0.17795344 -0.11768399 0.80381823
-0.17268607 -0.11774236 0.80327278
-0.16922286 -0.11562286 0.80400002
-0.11809525 -0.11504763 0.80000001
-0.17534858 -0.11179429 0.80400002
-0.17219134 -0.11249736 0.80355555
-0.16732691 -0.11250406 0.80225009
-0.12236144 -0.1109262 0.80049998
-0.11750397 -0.11216112 0.80116677
-0.11304381 -0.1115143 0.80200005
-0.1646286 -0.10796573 0.80400008
-0.13090223 -0.10650095 0.80066669
-0.12741482 -0.10757652 0.80111116
-0.12241144 -0.10787556 0.8033334
-0.11792001 -0.10873144 0.80400002
-0.16401601 -0.10184 0.80400002
-0.13186495 -0.10207029 0.80220002
-0.12806572 -0.10356286 0.80399996
-0.13674998 -0.096966423 0.80054551
-0.13315001 -0.097757623 0.8035
-0.16309716 -0.093417153 0.80400002
-0.14658363 -0.091672391 0.80080003
-0.14237231 -0.092342518 0.80254537
-0.13770516 -0.093689151 0.80240005
-0.134 -0.094182864 0.80400002
-0.1584762 -0.086095244 0.80000001
-0.15199888 -0.086443059 0.80039996
-0.1476595 -0.087983288 0.80333334
-0.14420953 -0.089078099 0.80400008
-0.15598533 -0.082964912 0.80342853
-0.15218732 -0.082592703 0.80299997
-0.14829335 -0.083973341 0.80400002
-0.15237716 -0.078868575 0.80400002
-0.17655239 -0.11591049 0.80600005
-0.17655239 -0.11437525 0.80600005
-0.16810858 -0.11130477 0.80600005
-0.17204839 -0.10824039 0.80720007
-0.16773587 -0.1078108 0.80666673
-0.12512191 -0.10516382 0.80600005
-0.12205144 -0.10516383 0.80600011
-0.1173513 -0.10703076 0.80685729
-0.11290266 -0.10829312 0.80644453
-0.17160381 -0.10388572 0.80800003
-0.1663962 -0.10260286 0.80700004
-0.1270263 -0.10183696 0.80640012
-0.1223543 -0.10388573 0.80800003
-0.16620001 -0.097824141 0.80666673
-0.16350287 -0.095952384 0.80600005
-0.1306562 -0.096840009 0.80700004
-0.12843001 -0.098822393 0.80750006
-0.13726096 -0.091677472 0.80666679
-0.13286069 -0.093298785 0.80771434
-0.1604324 -0.085205719 0.80600005
-0.15889715 -0.085205719 0.80600005
-0.14508002 -0.085973337 0.80600005
-0.14190166 -0.087318458 0.80618191
-0.1391689 -0.088420957 0.80733341
-0.15861191 -0.081801437 0.80650008
-0.14690582 -0.081862018 0.80666679
-0.14390096 -0.0838781 0.80800003
-0.15736628 -0.078078106 0.80714297
-0.15254053 -0.077251226 0.80666679
-0.14791974 -0.078517832 0.80714297
-0.15621334 -0.074643813 0.80800003
-0.15313525 -0.07425905 0.80800003
-0.17620763 -0.10654922 0.81266677
-0.17254286 -0.1062 0.81000012
-0.11648572 -0.10568572 0.81000006
-0.11417143 -0.10568572 0.81000006
-0.17667975 -0.10255511 0.81314296
-0.17213573 -0.10247001 0.81050009
-0.16894287 -0.10260001 0.81000012
-0.12651429 -0.10105715 0.81000006
-0.12243049 -0.10167512 0.81142867
-0.11744851 -0.10228281 0.81240016
-0.11382 -0.10220382 0.81300002
-0.17576286 -0.099107623 0.81300002
-0.17210269 -0.097723246 0.81180012
-0.16866145 -0.096872866 0.81050009
-0.12722054 -0.096811228 0.81177789
-0.1225821 -0.097475819 0.81360012
-0.11706095 -0.096904762 0.81400007
-0.11318477 -0.09690477 0.81400007
-0.16743104 -0.093604095 0.81228584
-0.13577144 -0.090257145 0.81000006
-0.13203588 -0.092063181 0.81233346
-0.12894796 -0.093286991 0.81400001
-0.11551049 -0.093803816 0.81400001
-0.11318476 -0.093803816 0.81400001
-0.16512573 -0.087601908 0.81400001
-0.16414763 -0.088267624 0.81300002
-0.1371204 -0.087188199 0.81160003
-0.1341162 -0.087601915 0.81400001
-0.16149399 -0.082677469 0.81133336
-0.14250986 -0.082379475 0.81177783
-0.13817744 -0.083748035 0.81314296
-0.16124383 -0.076880008 0.81266677
-0.15814286 -0.076371431 0.81000006
-0.14679772 -0.076408386 0.81040001
-0.14317144 -0.077846989 0.81333345
-0.16076335 -0.072439536 0.81350005
-0.15698744 -0.072156586 0.81120008
-0.15175366 -0.071972065 0.81066674
-0.14771394 -0.072416283 0.8112728
-0.14496954 -0.072872385 0.81400001
-0.1604743 -0.068220958 0.81400001
-0.15720235 -0.067371227 0.81311119
-0.15255556 -0.067370802 0.81311119
-0.14812692 -0.067576438 0.81325006
-0.15659811 -0.064344764 0.81400001
-0.15272193 -0.064344764 0.81400001
-0.14962097 -0.064344764 0.81400001
-0.17651859 -0.09681239 0.81650007
-0.17464288 -0.097023815 0.81500006
-0.17223971 -0.093783185 0.81833339
-0.16806859 -0.091037147 0.81700003
-0.1311762 -0.090814292 0.81500006
-0.12706192 -0.091896437 0.81599998
-0.12235105 -0.092656381 0.81620008
-0.11772239 -0.092424765 0.81725001
-0.11330078 -0.091793343 0.81820005
-0.16700478 -0.087589532 0.8175
-0.1637762 -0.086157151 0.81500006
-0.13180476 -0.087090954 0.81650007
-0.1275959 -0.087400466 0.81793356
-0.12280667 -0.087966681 0.81900012
-0.11778001 -0.088920012 0.81900012
-0.11278801 -0.08767201 0.81900018
-0.10998001 -0.085020006 0.81900007
-0.16573429 -0.084812388 0.81700003
-0.16437906 -0.0825762 0.81800008
-0.1368981 -0.081579246 0.81580001
-0.13286822 -0.082405947 0.81807715
-0.12714002 -0.083460003 0.81900007
-0.11278801 -0.082836002 0.81900007
-0.10998001 -0.082680002 0.81900007
-0.16458002 -0.077220008 0.81900012
-0.1410519 -0.076547146 0.81599998
-0.137833 -0.077577062 0.81681824
-0.13425012 -0.077493526 0.81860012
-0.16340192 -0.071584769 0.81700003
-0.14514762 -0.070633337 0.81500006
-0.1423889 -0.072362855 0.81700009
-0.13850573 -0.072762869 0.81900012
-0.16586953 -0.067750804 0.81766671
-0.16301078 -0.067448311 0.81671435
-0.14571382 -0.067222387 0.81599998
-0.14303525 -0.068010755 0.81814301
-0.16218764 -0.06288667 0.8177501
-0.15821323 -0.061951857 0.81655562
-0.15241192 -0.06181905 0.81650001
-0.14782535 -0.062930293 0.81780005
-0.14430001 -0.064740002 0.81900007
-0.15580858 -0.059206672 0.81800008
-0.15312287 -0.059348006 0.81780005
-0.17659271 -0.094164774 0.82166672
-0.17301239 -0.092377141 0.82200003
-0.17008668 -0.088570483 0.82300001
-0.16915207 -0.087312713 0.82100004
-0.12171652 -0.085748896 0.82100004
-0.11806762 -0.086009532 0.82100004
-0.11494001 -0.086009532 0.82100004
-0.17008668 -0.082300007 0.82300001
-0.16753241 -0.082200006 0.82200003
-0.1305781 -0.080536194 0.82100004
-0.1274505 -0.081904531 0.82100004
-0.12282509 -0.082143612 0.82144451
-0.1181635 -0.082165398 0.82166666
-0.11376715 -0.080927141 0.82100004
-0.17196783 -0.078224204 0.82300007
-0.16765589 -0.07796064 0.82133335
-0.13169512 -0.077185176 0.82100004
-0.12785077 -0.077963136 0.8221429
-0.12345 -0.078772865 0.82300001
-0.11757144 -0.079164766 0.82300001
-0.11286858 -0.079164766 0.82300001
-0.1668162 -0.072836518 0.82233334
-0.16498192 -0.074280955 0.82100004
-0.13589506 -0.072404385 0.82100004
-0.13272613 -0.073016465 0.82185721
-0.12932858 -0.074461907 0.82300001
-0.14111716 -0.06703715 0.82166672
-0.13786815 -0.068115063 0.82209098
-0.13403144 -0.06897524 0.82300001
-0.14630429 -0.060634289 0.82150006
-0.14318763 -0.063377827 0.82157153
-0.15732804 -0.057138644 0.82185721
-0.15245974 -0.056710072 0.8221429
-0.1473562 -0.058785718 0.82300001
-0.1559781 -0.054082859 0.82300001
-0.18238001 -0.10105906 0.82900006
-0.18143259 -0.097111434 0.82900012
-0.18080096 -0.093163818 0.82900006
-0.17731744 -0.091636613 0.82642859
-0.17306763 -0.090466671 0.82600003
-0.17606382 -0.087637149 0.82900012
-0.17294028 -0.087200686 0.82700002
-0.17678255 -0.082867309 0.82866681
-0.17299989 -0.082729131 0.82728583
-0.17563906 -0.077182867 0.82700008
-0.17288859 -0.075804383 0.82740003
-0.16892858 -0.076214291 0.82500005
-0.12728572 -0.076214291 0.82500005
-0.12215588 -0.076510377 0.82633334
-0.11767375 -0.07742656 0.82677788
-0.11328001 -0.077092387 0.82600003
-0.17116159 -0.073655561 0.82566679
-0.16906509 -0.073131755 0.82566679
-0.13121429 -0.072285719 0.82500005
-0.12727648 -0.072472245 0.82714283
-0.12348573 -0.073380478 0.82850003
-0.14064287 -0.065214291 0.82500005
-0.13645241 -0.065738097 0.82500005
-0.13259982 -0.067320772 0.82580006
-0.12876476 -0.067489423 0.82722229
-0.16501048 -0.060793336 0.82900006
-0.14180414 -0.061597146 0.82566679
-0.13731906 -0.06210503 0.82736367
-0.1326603 -0.063005045 0.82842863
-0.12869239 -0.063951433 0.82900006
-0.15950002 -0.055785719 0.82500005
-0.15007144 -0.056571431 0.82500005
-0.14722414 -0.056684762 0.82666671
-0.14288476 -0.057743814 0.82774997
-0.13778344 -0.058869909 0.82860005
-0.16027334 -0.053687625 0.82900006
-0.15707049 -0.052180957 0.82600009
-0.15241413 -0.052854639 0.82609093
-0.14798981 -0.053086128 0.82842863
-0.15672438 -0.049084384 0.82860005
-0.15255062 -0.04859497 0.82871431
-0.14922 -0.048950478 0.82900006
-0.18598573 -0.10209429 0.83100003
-0.18440287 -0.10130286 0.83100003
-0.18598573 -0.098928578 0.83100003
-0.18361144 -0.098137148 0.83100003
-0.1782143 -0.08791779 0.83166671
-0.11713144 -0.075185716 0.83100003
-0.11317429 -0.075185716 0.83100003
-0.12224159 -0.071548894 0.83166671
-0.11736541 -0.073221594 0.83266681
-0.11199073 -0.071950719 0.83250004
-0.12630858 -0.066915244 0.83150005
-0.12336335 -0.068623334 0.83300006
-0.13121812 -0.061516516 0.83166671
-0.12844239 -0.06263572 0.8325001
-0.16898002 -0.057913337 0.83300006
-0.16311106 -0.058173526 0.83220005
-0.1408743 -0.056191433 0.83100003
-0.13713621 -0.057073653 0.83233333
-0.13280287 -0.059067622 0.8325001
-0.14579716 -0.052297149 0.83200002
-0.14245851 -0.053300429 0.83255565
-0.15732859 -0.046421144 0.8318001
-0.15242915 -0.045744576 0.83100003
-0.14777859 -0.048136432 0.83200008
-0.15311335 -0.043633334 0.83300006
-0.14994001 -0.043633334 0.83300006
-0.12008096 -0.070776194 0.83500004
-0.1172181 -0.071412385 0.83500004
-0.12187024 -0.06699881 0.83500004
-0.11699377 -0.067648366 0.83566666
-0.11212858 -0.067595236 0.83500004
-0.10894763 -0.067595243 0.83500004
-0.12627748 -0.06234318 0.83566666
-0.12225182 -0.063118294 0.83680004
-0.11728501 -0.063229054 0.83774996
-0.11242742 -0.062988892 0.83722222
-0.10920858 -0.062971756 0.83700007
-0.17019716 -0.055933338 0.83900005
-0.1672 -0.057323813 0.83599997
-0.16461429 -0.056461908 0.83500004
-0.13232699 -0.056748893 0.83533335
-0.12770052 -0.057551943 0.83700001
-0.12243524 -0.059421912 0.83749998
-0.1190581 -0.059928574 0.83900005
-0.11266573 -0.059928577 0.83900011
-0.10946953 -0.059928574 0.83900005
-0.16650288 -0.052306671 0.83850002
-0.16312145 -0.052516196 0.8355
-0.14195001 -0.05089524 0.83500004
-0.13763082 -0.052505717 0.83533335
-0.13272814 -0.052170627 0.83684617
-0.12907588 -0.052960958 0.83833337
-0.1622624 -0.046901911 0.83825004
-0.14664701 -0.046406992 0.83533335
-0.14257494 -0.046992704 0.83633333
-0.13778421 -0.046937913 0.83820009
-0.13356821 -0.048033722 0.83780003
-0.16088477 -0.043345086 0.83766669
-0.15709619 -0.042010002 0.83625001
-0.1520724 -0.041400954 0.83599997
-0.14758167 -0.042421192 0.83650005
-0.14274478 -0.043062538 0.83733338
-0.13743621 -0.043947622 0.83900005
-0.15602715 -0.0379081 0.83800006
-0.15249684 -0.03752413 0.83833343
-0.14942192 -0.038354289 0.83900005
-0.11720604 -0.060605399 0.84100002
-0.12574953 -0.055265717 0.84100002
-0.12245382 -0.05671715 0.84175003
-0.11820886 -0.057441778 0.84271425
-0.11336286 -0.057882864 0.84180003
-0.10973048 -0.058469526 0.84100002
-0.16739906 -0.051260956 0.84100002
-0.12718478 -0.052102543 0.8416667
-0.12323859 -0.053390004 0.84300005
-0.1669943 -0.04897429 0.84300005
-0.13177906 -0.046777152 0.84200001
-0.12885858 -0.047770005 0.84300005
-0.14657429 -0.040848576 0.84100002
-0.14215563 -0.041188385 0.84140009
-0.13712573 -0.041698098 0.84200013
-0.13367572 -0.042952858 0.84300005
-0.15778764 -0.037644763 0.84100002
-0.14722361 -0.037317783 0.8416667
-0.14239238 -0.037885528 0.84280008
-0.13774736 -0.037963681 0.84300005
-0.11669048 -0.055528574 0.84500003
-0.11154001 -0.05617239 0.84500009
-0.10864286 -0.056333337 0.84500003
-0.12634763 -0.050700005 0.84500003
-0.12239477 -0.051266514 0.84549999
-0.11765061 -0.053183932 0.84612513
-0.11266287 -0.053706668 0.84800005
-0.16798478 -0.047649525 0.84800005
-0.12642466 -0.047384407 0.84687513
-0.12302732 -0.04872635 0.84800005
-0.13152114 -0.042140163 0.84550011
-0.12845159 -0.043264605 0.84650004
-0.16071621 -0.039573334 0.84800005
-0.11738097 -0.051000006 0.85000008
-0.1129862 -0.052023336 0.85350007
-0.16877715 -0.046251431 0.85200006
-0.12169842 -0.047222227 0.85000002
-0.11759451 -0.047848046 0.85155565
-0.11459049 -0.047947939 0.85333341
-0.12618287 -0.042600382 0.85039997
-0.11194858 -0.051480003 0.85800004
-0.11297572 -0.04853572 0.85650003
