# .PCD v0.7 - Point Cloud Data file format
VERSION 0.7
FIELDS x y z rgb
SIZE 4 4 4 4
TYPE F F F F
COUNT 1 1 1 1
WIDTH 429
HEIGHT 1
VIEWPOINT 0 0 0 1 0 0 0
POINTS 429
DATA ascii
0.071914285 -0.19576667 0.83900005 2.1752981e-38
0.10147905 -0.19576667 0.83900005 2.2207489e-38
0.071647942 -0.19363588 0.83900011 1.9899007e-38
0.078040324 -0.19310319 0.83900011 1.9158648e-38
0.080703817 -0.19416858 0.83900005 1.8703063e-38
0.097803436 -0.19225088 0.83900017 1.9899409e-38
0.10307715 -0.19257048 0.83900011 2.0732376e-38
0.11426382 -0.19097239 0.83900005 2.05444e-38
0.11586192 -0.19097239 0.83900005 1.8711334e-38
0.098602489 -0.18873508 0.83900005 1.8237247e-38
0.10307716 -0.18857525 0.83900011 1.8604946e-38
0.069045722 -0.20151715 0.84300005 2.0735602e-38
0.073060006 -0.20215945 0.84300005 2.1928021e-38
0.077074289 -0.20151715 0.84300005 2.1464187e-38
0.064877145 -0.1986362 0.84100002 1.7693173e-38
0.068117358 -0.19794066 0.84144443 2.1106541e-38
0.073115513 -0.19829294 0.84100002 2.266883e-38
0.077753983 -0.19799334 0.8416667 2.2486962e-38
0.082607523 -0.1980979 0.84211111 2.2023803e-38
0.08741916 -0.19809791 0.84211111 2.1379978e-38
0.092045724 -0.19793002 0.84224999 2.0647827e-38
0.097030483 -0.19726954 0.84200001 2.1194877e-38
0.1018661 -0.19747677 0.84219998 2.119337e-38
0.10751906 -0.19738621 0.84249997 2.0826727e-38
0.11273525 -0.19698477 0.84250009 2.312982e-38
0.068434104 -0.19231886 0.84139997 1.8334909e-38
0.073300429 -0.19175608 0.8416667 1.8418436e-38
0.077575989 -0.19193408 0.8416667 1.8327713e-38
0.08269725 -0.19213326 0.84154558 1.7502302e-38
0.087355725 -0.19234143 0.84149998 1.8793058e-38
0.091970861 -0.19275431 0.84120005 1.9715392e-38
0.096114293 -0.19463144 0.84100002 2.3407172e-38
0.10812858 -0.19302952 0.84100002 2.1287324e-38
0.11273405 -0.19322978 0.84100002 2.2025253e-38
0.069045715 -0.18706572 0.84300005 1.8605665e-38
0.072601236 -0.18729512 0.84300005 1.8696425e-38
0.078680009 -0.18867144 0.84300005 1.8603149e-38
0.08108858 -0.18867144 0.84300005 1.832693e-38
0.087912865 -0.18827 0.84300005 1.7141738e-38
0.092692398 -0.18847853 0.84214294 1.7778806e-38
0.096830241 -0.18724336 0.84200001 1.8328729e-38
0.10228232 -0.18612395 0.84185719 1.8514202e-38
0.1080206 -0.18747616 0.84207708 1.8972659e-38
0.11302349 -0.1875705 0.8416667 1.8054343e-38
0.11682463 -0.18707962 0.84100002 1.6504083e-38
0.068242863 -0.1838543 0.84300005 1.8789715e-38
0.10999144 -0.1838543 0.84300005 1.8698226e-38
0.11320286 -0.18224858 0.84299999 1.5291826e-38
0.11698508 -0.18188766 0.84133339 1.6412966e-38
0.11480858 -0.17903715 0.84300005 1.6685216e-38
0.11641429 -0.17823429 0.84300005 1.7149435e-38
0.063801907 -0.20594287 0.84800005 1.5119694e-38
0.066874288 -0.20545715 0.84600008 1.9357373e-38
0.071623817 -0.20521431 0.84500003 2.340241e-38
0.076585241 -0.20557858 0.84650004 2.3308066e-38
0.063576192 -0.20199525 0.84500003 1.5488105e-38
0.066473342 -0.20296097 0.84500009 1.8523693e-38
0.071623817 -0.20360477 0.84500003 2.2482612e-38
0.078464299 -0.20320238 0.84500003 2.2020573e-38
0.082627438 -0.20278363 0.84560007 2.1099334e-38
0.087824762 -0.20223431 0.84600008 1.9903374e-38
0.094157152 -0.20038573 0.84500003 2.0367975e-38
0.097376198 -0.20038573 0.84500003 2.0727771e-38
0.10220477 -0.20038573 0.84500003 2.1187671e-38
0.1075084 -0.2013164 0.84619999 2.1925224e-38
0.11225905 -0.20109718 0.84800005 2.2846428e-38
0.11548954 -0.20109716 0.84800005 2.2379719e-38
0.11347143 -0.1987762 0.84500003 2.2764639e-38
0.11508096 -0.1987762 0.84500003 2.2111031e-38
0.074842863 -0.18670478 0.84500003 1.8789341e-38
0.077831984 -0.18704969 0.84500015 1.8880812e-38
0.083165959 -0.18747334 0.84575009 1.7962525e-38
0.08745829 -0.18667583 0.84560007 1.2075774e-38
0.092145249 -0.18630241 0.84500003 1.5207098e-38
0.095766671 -0.18590002 0.84500003 1.8972658e-38
0.068526193 -0.18219763 0.84650004 1.8881557e-38
0.072048001 -0.18309964 0.84620017 1.8697895e-38
0.077531442 -0.18413717 0.84800005 1.8973391e-38
0.083184764 -0.18494478 0.84800005 1.6026851e-38
0.08803048 -0.18494479 0.84800005 8.2857951e-39
0.092820488 -0.18402812 0.84750003 1.5291396e-38
0.097804502 -0.18351063 0.84671432 1.8788259e-38
0.1023862 -0.18381003 0.8465001 1.8513468e-38
0.10751769 -0.18271643 0.84600002 1.9156357e-38
0.11038287 -0.18128383 0.84600008 1.6756472e-38
0.11276595 -0.17881501 0.84575003 1.2253383e-38
0.11508096 -0.17704764 0.84500003 1.7428163e-38
0.072386675 -0.21553335 0.85400003 2.2938904e-38
0.078708574 -0.21502858 0.85200006 2.2850304e-38
0.083577149 -0.21502858 0.85200006 2.2299646e-38
0.086113334 -0.21528096 0.85300004 2.2300691e-38
0.067739055 -0.21181527 0.85400003 2.1011805e-38
0.072348155 -0.21216995 0.85355562 2.2939933e-38
0.076905645 -0.21228121 0.85163647 2.2390041e-38
0.081772126 -0.21228123 0.85163647 2.2569407e-38
0.087026671 -0.21228001 0.85400003 2.2758825e-38
0.091906667 -0.21065335 0.85400003 2.2944329e-38
0.096786678 -0.21106002 0.85400003 2.3409596e-38
0.10311261 -0.21191855 0.85400003 2.3409987e-38
0.10763111 -0.21200889 0.85400003 2.3323629e-38
0.11337868 -0.21130402 0.85400003 2.248798e-38
0.11630668 -0.21065335 0.85400003 1.9529511e-38
0.067297153 -0.20837399 0.85133338 1.981402e-38
0.072159372 -0.20837399 0.85133338 2.3404568e-38
0.076904766 -0.20764287 0.85000002 2.3309141e-38
0.081858113 -0.20748286 0.85100007 2.3036505e-38
0.086824134 -0.20772636 0.85200012 2.3126549e-38
0.092484452 -0.20725781 0.8526668 2.2945752e-38
0.097717464 -0.20707747 0.8526668 2.2947905e-38
0.10282286 -0.2072724 0.85280007 2.3131614e-38
0.10800444 -0.20707746 0.8526668 2.3316754e-38
0.11299492 -0.20729291 0.85355562 2.2946819e-38
0.11630668 -0.20740002 0.85400003 2.0725549e-38
0.087428577 -0.20480953 0.85000002 2.1746856e-38
0.093095243 -0.20359525 0.85000002 2.0555172e-38
0.097952388 -0.20319049 0.85000008 2.0923248e-38
0.10280953 -0.20319049 0.85000008 2.1750491e-38
0.10604762 -0.20319049 0.85000002 2.2298631e-38
0.11252382 -0.20319049 0.85000008 2.3221994e-38
0.11576191 -0.20319049 0.85000002 2.2658431e-38
0.08338096 -0.18538097 0.85000002 1.8236643e-38
0.068000004 -0.18052383 0.85000002 1.8974128e-38
0.072047621 -0.18052384 0.85000008 1.8514593e-38
0.076965719 -0.18147492 0.85066676 1.8881559e-38
0.081847832 -0.18233208 0.85088891 1.8325873e-38
0.087263383 -0.1824059 0.85054559 8.834922e-39
0.092756741 -0.18146044 0.851143 1.4083925e-38
0.097766869 -0.18142632 0.85120004 1.915812e-38
0.10293048 -0.18154573 0.85100007 1.8788622e-38
0.10667048 -0.18120509 0.8506667 1.888264e-38
0.067925721 -0.17776738 0.85342866 1.861044e-38
0.072077386 -0.1780612 0.85275012 1.7595221e-38
0.077146672 -0.17865334 0.8526668 1.9158848e-38
0.08229661 -0.17840438 0.85314298 1.9157789e-38
0.086924776 -0.17872286 0.8530001 1.6480269e-38
0.092308849 -0.17892928 0.85342866 1.2701715e-38
0.097484767 -0.17872289 0.85300004 1.8329093e-38
0.10263017 -0.17872289 0.8530001 1.8881903e-38
0.10803175 -0.17788658 0.852889 1.8513905e-38
0.11244328 -0.17705987 0.85114294 1.2153967e-38
0.066693336 -0.17486668 0.85400003 1.6317113e-38
0.10980001 -0.17486668 0.85400003 1.1685463e-38
0.11305334 -0.17486668 0.85400003 1.2986989e-38
0.088860959 -0.21603811 0.85600007 2.2395025e-38
0.090702862 -0.21654287 0.85800004 2.2585867e-38
0.098057151 -0.21654287 0.85800004 2.2024422e-38
0.10050858 -0.21654287 0.85800004 2.1287603e-38
0.092183955 -0.21338615 0.8565715 2.322088e-38
0.097013339 -0.21375544 0.85600007 2.3406694e-38
0.10081779 -0.21386415 0.85600013 2.3407372e-38
0.10842668 -0.21277715 0.85600007 2.3417687e-38
0.11087239 -0.21277715 0.85600007 2.3414362e-38
0.063860327 -0.17581969 0.85600013 1.750591e-38
0.067664765 -0.17690668 0.85600007 1.5660261e-38
0.072963819 -0.17568383 0.85600007 1.2446027e-38
0.077478416 -0.17615971 0.85633337 1.7605606e-38
0.082012959 -0.1759284 0.85600007 1.8150154e-38
0.087299064 -0.17622796 0.85666674 1.8793321e-38
0.09222953 -0.1762962 0.85700005 1.6936156e-38
0.097163819 -0.17636511 0.85733336 1.860677e-38
0.10223974 -0.17661634 0.85685718 1.9526543e-38
0.10638858 -0.17568383 0.85600007 1.8330936e-38
0.063737147 -0.17405143 0.85800004 1.7693192e-38
0.067433529 -0.17323545 0.85720009 1.3176105e-38
0.072331816 -0.17323545 0.85720009 1.5578127e-38
0.077175714 -0.17354143 0.85750002 1.3922611e-38
0.082531437 -0.17405145 0.85800004 1.4469313e-38
0.086617149 -0.17405143 0.85800004 1.6773388e-38
0.10739097 -0.17354143 0.85750008 1.4272652e-38
0.11258115 -0.17246114 0.85659999 1.234555e-38
0.11521715 -0.17078286 0.85800004 1.4757399e-38
0.093480006 -0.21812096 0.86100006 2.2019435e-38
0.095940009 -0.21812096 0.86100006 2.1836472e-38
0.063885719 -0.17200002 0.86000001 1.8061242e-38
0.068390481 -0.17159049 0.86000001 1.4664835e-38
0.073304765 -0.17159049 0.86000001 1.4658727e-38
0.078137152 -0.17183621 0.86000007 1.0982091e-38
0.082723811 -0.17200002 0.86000007 1.0702302e-38
0.087872125 -0.17235105 0.86000013 1.2821283e-38
0.092552386 -0.17281906 0.86000007 1.0699357e-38
0.097492285 -0.17286327 0.86022228 1.1793827e-38
0.10243429 -0.17290755 0.86044455 1.4476105e-38
0.10696762 -0.17183621 0.86000007 1.2720078e-38
0.11057144 -0.17118096 0.86000001 1.106264e-38
0.063541725 -0.16928039 0.86200011 1.8337413e-38
0.068139061 -0.1691162 0.86200011 1.4932468e-38
0.073036514 -0.16905048 0.86166668 1.7141154e-38
0.077960953 -0.1690505 0.86166668 9.778548e-39
0.083244585 -0.16928039 0.86200011 1.2357849e-38
0.087841913 -0.16876438 0.86200011 1.3361158e-38
0.092767626 -0.1691162 0.86200011 1.3277226e-38
0.097364955 -0.16928039 0.86200011 1.3650692e-38
0.10261905 -0.16993716 0.86200011 1.1615282e-38
0.10774314 -0.16870804 0.86171442 1.1064529e-38
0.11229651 -0.16803367 0.86066669 1.4009376e-38
0.11548572 -0.16790478 0.86000001 1.4387504e-38
0.061948437 -0.16720124 0.86728579 1.6862283e-38
0.066830799 -0.16666478 0.86633343 1.7137168e-38
0.07221321 -0.16669132 0.86585724 1.4841323e-38
0.077050105 -0.16647449 0.86620009 1.8803117e-38
0.082086436 -0.16706169 0.8662501 1.8887446e-38
0.087664455 -0.16626257 0.86566681 1.980681e-38
0.09309049 -0.16640954 0.86500013 1.8709476e-38
0.098334022 -0.16687198 0.86557156 1.7416278e-38
0.10313451 -0.16748942 0.86633343 1.1612741e-38
0.10768858 -0.16639791 0.86580008 1.1152808e-38
0.11286192 -0.16558573 0.86500013 1.437636e-38
0.067019582 -0.16299887 0.86877775 1.9620231e-38
0.071947619 -0.1629146 0.86833334 1.7315781e-38
0.076707348 -0.16345976 0.86871433 1.7585546e-38
0.081934296 -0.1646962 0.86900008 1.9807893e-38
0.087262861 -0.16418764 0.86849999 1.9527671e-38
0.092666142 -0.16338257 0.86788893 1.8148762e-38
0.097208306 -0.1626426 0.8681429 1.713605e-38
0.10156069 -0.1635139 0.86900008 1.4271548e-38
0.10728647 -0.16336669 0.86877775 1.3174574e-38
0.11219335 -0.16291462 0.8683334 1.363808e-38
0.11503906 -0.16221336 0.86900002 8.9408601e-39
0.06703715 -0.15973049 0.86900008 1.952546e-38
0.071175247 -0.15973049 0.86900002 1.8512029e-38
0.11503906 -0.15973049 0.86900002 9.7683423e-39
0.063115239 -0.16526477 0.87200004 1.7138504e-38
0.063494287 -0.16143429 0.87150007 1.7779936e-38
0.073827624 -0.16009811 0.87100005 1.7591164e-38
0.077477537 -0.16076171 0.87100011 1.5467132e-38
0.082207106 -0.16192098 0.871889 1.5197064e-38
0.086976744 -0.16196832 0.87214297 1.4733933e-38
0.091786861 -0.16083525 0.87140006 1.528428e-38
0.097054295 -0.16009811 0.87100005 1.444166e-38
0.10236325 -0.16076173 0.87100011 1.1879495e-38
0.10659382 -0.16051286 0.87100005 1.2993031e-38
0.11198573 -0.16009811 0.87100005 1.2716083e-38
0.063188575 -0.15880287 0.87300003 1.7689887e-38
0.067645714 -0.1581143 0.87150007 1.9525113e-38
0.071794286 -0.1581143 0.87150002 1.9617691e-38
0.077265084 -0.1586816 0.87233341 1.9895668e-38
0.092288576 -0.15880287 0.87300003 1.9250754e-38
0.097202867 -0.1586816 0.87233341 1.4082502e-38
0.10143429 -0.15880287 0.87300003 1.1972431e-38
0.1072543 -0.15880287 0.87300003 1.2992303e-38
0.11257543 -0.15813772 0.87300009 1.2532436e-38
0.062500007 -0.16333334 0.87500006 1.6493186e-38
0.087500006 -0.16083334 0.87500006 1.6295557e-38
0.064386673 -0.15804002 0.87800002 1.8424524e-38
0.06730324 -0.15682173 0.87680006 1.9433981e-38
0.072884195 -0.15660688 0.87560004 1.9250698e-38
0.077678099 -0.15702383 0.87700003 1.9343583e-38
0.082688577 -0.15785812 0.87700009 1.9526569e-38
0.087632693 -0.15773812 0.87633336 1.9802099e-38
0.092500001 -0.1566667 0.87500012 1.8888759e-38
0.097556673 -0.15675573 0.87550008 1.2063864e-38
0.10288873 -0.15725282 0.87628573 1.27121e-38
0.1076843 -0.15693383 0.87650001 1.2712468e-38
0.11217834 -0.15638357 0.87575006 1.2255508e-38
0.06884636 -0.15413779 0.87800002 1.9435047e-38
0.072748572 -0.15385906 0.87800014 1.9343214e-38
0.077765726 -0.15469524 0.87800002 1.934393e-38
0.083897792 -0.15413779 0.87800002 1.9434706e-38
0.087800011 -0.15302287 0.87800014 1.9624909e-38
0.092640325 -0.15273049 0.87633336 1.3815563e-38
0.09754239 -0.15309978 0.87725008 1.1784822e-38
0.10243334 -0.15427715 0.87800002 1.3263839e-38
0.10786858 -0.15469524 0.87800002 1.243621e-38
0.11278787 -0.15414502 0.87725002 1.1520473e-38
0.093653336 -0.14967811 0.87800002 1.1880183e-38
0.059640005 -0.16632001 0.88200003 1.5307636e-38
0.061250478 -0.16613048 0.88100004 1.5855367e-38
0.059504766 -0.1609143 0.88000005 1.5949061e-38
0.061227307 -0.16187367 0.88066673 1.6315682e-38
0.063254923 -0.15702192 0.88166678 1.7689883e-38
0.066209525 -0.15504763 0.88000005 1.9803118e-38
0.081295244 -0.15504763 0.88000005 1.9435417e-38
0.064094476 -0.15258287 0.88320011 1.8886217e-38
0.067694999 -0.15152834 0.8802501 1.9527248e-38
0.072914287 -0.15085715 0.88000005 1.9160265e-38
0.077942863 -0.15169525 0.88000005 1.952833e-38
0.082761914 -0.15148573 0.88000005 1.9804925e-38
0.088000014 -0.15001908 0.88000005 1.7878598e-38
0.091352388 -0.15001906 0.88000005 1.3444957e-38
0.098476201 -0.1504381 0.88000005 1.262101e-38
0.10308572 -0.15169525 0.88000011 1.3080537e-38
0.1076362 -0.1518089 0.88066667 1.2068163e-38
0.11117334 -0.15144667 0.88100004 1.1149517e-38
0.064826667 -0.14901716 0.88400006 1.9529755e-38
0.068142869 -0.14722097 0.88333333 1.9619466e-38
0.073154069 -0.1471469 0.88288891 1.952868e-38
0.078217998 -0.14718394 0.88311112 1.9713451e-38
0.083043337 -0.14737573 0.88300002 1.9995103e-38
0.087638736 -0.14699748 0.88199997 1.6401354e-38
0.092757829 -0.14747839 0.88200009 1.3174487e-38
0.097926274 -0.14742942 0.88314295 1.2529856e-38
0.10179304 -0.1475016 0.88333338 1.2345114e-38
0.10685334 -0.14771812 0.88342863 1.2156404e-38
0.067352384 -0.14396572 0.88400006 1.9436879e-38
0.063357145 -0.15121239 0.88700002 1.9620925e-38
0.063076675 -0.14859001 0.88900006 1.9161397e-38
0.065046668 -0.14698859 0.88700002 1.9436842e-38
0.092923813 -0.14614382 0.88700002 1.354363e-38
0.095458105 -0.14614382 0.88700002 1.2899716e-38
0.10306096 -0.14614382 0.88700002 1.1884485e-38
0.10728477 -0.14614382 0.88700002 1.1790154e-38
0.11150858 -0.14783335 0.88700002 1.1606169e-38
0.066810161 -0.14264414 0.88800001 1.9254648e-38
0.071858741 -0.1428708 0.8876667 1.9712417e-38
0.076988898 -0.1429781 0.88833332 1.9992932e-38
0.082044132 -0.14294234 0.88811117 1.9354848e-38
0.087119482 -0.14294234 0.88811111 1.5670663e-38
0.092023581 -0.14321691 0.88849998 1.3453268e-38
0.097514704 -0.1434309 0.88814288 1.206891e-38
0.10236025 -0.1431762 0.88824999 1.1420685e-38
0.10728476 -0.14276478 0.88700002 1.1423932e-38
0.1116762 -0.14297812 0.88833332 1.1149165e-38
0.068580002 -0.13970001 0.88900006 1.9534493e-38
0.07196667 -0.13970003 0.88900012 1.9901123e-38
0.078740008 -0.13970001 0.88900006 2.0463204e-38
0.082126677 -0.13970001 0.88900006 1.8806345e-38
0.10837334 -0.13970001 0.88900006 1.2618859e-38
0.11204223 -0.13913557 0.88900012 1.1611584e-38
0.060814291 -0.15132859 0.89100003 1.787684e-38
0.062028002 -0.1470006 0.89220011 1.8520017e-38
0.063218102 -0.14316288 0.89300007 1.9436894e-38
0.065979056 -0.14073716 0.89200008 1.9437581e-38
0.076371431 -0.14001429 0.89100003 2.054399e-38
0.082311437 -0.14001429 0.89100003 1.8803871e-38
0.087402865 -0.14001429 0.89100003 1.5392272e-38
0.092997864 -0.14055642 0.89175004 1.2527392e-38
0.097376578 -0.14088172 0.89220011 1.1698348e-38
0.10276358 -0.14055644 0.89175004 1.0868597e-38
0.10607143 -0.14001429 0.89100003 1.1604747e-38
0.067688577 -0.13835715 0.89400005 1.9809269e-38
0.072301231 -0.1374335 0.89314288 1.9722516e-38
0.077437624 -0.13785383 0.89350003 2.0462237e-38
0.082588583 -0.13878286 0.89400005 1.8526218e-38
0.10832572 -0.13791543 0.89280003 1.317924e-38
0.11135001 -0.13769859 0.89250004 1.2260564e-38
0.058880005 -0.15189335 0.89600003 1.3558824e-38
0.058967628 -0.14784509 0.89733338 1.4204553e-38
0.060586672 -0.14677334 0.89600003 1.7879006e-38
0.058967628 -0.14272001 0.89733338 1.595158e-38
0.061770163 -0.14204319 0.89666671 1.8887682e-38
0.058156192 -0.13940382 0.89800006 1.5673904e-38
0.062954925 -0.13816065 0.89733338 1.9532299e-38
0.067072004 -0.13636269 0.89600003 2.0272036e-38
0.072533339 -0.13568 0.89600003 1.9727242e-38
0.077653348 -0.13568 0.89600009 2.0095646e-38
0.082804769 -0.13658383 0.8963334 1.8440162e-38
0.088024132 -0.13758986 0.89733344 1.511641e-38
0.093151748 -0.13758986 0.89733338 1.206423e-38
0.097974293 -0.13767573 0.89650005 1.0961464e-38
0.10295697 -0.13727657 0.89639997 1.0683846e-38
0.10723557 -0.1362489 0.89600009 1.2532392e-38
0.11093333 -0.13568 0.89600003 1.3189692e-38
0.06414286 -0.1342724 0.89800006 1.9712025e-38
0.067786127 -0.13300791 0.89771438 1.9076481e-38
0.072641276 -0.13246223 0.89733338 1.770658e-38
0.0777689 -0.13246223 0.89733344 1.9821592e-38
0.082357787 -0.13308224 0.89766669 1.834871e-38
0.088089526 -0.1342724 0.89800012 1.5027233e-38
0.093220964 -0.1342724 0.89800012 1.1594655e-38
0.097782239 -0.13370225 0.89800012 1.1517175e-38
0.10198714 -0.13277572 0.89800012 1.1142287e-38
0.10690476 -0.13256192 0.89800006 1.1605813e-38
0.11032572 -0.13256192 0.89800012 1.2818393e-38
0.071840003 -0.12914096 0.89800006 1.6696387e-38
0.057492387 -0.15016668 0.90100002 1.1064535e-38
0.057556197 -0.14603905 0.90200007 1.1248574e-38
0.059252389 -0.13653684 0.90166676 1.7417617e-38
0.061387625 -0.13651191 0.90150005 1.943834e-38
0.063569531 -0.13315144 0.90200007 1.9713503e-38
0.066931427 -0.13128857 0.90100002 1.9074685e-38
0.084379368 -0.13186064 0.90100002 1.8255496e-38
0.087525725 -0.13214667 0.90100002 1.5676516e-38
0.091816202 -0.13214669 0.90100002 1.1417106e-38
0.096621536 -0.13197505 0.90100002 1.2728009e-38
0.10039715 -0.13128857 0.90100002 1.1602842e-38
0.064500004 -0.12986001 0.90300006 2.0540767e-38
0.068099193 -0.12846763 0.90185726 1.7514632e-38
0.073252656 -0.12748587 0.90185726 1.733313e-38
0.078182548 -0.1280126 0.90211117 1.6782507e-38
0.082422383 -0.12878525 0.90150005 1.6139692e-38
0.086827308 -0.12895207 0.90266675 1.4849316e-38
0.091676012 -0.12917201 0.90300006 1.2823836e-38
0.097180009 -0.12986001 0.90300006 1.3922937e-38
0.10259258 -0.12905696 0.90220004 1.1323045e-38
0.10738096 -0.12885621 0.90200013 1.1331035e-38
0.071380004 -0.12470001 0.90300006 1.7794096e-38
0.057747621 -0.13531905 0.90500003 1.5760282e-38
0.058377694 -0.13193499 0.90714294 1.6957382e-38
0.061884768 -0.13152668 0.90500003 1.9897878e-38
0.058186129 -0.12712 0.90800011 1.7321827e-38
0.062831789 -0.12717727 0.90687507 2.0171221e-38
0.067228578 -0.12670001 0.90500003 1.6321122e-38
0.082742862 -0.12670001 0.90500003 1.6603896e-38
0.086821906 -0.12617621 0.90620005 1.4838847e-38
0.092654772 -0.12713097 0.90500003 1.3653288e-38
0.097692147 -0.12701905 0.9057501 1.2435944e-38
0.10210446 -0.12655079 0.90600008 1.1321282e-38
0.10791668 -0.12604526 0.90650004 1.2071465e-38
0.059668574 -0.12366096 0.90800005 1.9256093e-38
0.064244926 -0.12272716 0.90750003 1.9713187e-38
0.068014808 -0.12277102 0.90609103 1.7053295e-38
0.073013164 -0.12226374 0.90581828 1.6966898e-38
0.077426039 -0.12232509 0.90666676 1.687616e-38
0.082061909 -0.12352286 0.90700012 1.6044597e-38
0.087545998 -0.12310763 0.90757155 1.3919382e-38
0.092427626 -0.12352286 0.90700001 1.3361926e-38
0.096962862 -0.12357811 0.90740007 1.3456941e-38
0.10310437 -0.12310763 0.90757149 1.2716849e-38
0.10809524 -0.12322858 0.90800005 1.2994861e-38
0.057200003 -0.12740001 0.91000003 1.631096e-38
0.058120552 -0.12181824 0.91085726 1.7599518e-38
0.061966669 -0.12176668 0.91000003 1.8794799e-38
0.082333341 -0.12046667 0.91000003 1.5858706e-38
0.08753334 -0.12046667 0.91000003 1.3361141e-38
0.092733346 -0.12046667 0.91000003 1.0863938e-38
0.098280005 -0.12116001 0.91000003 1.1231334e-38
0.10313334 -0.12046667 0.91000003 9.4849969e-39
0.10717779 -0.12104445 0.91000003 1.0413429e-38
0.11064445 -0.12104445 0.91000003 1.4289539e-38
0.063475244 -0.11912477 0.91300005 1.8979248e-38
0.067256004 -0.11835086 0.91240007 1.9439842e-38
0.071776383 -0.11835086 0.91240007 1.9162944e-38
0.07695286 -0.11869001 0.91300005 1.8070666e-38
0.082604766 -0.11912477 0.91300005 1.7326243e-38
0.086952388 -0.11912477 0.91300005 1.2710019e-38
0.094778098 -0.11912477 0.91300005 1.1597103e-38
0.10289367 -0.11854509 0.91300005 9.6707671e-39
0.10695144 -0.11825525 0.91300005 1.0413373e-38
0.11006667 -0.11786667 0.91000003 1.4289541e-38
