# .PCD v0.7 - Point Cloud Data file format
VERSION 0.7
FIELDS x y z
SIZE 4 4 4
TYPE F F F
COUNT 1 1 1
WIDTH 580
HEIGHT 1
VIEWPOINT 0 0 0 1 0 0 0
POINTS 580
DATA ascii
-0.16018286 -0.1250743 0.76800001
-0.15798858 -0.1250743 0.76800001
-0.16203363 -0.12233511 0.76785719
-0.15752728 -0.12181422 0.76672739
-0.15345374 -0.12185601 0.76800007
-0.16282023 -0.11750072 0.76750004
-0.15769708 -0.11754199 0.76658344
-0.15302633 -0.11792346 0.76787508
-0.16680714 -0.11424572 0.76650006
-0.16216382 -0.11322286 0.76700008
-0.1570487 -0.11353561 0.76787508
-0.15433145 -0.11410287 0.76800001
-0.16673468 -0.12641238 0.77260005
-0.16256644 -0.12729906 0.77149999
-0.15749966 -0.12754442 0.77187508
-0.15262131 -0.12654346 0.771375
-0.14738873 -0.12680042 0.77214295
-0.14276488 -0.12701742 0.77270007
-0.13914001 -0.12588859 0.77300006
-0.12662476 -0.12736095 0.77300006
-0.16774336 -0.1228643 0.77250004
-0.16500001 -0.12246668 0.7700001
-0.1515905 -0.1226762 0.7700001
-0.14752677 -0.12257312 0.77066666
-0.1432064 -0.12304334 0.77270013
-0.13914001 -0.1244162 0.77300006
-0.17131048 -0.11837334 0.77200001
-0.16791077 -0.1177796 0.77085716
-0.16500001 -0.11953334 0.77000004
-0.15117145 -0.11660001 0.7700001
-0.14718349 -0.1174956 0.77107155
-0.14419952 -0.11992144 0.77250004
-0.16756669 -0.11256667 0.77000004
-0.16280001 -0.11073334 0.77000004
-0.15803334 -0.1111 0.77000004
-0.1524047 -0.11211897 0.77036363
-0.1482724 -0.11298096 0.77200007
-0.16605479 -0.10874334 0.77150005
-0.16255726 -0.10834308 0.77155554
-0.15756485 -0.10766853 0.77207154
-0.15344596 -0.10855263 0.77275002
-0.17190096 -0.13188858 0.77800006
-0.16798002 -0.13172001 0.77700007
-0.16258907 -0.13155144 0.77600002
-0.15775298 -0.13143715 0.7762
-0.15207621 -0.131587 0.77766675
-0.14726129 -0.13172129 0.77700007
-0.14252363 -0.13261029 0.77700001
-0.137566 -0.13245049 0.77772731
-0.13342857 -0.13268858 0.77833337
-0.17153274 -0.12791143 0.77633333
-0.16791667 -0.12879764 0.77500004
-0.1557381 -0.12916668 0.77500004
-0.15204763 -0.12916668 0.77500004
-0.14835715 -0.12916669 0.77500004
-0.14097621 -0.12916668 0.77500004
-0.13694574 -0.12759432 0.77516669
-0.13247238 -0.12759261 0.7762
-0.1281831 -0.126335 0.77575004
-0.17135939 -0.12327778 0.77666676
-0.16902383 -0.12030953 0.77500004
-0.14134525 -0.12141667 0.77500004
-0.13743566 -0.12234166 0.77585721
-0.13242298 -0.12304963 0.7767778
-0.12802 -0.12210001 0.77700001
-0.14540477 -0.11588096 0.77500004
-0.14257494 -0.11745683 0.77566671
-0.1381743 -0.1179544 0.7767778
-0.15060668 -0.11054382 0.77900004
-0.14688723 -0.11224831 0.7761429
-0.14286335 -0.11395763 0.7782501
-0.16586381 -0.10622128 0.77633333
-0.16311906 -0.1060397 0.77500004
-0.1564762 -0.10554763 0.77500004
-0.15231228 -0.10759736 0.7767778
-0.16561201 -0.10315601 0.77700001
-0.1618282 -0.10250914 0.7766
-0.15731172 -0.10198151 0.7775715
-0.15362319 -0.10348573 0.77800006
-0.15784027 -0.097375005 0.77900004
-0.14186668 -0.14112002 0.78400004
-0.13836078 -0.14164536 0.78360003
-0.17696002 -0.13589334 0.78400004
-0.17248003 -0.13664001 0.7840001
-0.16714716 -0.13655287 0.78350008
-0.16202667 -0.13626668 0.78400004
-0.15754668 -0.13514668 0.7840001
-0.15209335 -0.13686897 0.78360003
-0.14709143 -0.13739906 0.78300005
-0.14216912 -0.13770434 0.78155565
-0.13741182 -0.13771163 0.78160006
-0.1341424 -0.13749668 0.78250003
-0.1763415 -0.13222887 0.78314292
-0.17204003 -0.13480191 0.78200006
-0.16728699 -0.13457207 0.78066671
-0.16260636 -0.13480191 0.78200006
-0.15619907 -0.13314191 0.78100002
-0.1524159 -0.13407683 0.78066671
-0.14782858 -0.13445716 0.78000009
-0.17546669 -0.12768 0.7840001
-0.17308572 -0.12257144 0.78000003
-0.13222858 -0.12108573 0.78000003
-0.13687783 -0.11645879 0.78171438
-0.13227253 -0.1179041 0.78214288
-0.12873398 -0.11831492 0.78133339
-0.14708573 -0.11068572 0.78000003
-0.14234287 -0.11182857 0.78150004
-0.1391643 -0.11304715 0.78350008
-0.1509289 -0.1063181 0.78066671
-0.14746122 -0.10724406 0.78199995
-0.14373334 -0.10864001 0.78400004
-0.16565715 -0.10028572 0.78000003
-0.16342857 -0.10028572 0.78000003
-0.15163769 -0.10167196 0.7817778
-0.14849097 -0.10334715 0.78350008
-0.16602716 -0.097377621 0.78350008
-0.16265692 -0.097593099 0.78075004
-0.15637143 -0.096942857 0.78000003
-0.15241505 -0.097737335 0.78220004
-0.16576001 -0.094826676 0.78400004
-0.16147923 -0.093486868 0.78280002
-0.1574821 -0.093265727 0.78220004
-0.15393081 -0.094248265 0.78333342
-0.14577717 -0.14502573 0.78900003
-0.18602479 -0.14095873 0.78866673
-0.18238062 -0.14180988 0.78887504
-0.17776255 -0.14095876 0.78866673
-0.17228928 -0.14075929 0.78825003
-0.16742763 -0.14039843 0.78833342
-0.16271774 -0.1407821 0.78880006
-0.15666877 -0.14104705 0.78860009
-0.15242402 -0.14101145 0.78840011
-0.14743184 -0.14233278 0.78740007
-0.14315906 -0.14340985 0.78700006
-0.18610382 -0.13851334 0.78900003
-0.18236722 -0.13733779 0.78800005
-0.17756066 -0.1386032 0.78666675
-0.17306797 -0.1386032 0.78666675
-0.16768001 -0.13848573 0.78600001
-0.1627143 -0.13872066 0.78733343
-0.1577494 -0.13804546 0.78714293
-0.15440097 -0.13791335 0.78700006
-0.14821716 -0.13998286 0.78600001
-0.18146592 -0.13313411 0.78800005
-0.17890859 -0.13174859 0.78600001
-0.1810943 -0.12774286 0.78900003
-0.17821084 -0.12756038 0.78787506
-0.17675202 -0.12298973 0.78840005
-0.13549143 -0.11602858 0.78600001
-0.14090954 -0.11018001 0.78700006
-0.13712077 -0.11230017 0.78754556
-0.13279216 -0.11253357 0.78775012
-0.12937477 -0.11287382 0.78750002
-0.14201228 -0.10707191 0.78730005
-0.137812 -0.10835601 0.78900003
-0.13375428 -0.10895715 0.78900003
-0.14664656 -0.10220298 0.78762507
-0.14324176 -0.10342461 0.78883338
-0.15102857 -0.096313342 0.78700006
-0.14900176 -0.098165564 0.78883338
-0.1654343 -0.093571432 0.78600001
-0.16291858 -0.092132859 0.78650004
-0.1576 -0.090807624 0.78800005
-0.15317512 -0.092720143 0.78785723
-0.1600543 -0.089420006 0.78900003
-0.15700457 -0.087891966 0.78877783
-0.15354192 -0.088919058 0.78900003
-0.18253621 -0.14608066 0.79200006
-0.17446001 -0.14576097 0.79300004
-0.16162096 -0.14576097 0.79300004
-0.15784478 -0.1465162 0.7930001
-0.15323678 -0.14629163 0.79260004
-0.14815557 -0.14639778 0.79100001
-0.18739271 -0.14362699 0.79233336
-0.18230668 -0.14388667 0.79100001
-0.17691031 -0.14342955 0.79180002
-0.1727324 -0.14331524 0.79200006
-0.16786115 -0.1431282 0.79180002
-0.16251472 -0.14334492 0.79157144
-0.15782335 -0.14351 0.79100001
-0.15302335 -0.14360096 0.79149997
-0.14991334 -0.14388667 0.79100001
-0.18682668 -0.13635334 0.79100001
-0.18626079 -0.13347334 0.79180002
-0.18381333 -0.13258669 0.79100001
-0.18230666 -0.12693667 0.79100001
-0.18352287 -0.12461429 0.79300004
-0.13032667 -0.11074001 0.79100001
-0.12806667 -0.11074001 0.79100001
-0.13748336 -0.10659667 0.79100001
-0.13235164 -0.10747906 0.79140002
-0.12842637 -0.10831842 0.79166669
-0.14614668 -0.10019334 0.79100001
-0.1418875 -0.10180913 0.79185718
-0.13758078 -0.10363811 0.79200006
-0.13367715 -0.1049781 0.79300004
-0.14685002 -0.097082876 0.79174995
-0.14274001 -0.0989362 0.7930001
-0.16347334 -0.091153339 0.79100001
-0.15151477 -0.091587625 0.79149997
-0.14884478 -0.093279377 0.79200006
-0.16093905 -0.087443337 0.79149997
-0.15744668 -0.085126683 0.79100007
-0.15227854 -0.08728113 0.79190916
-0.14878191 -0.089873336 0.79300004
-0.16086572 -0.083831437 0.79300004
-0.1572426 -0.082446136 0.79214293
-0.15406859 -0.083831437 0.79300004
-0.1807662 -0.15114525 0.79750001
-0.17685811 -0.15105049 0.79700011
-0.17404 -0.15124001 0.79800004
-0.1607997 -0.15168351 0.79766673
-0.15735596 -0.15128835 0.79625005
-0.15370001 -0.15067144 0.79500002
-0.18161367 -0.14877747 0.79566669
-0.17784916 -0.14798152 0.796
-0.17258468 -0.14799666 0.79689997
-0.16786037 -0.1477568 0.79662502
-0.16335389 -0.14839607 0.79671437
-0.15748572 -0.14915715 0.79500002
-0.15256429 -0.14877857 0.79500002
-0.1711143 -0.14461429 0.79500002
-0.19004287 -0.13098572 0.79500002
-0.18762906 -0.13152905 0.796
-0.19004287 -0.12871429 0.79500002
-0.18723513 -0.12868926 0.79685718
-0.1814124 -0.12524286 0.79700005
-0.18298787 -0.12414215 0.79725003
-0.13174286 -0.10524286 0.79500002
-0.1290381 -0.10550763 0.79700005
-0.18741287 -0.10234619 0.79750001
-0.18444858 -0.10171239 0.79700005
-0.17154478 -0.10095334 0.79700005
-0.14007144 -0.10070001 0.79500002
-0.13674001 -0.10130572 0.79500002
-0.13279589 -0.10244244 0.79677773
-0.12909208 -0.10251366 0.79733336
-0.18760239 -0.098737627 0.79750007
-0.18384318 -0.097998425 0.79766673
-0.1712724 -0.097977623 0.79750007
-0.16948001 -0.095000006 0.79800004
-0.14224835 -0.097274609 0.7958889
-0.13728027 -0.09738607 0.79718184
-0.13328715 -0.097571537 0.79789996
-0.12920001 -0.099560007 0.79800004
-0.16775146 -0.092858098 0.79700005
-0.16430001 -0.090100005 0.79500002
-0.14671323 -0.091932513 0.79612505
-0.14280286 -0.092995115 0.79757142
-0.13851523 -0.093946993 0.79766673
-0.12616001 -0.093480006 0.79800004
-0.16385223 -0.087234765 0.79650009
-0.15086097 -0.086421907 0.796
-0.14754513 -0.08747793 0.7974546
-0.14364001 -0.088160008 0.79800004
-0.16258878 -0.082432196 0.79700011
-0.15748572 -0.081771433 0.79500002
-0.15247382 -0.082598105 0.79750001
-0.14972001 -0.0836 0.79800004
-0.16101921 -0.078230321 0.79750007
-0.15700363 -0.077818103 0.79640001
-0.15367202 -0.077976003 0.79800004
-0.16616002 -0.15544002 0.80400002
-0.16345525 -0.15505335 0.80200005
-0.17157018 -0.15225463 0.80066669
-0.16729026 -0.15204741 0.80025005
-0.16330162 -0.15263495 0.80000007
-0.19018859 -0.12602858 0.80200005
-0.18830812 -0.12655477 0.80049998
-0.18708955 -0.12379049 0.80400008
-0.18277906 -0.12274382 0.80300003
-0.18857144 -0.10628572 0.80000001
-0.17534858 -0.10949715 0.80400002
-0.17381716 -0.10949715 0.80400002
-0.18766001 -0.10451144 0.801
-0.18453716 -0.10337143 0.80400002
-0.18224001 -0.098011442 0.80400002
-0.17332715 -0.097185247 0.80350006
-0.13089526 -0.096457146 0.80000001
-0.1274558 -0.096326545 0.80000007
-0.17133106 -0.092159249 0.80240005
-0.16801336 -0.091250166 0.80066669
-0.14095239 -0.090666674 0.80000001
-0.13736084 -0.091885298 0.80177778
-0.13275726 -0.092835568 0.80266666
-0.12804709 -0.092180416 0.80371433
-0.16805373 -0.088230483 0.8028
-0.14552382 -0.086095244 0.80000001
-0.14193405 -0.087373108 0.80124998
-0.13808119 -0.088548347 0.80324996
-0.134 -0.089588575 0.80400002
-0.16639495 -0.084342867 0.80266666
-0.16380954 -0.080000006 0.80000001
-0.15152049 -0.08053191 0.80150002
-0.14744589 -0.082505554 0.8021667
-0.14308096 -0.08339981 0.80340004
-0.1628705 -0.076666676 0.801
-0.15771429 -0.075428575 0.80000001
-0.15204406 -0.076786436 0.80225003
-0.14778286 -0.078102857 0.80400002
-0.16069953 -0.072696671 0.80350006
-0.15692514 -0.072730869 0.80219996
-0.15281472 -0.072961651 0.80400002
-0.15620573 -0.069680005 0.80400002
-0.19190477 -0.12512191 0.80600005
-0.18960191 -0.12512191 0.80600005
-0.19163315 -0.12278668 0.80680007
-0.18737558 -0.12158953 0.80633342
-0.18319002 -0.12135857 0.80650002
-0.18622477 -0.1192762 0.80800003
-0.18212721 -0.11757439 0.806889
-0.17779022 -0.11717199 0.80714297
-0.18718667 -0.11331239 0.80800003
-0.18193506 -0.11257429 0.80740005
-0.17732002 -0.11284 0.80600011
-0.17424953 -0.11207239 0.80600005
-0.18599334 -0.10683143 0.80700004
-0.18083811 -0.10696381 0.80800003
-0.17766064 -0.10737769 0.80690914
-0.17386572 -0.10631525 0.80600005
-0.18291715 -0.10298952 0.80700004
-0.17761461 -0.1038 0.80733341
-0.17348191 -0.10362858 0.80600005
-0.17657487 -0.097892202 0.80680001
-0.13126287 -0.091346674 0.80600005
-0.17244022 -0.087371022 0.8071112
-0.16964382 -0.085973337 0.80600005
-0.13694826 -0.086264454 0.80633342
-0.13266806 -0.087396026 0.80690914
-0.12826267 -0.088324033 0.80644453
-0.17006478 -0.0838781 0.80800003
-0.16754858 -0.082236201 0.80700004
-0.14155589 -0.081656836 0.80633342
-0.13814351 -0.082782865 0.80733341
-0.13466668 -0.0838781 0.80800003
-0.14661527 -0.076761909 0.80600011
-0.14269988 -0.077886268 0.80742866
-0.16322049 -0.072584286 0.80650008
-0.15083304 -0.071446352 0.80666673
-0.14769964 -0.07263796 0.80676925
-0.16128612 -0.0687261 0.80720007
-0.15767202 -0.067155056 0.80680007
-0.15284875 -0.067903027 0.8071667
-0.1485181 -0.068487622 0.80800003
-0.15775239 -0.063870482 0.80800003
-0.19256002 -0.12141334 0.81200004
-0.18128572 -0.12265715 0.81000012
-0.17974287 -0.12188572 0.81000006
-0.19217336 -0.11812668 0.81200016
-0.18767756 -0.11758777 0.81000006
-0.19120412 -0.11229797 0.81000006
-0.18707143 -0.11070001 0.81000006
-0.18437144 -0.11108573 0.81000006
-0.19054288 -0.10877144 0.81000006
-0.18730097 -0.10813239 0.81099999
-0.18382764 -0.10736096 0.81099999
-0.18528192 -0.10310667 0.81400001
-0.18224847 -0.10233567 0.8120001
-0.17764762 -0.10195334 0.81100005
-0.18018667 -0.099760003 0.81200004
-0.13191429 -0.085628577 0.81000006
-0.12805715 -0.085628577 0.81000006
-0.17597906 -0.084500961 0.81400001
-0.17219685 -0.082746036 0.81200004
-0.16894287 -0.081000008 0.81000006
-0.13630097 -0.081657149 0.81040001
-0.13223918 -0.082744986 0.8120001
-0.12858415 -0.082881272 0.81333345
-0.17210287 -0.079849526 0.81400001
-0.16820687 -0.07706058 0.81240004
-0.14173239 -0.076078102 0.81100005
-0.13806769 -0.077748574 0.8120001
-0.13334095 -0.079849526 0.81400001
-0.16783468 -0.072991244 0.81360006
-0.1643143 -0.070200004 0.81000006
-0.14580001 -0.070971429 0.81000006
-0.14276621 -0.07235001 0.81250012
-0.16239113 -0.066139691 0.81066674
-0.15094286 -0.066085719 0.81000012
-0.14733143 -0.067002863 0.81100011
-0.14381716 -0.06790667 0.81333339
-0.16124001 -0.062251434 0.81200004
-0.15717886 -0.06253086 0.81059998
-0.15230413 -0.062621586 0.81177789
-0.14817286 -0.06294857 0.81350005
-0.14496954 -0.064344764 0.81400001
-0.16086191 -0.05853048 0.81400001
-0.15712693 -0.057539046 0.81345463
-0.15317556 -0.058635242 0.81366676
-0.18550953 -0.10168096 0.81500006
-0.17507143 -0.080921911 0.81700003
-0.17464288 -0.083052389 0.81500006
-0.12916382 -0.080143817 0.81700003
-0.17602001 -0.077740006 0.81900012
-0.17245589 -0.076904446 0.81566679
-0.13646191 -0.07586953 0.81566668
-0.13248572 -0.077205718 0.81750011
-0.12857354 -0.077455059 0.81820005
-0.17243868 -0.072744958 0.81780005
-0.16870764 -0.071266353 0.81633341
-0.14049049 -0.070633337 0.81500006
-0.13772117 -0.072362013 0.81700003
-0.13318501 -0.073125005 0.81900012
-0.12792 -0.074100003 0.81900007
-0.16684805 -0.067916609 0.81700015
-0.14175589 -0.067119688 0.81633341
-0.13823417 -0.068281509 0.81871438
-0.16614 -0.064740002 0.81900007
-0.1642786 -0.062282383 0.8175
-0.14580287 -0.061430007 0.81650007
-0.14302595 -0.062556304 0.81766671
-0.16288319 -0.056800958 0.81700009
-0.15911905 -0.055109527 0.81500006
-0.15177555 -0.056408789 0.81633335
-0.14805102 -0.058840953 0.81757158
-0.16155431 -0.052552383 0.8175
-0.15786785 -0.052102327 0.81655556
-0.15383552 -0.05239062 0.81757146
-0.16146001 -0.049140003 0.81900007
-0.15756001 -0.049140003 0.81900007
-0.17801367 -0.081578732 0.82100004
-0.17749238 -0.077929847 0.82100004
-0.17635715 -0.074461907 0.82300001
-0.17358287 -0.071153335 0.82100004
-0.13175096 -0.07154429 0.82100004
-0.12823239 -0.071935244 0.82100004
-0.17202877 -0.068403244 0.82180005
-0.16967334 -0.067243814 0.82100004
-0.13610637 -0.067009531 0.82133341
-0.1328778 -0.068658099 0.82233334
-0.12854478 -0.069759049 0.82300001
-0.16749658 -0.062829904 0.82260001
-0.14103563 -0.061517145 0.82180005
-0.1385089 -0.064167626 0.82166672
-0.16498192 -0.055515241 0.82100004
-0.14681457 -0.056243945 0.82185721
-0.14247811 -0.058714289 0.82200003
-0.16538382 -0.05173143 0.82300001
-0.16393939 -0.052387621 0.82100004
-0.15160668 -0.052099623 0.82140011
-0.14844096 -0.053658098 0.82249999
-0.16538382 -0.049380004 0.82300001
-0.16175906 -0.047783338 0.82249999
-0.15728986 -0.046951752 0.82166672
-0.15300706 -0.048704959 0.8222
-0.16068096 -0.044677146 0.82300001
-0.15754573 -0.04467715 0.82300007
-0.1852397 -0.092224449 0.82766676
-0.18258098 -0.092076525 0.8263334
-0.17914288 -0.091928586 0.82499999
-0.18553811 -0.089216195 0.82900006
-0.18227653 -0.087461591 0.82733339
-0.17940478 -0.088261917 0.82500005
-0.18194002 -0.084275246 0.82700002
-0.17940478 -0.083023816 0.82500005
-0.17878954 -0.076399051 0.82700002
-0.17326687 -0.066568576 0.82620001
-0.13211443 -0.066225722 0.82642871
-0.12814096 -0.067619286 0.82800007
-0.17232479 -0.062693477 0.82728583
-0.16892858 -0.061285719 0.82500005
-0.13711621 -0.061574288 0.82625008
-0.13261957 -0.062847726 0.82833338
-0.12869239 -0.063951433 0.82900006
-0.17132668 -0.058424763 0.82900006
-0.16841589 -0.057449214 0.8263334
-0.14232795 -0.056617141 0.82566679
-0.13768344 -0.057722099 0.82800007
-0.16815764 -0.053164288 0.82700002
-0.15007144 -0.051071431 0.82500005
-0.14685567 -0.052247487 0.82585728
-0.14267313 -0.052812178 0.82766676
-0.13935097 -0.053292863 0.82900006
-0.16697526 -0.047650956 0.82700002
-0.16382319 -0.046918418 0.82566679
-0.15174682 -0.047287766 0.82557148
-0.14743222 -0.047302693 0.82783335
-0.14343017 -0.048687305 0.82900012
-0.16632032 -0.04440413 0.82766676
-0.16259453 -0.04251691 0.82675004
-0.1575298 -0.041544504 0.82590914
-0.15264286 -0.042961538 0.8271538
-0.16106287 -0.03710762 0.82900006
-0.1575561 -0.037437778 0.82855558
-0.15395716 -0.03868667 0.82900006
-0.18326001 -0.083300002 0.83300006
-0.17648858 -0.067271434 0.83100003
-0.12662858 -0.065688573 0.83100003
-0.18008667 -0.062673338 0.83300006
-0.17720668 -0.062868766 0.83140004
-0.1741143 -0.060940005 0.83100003
-0.13137716 -0.060940005 0.83100003
-0.12733716 -0.062380005 0.83175004
-0.17532668 -0.058706671 0.83300006
-0.17303145 -0.057412386 0.83150005
-0.1353343 -0.05698286 0.83100003
-0.13241558 -0.057881586 0.83255565
-0.12769303 -0.057897884 0.83277792
-0.12440382 -0.05863715 0.83200002
-0.17136002 -0.05394667 0.83300006
-0.13705729 -0.053080417 0.83185714
-0.13209002 -0.054343335 0.83300006
-0.12784882 -0.053318817 0.83250004
-0.14199312 -0.04691926 0.83188897
-0.13835335 -0.048760001 0.8325001
-0.16540858 -0.040362861 0.83100003
-0.15116286 -0.040362861 0.83100003
-0.14769886 -0.042312384 0.83200008
-0.14359334 -0.04204667 0.83300006
-0.16329812 -0.037197147 0.83100003
-0.15591145 -0.035614289 0.83100003
-0.15300779 -0.037260547 0.83242869
-0.14994001 -0.038873337 0.83300006
-0.16104668 -0.034113336 0.83300006
-0.15770981 -0.032945447 0.83214295
-0.19006191 -0.085885718 0.83500004
-0.18688096 -0.086226538 0.8350001
-0.19078915 -0.0822661 0.83540004
-0.18717894 -0.082038209 0.83633339
-0.18370001 -0.08190953 0.83500004
-0.19097239 -0.07910572 0.83900005
-0.17935716 -0.072543815 0.83700001
-0.18102477 -0.067636669 0.8355
-0.17892858 -0.067595243 0.83500004
-0.18051906 -0.062823817 0.83500004
-0.17892858 -0.061233338 0.83500004
-0.18218288 -0.05833048 0.83900005
-0.17774604 -0.058099367 0.83566666
-0.17614526 -0.053678572 0.83500004
-0.17276548 -0.0520881 0.83500004
-0.13598572 -0.05089524 0.83500004
-0.13300356 -0.051491667 0.83500004
-0.12882859 -0.050100002 0.83500004
-0.14075716 -0.045328576 0.83500004
-0.13721541 -0.046722863 0.83557147
-0.1329819 -0.046980217 0.83611107
-0.12893145 -0.046955243 0.83566666
-0.14632383 -0.040557146 0.83500004
-0.14223358 -0.04217191 0.8355
-0.13744409 -0.042429876 0.83772731
-0.13184288 -0.043947622 0.83900011
-0.12864667 -0.043947622 0.83900005
-0.16700096 -0.039153337 0.83900005
-0.16461429 -0.035785716 0.83500004
-0.15083018 -0.036315873 0.83500004
-0.14719693 -0.037395243 0.83544445
-0.14272603 -0.037475243 0.83722222
-0.13930064 -0.03862064 0.83900011
-0.16520573 -0.033519052 0.83800006
-0.16269925 -0.03234686 0.83660001
-0.15634382 -0.031968575 0.83500004
-0.15205093 -0.032639049 0.83588886
-0.14762764 -0.032716297 0.8378889
-0.14409493 -0.033826351 0.83900011
-0.18502001 -0.080896199 0.84100002
-0.19142763 -0.077692389 0.84100002
-0.18756756 -0.077989191 0.84263641
-0.18334477 -0.077430479 0.84249997
-0.18174002 -0.073016673 0.84249997
-0.18181621 -0.060071431 0.84100002
-0.18642345 -0.057324003 0.84300005
-0.18192744 -0.05636058 0.84300005
-0.17100859 -0.044157147 0.84300005
-0.16940287 -0.042551432 0.84300005
-0.13536096 -0.040848576 0.84100002
-0.13311619 -0.041698098 0.84200007
-0.1681997 -0.037704449 0.84233344
-0.14016667 -0.036042858 0.84100002
-0.13792667 -0.037690479 0.84200001
-0.18690595 -0.073032148 0.84500015
-0.18429048 -0.072428577 0.84500003
-0.18590002 -0.060357146 0.84500003
-0.18429048 -0.061161909 0.84500003
-0.18590002 -0.055528574 0.84500003
-0.18429048 -0.055528574 0.84500003
-0.17235844 -0.042753339 0.84700006
-0.169 -0.042652383 0.84500003
-0.13079304 -0.042166352 0.84600008
-0.16980477 -0.037019052 0.84500003
-0.17404763 -0.04209524 0.85000002
