# .PCD v0.7 - Point Cloud Data file format
VERSION 0.7
FIELDS x y z
SIZE 4 4 4
TYPE F F F
COUNT 1 1 1
WIDTH 180
HEIGHT 1
VIEWPOINT 0 0 0 1 0 0 0
POINTS 180
DATA ascii
-1.0303248 0.77757055 1.8430001
-1.0268143 0.77581531 1.8430001
-1.0303248 0.78108102 1.8430001
-1.0250591 0.78108102 1.8430001
-1.0306211 0.77649528 1.853
-1.0288563 0.7817896 1.853
-1.0241503 0.78414261 1.853
-1.0326344 0.77891147 1.863
-1.0308601 0.78246003 1.863
-1.0273114 0.78423429 1.863
-1.0166658 0.7860086 1.863
-1.0219886 0.78955722 1.863
-1.0148915 0.78955722 1.863
-1.0363934 0.7795248 1.8730001
-1.031042 0.7795248 1.8730001
-1.0256906 0.7795248 1.8730001
-1.0304474 0.78428167 1.8730001
-1.0239067 0.78487629 1.8730001
-1.0185553 0.78666008 1.8730001
-1.0292581 0.79022765 1.8730001
-1.0256906 0.79022765 1.8730001
-1.0161769 0.79141688 1.8730001
-1.0090417 0.79260612 1.8730001
-1.002501 0.79201144 1.8730001
-0.99714959 0.79379529 1.8730001
-1.0222001 0.78727341 1.8830001
-1.0204067 0.79086006 1.8830001
-1.0156245 0.79205561 1.8830001
-1.0060601 0.79086006 1.8830001
-0.9917134 0.79444671 1.8830001
-0.98812675 0.79444671 1.8830001
-0.9988867 0.79803336 1.8830001
-0.99350673 0.79803336 1.8830001
-0.98633337 0.79803336 1.8830001
-0.9809534 0.79803336 1.8830001
-0.99209529 0.79006863 1.8940001
-0.99149406 0.7966826 1.8940001
-0.98668385 0.79908764 1.8940001
-0.99189341 0.7978667 1.904
-0.98826671 0.7978667 1.904
-0.9994477 0.79700482 1.9150001
-1.0028334 0.79383337 1.9250001
-0.99183339 0.79383337 1.9250001
-1.0085639 0.79468197 1.9360001
-0.99750102 0.79283816 1.9360001
-1.0217115 0.7954886 1.9470001
-1.0610496 0.78879434 1.9580001
-1.0548338 0.79003751 1.9580001
-1.0486178 0.79128069 1.9580001
-1.0274838 0.79252386 1.9580001
-1.0970143 0.77822387 1.9690001
-1.0838877 0.77822387 1.9690001
-1.0982646 0.78447473 1.9690002
-1.0920138 0.78322452 1.9690002
-1.0838877 0.7838496 1.9690001
-1.078262 0.7838496 1.9690001
-1.0820124 0.79135048 1.9690001
-1.0763867 0.78947526 1.9690001
-1.0688858 0.79135048 1.9690001
-1.0613849 0.78947526 1.9690001
-1.0520086 0.79322577 1.9690001
-1.0463829 0.79322577 1.9690001
-1.038882 0.79322577 1.9690001
-1.1050286 0.77880007 1.9800001
-1.0974858 0.77880007 1.9800001
-1.0899429 0.77880007 1.9800001
-1.0842857 0.77880007 1.9800001
-1.1069144 0.78445721 1.9800001
-1.0974858 0.78257149 1.9800001
-1.0880572 0.78634292 1.9800001
-1.0824001 0.78257149 1.9800001
-1.0729715 0.78445721 1.9800001
-1.0673144 0.78634292 1.9800001
-1.0956001 0.79011434 1.9800001
-1.0918286 0.79011434 1.9800001
-1.0805143 0.79011434 1.9800001
-1.0754858 0.79137152 1.9800003
-1.0673144 0.79011434 1.9800001
-1.1136229 0.77972579 1.9920001
-1.1079315 0.77972579 1.9920001
-1.0832686 0.78731436 1.9920001
-1.0769448 0.78478479 1.9920001
-1.0718858 0.7854172 1.9920001
-1.0851657 0.79110861 1.9920001
-1.1197724 0.77640098 2.003
-1.1140497 0.77640098 2.003
-1.1197724 0.78021622 2.003
-1.1140497 0.78021622 2.003
-1.1064191 0.78403145 2.003
-1.1006962 0.7821238 2.003
-1.0911582 0.78784674 2.003
-1.0739896 0.78975439 2.003
-1.0701743 0.79166198 2.003
-1.1264811 0.77529526 2.0150001
-1.1207238 0.77721435 2.0150001
-1.1111287 0.77721435 2.0150001
-1.1072905 0.77721435 2.0150001
-1.1130477 0.78297144 2.0150001
-1.1053715 0.78105241 2.0150001
-1.1034524 0.78872859 2.0150001
-1.0976954 0.78872859 2.0150001
-1.0919381 0.78872859 2.0150001
-1.0663509 0.79128736 2.0150001
-1.1293286 0.77798194 2.0270002
-1.1216067 0.78184289 2.0270002
-1.1061629 0.78570384 2.0270002
-1.1100239 0.78956479 2.0270002
-1.1061629 0.78956479 2.0270002
-1.1003715 0.78956479 2.0270002
-1.1301887 0.78258765 2.039
-1.122421 0.78258765 2.039
-1.1153007 0.78517693 2.039
-1.1088277 0.78647149 2.039
-1.1446533 0.77938002 2.0510001
-1.1387933 0.77938002 2.0510001
-1.1212134 0.77547336 2.0510001
-1.1153535 0.77547336 2.0510001
-1.1446533 0.78328669 2.0510001
-1.1368401 0.78328669 2.0510001
-1.1290267 0.78328669 2.0510001
-1.1205623 0.78458899 2.0510001
-1.1134001 0.78719336 2.0510001
-1.1493858 0.77608103 2.0630002
-1.1434915 0.77608103 2.0630002
-1.1375972 0.77608103 2.0630002
-1.1140201 0.77608103 2.0630002
-1.1513505 0.78001052 2.0630002
-1.1428366 0.78132033 2.0630002
-1.1356325 0.78197527 2.0630002
-1.1277734 0.78394008 2.0630002
-1.1192594 0.78263021 2.0630002
-1.1120553 0.78197533 2.0630002
-1.1199143 0.78786957 2.0630002
-1.1566286 0.77701718 2.0760002
-1.1526743 0.77701718 2.0760002
-1.1408116 0.77306288 2.0760002
-1.1368573 0.77306288 2.0760002
-1.1605829 0.78097147 2.0760002
-1.1408116 0.78097147 2.0760002
-1.1348801 0.78097147 2.0760002
-1.1289487 0.78097147 2.0760002
-1.1249944 0.78097147 2.0760002
-1.1131315 0.78492576 2.0760002
-1.165303 0.7775315 2.0880001
-1.1573486 0.7775315 2.0880001
-1.1513829 0.77554291 2.0880001
-1.1672915 0.78150862 2.0880001
-1.1553601 0.78150862 2.0880001
-1.1513829 0.78150862 2.0880001
-1.1454172 0.78150862 2.0880001
-1.1374629 0.78150862 2.0880001
-1.1295087 0.78150862 2.0880001
-1.1585515 0.77036673 2.1010001
-1.1705573 0.7783705 2.1010001
-1.1645544 0.7783705 2.1010001
-1.1585515 0.77436864 2.1010001
-1.1778001 0.7771467 2.1140001
-1.1737734 0.7771467 2.1140001
-1.1697468 0.7771467 2.1140001
-1.09324 0.77916002 2.1140001
-1.1616935 0.78318673 2.1140001
-1.1080046 0.78587121 2.1140001
-1.09324 0.78520006 2.1140001
-1.185043 0.77179718 2.1270001
-1.1809915 0.77179718 2.1270001
-1.185043 0.77584863 2.1270001
-1.1809915 0.77584863 2.1270001
-1.1769401 0.77584863 2.1270001
-1.0999629 0.77990007 2.1270001
-1.1222458 0.78395146 2.1270001
-1.1161686 0.78395146 2.1270001
-1.1902478 0.77243817 2.1400001
-1.1433715 0.78466672 2.1400001
-1.1392953 0.78466672 2.1400001
-1.1291049 0.78466672 2.1400001
-1.1229906 0.78466672 2.1400001
-1.1974782 0.77302957 2.1530001
-1.1913267 0.77713054 2.1530001
-1.149542 0.77805626 2.1670001
-1.1433506 0.77805626 2.1670001
