# .PCD v0.7 - Point Cloud Data file format
VERSION 0.7
FIELDS x y z
SIZE 4 4 4
TYPE F F F
COUNT 1 1 1
WIDTH 782
HEIGHT 1
VIEWPOINT 0 0 0 1 0 0 0
POINTS 782
DATA ascii
0.13216098 0.078798898 0.53780639
0.13909438 0.079298981 0.53892481
0.14602077 0.079385296 0.53886819
0.15329576 0.080408297 0.53895646
0.16019425 0.080319561 0.53900009
0.17068335 0.07811223 0.53900003
0.17520182 0.078565091 0.53877777
0.13125725 0.085375585 0.53894424
0.13787426 0.085514247 0.5389998
0.14629188 0.086242132 0.53882998
0.15346332 0.086250223 0.53866643
0.15910551 0.08589793 0.53896534
0.17025557 0.089148901 0.53900003
0.17299335 0.088293344 0.53900003
0.1401107 0.093910657 0.5389998
0.14626643 0.093918264 0.53887731
0.1534383 0.093878761 0.53853983
0.16008662 0.094040826 0.53897411
0.17299335 0.090860009 0.53900003
0.13979779 0.10035667 0.53900003
0.14631286 0.10045075 0.53894573
0.15356365 0.10075241 0.5386135
0.16106501 0.10096381 0.53875458
0.16786003 0.099586658 0.53899997
0.13838002 0.10626002 0.53900003
0.14705025 0.10861002 0.53896284
0.15334655 0.10875411 0.53895807
0.16074668 0.10761669 0.53899986
0.14687037 0.11635554 0.5389998
0.15230794 0.11607037 0.53899986
0.14568402 0.12083868 0.53900003
0.15656668 0.12166001 0.53900003
0.15656668 0.13706002 0.53900003
0.096728578 0.073722862 0.54900002
0.09777429 0.074245721 0.54900002
0.10221471 0.078985088 0.54815012
0.1089555 0.078943722 0.54493231
0.11620872 0.079393268 0.5429554
0.12389404 0.079882935 0.54165846
0.12951884 0.078788862 0.54029417
0.13970192 0.076208033 0.54014289
0.14554286 0.076114289 0.54000002
0.16217145 0.08142858 0.54000002
0.16834877 0.080068976 0.54000002
0.17647995 0.080086231 0.54005879
0.18339935 0.080850527 0.54191309
0.19174519 0.080572896 0.54382145
0.19864279 0.079844944 0.54637039
0.20536371 0.079993173 0.54724139
0.096728578 0.087317154 0.54900002
0.10144063 0.086277641 0.54803789
0.10896113 0.086488962 0.54505271
0.11640296 0.086398102 0.54322445
0.1236459 0.08603844 0.54096454
0.1301143 0.086835168 0.54000002
0.13981715 0.086502858 0.54000008
0.14400001 0.087428577 0.54000002
0.16284429 0.086219832 0.54013044
0.16866283 0.085789524 0.54011148
0.17628601 0.085826032 0.54061556
0.18370433 0.086262882 0.542018
0.19125271 0.086286545 0.54297674
0.19855514 0.086084306 0.54604453
0.20582256 0.085890055 0.54830962
0.096728578 0.090977147 0.54900002
0.10136352 0.093618281 0.54791546
0.10899162 0.093926542 0.5452984
0.11642475 0.093659371 0.54332644
0.12382453 0.093448021 0.54127586
0.13115579 0.093609221 0.54005402
0.1365231 0.093362637 0.54000002
0.16362858 0.092657149 0.54000002
0.1686547 0.093662441 0.54003227
0.1762186 0.093851909 0.54067415
0.18362997 0.093373157 0.54199988
0.19135989 0.093731068 0.54388106
0.19868368 0.093816362 0.54656827
0.20412178 0.09334752 0.54864705
0.10203419 0.10106078 0.54842228
0.10883959 0.10155192 0.54681635
0.11604213 0.10113182 0.54342365
0.12377269 0.10128127 0.54195148
0.13114773 0.10131822 0.54002076
0.13852987 0.10152468 0.54000032
0.14648573 0.10337144 0.54000002
0.15308572 0.10354286 0.54000002
0.16405715 0.10440001 0.54000002
0.16966107 0.10244926 0.54000002
0.17638581 0.10167444 0.54179066
0.18328503 0.1011591 0.54227257
0.19100305 0.10121148 0.54497617
0.19870423 0.10135883 0.54743153
0.20438217 0.10080136 0.54899991
0.10261084 0.10901008 0.54868281
0.10879113 0.10879362 0.54657143
0.11600504 0.10882711 0.54383051
0.12385075 0.1088884 0.54185712
0.13117209 0.10853924 0.54012275
0.13888861 0.10880817 0.54000038
0.14592859 0.10851429 0.54000002
0.15394287 0.10834287 0.54000002
0.16119504 0.10967701 0.54000002
0.16853537 0.10837238 0.54019648
0.17608991 0.10896775 0.541587
0.18362373 0.10901814 0.54291993
0.19117476 0.10849587 0.54474473
0.19892845 0.10886716 0.54728281
0.20434216 0.10865924 0.54899991
0.10178188 0.11653564 0.54840827
0.10884295 0.11615357 0.54652011
0.11592782 0.11641281 0.54393095
0.12396623 0.11621986 0.54235697
0.13146861 0.11600298 0.54134703
0.13874908 0.116169 0.54003268
0.14492737 0.11622095 0.54020005
0.15538137 0.11678757 0.54000002
0.16098529 0.11603992 0.54046029
0.16829221 0.11592201 0.54058021
0.17598845 0.11612117 0.54189783
0.18349199 0.11629637 0.54271424
0.19117749 0.11617464 0.54534084
0.19890779 0.11642031 0.54816329
0.20365287 0.11424429 0.54900002
0.10332803 0.12395433 0.54880762
0.10864725 0.12357084 0.54700017
0.11629073 0.12395614 0.54481816
0.1240596 0.12379006 0.54236042
0.13149635 0.12376309 0.54146433
0.13882284 0.12397585 0.54038918
0.14653069 0.12438328 0.54026121
0.15382423 0.12399443 0.54040843
0.16105632 0.12358244 0.54009295
0.16841248 0.12360123 0.54035747
0.17601331 0.12381174 0.5417999
0.18344264 0.1238175 0.54292291
0.19098425 0.12374946 0.54488897
0.1984259 0.12411921 0.54827505
0.10341703 0.13147214 0.54875988
0.10877872 0.13120599 0.5474214
0.11630949 0.13137247 0.54522413
0.12388446 0.13152109 0.54242349
0.13152786 0.13152952 0.54159188
0.13888811 0.13117954 0.54038215
0.14653236 0.13124342 0.5401603
0.15387645 0.1312312 0.54036766
0.1610876 0.13123819 0.54038805
0.16861771 0.13149111 0.54142863
0.17602165 0.13158074 0.54234034
0.18387677 0.13115065 0.54345661
0.19131631 0.13149653 0.54604876
0.19796272 0.13082714 0.54844123
0.10362055 0.13779102 0.54881245
0.10872314 0.13925885 0.54794568
0.11629608 0.13877113 0.54494727
0.12394562 0.13892415 0.54226774
0.13159321 0.13881898 0.54185706
0.13874464 0.13874647 0.54157144
0.14630711 0.13858229 0.54092884
0.15375033 0.13857362 0.5406307
0.16137469 0.13868921 0.54134703
0.16879421 0.13885529 0.54199982
0.1764235 0.13892834 0.54292148
0.18356784 0.13867228 0.54454362
0.19117609 0.13896897 0.54659188
0.19716287 0.13847499 0.54837042
0.10340187 0.14646107 0.54867995
0.10900377 0.14640635 0.54731262
0.11633535 0.14623637 0.5452103
0.12403886 0.14626569 0.54267842
0.13162854 0.14608189 0.54199982
0.13881794 0.14604355 0.54185706
0.14630853 0.14616203 0.5413394
0.15391128 0.14636038 0.54182452
0.16140625 0.14635196 0.54184902
0.1688453 0.1461267 0.54216307
0.17622167 0.14624748 0.54261208
0.18357722 0.14619873 0.54435724
0.19122091 0.14641032 0.54708171
0.19698098 0.14647208 0.54861903
0.10252172 0.15347405 0.54896957
0.10845461 0.15379582 0.54773694
0.11625649 0.15359361 0.54559237
0.12406104 0.15377185 0.54320323
0.13179857 0.15360729 0.54221135
0.13886428 0.15383485 0.54203558
0.14625083 0.15388404 0.54170692
0.15417071 0.15409313 0.54181123
0.16163003 0.15404873 0.54180765
0.16883129 0.15375856 0.54249036
0.17618668 0.15364176 0.5435909
0.18360941 0.15387565 0.54579991
0.19139826 0.15384778 0.54759198
0.19665641 0.15368025 0.54862505
0.10378715 0.15921001 0.54900002
0.10847802 0.16115931 0.54762506
0.11639244 0.16108321 0.54560339
0.12387128 0.16107681 0.54342318
0.1312743 0.16155228 0.54271168
0.13885525 0.16156767 0.54199982
0.14608192 0.16156767 0.54199982
0.1538361 0.16166742 0.54227251
0.16142859 0.16148952 0.54207832
0.16902259 0.16143207 0.542346
0.17595035 0.16131143 0.54368889
0.18362747 0.16120426 0.54625493
0.19107062 0.16119355 0.54790717
0.19617343 0.16129975 0.54894114
0.10905842 0.16863716 0.54854
0.11624862 0.16882516 0.54655564
0.12353814 0.16875905 0.54462755
0.13127439 0.16900566 0.54267836
0.13887621 0.1688201 0.54208153
0.14608157 0.16879469 0.54199982
0.15382996 0.16879992 0.54201776
0.16157976 0.16880673 0.54204071
0.16887175 0.16887055 0.54224473
0.17629588 0.16880301 0.54427499
0.18384372 0.16890772 0.54648083
0.19097483 0.16852114 0.54825014
0.19502573 0.16992858 0.54900002
0.1037 0.17550573 0.54900002
0.10895226 0.17522046 0.54788101
0.11622495 0.17514727 0.54612821
0.12400471 0.17487673 0.54444736
0.13158928 0.17505415 0.54228944
0.13886288 0.17531368 0.54202557
0.14617491 0.17613278 0.54234689
0.15387017 0.17607366 0.54216063
0.16165918 0.17612138 0.54230589
0.16884337 0.17614885 0.54280418
0.17629762 0.1762486 0.54502273
0.18378694 0.1762564 0.54702294
0.19073783 0.17585306 0.54836112
0.14697811 0.18049954 0.54149997
0.15418884 0.18067698 0.54245454
0.16115806 0.18071179 0.54235721
0.16890003 0.18232353 0.54380012
0.17640559 0.18343373 0.54582584
0.18418123 0.18369585 0.5475558
0.19041644 0.18340233 0.54837149
0.17836003 0.18772003 0.546
0.18491629 0.18908326 0.54713333
0.18994232 0.19074735 0.54831821
0.082105719 0.073868573 0.55800003
0.086660765 0.07421048 0.55419999
0.09363199 0.073858783 0.55057156
0.099523813 0.07490477 0.55000001
0.081644028 0.079015799 0.55858827
0.086215854 0.078900002 0.55554169
0.093551159 0.078767456 0.55182463
0.098516487 0.079337001 0.55000007
0.21511896 0.080179274 0.55422735
0.22032878 0.081145249 0.55566669
0.22519715 0.081454292 0.55900002
0.08136306 0.086360499 0.55869567
0.086219735 0.086223349 0.55542862
0.093235075 0.086159863 0.55215383
0.098301604 0.083634928 0.55000007
0.2084762 0.089571431 0.55000001
0.21360241 0.086234957 0.55202562
0.22119173 0.08616998 0.55612826
0.22606696 0.086848073 0.55892313
0.081659757 0.093786873 0.55846673
0.086140841 0.09369944 0.5554601
0.093448624 0.093893126 0.55223638
0.20796916 0.094065607 0.55103999
0.21402298 0.093655437 0.55350018
0.22086245 0.093175128 0.55745828
0.22555208 0.09139207 0.55900002
0.081658095 0.10188054 0.55877781
0.085991986 0.10119095 0.55649996
0.093479842 0.10133645 0.55210352
0.098266669 0.10172381 0.55000007
0.20784026 0.10124153 0.55030435
0.21404263 0.10113963 0.5535816
0.22071646 0.10180622 0.55719227
0.081912868 0.10833096 0.55850005
0.08612559 0.10863135 0.55640382
0.093699664 0.1089709 0.55275011
0.098972976 0.1082941 0.55015796
0.20794344 0.10842654 0.55022734
0.21411614 0.10863728 0.55373824
0.22123526 0.10905544 0.55756247
0.08191286 0.11701905 0.55850005
0.086437397 0.11613751 0.55641997
0.093760893 0.11641142 0.55273688
0.098417982 0.1155291 0.55000001
0.20678654 0.116354 0.55124998
0.21395318 0.11642671 0.55418378
0.22059399 0.1157021 0.55688471
0.081454292 0.12484334 0.55900002
0.085868217 0.12364204 0.55658931
0.093661919 0.12380762 0.55292737
0.099586651 0.12402541 0.55014294
0.20124762 0.12204762 0.55000001
0.20598803 0.12355262 0.55120516
0.2130938 0.12385501 0.55410022
0.21963292 0.12354699 0.55752003
0.086238705 0.1309806 0.55662739
0.093781039 0.13119602 0.55323219
0.099795334 0.13145229 0.55067861
0.20127383 0.13265479 0.55000001
0.20586976 0.13111785 0.55142856
0.2135188 0.13124497 0.55492866
0.21973328 0.13113481 0.55827272
0.086379871 0.13865949 0.5565961
0.093876041 0.13871069 0.55378586
0.10037683 0.13911374 0.55086106
0.20093025 0.1392245 0.55017656
0.20616673 0.13876678 0.55225593
0.2135886 0.13869411 0.55589199
0.21857198 0.1383599 0.55900002
0.086758763 0.14636992 0.55662221
0.093968697 0.14621043 0.55394757
0.099934332 0.14584868 0.55106455
0.20074128 0.14623144 0.55033338
0.20646203 0.14619599 0.5528751
0.2134098 0.14633806 0.55594444
0.21774384 0.14640479 0.55900002
0.086477429 0.15372752 0.5569346
0.093976401 0.15385212 0.55391538
0.099027939 0.15365444 0.55045009
0.20038511 0.15380624 0.55046153
0.20656905 0.15373851 0.55343199
0.21361399 0.15385085 0.55663639
0.21774383 0.15279336 0.55900002
0.086996011 0.16088536 0.55699992
0.093847685 0.16132566 0.55380005
0.10074396 0.16127767 0.55040473
0.20007016 0.16116102 0.55060005
0.20681508 0.16134016 0.55392689
0.21378511 0.16126333 0.55699998
0.087581307 0.16890103 0.55734289
0.093900144 0.16874214 0.55469811
0.10134579 0.16875835 0.55116975
0.10563492 0.1700635 0.55000001
0.19433334 0.17180952 0.55000001
0.1986914 0.16863658 0.55128562
0.20638166 0.16867948 0.55378276
0.21389772 0.1687804 0.55729407
0.21774383 0.17089429 0.55900002
0.087256022 0.17594381 0.55781251
0.094232336 0.17438811 0.55493104
0.10097337 0.17444429 0.55134797
0.10580952 0.17338097 0.55000001
0.19415873 0.17739683 0.55000001
0.19854866 0.17644709 0.55129778
0.20604467 0.17618902 0.55434108
0.21333729 0.17595127 0.55784845
0.19410053 0.18443917 0.55000001
0.19837734 0.183984 0.55114633
0.20608164 0.18375482 0.55471808
0.2125731 0.18350622 0.55800003
0.19357379 0.19123138 0.55011773
0.19862419 0.19126444 0.55172509
0.20621632 0.191056 0.55519056
0.21246047 0.19063665 0.55831993
0.19468668 0.1957362 0.551
0.19969855 0.19687048 0.55263156
0.20653544 0.19860569 0.55587792
0.2120138 0.19886948 0.55858827
0.20830032 0.20352606 0.5570001
0.21171018 0.20390192 0.55900002
0.072298534 0.072895594 0.56390911
0.07690078 0.072912708 0.56100005
0.23434702 0.074883498 0.56566668
0.071340762 0.078912459 0.56594449
0.077818349 0.078397214 0.56115389
0.23012203 0.079128765 0.56389302
0.23614277 0.078921244 0.56615782
0.24093573 0.079049051 0.56850004
0.071371764 0.086219124 0.56596148
0.077480383 0.086033083 0.56108576
0.22961824 0.08559449 0.56112504
0.23599285 0.086289093 0.56593543
0.24006383 0.086704768 0.56900001
0.071252048 0.093852654 0.56635195
0.077891879 0.093699239 0.5616923
0.22365013 0.095621549 0.56012499
0.22869945 0.094004266 0.56166679
0.23509219 0.093872912 0.56593096
0.071489699 0.1013528 0.56635857
0.07816951 0.10119754 0.56221431
0.22407821 0.099896446 0.56041664
0.22868863 0.10122129 0.56234294
0.23511264 0.10138374 0.56635994
0.07165017 0.10890453 0.56569386
0.078322291 0.10862954 0.56151116
0.082666673 0.11040001 0.56
0.22453336 0.10720001 0.56000006
0.2285962 0.10867735 0.56211436
0.23524836 0.10866847 0.56699997
0.07167419 0.11636684 0.56606382
0.078237817 0.11591748 0.5614773
0.082666673 0.11360001 0.56
0.22424805 0.11765212 0.56042862
0.22922347 0.1164879 0.5636571
0.23484711 0.11557075 0.56742865
0.072139814 0.12363626 0.56615007
0.078396916 0.12366109 0.56167388
0.22390622 0.12374298 0.56047058
0.22885871 0.1236659 0.56300002
0.23398913 0.12535404 0.56628579
0.07199648 0.13114473 0.56615561
0.07872358 0.13133761 0.56219149
0.082666673 0.13280001 0.56
0.22371107 0.1309866 0.56061113
0.22900663 0.13116045 0.56426662
0.23311263 0.13046786 0.56725001
0.071741104 0.13863577 0.56640822
0.078787938 0.13868092 0.5625
0.082666673 0.1392 0.56
0.22197686 0.13940743 0.56083882
0.22841956 0.13866287 0.56432348
0.23360276 0.14016064 0.56822228
0.071947195 0.14603598 0.56636971
0.078659378 0.14597099 0.56237507
0.083111115 0.14666668 0.56
0.22169405 0.14636964 0.56090635
0.22880913 0.1463269 0.56528568
0.23365654 0.14607786 0.56827271
0.07185939 0.15378217 0.56681257
0.078791142 0.15365206 0.56268644
0.082933336 0.15426667 0.56
0.22178169 0.15370634 0.56176478
0.2286877 0.15392733 0.56551427
0.2331505 0.15092573 0.56800002
0.072335407 0.16141255 0.56683338
0.078785434 0.16122074 0.56295747
0.083520003 0.16245337 0.56
0.22123684 0.16145214 0.5624572
0.22884029 0.1613034 0.56626832
0.23347889 0.16305526 0.56880003
0.072262354 0.16874337 0.56678057
0.078822821 0.16861086 0.56306136
0.083733335 0.16906667 0.56000012
0.22142683 0.16891386 0.56293941
0.22814646 0.16838162 0.56639403
0.2331505 0.1671543 0.56800002
0.072246253 0.17603557 0.56690925
0.078875415 0.17623407 0.56342858
0.08369676 0.17621294 0.56017649
0.21653335 0.1786667 0.56
0.22166263 0.17631987 0.56345451
0.2281329 0.17638378 0.56720692
0.072042435 0.18243283 0.56770837
0.077733606 0.1817698 0.56476474
0.08424934 0.1805663 0.56060004
0.21660218 0.18388246 0.56057143
0.22159703 0.18360451 0.56337142
0.22789375 0.18277036 0.56777781
0.21629043 0.19166692 0.56058824
0.22184429 0.19132927 0.56399995
0.22757991 0.19138773 0.56800002
0.21593827 0.19881418 0.56055564
0.22172166 0.19875252 0.5640313
0.22693297 0.19838999 0.56760001
0.21472324 0.20625873 0.56111997
0.22142196 0.20591944 0.56394285
0.22661471 0.20654193 0.56788886
0.21556175 0.21162622 0.56350005
0.22077596 0.2129972 0.56488574
0.22615182 0.21325707 0.56845456
0.22410001 0.21870002 0.56700003
0.22860649 0.22103317 0.56800002
0.058635246 0.074075244 0.57900012
0.063798182 0.073447041 0.57347828
0.068193719 0.072760195 0.57100004
0.058752026 0.0789406 0.57809532
0.063767269 0.078777596 0.57273459
0.067857146 0.076542869 0.57000005
0.24349602 0.081057347 0.57120007
0.058905832 0.086304039 0.57805884
0.063695699 0.08631584 0.573102
0.067857146 0.088485718 0.57000005
0.24408041 0.086334854 0.57394129
0.24872142 0.086908892 0.57877779
0.058949668 0.093957879 0.57795006
0.063786447 0.09363851 0.57312763
0.067857146 0.090657152 0.57000005
0.23926981 0.094140552 0.57042867
0.24323879 0.094065987 0.5728001
0.24759145 0.092640013 0.57900006
0.058899622 0.10128696 0.57800001
0.063912727 0.10123857 0.57324004
0.067857146 0.10178572 0.57000005
0.2394218 0.10171822 0.57037508
0.24368478 0.10117202 0.57332152
0.05853967 0.10865577 0.57825011
0.06361232 0.10881287 0.57355106
0.067857146 0.1091143 0.57000011
0.23906717 0.10812191 0.57050002
0.2426295 0.10874916 0.57269245
0.2486943 0.10725287 0.57900006
0.058804117 0.11605936 0.57804561
0.063966282 0.11627014 0.57350004
0.067857146 0.1167143 0.57000011
0.23788987 0.11690763 0.57050014
0.24294688 0.11637592 0.57448161
0.059002861 0.12241714 0.57900006
0.063442901 0.12377307 0.57409078
0.068400003 0.12377145 0.57000017
0.23751038 0.12319601 0.57104772
0.24264851 0.12334334 0.57460004
0.059002861 0.13234288 0.57900006
0.063519947 0.13124187 0.57441503
0.068349205 0.13054383 0.57033348
0.23735622 0.13153675 0.57156003
0.24290498 0.13179496 0.57588238
0.063457593 0.13883804 0.57449991
0.067891158 0.13849661 0.5702858
0.23715031 0.13835016 0.57254553
0.24257524 0.13898043 0.5775556
0.059002869 0.14612859 0.57900012
0.063446596 0.14628433 0.57421154
0.068124868 0.14668973 0.57022232
0.23712543 0.14660123 0.57166678
0.24268684 0.14653414 0.5771668
0.24814287 0.14833429 0.57900006
0.059002861 0.15054001 0.57900006
0.063470878 0.15377708 0.57462502
0.068037502 0.15332204 0.57037508
0.23682091 0.15413034 0.57268
0.24184558 0.15422611 0.57723087
0.059002861 0.1599143 0.57900006
0.063448563 0.16129977 0.57517326
0.068580009 0.16130486 0.57115394
0.23631023 0.16043806 0.57145
0.24336854 0.16087212 0.57857156
0.059002861 0.17149429 0.57900006
0.063899502 0.16863842 0.5753265
0.068440154 0.16865145 0.57138467
0.23220669 0.17184383 0.57100004
0.2364509 0.16932657 0.57389998
0.24158619 0.17016917 0.57800001
0.059002865 0.17480288 0.57900006
0.06360437 0.17602359 0.57503527
0.068459518 0.17649239 0.57050014
0.23196268 0.17546478 0.57040006
0.23619489 0.17615832 0.57329416
0.24138629 0.17515671 0.57653856
0.063762091 0.18364941 0.57457703
0.068429045 0.18326366 0.5710001
0.23077376 0.18453439 0.57044452
0.23621503 0.18364523 0.57288241
0.24165906 0.18716097 0.57800007
0.061737861 0.18796596 0.57625002
0.23086008 0.1905555 0.57058346
0.23599288 0.19100083 0.57475007
0.24108264 0.19095673 0.57781827
0.23084211 0.19923563 0.5722
0.23591682 0.19873677 0.57567751
0.23045118 0.20660739 0.57240003
0.23486604 0.20606744 0.57546157
0.22978728 0.21335602 0.57120001
0.23517703 0.21393527 0.57623535
0.22914964 0.22127008 0.57138097
0.23488933 0.22055854 0.57665229
0.23059453 0.22841167 0.57375002
0.23494743 0.23028709 0.57815391
0.051666673 0.073634289 0.58840007
0.055470962 0.073227562 0.58249998
0.050744969 0.079174705 0.58778262
0.054872293 0.078758471 0.58275759
0.050738908 0.08619149 0.58805007
0.055054966 0.086342968 0.58297151
0.25106183 0.087371439 0.58022219
0.050962869 0.093527764 0.58804762
0.055017538 0.093716875 0.5828824
0.25168368 0.09373229 0.58186215
0.25584763 0.096777156 0.58400005
0.050868701 0.10143407 0.58813637
0.055012386 0.10131052 0.58317649
0.25270885 0.10177666 0.58370829
0.25586361 0.10099294 0.58425009
0.050931241 0.10855158 0.58768421
0.054809373 0.10872534 0.58284378
0.25165701 0.10767024 0.5821501
0.051377971 0.11659932 0.58766675
0.054792948 0.11629432 0.58303136
0.050945118 0.12372767 0.58784205
0.055733729 0.12383998 0.58285367
0.2511954 0.12418965 0.58324999
0.25504953 0.12110668 0.58600003
0.0515383 0.1316466 0.58821434
0.05573763 0.13100637 0.58260018
0.25043863 0.1312132 0.58322585
0.051099047 0.13888071 0.588
0.056055885 0.13879544 0.58259571
0.24629812 0.13973595 0.58050001
0.25126332 0.13857536 0.58496773
0.051358514 0.14601934 0.58856249
0.055600822 0.14643297 0.58304763
0.24645829 0.14558123 0.58081818
0.2505033 0.14559981 0.58377784
0.051603075 0.15386198 0.58846158
0.055958159 0.15397041 0.58288634
0.24595107 0.15418024 0.58153844
0.24947783 0.15368763 0.58368421
0.051745404 0.16046733 0.58844447
0.055989198 0.16132559 0.58347732
0.24578403 0.16068669 0.58019996
0.051712297 0.16930193 0.58845454
0.056107853 0.16875441 0.58365953
0.060209528 0.16902858 0.58000004
0.24417381 0.16806364 0.58058822
0.051516779 0.17602067 0.58846158
0.055721115 0.17640126 0.58378577
0.24723622 0.1780324 0.58600008
0.24930993 0.17699634 0.58600008
0.052080002 0.18368003 0.58800006
0.056029975 0.18370083 0.58358693
0.060209528 0.18449526 0.58000004
0.24488887 0.18355699 0.58352947
0.24845944 0.18246783 0.58520001
0.051616702 0.1914195 0.58861542
0.055937815 0.19082826 0.58417064
0.060209528 0.19001906 0.58000004
0.24521063 0.19135004 0.58260006
0.24920002 0.19040002 0.588
0.05120445 0.19678256 0.58866668
0.05366762 0.19566572 0.58700001
0.24369216 0.19926953 0.58241671
0.2436657 0.20647758 0.58300006
0.24750477 0.20634669 0.58400005
0.23904209 0.21487634 0.5804286
0.24339451 0.21299875 0.5825001
0.23892424 0.22124398 0.58014292
0.24388213 0.22172114 0.58512002
0.24799564 0.22112668 0.58780003
0.2383277 0.2283117 0.58061111
0.24339692 0.22829454 0.58495003
0.23797373 0.23601431 0.58161539
0.24338531 0.23607497 0.58443338
0.24425885 0.24202147 0.58706671
0.043936908 0.072633892 0.59658337
0.048398577 0.071992807 0.59251612
0.044081073 0.078423686 0.5972501
0.047249217 0.078589723 0.59263998
0.044389751 0.08628235 0.59815389
0.047261745 0.086346284 0.59258336
0.044054739 0.09363132 0.59711772
0.047377352 0.093737081 0.59200001
0.044397142 0.10132001 0.59766668
0.047378447 0.10121784 0.59345841
0.044432659 0.10880519 0.59814292
0.047515444 0.10878628 0.59322226
0.044409685 0.11615049 0.5978334
0.047872096 0.11618908 0.59223527
0.044318099 0.12384066 0.59813344
0.047419537 0.12383448 0.59308004
0.25722572 0.1210143 0.59100002
0.043860715 0.13124578 0.59734994
0.047997221 0.13115847 0.5925588
0.044233263 0.13900486 0.59723085
0.047682531 0.1387327 0.59280002
0.043939602 0.14609832 0.59836847
0.047806222 0.14644326 0.59293336
0.043862633 0.15361691 0.59814292
0.048004009 0.15363945 0.59263641
0.043852128 0.16117464 0.59800005
0.048347875 0.16137822 0.59305555
0.044256985 0.16829398 0.59833336
0.048241459 0.16851196 0.59337837
0.044454154 0.17610857 0.59842861
0.048049163 0.17625524 0.59322864
0.04445466 0.18364632 0.59784621
0.048651181 0.18387543 0.59269994
0.044200826 0.19159006 0.59860003
0.048116513 0.19111347 0.59359372
0.25222054 0.19153981 0.59055549
0.044139814 0.19697717 0.5988
0.047353029 0.19822136 0.59579992
0.04617497 0.2038403 0.59857148
0.040595815 0.073234424 0.6061334
0.040315643 0.078879334 0.60458064
0.036540002 0.089900009 0.60900003
0.040661231 0.086423472 0.60485727
0.040169641 0.093777142 0.60537142
0.040480308 0.10102101 0.60415792
0.041330062 0.10869981 0.60311991
0.040837567 0.11624464 0.60302943
0.036540002 0.12702 0.60900003
0.040268261 0.12370864 0.60416675
0.036540002 0.12818001 0.60900003
0.039769333 0.13130563 0.60579413
0.036540002 0.13862 0.60900003
0.04028745 0.13873155 0.60444742
0.036540002 0.14326 0.60900003
0.039775155 0.14609711 0.60484374
0.039952595 0.15379308 0.60525805
0.036540002 0.16240001 0.60900003
0.039739471 0.16117847 0.60537493
0.036540002 0.16820002 0.60900003
0.040271662 0.16876489 0.60513163
0.036540002 0.17342001 0.60900003
0.040270876 0.17603606 0.60441035
0.040538929 0.18360332 0.60365796
0.037390478 0.18925336 0.60400003
0.040528521 0.19126044 0.60318756
0.036540002 0.19749002 0.60900003
0.040382531 0.19896543 0.60460007
0.040631164 0.20582786 0.60451293
0.045142859 0.20285715 0.60000002
0.038217146 0.2101943 0.60800004
0.035902318 0.073566534 0.615143
0.037906352 0.072896197 0.61233342
0.035933755 0.078328885 0.61606258
0.037823811 0.078557149 0.611
0.035273559 0.085977733 0.61576927
0.037823811 0.085540004 0.611
0.036005057 0.094448581 0.61361545
0.034722731 0.10134669 0.61658621
0.037854765 0.10366429 0.61150002
0.034664594 0.10870402 0.6169697
0.038478415 0.10902223 0.6121667
0.034767747 0.11620863 0.61606669
0.037992507 0.11557727 0.61137503
0.034341328 0.12320592 0.61506057
0.037823811 0.1204543 0.611
0.034965489 0.13145843 0.61567998
0.034777179 0.13878761 0.61453575
0.035038143 0.14627166 0.61322737
0.035148654 0.15362802 0.61433345
0.037823811 0.15362287 0.611
0.034846514 0.16122815 0.61523998
0.034670312 0.16827859 0.61530441
0.034716196 0.17664626 0.61579305
0.034100082 0.18406799 0.61600006
0.037823811 0.18485177 0.611
0.034514099 0.19133283 0.61632264
0.038009524 0.18946382 0.61400002
0.034654971 0.19869614 0.61516011
0.035084557 0.20613474 0.6145218
0.034796439 0.21370101 0.61625928
0.038009528 0.21343811 0.61400002
0.034715448 0.2208005 0.61695659
0.033548575 0.22542287 0.61800003
0.033441905 0.080592386 0.62040001
0.031067742 0.1022306 0.62137502
0.031328894 0.10699113 0.62066674
0.032476194 0.11514287 0.62
0.029120002 0.12598953 0.62400001
0.03072159 0.12625493 0.62433338
0.028412113 0.13140178 0.62714285
0.031653035 0.13103379 0.62463152
0.02870762 0.13576764 0.62800002
0.031511355 0.13866836 0.62624997
0.032258574 0.14814882 0.62725008
0.029182225 0.15544066 0.62533337
0.032098677 0.1540933 0.62416667
0.029260002 0.1600343 0.62700003
0.031462755 0.16102372 0.62466669
0.031400636 0.1690197 0.62344444
0.031383254 0.17517185 0.62175012
0.03129524 0.18009526 0.62
0.031396192 0.19489335 0.62200004
0.029213335 0.2015124 0.62600005
0.031267796 0.19888113 0.62243748
0.031444356 0.20529267 0.62300003
0.031537224 0.21397009 0.62091672
0.028753653 0.22388956 0.62466669
0.031431317 0.22135459 0.62135291
0.028617144 0.22714858 0.62600005
0.031049905 0.2280726 0.62460005
0.029353335 0.23302954 0.62900001
0.031240379 0.23376535 0.62840003
0.027042858 0.13220954 0.63100004
0.027042858 0.1352143 0.63100004
0.027422715 0.16171136 0.63338459
0.027669763 0.16694576 0.63512504
0.02546786 0.22346549 0.63675004
0.026653334 0.229 0.63612509
0.027273944 0.23555273 0.63308001
0.030664764 0.23750225 0.63133335
0.027973145 0.24087678 0.63580006
0.024990479 0.16518097 0.64000005
0.023775835 0.22267181 0.64012504
0.021400001 0.22867668 0.64200002
0.023735432 0.22935006 0.64126676
0.021500001 0.2328143 0.64500004
0.02364305 0.23412497 0.64320004
