# .PCD v0.7 - Point Cloud Data file format
VERSION 0.7
FIELDS x y z
SIZE 4 4 4
TYPE F F F
COUNT 1 1 1
WIDTH 368
HEIGHT 1
VIEWPOINT 0 0 0 1 0 0 0
POINTS 368
DATA ascii
0.27533337 0.29780954 0.70800006
0.2791543 0.29870859 0.708
0.27578288 0.30005717 0.70800006
0.2791543 0.30005717 0.708
0.2321343 0.2519924 0.71900004
0.23414098 0.253824 0.71760005
0.2321343 0.25952479 0.71900004
0.23619249 0.258926 0.71746659
0.24379639 0.25988582 0.71642101
0.24949786 0.26050511 0.7141819
0.23122129 0.26477462 0.71900004
0.23649767 0.26616576 0.71885175
0.24372098 0.26638809 0.71761268
0.25111175 0.26623833 0.71455556
0.25731882 0.26793143 0.71312511
0.23638956 0.27366024 0.71899998
0.24320549 0.27378675 0.7178787
0.25047362 0.2737861 0.71484858
0.25815773 0.2737847 0.71333355
0.2651681 0.27484453 0.71300018
0.23744121 0.28126597 0.71899992
0.24327452 0.28115886 0.71705866
0.25050339 0.28128776 0.71452951
0.25815752 0.28125721 0.71333325
0.26595795 0.2808837 0.71238893
0.27161905 0.28207639 0.71300012
0.2321343 0.28828478 0.71900004
0.23668107 0.28888735 0.71899992
0.24317749 0.28889379 0.71774995
0.25051546 0.28850922 0.71507144
0.25825414 0.28883818 0.71360004
0.26591313 0.28836155 0.71209675
0.27355498 0.28863239 0.71219248
0.27807567 0.29000634 0.71180004
0.23144953 0.29855621 0.71900004
0.23661445 0.29680949 0.71891659
0.24340709 0.29652214 0.7176283
0.25091466 0.29626676 0.71538454
0.25824815 0.29609764 0.71331435
0.26621076 0.29627481 0.71187806
0.27341595 0.2953721 0.71109104
0.278927 0.29652381 0.71066666
0.2321343 0.30266479 0.71900004
0.23663391 0.30257034 0.71856517
0.24378002 0.30250576 0.71700007
0.25029603 0.30207482 0.71533334
0.25809765 0.30156764 0.71316683
0.26571116 0.3013874 0.71210015
0.27250478 0.30090481 0.71000004
0.18581334 0.23920001 0.72800004
0.18483429 0.24369431 0.72900003
0.19087297 0.2439633 0.72757685
0.19874988 0.24531943 0.72535288
0.20628184 0.24513783 0.72531253
0.21263072 0.24581622 0.72361541
0.17982002 0.2534143 0.72900003
0.18489923 0.25114954 0.72895241
0.19097003 0.25089565 0.7271471
0.19914867 0.25105348 0.72543758
0.20643316 0.25131011 0.72493362
0.21359177 0.25100219 0.72264707
0.22093093 0.25108546 0.72088009
0.2289429 0.2522783 0.72060019
0.17808431 0.2594893 0.72900003
0.18408906 0.25910169 0.72869569
0.19113003 0.25830641 0.72713339
0.19866362 0.25835425 0.72625917
0.20597775 0.25914755 0.72534496
0.21356249 0.25881466 0.72302842
0.22131728 0.25850993 0.72162861
0.22862348 0.25844234 0.72089297
0.17734043 0.26452288 0.72900003
0.18406942 0.26575047 0.72887504
0.19163918 0.26595554 0.72840637
0.19849595 0.26596332 0.72657144
0.2060522 0.26634336 0.72536379
0.21365753 0.26673657 0.72406453
0.22125518 0.26602772 0.72141927
0.22845502 0.26644093 0.72020686
0.18468001 0.2735486 0.72900003
0.19122757 0.27342084 0.72811782
0.19844006 0.27380571 0.72599995
0.20576134 0.27399403 0.7256667
0.21380346 0.27423033 0.72396982
0.22124977 0.27373871 0.72197223
0.22902861 0.27360007 0.71999997
0.18508594 0.28109953 0.72877777
0.19147165 0.28147164 0.72820014
0.19874679 0.28146246 0.72599989
0.20618017 0.28120983 0.72560716
0.21352331 0.28143826 0.72369999
0.22126886 0.28110531 0.72132254
0.22902866 0.28114292 0.71999985
0.23445195 0.28132993 0.72000009
0.18513557 0.28899202 0.72870594
0.19127513 0.28895953 0.72793561
0.19899285 0.28905898 0.72585708
0.20616069 0.28828838 0.72445172
0.21350466 0.28842157 0.72309077
0.22156252 0.28875664 0.72215158
0.22897562 0.28876913 0.72020686
0.23428574 0.28777146 0.72000003
0.1846672 0.29643992 0.72895002
0.19136862 0.29606706 0.72803348
0.19916697 0.29625514 0.72585177
0.20630275 0.29633704 0.72503865
0.21372151 0.29620555 0.72354537
0.22132073 0.29620016 0.72190911
0.22874475 0.29596207 0.72018749
0.23417145 0.29382858 0.72000003
0.18476266 0.30328631 0.72889477
0.19153053 0.30321544 0.72822595
0.19856739 0.30366316 0.72703701
0.20604363 0.30363521 0.72533351
0.21356761 0.30380705 0.72396874
0.22125182 0.30327693 0.72186214
0.22840591 0.3031705 0.72020018
0.18444858 0.30779999 0.72900003
0.19125895 0.30824891 0.72881824
0.1987665 0.30819428 0.72720003
0.20397145 0.30768573 0.72600001
0.11710572 0.23948573 0.73850006
0.12449474 0.23887557 0.73853856
0.13114007 0.23740746 0.73635304
0.13842691 0.23815455 0.73533344
0.14550224 0.23932257 0.73333335
0.1534732 0.23928335 0.73250002
0.1615905 0.23890226 0.73133337
0.16859335 0.23895669 0.73150003
0.17568001 0.23912002 0.73200005
0.11771215 0.24263835 0.73899996
0.1239799 0.24410221 0.73893118
0.13128406 0.24361396 0.73716009
0.13869353 0.24398631 0.73584855
0.14655371 0.24404949 0.7333793
0.15381856 0.2438461 0.7320627
0.16148558 0.24387172 0.73131454
0.16905431 0.24357557 0.7310648
0.17614415 0.24367763 0.73103362
0.18147366 0.24436286 0.73100007
0.12487852 0.25090933 0.73890924
0.13125616 0.25116083 0.73700005
0.13875276 0.25165066 0.73641932
0.1462763 0.25126064 0.73487997
0.15364388 0.25159198 0.73235726
0.16158909 0.25143978 0.73133367
0.16917428 0.25132471 0.73100013
0.17613621 0.25132471 0.73100013
0.18170571 0.25167286 0.73100007
0.12580596 0.25847408 0.73900008
0.13151018 0.25900137 0.73780012
0.13894498 0.25894403 0.73683339
0.14650689 0.25866535 0.73604
0.15350397 0.25862131 0.73296779
0.16153958 0.25842217 0.73165536
0.16915771 0.25886402 0.73113811
0.17518353 0.25814012 0.73100001
0.18216985 0.25643018 0.73100007
0.12513736 0.26449168 0.73900008
0.13135134 0.26627639 0.73815405
0.1390333 0.26605892 0.73637503
0.1464861 0.26633751 0.73593348
0.15379839 0.26637498 0.73375773
0.16102521 0.26628444 0.73193359
0.16844071 0.26643765 0.73148513
0.1756721 0.26775485 0.73100007
0.18100953 0.26942572 0.73100001
0.12738954 0.27518955 0.73900002
0.1315687 0.27369341 0.73876011
0.13900019 0.27378955 0.73712504
0.14656986 0.27420709 0.73636007
0.15360849 0.27356178 0.73372412
0.16146398 0.27408633 0.73189312
0.16889 0.27348945 0.73111135
0.17613621 0.27360293 0.73100013
0.18100953 0.2736029 0.73100001
0.1260902 0.2812531 0.73900008
0.13161156 0.28086409 0.73869246
0.13884795 0.28129506 0.73725009
0.14668995 0.28144863 0.73696011
0.15403686 0.28101373 0.73456234
0.16143006 0.2809875 0.7323705
0.1687943 0.28100041 0.73116696
0.17613621 0.28056479 0.73100013
0.18142726 0.28167868 0.73100007
0.12633383 0.28750619 0.73900002
0.13152671 0.28860274 0.73879325
0.13836451 0.28867158 0.73748016
0.1460606 0.28861326 0.73733342
0.15412392 0.2887916 0.73570961
0.16133827 0.2884562 0.73336005
0.16862661 0.2887527 0.73182374
0.17636921 0.28860387 0.73196691
0.18187977 0.28909308 0.73100001
0.13280347 0.29543757 0.73900008
0.13872039 0.2960864 0.73875016
0.14645363 0.29633638 0.73874205
0.15367898 0.29663259 0.73682153
0.16118701 0.29636458 0.73460603
0.16872366 0.29631266 0.73206687
0.17619348 0.2959778 0.73124015
0.18100953 0.295881 0.73100001
0.14044201 0.30270207 0.73900002
0.14629228 0.30343923 0.73806268
0.1536161 0.30372617 0.73652005
0.16098133 0.30377021 0.73492873
0.16872115 0.30397713 0.73205578
0.17621547 0.3036778 0.73133373
0.18117021 0.3036997 0.73100007
0.14084011 0.31069282 0.73899996
0.14600861 0.31038126 0.73825938
0.15358053 0.30996847 0.73635012
0.16076297 0.30962864 0.73509097
0.16868755 0.30949628 0.73191667
0.17615993 0.30915076 0.73110002
0.182634 0.30957273 0.73100007
0.1148762 0.2389143 0.74000001
0.087331593 0.24566178 0.74550009
0.093964927 0.24543352 0.74530774
0.10118272 0.24481988 0.74295008
0.10887913 0.24392061 0.74236673
0.11559361 0.24458589 0.74035287
0.1205143 0.24737145 0.74000001
0.073909529 0.25253907 0.74800009
0.079315893 0.2515339 0.74722725
0.086248443 0.25147271 0.74707413
0.093690962 0.25126424 0.74527806
0.10137337 0.25166556 0.74436009
0.10869376 0.25099334 0.74282146
0.11602882 0.25131285 0.74174994
0.12121905 0.25248095 0.74000001
0.07408762 0.25823811 0.74800009
0.078984872 0.25830403 0.74715996
0.085969955 0.25848433 0.74604005
0.093657151 0.25897622 0.74500024
0.10131844 0.258614 0.74396008
0.10842318 0.2584306 0.74296165
0.11603789 0.25863791 0.74228579
0.12182314 0.25844631 0.73999995
0.074800007 0.26358098 0.74800003
0.079723015 0.26579663 0.74769568
0.085861996 0.2661244 0.74642861
0.093639284 0.26609251 0.74467754
0.10150646 0.26606983 0.74453855
0.10863791 0.26609641 0.74290919
0.11625458 0.26634759 0.74181467
0.12303661 0.26725316 0.73999989
0.12756191 0.26992384 0.74000001
0.081567623 0.27248573 0.74800003
0.086271644 0.27367008 0.74704343
0.093814999 0.27379113 0.74506086
0.10123997 0.27366808 0.74410361
0.10826571 0.27384853 0.74300003
0.1159805 0.27368864 0.74256676
0.12345138 0.2741358 0.74071991
0.12756191 0.27380002 0.74000001
0.088335246 0.27925336 0.74800003
0.094221063 0.28130814 0.74612004
0.10136173 0.28140905 0.7442801
0.10825972 0.28090975 0.74296004
0.11612772 0.28103566 0.74227291
0.12236391 0.28094718 0.74077773
0.094612122 0.28868178 0.74695992
0.10142831 0.28868309 0.74476004
0.10850954 0.28870568 0.74364305
0.11583715 0.28898343 0.74287879
0.12314987 0.28957337 0.74133325
0.09476649 0.29640818 0.74773073
0.10149368 0.29596722 0.74524009
0.10830738 0.2962532 0.74456525
0.11604954 0.29649249 0.74300009
0.1234214 0.29620007 0.74165213
0.1297643 0.29723334 0.73999989
0.13601905 0.29952383 0.74000001
0.094479889 0.30355254 0.74788243
0.10120147 0.30371568 0.74646431
0.10855717 0.30379856 0.74500018
0.11617182 0.30389544 0.74380016
0.12389058 0.30364078 0.74240744
0.13106185 0.30382743 0.74051595
0.13742857 0.30425581 0.73999995
0.093321912 0.31359014 0.74800009
0.10205799 0.31106791 0.74756527
0.1087109 0.31146729 0.74525011
0.11621151 0.31141838 0.74340016
0.12363324 0.31148511 0.74271435
0.13123751 0.31116366 0.74086672
0.13762772 0.31067589 0.74012488
0.093611009 0.31628212 0.74777788
0.1011581 0.31629714 0.74800009
0.10817875 0.3157835 0.74566674
0.11281429 0.31573811 0.74500006
0.069437787 0.25413495 0.75166672
0.056651905 0.26175717 0.75300002
0.064289168 0.25966167 0.75212497
0.070479691 0.25879231 0.75056005
0.051964771 0.26844862 0.75433344
0.056773424 0.266179 0.75300014
0.063740954 0.26570666 0.75200003
0.070772566 0.2659398 0.7506364
0.076250002 0.26803571 0.75000006
0.043861907 0.27611428 0.75500005
0.049694125 0.27511945 0.75494128
0.056493197 0.27314857 0.75307703
0.063900217 0.27335519 0.75207162
0.070763618 0.2735571 0.75158632
0.077732928 0.27400628 0.75000012
0.043896765 0.28137222 0.75560009
0.04886286 0.28097427 0.75453335
0.056754425 0.28110468 0.7536431
0.063836455 0.28132269 0.75316
0.07082545 0.28116414 0.75120008
0.078571446 0.28071427 0.75000012
0.085726671 0.2813912 0.75011116
0.090714291 0.28285718 0.75000006
0.042111114 0.28980464 0.75800014
0.048943017 0.28863165 0.75576687
0.056697667 0.28852203 0.75445461
0.063667871 0.28870234 0.7530371
0.070902869 0.28862476 0.75200003
0.078885294 0.28868908 0.75115168
0.086443566 0.28862247 0.75013345
0.090714291 0.28857148 0.75000012
0.036508959 0.29597029 0.75760001
0.041399676 0.29651457 0.75800008
0.048268955 0.29610801 0.75648016
0.056307625 0.29606327 0.75536364
0.063773721 0.29594406 0.75240004
0.070902862 0.29578674 0.75200003
0.078626931 0.296134 0.75077426
0.086428575 0.29642862 0.75000006
0.091122456 0.29704085 0.75000012
0.042411912 0.30410239 0.75800008
0.048513271 0.30404425 0.75606281
0.056165617 0.30391186 0.75577438
0.063834287 0.30340189 0.75311995
0.071004771 0.30355528 0.7520346
0.078424349 0.30342907 0.75031257
0.086428575 0.30357143 0.75000006
0.091785714 0.30410716 0.75000006
0.035373338 0.30969715 0.75800008
0.041399673 0.31107825 0.75800008
0.048602104 0.31141752 0.75604194
0.056270968 0.31178829 0.75582767
0.064023599 0.31138575 0.75469226
0.070813566 0.31147304 0.75223088
0.078613468 0.31087995 0.75040007
0.086428575 0.31071424 0.75000006
0.093571447 0.31071427 0.75000006
0.098333344 0.31190479 0.75000012
0.035613973 0.32004446 0.75800002
0.041698601 0.31835997 0.75800014
0.048170734 0.31875375 0.75800014
0.056186236 0.31839877 0.75637519
0.06389574 0.31782198 0.75473702
0.070982419 0.31763831 0.7528668
0.078685082 0.31689715 0.75111109
0.086428583 0.31642863 0.75000012
0.092619054 0.31547624 0.75000012
0.097857147 0.31500003 0.75000006
0.034742858 0.29893336 0.76000005
0.038361907 0.29893336 0.76000005
0.036014292 0.30372086 0.76045465
0.039005294 0.3035979 0.76000011
0.035022918 0.3111335 0.76018763
0.038361907 0.31099686 0.76000011
0.034995638 0.31761485 0.76025009
0.038361907 0.31920001 0.76000005
