# .PCD v0.7 - Point Cloud Data file format
VERSION 0.7
FIELDS x y z
SIZE 4 4 4
TYPE F F F
COUNT 1 1 1
WIDTH 203
HEIGHT 1
VIEWPOINT 0 0 0 1 0 0 0
POINTS 203
DATA ascii
-0.56489241 -1.2889534 3.2770002
-0.55865049 -1.2889534 3.2770002
-0.54616672 -1.2764696 3.2770002
-0.5399248 -1.2764696 3.2770002
-0.57040858 -1.3204486 3.3090003
-0.58301431 -1.3141458 3.3090003
-0.57356 -1.3141458 3.3090003
-0.58301431 -1.307843 3.3090003
-0.57356 -1.307843 3.3090003
-0.56410575 -1.307843 3.3090003
-0.58301431 -1.3015401 3.3090003
-0.57671148 -1.3015401 3.3090003
-0.60192287 -1.2952372 3.3090003
-0.58301431 -1.2952372 3.3090003
-0.57356 -1.2952372 3.3090003
-0.56410575 -1.2952372 3.3090003
-0.58301431 -1.2889344 3.3090003
-0.57250953 -1.2868335 3.3090005
-0.56410575 -1.2857829 3.3090003
-0.55780292 -1.2857829 3.3090003
-0.55150002 -1.2038457 3.3090003
-0.54519719 -1.2038457 3.3090003
-0.53469241 -1.2048963 3.3090005
-0.52628863 -1.2038457 3.3090003
-0.55150002 -1.1943915 3.3090003
-0.54519719 -1.1943915 3.3090003
-0.53259146 -1.1943915 3.3090003
-0.52628863 -1.1943915 3.3090003
-0.51998574 -1.1943915 3.3090003
-0.57040858 -1.1880887 3.3090003
-0.57040858 -1.1817858 3.3090003
-0.56410575 -1.1817858 3.3090003
-0.57040858 -1.175483 3.3090003
-0.57040858 -1.16918 3.3090003
-0.56410575 -1.1565744 3.3090003
-0.6331991 -1.3332182 3.3410001
-0.62683529 -1.3332182 3.3410001
-0.62047148 -1.3332182 3.3410001
-0.61092579 -1.3332182 3.3410001
-0.60138005 -1.3332182 3.3410001
-0.6331991 -1.3236725 3.3410001
-0.62683529 -1.3236725 3.3410001
-0.62047148 -1.3236725 3.3410001
-0.61092579 -1.3236725 3.3410001
-0.60138005 -1.3236725 3.3410001
-0.62683529 -1.3141267 3.3410001
-0.61092579 -1.3141267 3.3410001
-0.60138005 -1.3141267 3.3410001
-0.59501624 -1.3141267 3.3410001
-0.62683529 -1.307763 3.3410001
-0.62047148 -1.307763 3.3410001
-0.61410767 -1.307763 3.3410001
-0.60138005 -1.307763 3.3410001
-0.59501624 -1.307763 3.3410001
-0.61092579 -1.3013991 3.3410001
-0.60138005 -1.3013991 3.3410001
-0.59501624 -1.3013991 3.3410001
-0.61092579 -1.2950354 3.3410001
-0.60138005 -1.2950354 3.3410001
-0.59501624 -1.2950354 3.3410001
-0.58865243 -1.2950354 3.3410001
-0.60774386 -1.2886715 3.3410001
-0.60138005 -1.2886715 3.3410001
-0.59501624 -1.2886715 3.3410001
-0.58865243 -1.2886715 3.3410001
-0.60986519 -1.2780652 3.3410003
-0.60138005 -1.2791258 3.3410001
-0.59501624 -1.2791258 3.3410001
-0.58865243 -1.2791258 3.3410001
-0.58228862 -1.2791258 3.3410001
-0.61092579 -1.2695801 3.3410001
-0.60138005 -1.2695801 3.3410001
-0.59501624 -1.2695801 3.3410001
-0.60138005 -1.2632163 3.3410001
-0.60138005 -1.2568525 3.3410001
-0.59501624 -1.2568525 3.3410001
-0.60138005 -1.2504886 3.3410001
-0.59501624 -1.2504886 3.3410001
-0.60138005 -1.240943 3.3410001
-0.59501624 -1.240943 3.3410001
-0.58865243 -1.2186697 3.3410001
-0.57592481 -1.2186697 3.3410001
-0.56637907 -1.2186697 3.3410001
-0.58865243 -1.2123058 3.3410001
-0.57592481 -1.2123058 3.3410001
-0.56637907 -1.2123058 3.3410001
-0.57592481 -1.205942 3.3410001
-0.56637907 -1.205942 3.3410001
-0.58228862 -1.1963964 3.3410001
-0.56531847 -1.1974571 3.3410003
-0.55683339 -1.1963964 3.3410001
-0.56637907 -1.1868505 3.3410001
-0.55683339 -1.1868505 3.3410001
-0.55046958 -1.1868505 3.3410001
-0.56637907 -1.1804868 3.3410001
-0.55683339 -1.1804868 3.3410001
-0.55046958 -1.1804868 3.3410001
-0.56637907 -1.1741229 3.3410001
-0.55683339 -1.1741229 3.3410001
-0.55046958 -1.1741229 3.3410001
-0.5631972 -1.1677592 3.3410001
-0.55683339 -1.1677592 3.3410001
-0.55046958 -1.1677592 3.3410001
-0.54410577 -1.1677592 3.3410001
-0.56637907 -1.1582134 3.3410001
-0.55683339 -1.1550316 3.3410001
-0.53774196 -1.1359401 3.3410001
-0.53774196 -1.1232125 3.3410001
-0.52819622 -1.1232125 3.3410001
-0.53774196 -1.1136668 3.3410001
-0.52819622 -1.1136667 3.3410001
-0.53774196 -1.104121 3.3410001
-0.52819622 -1.104121 3.3410001
-0.51865053 -1.104121 3.3410001
-0.53774196 -1.0850296 3.3410001
-0.52819622 -1.0850296 3.3410001
-0.51865053 -1.0850296 3.3410001
-0.52501434 -1.0786657 3.3410001
-0.51865053 -1.0786657 3.3410001
-0.50592291 -1.0532105 3.3410001
-0.49955907 -1.0532105 3.3410001
-0.50592291 -1.0468467 3.3410001
-0.49955907 -1.0468467 3.3410001
-0.49955907 -1.0404829 3.3410001
-0.50592291 -1.0277553 3.3410001
-0.49955907 -1.0309372 3.3410001
-0.51228672 -1.0213915 3.3410001
-0.50592291 -1.0213915 3.3410001
-0.49955907 -1.0213915 3.3410001
-0.49319527 -1.0213915 3.3410001
-0.50592291 -1.0150276 3.3410001
-0.49955907 -1.0150276 3.3410001
-0.49319527 -1.0150276 3.3410001
-0.50592291 -1.0086639 3.3410001
-0.49955907 -1.0086639 3.3410001
-0.50592291 -1.0023 3.3410001
-0.49955907 -1.0023 3.3410001
-0.49319527 -1.0023 3.3410001
-0.48683146 -1.0023 3.3410001
-0.49955907 -0.99593627 3.3410001
-0.49319527 -0.99593627 3.3410001
-0.48364955 -0.99593627 3.3410001
-0.49955907 -0.98639059 3.3410001
-0.49319527 -0.98957247 3.3410001
-0.48364955 -0.98957247 3.3410001
-0.60071528 -1.3588372 3.3730001
-0.60392767 -1.3524125 3.3730001
-0.58786577 -1.3524125 3.3730001
-0.58144099 -1.3524125 3.3730001
-0.54931718 -1.3010144 3.3730001
-0.55895436 -1.2945896 3.3730001
-0.54931718 -1.2945896 3.3730001
-0.55895436 -1.2881649 3.3730001
-0.5750162 -1.2785277 3.3730001
-0.56859148 -1.2785277 3.3730001
-0.5428924 -1.2624658 3.3730001
-0.54931718 -1.256041 3.3730001
-0.55895436 -1.2496163 3.3730001
-0.54931718 -1.2496163 3.3730001
-0.54931718 -1.2367667 3.3730001
-0.56766671 -1.2942801 3.4060001
-0.5611791 -1.2942801 3.4060001
-0.55144763 -1.2942801 3.4060001
-0.528741 -1.2942801 3.4060001
-0.5611791 -1.2877924 3.4060001
-0.55144763 -1.2877924 3.4060001
-0.58064193 -1.2813048 3.4060001
-0.57415432 -1.2813048 3.4060001
-0.55144763 -1.2813048 3.4060001
-0.53522861 -1.2813048 3.4060001
-0.528741 -1.2813048 3.4060001
-0.58712953 -1.2715734 3.4060001
-0.57415432 -1.2748172 3.4060001
-0.56766671 -1.2683296 3.4060001
-0.5611791 -1.2715734 3.4060001
-0.55469149 -1.2748172 3.4060001
-0.5936172 -1.2488668 3.4060001
-0.54820383 -1.2229162 3.4060001
-0.54171622 -1.2229162 3.4060001
-0.53522861 -1.2229162 3.4060001
-0.54171622 -1.2164286 3.4060001
-0.53522861 -1.2164286 3.4060001
-0.54171622 -1.209941 3.4060001
-0.53522861 -1.209941 3.4060001
-0.51576573 -1.1904782 3.4060001
-0.51576573 -1.1807468 3.4060001
-0.55144763 -1.1710153 3.4060001
-0.528741 -1.1710153 3.4060001
-0.52225339 -1.1710153 3.4060001
-0.5611791 -1.1645277 3.4060001
-0.55469149 -1.1645277 3.4060001
-0.54171622 -1.1645277 3.4060001
-0.53522861 -1.1645277 3.4060001
-0.528741 -1.1645277 3.4060001
-0.57415432 -1.1515524 3.4060001
-0.56766671 -1.1515524 3.4060001
-0.5611791 -1.1515524 3.4060001
-0.55469149 -1.1515524 3.4060001
-0.56766671 -1.1450648 3.4060001
-0.5611791 -1.1450648 3.4060001
-0.58064193 -1.1191144 3.4060001
-0.57415432 -1.1191144 3.4060001
-0.57415432 -1.1126268 3.4060001
