# .PCD v0.7 - Point Cloud Data file format
VERSION 0.7
FIELDS x y z
SIZE 4 4 4
TYPE F F F
COUNT 1 1 1
WIDTH 202
HEIGHT 1
VIEWPOINT 0 0 0 1 0 0 0
POINTS 202
DATA ascii
0.11898715 -0.022972859 0.61849999
0.12429102 -0.023801606 0.61706257
0.13184953 -0.023023704 0.61288887
0.13934007 -0.023807563 0.61343753
0.14456573 -0.023715133 0.61400002
0.11682924 -0.018192446 0.61751729
0.12365503 -0.018755944 0.6153571
0.13131417 -0.018676829 0.61280972
0.13899919 -0.018689947 0.61322248
0.1465029 -0.018752674 0.61530542
0.15351057 -0.019049196 0.61772412
0.15878525 -0.020583335 0.61750007
0.1160128 -0.011293763 0.61652935
0.12349428 -0.011024618 0.61341339
0.13128987 -0.011086338 0.61269403
0.13873103 -0.011075374 0.61204767
0.14624551 -0.011114672 0.61421442
0.1531639 -0.010944609 0.61738706
0.11701364 -0.0038432707 0.6178335
0.12356344 -0.0035115655 0.61490482
0.13138588 -0.0035025401 0.61314309
0.13879648 -0.0034983067 0.6123336
0.14625302 -0.003509498 0.61425006
0.15265726 -0.0041663493 0.61638105
0.11743491 0.003336896 0.61825925
0.12385666 0.0035222457 0.61635697
0.13148546 0.0035053066 0.61361915
0.13889809 0.0035013759 0.61277801
0.14605092 0.0035360062 0.61538714
0.1506941 0.004825905 0.61760008
0.11827991 0.011476826 0.61876208
0.12386518 0.011154129 0.61640805
0.13141637 0.011098485 0.61328596
0.13907258 0.011103109 0.61354786
0.14613704 0.011151293 0.61622852
0.15028001 0.01001943 0.61880004
0.11810324 0.018614478 0.61850011
0.12388502 0.018789096 0.6164999
0.13149275 0.01870193 0.61364305
0.13901712 0.018690983 0.61330581
0.14624205 0.018795175 0.61666662
0.15327621 0.021812383 0.61900002
0.11967334 0.02299143 0.61900002
0.12411296 0.026293252 0.6170212
0.1315034 0.026301293 0.61369413
0.13885535 0.026250776 0.61394745
0.14597152 0.026337786 0.61754048
0.15291588 0.025224831 0.61786669
0.11890157 0.034104288 0.61892867
0.12383749 0.033890929 0.6169318
0.13148862 0.033825234 0.61444992
0.13871627 0.033906784 0.61411434
0.14606385 0.033913415 0.61708826
0.15046726 0.031460006 0.61860001
0.11967334 0.039498098 0.61900008
0.12409875 0.041171707 0.61757141
0.1312995 0.040934034 0.61447376
0.1383566 0.041020367 0.61479414
0.1449621 0.040855717 0.6175769
0.1181623 0.049891248 0.61850011
0.12391971 0.048744939 0.61667329
0.13129029 0.048649069 0.61542845
0.1383532 0.048659485 0.61554766
0.14535667 0.049437229 0.61775756
0.15112458 0.051238477 0.61840004
0.1170544 0.056468926 0.6176334
0.12381857 0.056335621 0.61616653
0.13116954 0.056215864 0.61486107
0.13842426 0.0563077 0.61586106
0.14602141 0.056317586 0.61731583
0.1506131 0.05530405 0.61775005
0.11734259 0.063283101 0.61800009
0.12347276 0.063364595 0.61681092
0.13099937 0.063475452 0.61641443
0.13857453 0.063504659 0.61632419
0.14528438 0.063524388 0.61760008
0.11807593 0.069683 0.61857152
0.12378945 0.069610558 0.61836004
0.13151886 0.069763146 0.61796683
0.13837625 0.070968807 0.61744744
0.14460504 0.068479329 0.61757153
0.13167851 -0.061515916 0.62650001
0.13905621 -0.061319042 0.62449998
0.14475441 -0.061270602 0.62612498
0.12639906 -0.053315241 0.62900001
0.13102809 -0.056073785 0.62737489
0.13884853 -0.056016151 0.62571424
0.14549871 -0.055898886 0.62681818
0.12639906 -0.04942143 0.62900001
0.13095514 -0.049035039 0.62788105
0.1389005 -0.048883718 0.62595236
0.14636444 -0.048966333 0.62677425
0.15036096 -0.047324765 0.62900001
0.12639906 -0.044928573 0.62900001
0.13106389 -0.044240296 0.62707698
0.13865401 -0.044169303 0.62607694
0.14577822 -0.043206152 0.62834996
0.15036096 -0.043730479 0.62900001
0.14516923 -0.035343811 0.62900001
0.11181477 -0.023195717 0.62450004
0.1152373 -0.023420136 0.62142861
0.10960779 -0.018665491 0.62511766
0.11425584 -0.020324107 0.62061542
0.1564762 -0.016533334 0.62
0.15934888 -0.017420953 0.62092316
0.1089402 -0.011312399 0.62512231
0.11278096 -0.0076761912 0.62
0.1564762 -0.012990477 0.62
0.16085893 -0.011352631 0.62215787
0.10886204 -0.0035699322 0.62466663
0.11356826 -0.002755556 0.61999995
0.15691787 -0.0035507143 0.62175
0.15991683 -0.003922177 0.62266666
0.10433334 0.0065580956 0.62600005
0.10886268 0.0035513125 0.62414634
0.11377423 0.0038996832 0.62026668
0.15547375 0.0044424408 0.62218755
0.16057315 0.0037912126 0.62550014
0.10332852 0.01233041 0.62507141
0.10875141 0.011291583 0.62399989
0.11480926 0.011020679 0.62071431
0.15420355 0.011326189 0.62202936
0.16050905 0.011429278 0.62532264
0.10386905 0.016964287 0.625
0.10895726 0.018965535 0.6246829
0.11455321 0.019129569 0.62059081
0.15352738 0.01890197 0.62159997
0.16035345 0.018528266 0.62475002
0.10889 0.026182543 0.6248095
0.11643041 0.026097218 0.62104881
0.15447938 0.027780956 0.62066668
0.15959267 0.027801476 0.62590915
0.10483335 0.035343811 0.62900007
0.10908757 0.033530839 0.62515908
0.11546156 0.033528496 0.62137145
0.14939049 0.037200004 0.62
0.15467918 0.033433214 0.62434787
0.16013379 0.033400293 0.62769586
0.10887839 0.041254044 0.62546813
0.11621106 0.041528255 0.62087184
0.1486841 0.041794293 0.62057149
0.15413876 0.041495323 0.62528574
0.16020465 0.040907048 0.62831998
0.10423429 0.047923811 0.62900001
0.10892855 0.048810869 0.62502384
0.11507626 0.048048045 0.62059253
0.14847763 0.04683286 0.62049997
0.15382642 0.047535334 0.62428582
0.15974486 0.047733255 0.62863636
0.10483334 0.058706671 0.62900001
0.10899164 0.056182642 0.62448883
0.11342341 0.056122463 0.62028575
0.15248668 0.059333339 0.62300003
0.10483335 0.061701909 0.62900007
0.1088567 0.063759893 0.62461358
0.11403538 0.0644162 0.62126666
0.14939049 0.063771434 0.62
0.15411784 0.063791715 0.62394118
0.15773812 0.062896833 0.625
0.11036048 0.069974497 0.62492865
0.11445116 0.069606408 0.62314296
0.12466287 0.073180959 0.6213333
0.13152497 0.072675429 0.62040001
0.14703825 0.07151641 0.62253845
0.15203336 0.071227983 0.62387502
0.12639239 0.075716197 0.62600005
0.14722982 0.076035246 0.62442863
0.15290001 0.077243343 0.62549996
0.11913811 -0.062895238 0.63500005
0.1236394 -0.062424168 0.63329178
0.12800287 -0.061898105 0.63100004
0.11923191 -0.059312861 0.63550007
0.12377587 -0.056893419 0.6330263
0.12800287 -0.058292385 0.63100004
0.14843525 -0.058292385 0.63100004
0.12429383 -0.048643187 0.63217247
0.15083906 -0.046273336 0.63100004
0.12459163 -0.04393905 0.63200003
0.12800287 -0.043869525 0.63100004
0.14603144 -0.039061911 0.63100004
0.14543048 -0.036658097 0.63100004
0.10877097 -0.023567144 0.63450003
0.10307687 -0.016957292 0.63407695
0.10673414 -0.019400161 0.63316667
0.10287256 -0.011110636 0.63249999
0.10522223 -0.010821588 0.63133335
0.10374477 -0.0054282546 0.63333338
0.10516667 -0.0048076194 0.63100004
0.10396477 0.036057144 0.63100004
0.10305859 0.042139526 0.63335723
0.10530557 0.040918574 0.63183337
0.16361921 0.042342726 0.63128579
0.16552383 0.041531432 0.63200003
0.10255015 0.048476107 0.63409102
0.10516667 0.048917528 0.63100004
0.16315858 0.045972858 0.63100004
0.10235775 0.056261316 0.63570374
0.10516667 0.055287622 0.63100004
0.10253908 0.06258025 0.63743478
0.10516667 0.064301908 0.63100004
0.10020239 0.065576673 0.64350003
0.099973343 0.06869334 0.64400005
