# .PCD v0.7 - Point Cloud Data file format
VERSION 0.7
FIELDS x y z
SIZE 4 4 4
TYPE F F F
COUNT 1 1 1
WIDTH 629
HEIGHT 1
VIEWPOINT 0 0 0 1 0 0 0
POINTS 629
DATA ascii
0.044617146 -0.18578288 0.76800001
0.047213148 -0.18695372 0.76739997
0.051908892 -0.18643336 0.7676667
0.057782862 -0.18505144 0.76800001
0.06290286 -0.18505144 0.76800001
0.067291431 -0.18578288 0.76800001
0.072411433 -0.1865143 0.76800001
0.076312385 -0.1865143 0.76800007
0.044617146 -0.18212573 0.76800001
0.047496274 -0.18267834 0.76725006
0.052553736 -0.18321073 0.76641679
0.057651196 -0.18298905 0.76624995
0.062191192 -0.18256453 0.76600003
0.06771291 -0.1830291 0.7663334
0.072301745 -0.18257955 0.76683342
0.076409534 -0.1824317 0.76775008
0.047835432 -0.17861487 0.76800007
0.052707683 -0.17827204 0.76653337
0.057688661 -0.17817613 0.7667501
0.062420208 -0.17819354 0.76592863
0.067491308 -0.17795892 0.76671439
0.072390698 -0.17768531 0.76777786
0.075824767 -0.1787124 0.76800001
0.053603269 -0.17376654 0.76800007
0.057929147 -0.17305599 0.76800007
0.062155433 -0.17301048 0.76780009
0.067224942 -0.17348157 0.76800013
0.071680009 -0.17481144 0.76800001
0.059245717 -0.16822858 0.76800001
0.062537149 -0.1685943 0.76800001
0.066257149 -0.19509049 0.77300006
0.039018098 -0.19067335 0.77300006
0.043129146 -0.19091849 0.77280003
0.047821432 -0.19128619 0.77250004
0.051640004 -0.1914088 0.77240008
0.058137015 -0.19144396 0.77271438
0.062540002 -0.19203587 0.77255565
0.067473248 -0.19212192 0.77236366
0.072835721 -0.19275764 0.77250004
0.077534482 -0.19258554 0.77240008
0.081822231 -0.19168107 0.77244449
0.038248576 -0.187567 0.77233338
0.042135622 -0.18734135 0.77079999
0.049133338 -0.18846668 0.77000004
0.052066676 -0.1884667 0.7700001
0.057255 -0.18791693 0.77074999
0.062414289 -0.18797812 0.77100003
0.067361914 -0.18825716 0.7700001
0.072600007 -0.18920003 0.7700001
0.078466669 -0.18828335 0.77000004
0.083094925 -0.18751314 0.77211112
0.086134292 -0.1862562 0.77300006
0.038256668 -0.18245715 0.77250004
0.041705109 -0.18223776 0.77072728
0.079346672 -0.18260001 0.77000004
0.083074056 -0.18231867 0.77191675
0.0861343 -0.18331145 0.77300012
0.039018102 -0.17742191 0.77300012
0.042816672 -0.17746322 0.77135724
0.047457147 -0.17631432 0.7700001
0.050600003 -0.17600001 0.77000004
0.074066669 -0.17526668 0.77000004
0.07764782 -0.17731106 0.77060002
0.081480958 -0.17749096 0.7725001
0.043166272 -0.17266566 0.77258343
0.047735024 -0.17258075 0.77111113
0.051875927 -0.17197771 0.77028579
0.056466669 -0.1708667 0.7700001
0.062333338 -0.17086668 0.77000004
0.067613341 -0.17116001 0.77000004
0.072642326 -0.17243196 0.77044445
0.077048369 -0.17264138 0.77211112
0.080244765 -0.17447716 0.77300006
0.044907622 -0.16858763 0.77300006
0.047956102 -0.1681401 0.77230006
0.052178577 -0.16756032 0.77166671
0.056948848 -0.16717473 0.77085721
0.061960004 -0.16658914 0.77057147
0.067649826 -0.16774069 0.77015394
0.072623812 -0.16803126 0.77179998
0.076171197 -0.16853262 0.77275002
0.05374191 -0.16417049 0.77300006
0.057403576 -0.1641174 0.77275002
0.062772386 -0.16391449 0.77180004
0.066834763 -0.16451445 0.77116674
0.053347621 -0.20672573 0.778
0.056980006 -0.20757002 0.77700001
0.063128963 -0.20791201 0.77800006
0.066029526 -0.20624954 0.77900004
0.049707621 -0.20254001 0.77900004
0.052516829 -0.20267241 0.77666676
0.057414427 -0.20279607 0.77714294
0.062429238 -0.20291044 0.77823091
0.067405954 -0.20203145 0.77775002
0.072453946 -0.20226434 0.7784546
0.077603243 -0.20164974 0.77900004
0.082351439 -0.20105621 0.77900004
0.086802863 -0.20105621 0.77900004
0.037837144 -0.19586286 0.77900004
0.042659529 -0.19697574 0.77900004
0.047493428 -0.19772391 0.77809101
0.052494925 -0.19741173 0.77633333
0.057669528 -0.19741079 0.77633333
0.062738098 -0.19707143 0.77500004
0.06737756 -0.19749323 0.77500004
0.072457783 -0.19741176 0.77633345
0.077766672 -0.19775081 0.77766663
0.08216393 -0.19763866 0.77722234
0.086347625 -0.19759254 0.77871436
0.034476191 -0.19166002 0.77850002
0.037513606 -0.19243528 0.77671427
0.042125717 -0.19363146 0.77600002
0.047238097 -0.19411907 0.77500004
0.053142861 -0.19338097 0.77500004
0.056538101 -0.19352861 0.77500004
0.076023817 -0.19411907 0.77500004
0.084142864 -0.19338097 0.77500004
0.08776477 -0.19240041 0.77700001
0.092526123 -0.19172941 0.77900004
0.034431431 -0.18734047 0.77750003
0.036260001 -0.18722002 0.77700007
0.088189766 -0.18765405 0.77650005
0.092712067 -0.18764882 0.7787779
0.095705718 -0.18696001 0.77900004
0.034869526 -0.18250859 0.77900004
0.036283337 -0.18215574 0.77750003
0.088353343 -0.18229921 0.77585721
0.092606664 -0.18298826 0.77788901
0.095705718 -0.1847343 0.77900004
0.034498572 -0.17694429 0.77900004
0.036998097 -0.17759812 0.77700013
0.084511906 -0.17751192 0.77500004
0.087868065 -0.17749809 0.77730775
0.092632696 -0.17859377 0.77811122
0.03803448 -0.17315811 0.77700001
0.041359529 -0.17134811 0.77550006
0.078976199 -0.17123811 0.77500004
0.082217582 -0.17283508 0.77645463
0.086347625 -0.17301185 0.77871436
0.039270476 -0.16893619 0.778
0.042353339 -0.16759665 0.77772743
0.046066668 -0.16603842 0.77600002
0.074183822 -0.16586384 0.77633333
0.077885002 -0.16686812 0.77700001
0.081822231 -0.1688343 0.77866668
0.08531905 -0.1698962 0.77900004
0.047947202 -0.16342106 0.77722222
0.052380525 -0.16251925 0.77663648
0.057463467 -0.16204046 0.77627277
0.062588252 -0.16177495 0.77722228
0.06728223 -0.16191842 0.77633339
0.072303474 -0.16336547 0.77681822
0.076416194 -0.16396096 0.77900004
0.057126671 -0.15950954 0.77900004
0.060094289 -0.15950954 0.77900004
0.048034292 -0.20652466 0.78285718
0.051973976 -0.20913844 0.78333342
0.068223141 -0.20808002 0.78228587
0.072032154 -0.20753835 0.78175008
0.077555723 -0.20730953 0.78300005
0.082454771 -0.20706812 0.78350008
0.08736001 -0.20682669 0.7840001
0.038080003 -0.20085335 0.7840001
0.042814475 -0.20184231 0.78320009
0.047045991 -0.20252411 0.78057152
0.067600004 -0.20428573 0.78000003
0.077743627 -0.20409334 0.78039998
0.08256413 -0.20380414 0.78100002
0.087349944 -0.2035328 0.78200012
0.091093339 -0.20085335 0.78400004
0.029045716 -0.1958724 0.78200006
0.032755241 -0.19628668 0.78166676
0.03710781 -0.19835734 0.78240007
0.042342864 -0.19883811 0.78000009
0.046800002 -0.19982858 0.78000003
0.088895246 -0.19685715 0.78000009
0.091820717 -0.19761358 0.78225011
0.028469389 -0.192249 0.78371435
0.031817146 -0.19295573 0.7815001
0.093600005 -0.19388573 0.78000003
0.028360954 -0.18733303 0.78366673
0.031701528 -0.18768439 0.78140008
0.028672382 -0.18284002 0.78200006
0.032107051 -0.18239051 0.7804001
0.028300477 -0.17725143 0.78200001
0.031661715 -0.1771867 0.7804001
0.092602864 -0.17590953 0.78100002
0.028373335 -0.17397335 0.78400004
0.032842256 -0.17289074 0.78218192
0.036138672 -0.17088382 0.78080004
0.088490672 -0.17207165 0.78080004
0.090346672 -0.17322668 0.78400004
0.037837673 -0.1674999 0.78244448
0.040857144 -0.16565715 0.78000003
0.079485722 -0.16565715 0.78000003
0.082880825 -0.16671811 0.78200012
0.086218417 -0.16870731 0.78266668
0.042663679 -0.16352682 0.78200012
0.047414821 -0.16111557 0.78200006
0.072466664 -0.16085221 0.78120005
0.077416092 -0.16253102 0.78244454
0.048533335 -0.15904 0.78400004
0.052592959 -0.15867257 0.78220004
0.057622869 -0.15774152 0.78285724
0.06276191 -0.15787202 0.78266686
0.067788109 -0.15792018 0.78216666
0.072135791 -0.15843838 0.78314292
0.075413339 -0.15904 0.78400004
0.063871436 -0.22016859 0.78900003
0.065875247 -0.22117051 0.78900003
0.078148574 -0.22016859 0.78900003
0.080402866 -0.22016859 0.78900003
0.04370413 -0.21602033 0.78666675
0.04712262 -0.21721263 0.78850007
0.050345719 -0.21791431 0.78900003
0.063817464 -0.21698003 0.78833342
0.067628577 -0.21716288 0.78900003
0.072489768 -0.21671884 0.78875005
0.078298859 -0.21716288 0.78900003
0.082433172 -0.21697587 0.78881818
0.043944526 -0.21221071 0.78875005
0.047333121 -0.21262455 0.78888893
0.052268848 -0.2124014 0.78885722
0.067913473 -0.21339758 0.78857154
0.072970763 -0.21269895 0.78757149
0.077277042 -0.21232679 0.78777778
0.08250913 -0.21227406 0.78758335
0.086596906 -0.21180978 0.78725004
0.033814289 -0.2073943 0.78900003
0.037555084 -0.20805827 0.78866673
0.042739477 -0.2077069 0.78733343
0.046161912 -0.20835239 0.78600001
0.083840005 -0.20885144 0.78600001
0.087582871 -0.20885144 0.78600001
0.033031192 -0.20194215 0.78825009
0.037210159 -0.20353526 0.78666675
0.041670483 -0.20386097 0.78600001
0.032188572 -0.19912001 0.78600001
0.03518286 -0.19986859 0.78600001
0.093571432 -0.1759143 0.78600001
0.095068574 -0.1759143 0.78600001
0.029194288 -0.17217144 0.78600001
0.031480953 -0.17089048 0.78700006
0.092737153 -0.17314368 0.78800005
0.095310479 -0.17335811 0.78800005
0.029194288 -0.16992572 0.78600001
0.033750005 -0.16949858 0.78750002
0.036233813 -0.16667859 0.78716677
0.083840005 -0.1654343 0.78600001
0.087937862 -0.16762358 0.78750002
0.038624287 -0.1638743 0.78750002
0.042221911 -0.16139621 0.78700006
0.078600004 -0.16169144 0.78600001
0.082379796 -0.162159 0.78800011
0.086414292 -0.16456287 0.78900003
0.043699812 -0.15873067 0.78840011
0.04711628 -0.15730226 0.78754556
0.052216832 -0.15614955 0.78700012
0.056689527 -0.15608382 0.78666675
0.073032863 -0.15617572 0.78650004
0.077392124 -0.15730348 0.7875455
0.080903821 -0.15805051 0.78900003
0.047340002 -0.15404287 0.78900003
0.05333985 -0.15325889 0.78883338
0.057902083 -0.15283766 0.78772736
0.062197622 -0.15286875 0.78683341
0.067478575 -0.15294883 0.7872501
0.072563574 -0.15356097 0.78750008
0.076997384 -0.15361834 0.78875005
0.062368579 -0.14953431 0.78900003
0.052866668 -0.22128478 0.79300004
0.058369119 -0.22279526 0.7930001
0.062495958 -0.22298406 0.7930001
0.0678 -0.22072668 0.79100001
0.072320007 -0.22072668 0.79100001
0.07608667 -0.22072668 0.79100001
0.03992667 -0.21696001 0.79100001
0.041935559 -0.2167089 0.79100007
0.048966669 -0.21620668 0.79100001
0.052586146 -0.2173032 0.79255563
0.058584902 -0.21804804 0.7930001
0.061929535 -0.21826383 0.7930001
0.067256667 -0.2175943 0.79124999
0.072427623 -0.21814385 0.79100001
0.076463342 -0.21771336 0.79100001
0.038922228 -0.21269113 0.79100001
0.042036004 -0.21349469 0.79100001
0.09266001 -0.17100668 0.79100007
0.033985715 -0.16841811 0.79300004
0.089646675 -0.16648668 0.79100001
0.092211202 -0.16801596 0.79200006
0.038245853 -0.16257267 0.79185718
0.087209426 -0.16277282 0.79166669
0.041907623 -0.15761785 0.79185718
0.082686044 -0.15707651 0.79166669
0.085341908 -0.15935525 0.79300004
0.044153336 -0.15359335 0.79250002
0.047503293 -0.15210608 0.79172724
0.052023817 -0.15154636 0.79166663
0.073165722 -0.1508562 0.792
0.077691436 -0.15186192 0.792
0.081246041 -0.15419017 0.79233336
0.052831907 -0.14906476 0.79250002
0.057641525 -0.14863066 0.79220003
0.062424365 -0.14759581 0.79242867
0.06715969 -0.14865555 0.79233342
0.070570484 -0.14868714 0.79250002
0.05623715 -0.22176249 0.79580003
0.056806132 -0.21694601 0.79528582
0.061328575 -0.21578573 0.79500002
0.059814289 -0.21427144 0.79500002
0.061328575 -0.21427144 0.79500002
0.029640002 -0.171 0.79800004
0.031612702 -0.17122099 0.79666674
0.029640002 -0.16948001 0.79800004
0.032453217 -0.16758607 0.79712498
0.033429287 -0.16410834 0.79775006
0.036311977 -0.16205211 0.79671443
0.088302545 -0.16066509 0.79700011
0.091124445 -0.16326256 0.79733342
0.03833143 -0.15863954 0.79700005
0.040936194 -0.15616763 0.796
0.084254295 -0.15560476 0.79700005
0.086821601 -0.1576943 0.79733342
0.042622045 -0.15281224 0.79714292
0.078742862 -0.15067144 0.79500002
0.082501434 -0.1526005 0.79716676
0.044840004 -0.14972001 0.79800004
0.047800004 -0.14795049 0.79666662
0.052352387 -0.14643303 0.79666668
0.057350006 -0.14628081 0.79583335
0.063600004 -0.14612858 0.79500002
0.067385718 -0.14612858 0.79500002
0.072955355 -0.14723513 0.79587501
0.077148288 -0.14791706 0.79730004
0.081320003 -0.14972001 0.79800004
0.058085479 -0.14464357 0.79725009
0.062736869 -0.14354907 0.79750001
0.067597628 -0.14430906 0.79750007
0.071126997 -0.14453208 0.79733342
0.028375451 -0.16745737 0.80044448
0.031238098 -0.16533335 0.80000001
0.029862858 -0.16462858 0.80400002
0.03334 -0.16185749 0.80166674
0.092952386 -0.16228575 0.80000007
0.037223577 -0.15691216 0.80175006
0.088710859 -0.15619583 0.80159998
0.092139237 -0.15768705 0.80220002
0.095595241 -0.15906954 0.80300003
0.039051432 -0.15390858 0.80400002
0.041447304 -0.15129939 0.80100006
0.084296197 -0.15142667 0.801
0.087277301 -0.15303239 0.80285722
0.043520007 -0.14779755 0.8017143
0.047266193 -0.14561477 0.80050004
0.077968262 -0.14603177 0.80000007
0.082161911 -0.14769763 0.80250001
0.048709847 -0.14357907 0.8033334
0.052735075 -0.14215446 0.80250001
0.056922674 -0.14192419 0.80120009
0.06201905 -0.14125717 0.80000001
0.06810151 -0.14153771 0.80085725
0.072561912 -0.14232065 0.80200011
0.076916955 -0.14389144 0.8028
0.057774767 -0.13889001 0.80350006
0.062349122 -0.13922043 0.80257154
0.066856384 -0.13906744 0.80320007
0.028401908 -0.16503811 0.80600005
0.030985398 -0.16312638 0.80666673
0.034600001 -0.15762097 0.80733341
0.036078099 -0.15582667 0.80600005
0.094417147 -0.15659429 0.80600005
0.095952384 -0.15659429 0.80600005
0.038105309 -0.15253308 0.80714297
0.088860959 -0.15134478 0.80666673
0.092449769 -0.15318455 0.80725008
0.096190482 -0.15390477 0.80800003
0.039245717 -0.1485181 0.80800003
0.041741591 -0.14699177 0.80666673
0.045289528 -0.14508002 0.80600005
0.082570955 -0.14555383 0.80650002
0.086044453 -0.14750351 0.80666679
0.043862861 -0.14390096 0.80800003
0.047033224 -0.14178498 0.80666679
0.073691435 -0.14047429 0.80600005
0.077832386 -0.14172083 0.80685729
0.081792705 -0.14281558 0.80766672
0.048438735 -0.1391689 0.80733341
0.05273639 -0.13760725 0.80720007
0.057642862 -0.13680479 0.8070001
0.062229212 -0.13674858 0.80666673
0.067612618 -0.13714644 0.80675012
0.072551966 -0.13766816 0.80755562
0.077337153 -0.13889906 0.80800003
0.057714291 -0.13466668 0.80800003
0.062331434 -0.13466668 0.80800003
0.066948578 -0.13466668 0.80800003
0.027133334 -0.16512573 0.81400001
0.028542859 -0.1643143 0.81000006
0.031693019 -0.16130129 0.81166673
0.033300955 -0.1572202 0.8132
0.034283176 -0.1533778 0.81200004
0.036665242 -0.15167859 0.81050003
0.092771813 -0.15112001 0.81040001
0.096229218 -0.15143812 0.81266677
0.037907623 -0.14802445 0.81233346
0.040986668 -0.14616001 0.81200004
0.088438109 -0.1471381 0.81099999
0.091624454 -0.14840414 0.81300008
0.039537147 -0.14496954 0.81400001
0.042518813 -0.142635 0.81175005
0.083640635 -0.14180192 0.81066674
0.086967207 -0.14270563 0.81288892
0.044134289 -0.13937049 0.81300002
0.047198314 -0.13746922 0.81244451
0.052019048 -0.13537525 0.81040001
0.057857148 -0.13500001 0.81000006
0.072977148 -0.13530858 0.81000006
0.078179292 -0.13647501 0.81075001
0.082644165 -0.13792346 0.81236374
0.086051434 -0.13876763 0.81400001
0.048064768 -0.1341162 0.81400001
0.052327622 -0.1333105 0.81314296
0.057513427 -0.13227534 0.81309098
0.062606141 -0.13216594 0.81155562
0.067280002 -0.13223748 0.8120001
0.071815245 -0.13259524 0.81300008
0.077165179 -0.13340466 0.81371439
0.058142863 -0.12946478 0.81400001
0.062794298 -0.12946478 0.81400001
0.067445718 -0.12946478 0.81400001
0.027999049 -0.16255367 0.81666672
0.030271431 -0.16067144 0.81500006
0.028269526 -0.15847462 0.81700009
0.030892385 -0.1572562 0.81500006
0.028719049 -0.15446192 0.81500006
0.032148313 -0.15212253 0.81609106
0.032696672 -0.14909525 0.8175
0.036568575 -0.14680064 0.81700009
0.093074933 -0.14648065 0.81666672
0.096483819 -0.14783525 0.81700003
0.038919687 -0.14244828 0.8173334
0.041138098 -0.14126667 0.81500006
0.089261912 -0.14204286 0.81500006
0.091370486 -0.14269239 0.81650007
0.039780002 -0.13962001 0.81900007
0.042560004 -0.13740143 0.81625003
0.04579524 -0.13583334 0.81500006
0.08460477 -0.13583334 0.81500006
0.087864906 -0.13762653 0.81642872
0.091815248 -0.13927905 0.81700003
0.043770861 -0.13349506 0.81780005
0.047044288 -0.13219334 0.81650007
0.052004766 -0.1311762 0.81500006
0.073738098 -0.1311762 0.81500006
0.078084759 -0.13148668 0.81500006
0.082633339 -0.13258477 0.81700003
0.086527154 -0.13368763 0.81850004
0.048270956 -0.12924239 0.8175
0.052300002 -0.12869349 0.81614292
0.057341214 -0.1273362 0.81663656
0.06272915 -0.12670229 0.81720012
0.06774953 -0.12693049 0.81766677
0.072051242 -0.12791543 0.81700003
0.077058926 -0.12887417 0.81728578
0.080340005 -0.1287 0.81900007
0.028930478 -0.15247144 0.82100004
0.030494288 -0.15247144 0.82100004
0.029000955 -0.14970763 0.82300001
0.032507621 -0.14765811 0.82249999
0.035228573 -0.14561048 0.82200003
0.036301591 -0.14259462 0.82266665
0.094127625 -0.14236352 0.82133335
0.096734613 -0.14288478 0.82133341
0.03928972 -0.13790497 0.82180005
0.041440956 -0.13526954 0.82100004
0.089919053 -0.13683334 0.82100004
0.092729405 -0.13747063 0.8221429
0.096408576 -0.13795048 0.82300001
0.039974287 -0.13403144 0.82300001
0.042733144 -0.13195716 0.82180005
0.083663814 -0.1305781 0.82100004
0.086844288 -0.13183048 0.82150006
0.0901381 -0.13403144 0.82300001
0.044568576 -0.1290143 0.82100004
0.047765907 -0.12763602 0.8222
0.052125145 -0.12663488 0.82180005
0.055515241 -0.12588668 0.82100004
0.074280955 -0.12666857 0.82100004
0.077447057 -0.12657353 0.82140011
0.082200006 -0.12786573 0.82200003
0.086219057 -0.12932858 0.82300001
0.054082859 -0.12462572 0.82300001
0.057475239 -0.12387754 0.8222
0.062281776 -0.12378083 0.82185721
0.067671441 -0.12296724 0.82240003
0.072805718 -0.12369049 0.82200003
0.07681334 -0.12462572 0.82300001
0.028686035 -0.14658827 0.82900012
0.031900004 -0.14598571 0.82499999
0.029212384 -0.14290383 0.82900012
0.032291114 -0.14255778 0.82699996
0.035357144 -0.14064287 0.82500005
0.033949528 -0.13737714 0.82900006
0.037040003 -0.13732359 0.82750005
0.092714295 -0.13592859 0.82500005
0.095857151 -0.13592859 0.82500005
0.033949528 -0.13342953 0.82900006
0.035528574 -0.13342953 0.82900006
0.040537145 -0.13145095 0.8265
0.088785723 -0.132 0.82500005
0.092021912 -0.13301948 0.82785726
0.095417149 -0.1340562 0.82800007
0.043291908 -0.12909096 0.82650006
0.047293972 -0.12612002 0.82766676
0.051195242 -0.12523143 0.82700002
0.083015822 -0.12586077 0.82700008
0.087231442 -0.12774953 0.82728589
0.049173653 -0.12332921 0.82833338
0.052945085 -0.12260351 0.82700008
0.05717184 -0.12142 0.82557148
0.062146675 -0.12114572 0.82600009
0.067478292 -0.12064516 0.82580012
0.073160008 -0.12114573 0.82600009
0.077995665 -0.12263715 0.82722229
0.082110479 -0.12395525 0.82900006
0.053687625 -0.1192181 0.82900006
0.057922479 -0.11852896 0.82860005
0.062372386 -0.11842858 0.82900012
0.067265958 -0.11776453 0.82850003
0.071596883 -0.11804912 0.82871443
0.075531118 -0.11869176 0.82900012
0.027700001 -0.14799716 0.83100003
0.029353335 -0.14042 0.83300006
0.031657144 -0.14008287 0.83100003
0.0324932 -0.13755715 0.83214295
0.036757782 -0.13671778 0.83300006
0.03882667 -0.13311905 0.83200002
0.09338858 -0.13137716 0.83100003
0.095878102 -0.13153429 0.83200002
0.043035876 -0.12752096 0.83166671
0.045111433 -0.12583715 0.83100003
0.088853344 -0.12693334 0.83300006
0.092746988 -0.12920986 0.83233345
0.09599334 -0.12931333 0.83300006
0.043633334 -0.12455335 0.83300006
0.047162045 -0.12271361 0.83128572
0.051442862 -0.12108858 0.83100003
0.079934292 -0.12108858 0.83100003
0.083180003 -0.12278878 0.83179998
0.08626572 -0.12425429 0.83100003
0.049451113 -0.11926445 0.83300006
0.053089052 -0.11727144 0.83200008
0.057607763 -0.11600614 0.83185714
0.06226572 -0.11581733 0.83179998
0.065688573 -0.11634001 0.83100003
0.072811432 -0.11634001 0.83100003
0.077274159 -0.11709784 0.83157152
0.080126673 -0.119 0.83300006
0.063679688 -0.11388351 0.83233345
0.067363948 -0.11378165 0.83214295
0.072106674 -0.11410191 0.83200002
0.075276196 -0.11410192 0.83200002
0.039060004 -0.13072953 0.83700001
0.041450799 -0.1275416 0.83700007
0.089861907 -0.12644286 0.83500004
0.092709102 -0.12670995 0.83677781
0.095921598 -0.12674318 0.83700007
0.043224573 -0.12234002 0.83739996
0.046150956 -0.12094811 0.8355
0.083036512 -0.120707 0.83566666
0.087220632 -0.12210593 0.83677775
0.090292387 -0.12385239 0.83900005
0.043947622 -0.1190581 0.83900005
0.047030166 -0.11717873 0.83700007
0.051322859 -0.1157762 0.8355
0.078728579 -0.11530953 0.83500004
0.08230596 -0.11697929 0.83700007
0.086297154 -0.11825906 0.83900005
0.04751429 -0.1137962 0.83850002
0.052181523 -0.11266249 0.83780015
0.057586066 -0.11220201 0.83663642
0.062682047 -0.11182599 0.8361429
0.067660004 -0.1112802 0.83579999
0.072453342 -0.11146572 0.83600008
0.077323496 -0.1126616 0.83700007
0.081502862 -0.11426382 0.83900005
0.059928574 -0.10946953 0.83900005
0.063923813 -0.10946953 0.83900005
0.067919061 -0.10946953 0.83900011
0.072713338 -0.10946953 0.83900005
0.037734289 -0.13086572 0.84300005
0.039340004 -0.12845716 0.84300005
0.040848576 -0.12574953 0.84100002
0.041273337 -0.12221715 0.84150004
0.09217266 -0.12262845 0.84157151
0.09531334 -0.12414762 0.84100002
0.043276675 -0.11781 0.84150004
0.087757148 -0.11740953 0.84150004
0.044157147 -0.11480858 0.84300005
0.04728429 -0.11219953 0.84150004
0.078587621 -0.11146477 0.84200001
0.08294858 -0.11340191 0.84150004
0.053791434 -0.10999144 0.84300005
0.056867622 -0.10973048 0.84100002
0.062372006 -0.10855182 0.84180003
0.067386672 -0.10749715 0.84233332
0.072571911 -0.1090581 0.84200007
0.037958097 -0.13002667 0.84800005
0.039503336 -0.1257643 0.84650004
0.039573334 -0.12275811 0.84800005
0.094324291 -0.12092716 0.84650004
0.096531749 -0.12288351 0.84700006
0.04192191 -0.11770239 0.84650004
0.087928578 -0.11589175 0.84700006
0.091582224 -0.11951303 0.84600008
0.04441905 -0.11387429 0.84800005
0.047649525 -0.11145143 0.84800005
0.051594764 -0.11044811 0.84650004
0.082635239 -0.11165667 0.84650004
0.034809526 -0.13114287 0.85000002
0.036428574 -0.13114287 0.85000002
0.034932382 -0.12835523 0.85300004
0.037309527 -0.12734383 0.85166669
0.038135622 -0.12252573 0.85200006
0.039760001 -0.11846668 0.852
0.041334286 -0.11670762 0.85100007
0.035096191 -0.12569238 0.85700005
0.036728576 -0.12242763 0.85700005
