# .PCD v0.7 - Point Cloud Data file format
VERSION 0.7
FIELDS x y z
SIZE 4 4 4
TYPE F F F
COUNT 1 1 1
WIDTH 625
HEIGHT 1
VIEWPOINT 0 0 0 1 0 0 0
POINTS 625
DATA ascii
0.019278096 -0.095725723 0.69800001
0.022593336 -0.097020723 0.69775003
0.027521146 -0.096390486 0.69800001
0.031243812 -0.095060959 0.69800001
0.018280953 -0.093399055 0.69800001
0.022699814 -0.093056396 0.69693351
0.027760765 -0.092844211 0.6973334
0.031243812 -0.093066677 0.69800001
0.023931429 -0.089742862 0.69800001
0.027255241 -0.089742862 0.69800007
0.03017143 -0.10526477 0.70400006
0.0041556191 -0.10228591 0.70380002
0.007371746 -0.10253493 0.70366669
0.011791905 -0.10224259 0.70350003
0.017420001 -0.10184049 0.70350003
0.023030858 -0.10217048 0.70300007
0.027454393 -0.1024544 0.70311111
0.032149289 -0.10247453 0.70325005
0.037293866 -0.10205577 0.70344448
0.041346036 -0.10168889 0.70400012
0.0033493657 -0.097820327 0.70350003
0.00735889 -0.097682074 0.70250005
0.012022739 -0.097525366 0.70137513
0.017054696 -0.097564369 0.70028579
0.022666669 -0.099333338 0.70000005
0.027607812 -0.09882839 0.70020002
0.032230884 -0.097739048 0.70085728
0.03743441 -0.097595125 0.70187509
0.041532736 -0.097803466 0.70337504
0.003685357 -0.093146078 0.70362508
0.0073585724 -0.092326999 0.7025001
0.012017679 -0.092139229 0.70106262
0.016669102 -0.091940209 0.70011109
0.020666668 -0.091333337 0.70000005
0.032966569 -0.091824673 0.7007001
0.037440717 -0.092261426 0.70200008
0.04176053 -0.092526883 0.70344448
0.0076409536 -0.088611625 0.70380008
0.012180827 -0.08714591 0.7028001
0.017356014 -0.087782927 0.70093757
0.022489799 -0.087767221 0.70042866
0.02734635 -0.087374292 0.70033342
0.032120001 -0.087353282 0.70160013
0.037384517 -0.087229103 0.70346677
0.041346036 -0.088726357 0.70400012
0.013633018 -0.08336255 0.70400012
0.017525464 -0.082814239 0.70240003
0.02272702 -0.082886316 0.70187509
0.02740524 -0.082881436 0.70183343
0.03176403 -0.082829095 0.70269245
0.035535239 -0.083809532 0.70400006
0.018773334 -0.079786673 0.70400006
0.022796195 -0.079339698 0.70400012
0.027483016 -0.079097316 0.70383334
0.031177144 -0.079451434 0.70400006
0.01281143 -0.11125716 0.70800006
0.017531428 -0.11125715 0.708
0.022925718 -0.11125715 0.708
0.027645718 -0.11125716 0.70800006
0.032365717 -0.11125715 0.708
0.037085719 -0.11125716 0.70800006
0.043828573 -0.11125715 0.708
0.0042682542 -0.10626255 0.70766664
0.0077133346 -0.10731144 0.7076667
0.012122143 -0.10775393 0.70712501
0.017514225 -0.10778173 0.70731246
0.022880359 -0.10767798 0.70662498
0.027570717 -0.1075958 0.7060833
0.032421339 -0.10775798 0.70626664
0.037703875 -0.10772566 0.70693749
0.042445 -0.10779771 0.70741665
0.045929529 -0.10716845 0.70771432
-0.00067428575 -0.10046858 0.708
0.001514524 -0.10288787 0.70725
0.013428573 -0.10407144 0.70500004
0.017457144 -0.10407144 0.70500004
0.021485716 -0.10407144 0.70500004
0.038271435 -0.10407144 0.7050001
0.043358203 -0.10231376 0.70522219
0.047325429 -0.10247663 0.70753855
0.05057143 -0.10046858 0.708
-0.0011238097 -0.097097151 0.70800006
0.00067206356 -0.097450487 0.70566672
0.044314291 -0.097357154 0.70500004
0.047969144 -0.097418867 0.70740002
0.051751435 -0.09726572 0.70800006
-0.00067428575 -0.093051434 0.708
0.0016801192 -0.092132263 0.70612502
0.044180002 -0.093060009 0.70500004
0.04695005 -0.092735857 0.70699996
0.05057143 -0.093725719 0.708
-0.00067428575 -0.089680009 0.708
0.0028264134 -0.087658428 0.70693338
0.0072053075 -0.086369403 0.70614284
0.010071429 -0.085271433 0.70500004
0.03961429 -0.085271433 0.70500004
0.042639267 -0.086844556 0.70566666
0.046190161 -0.088112071 0.70744443
0.004180572 -0.083206862 0.708
0.007411588 -0.082203977 0.70749998
0.011544129 -0.081824921 0.70616663
0.034242861 -0.081242859 0.70500004
0.037828255 -0.081979632 0.70673335
0.042289406 -0.083061308 0.70762503
0.045177147 -0.084285721 0.708
0.0080914292 -0.078891434 0.708
0.012529907 -0.078149915 0.70740002
0.017307213 -0.077784643 0.70671433
0.022880383 -0.077118672 0.70660001
0.027322097 -0.076850109 0.70660007
0.03279607 -0.078204647 0.706375
0.036748573 -0.078554295 0.708
0.018542858 -0.074508578 0.708
0.021577146 -0.074845716 0.708
-0.0061114291 -0.12019144 0.71300006
-0.0047533335 -0.12019144 0.71300006
0.047600001 -0.12036001 0.71400005
-0.0061200005 -0.11764 0.71400005
0.0081600007 -0.11628 0.71400005
0.012240001 -0.11628 0.71400005
0.018088004 -0.11655201 0.71400005
0.022245716 -0.11725144 0.71400011
0.027200002 -0.11673334 0.71400011
0.032911435 -0.11679307 0.71357149
0.037365716 -0.11617144 0.71333337
0.042613339 -0.11673334 0.71400011
0.047565714 -0.11755762 0.71350014
0.050928574 -0.11611715 0.71300006
-0.00068000006 -0.11084001 0.71400005
0.0029435982 -0.11166043 0.71344453
0.0073365374 -0.11276616 0.71209103
0.011980953 -0.11369525 0.71200013
0.017624952 -0.11348287 0.71180004
0.022383336 -0.11394747 0.71216673
0.027161906 -0.11408001 0.71300006
0.032548573 -0.11392097 0.71200001
0.037893336 -0.11334215 0.7105
0.042260852 -0.11352731 0.71188897
0.047607943 -0.11271144 0.71206683
0.052150857 -0.11231448 0.71300012
0.055507623 -0.11124097 0.71366668
-0.0018691669 -0.10751632 0.71337509
0.0021812702 -0.10800138 0.71122229
0.0060857148 -0.10886668 0.71000004
0.048517942 -0.10809255 0.71083343
0.052424163 -0.10750295 0.71318197
0.055720955 -0.10600621 0.71350002
-0.0026628578 -0.10289086 0.71184623
0.049361907 -0.10480953 0.71000004
0.052767619 -0.1024916 0.71033335
0.056202859 -0.10225049 0.71100008
-0.0070266677 -0.096786678 0.71400011
-0.0035446563 -0.097616829 0.71233344
0.053607143 -0.097235963 0.71025002
0.056163337 -0.096086197 0.7105
-0.006120001 -0.093160003 0.71400011
-0.0031829306 -0.092138261 0.71176934
0.049361907 -0.091961905 0.71000004
0.052324507 -0.092010565 0.71181822
0.055760004 -0.093840003 0.71400005
-0.0023080003 -0.087609522 0.71200007
0.00067619054 -0.085876197 0.71000004
0.048798453 -0.087087259 0.7116251
0.051429525 -0.088585094 0.71366668
-0.0010190477 -0.083920479 0.71350002
0.0021686668 -0.082443148 0.71190006
0.042999528 -0.080918096 0.71100003
0.046668813 -0.08315286 0.71275008
0.0040721428 -0.0787412 0.71275002
0.0074596829 -0.077073865 0.71200007
0.011901635 -0.075773209 0.71128577
0.015552382 -0.075057149 0.71000004
0.023666669 -0.075057149 0.71000004
0.027461527 -0.075348765 0.71020001
0.032486074 -0.075799651 0.71062499
0.03795648 -0.076861434 0.71170008
0.04175441 -0.077906072 0.71287507
0.0088400003 -0.074120007 0.71400005
0.01275598 -0.072993442 0.71333343
0.01763016 -0.072214767 0.71200013
0.022235049 -0.072261713 0.71180004
0.027203593 -0.072415903 0.71269244
0.032606117 -0.072682619 0.7132501
0.037047382 -0.073754057 0.71375006
0.023966668 -0.1259962 0.71900004
0.026363336 -0.12565382 0.71900004
0.044053018 -0.1289635 0.71900004
0.046335559 -0.128507 0.71900004
-0.002051905 -0.12146096 0.71850008
0.012993879 -0.12184042 0.71814287
0.017839829 -0.12227811 0.71799999
0.022395846 -0.12265093 0.71654552
0.027295239 -0.12214684 0.71650004
0.032812148 -0.12236072 0.71775001
0.037388004 -0.12175068 0.71900004
0.042871114 -0.12154701 0.71833342
0.046672225 -0.12248906 0.71716678
-0.0061371434 -0.11660572 0.71600002
-0.0027303575 -0.11747275 0.71712494
0.0025760443 -0.11713107 0.7179231
0.0073223137 -0.11862054 0.7175715
0.01228643 -0.11877643 0.71675003
0.017447485 -0.11882028 0.71642864
0.023184763 -0.11933334 0.71600002
0.027276194 -0.11887874 0.71600002
0.032322284 -0.11906058 0.71600002
0.037530959 -0.11873478 0.71650004
0.041842543 -0.1189343 0.71633339
-0.0061371434 -0.1125143 0.71600002
-0.0029152383 -0.11271042 0.71645463
0.0020460321 -0.11393112 0.71633339
-0.0072398097 -0.10761696 0.71700001
-0.0043187304 -0.10819557 0.71600002
0.055916198 -0.10910477 0.71600002
-0.0073870998 -0.10258936 0.71681821
-0.0077206809 -0.097020827 0.71814287
-0.0047733337 -0.098876201 0.71600002
-0.0075272382 -0.092366867 0.71840006
0.055916198 -0.091375247 0.71600002
-0.0068419054 -0.088251762 0.71833342
-0.0043253973 -0.086722873 0.71700001
0.052389052 -0.087010011 0.71750009
0.056150481 -0.089703813 0.71900004
-0.0017746667 -0.082350671 0.71700001
0.00068190478 -0.081146672 0.71600002
0.048550483 -0.082056195 0.71800011
0.051357146 -0.084225722 0.71900004
0.0027328576 -0.077899054 0.71750003
0.0061371434 -0.075691432 0.71600002
0.043465879 -0.076689057 0.71683347
0.046649717 -0.078659244 0.71820009
0.0047933338 -0.074639052 0.71900004
0.0076871431 -0.072773576 0.71750003
0.011612382 -0.071142189 0.71728581
0.01707143 -0.0703343 0.71700001
0.023184763 -0.070236199 0.71600002
0.027048891 -0.070236199 0.71600002
0.032731429 -0.070236199 0.71600002
0.037715241 -0.071503334 0.71675003
0.041247781 -0.07360556 0.7178334
0.013695238 -0.069160961 0.71900004
0.018474763 -0.068770483 0.71850002
0.022565719 -0.068380013 0.71800005
0.027352383 -0.067695886 0.71800005
0.032822859 -0.068380013 0.71800005
0.036977142 -0.069160961 0.71900004
0.0037165717 -0.13085715 0.72240007
0.0061971433 -0.13151716 0.72300005
0.041314289 -0.13082859 0.72300005
-0.00068761909 -0.1258343 0.72200006
0.0020638097 -0.12723307 0.72214293
0.0075742863 -0.1260086 0.72300005
0.012384763 -0.12592144 0.72250009
0.017857382 -0.12570357 0.72125006
0.028525956 -0.12682262 0.72175002
0.032570004 -0.12698601 0.7215001
0.037475955 -0.12686644 0.72200006
0.042400006 -0.12695706 0.72127283
0.046628576 -0.12617144 0.72000003
-0.0006857143 -0.12342858 0.72000003
0.0027453972 -0.12285778 0.72066677
0.0075498414 -0.12285779 0.72066677
0.011395049 -0.12370362 0.72080004
0.017142858 -0.1241143 0.72000003
0.038084287 -0.12385763 0.72050005
0.042076509 -0.12371461 0.72033346
0.0034285716 -0.12 0.72000003
-0.0089142863 -0.10080001 0.72000003
-0.0089142863 -0.099428579 0.72000003
-0.0089142863 -0.091885723 0.72000003
-0.0061714291 -0.085714288 0.72000003
-0.0048000002 -0.085714288 0.72000003
0.054221593 -0.087166354 0.72066677
0.056280639 -0.087166362 0.72066677
-0.0034382315 -0.082202867 0.72185725
0.048685718 -0.080228575 0.72000003
0.052517369 -0.081967913 0.72046167
0.056185525 -0.083385527 0.72120005
-0.0010321429 -0.078070723 0.72225004
0.0013749208 -0.076324448 0.72200006
0.047653973 -0.076518729 0.72166675
0.051800959 -0.078617148 0.72200012
0.0039845719 -0.073237911 0.72140008
0.0066342866 -0.071151122 0.72066677
0.043128256 -0.072285078 0.72133338
0.046102382 -0.074313812 0.72250009
0.0084800012 -0.068990484 0.72200006
0.012307692 -0.06714052 0.72107697
0.017619528 -0.066704601 0.72083348
0.022628574 -0.065828577 0.72000003
0.027428573 -0.065142862 0.72000003
0.032620411 -0.065926544 0.72000003
0.037528288 -0.066944487 0.72170007
0.041066036 -0.069054604 0.72266674
0.013354668 -0.063468575 0.72280008
0.017890478 -0.06330429 0.72250009
0.0227127 -0.063319057 0.72266674
0.027523814 -0.06330429 0.72250009
0.032007858 -0.063670717 0.72275007
0.035117146 -0.064037144 0.72300005
0.013866668 -0.13520001 0.72800004
0.0048333337 -0.13326192 0.72500002
0.0077678575 -0.13188095 0.72499996
0.012268233 -0.1326533 0.72707146
0.017333334 -0.13173334 0.7280001
0.02218667 -0.13208002 0.7280001
0.027718453 -0.13201274 0.72762507
0.032503337 -0.1314024 0.72616673
0.037298098 -0.13123596 0.72524995
0.004004762 -0.1280143 0.72500002
0.0075952387 -0.12842859 0.72500002
0.012454168 -0.12867227 0.72637498
0.017302224 -0.12872446 0.72666669
0.020079048 -0.12878382 0.727
0.028309524 -0.12911907 0.72500008
0.037055559 -0.12911907 0.72500008
-0.007600477 -0.085677624 0.72549999
-0.0066809533 -0.082932703 0.7256667
-0.0048366673 -0.081532866 0.72549999
-0.0062400005 -0.079733342 0.72800004
-0.0030440956 -0.077312104 0.72609997
0.049023814 -0.075261913 0.72500002
0.052854862 -0.07651259 0.72640002
0.056237146 -0.075677149 0.72900003
-0.0011549208 -0.073656514 0.72733343
0.0020747092 -0.072027303 0.72644448
0.044880956 -0.071119055 0.72500002
0.047775049 -0.072005533 0.727
0.052278101 -0.073908962 0.72800004
0.056160003 -0.074186675 0.72800004
0.0038616331 -0.068624899 0.72785723
0.0073020104 -0.067261592 0.72644448
0.010357143 -0.065595239 0.72500002
0.039357144 -0.065595239 0.72500002
0.042725433 -0.067473434 0.72590005
0.045570798 -0.068240002 0.72866672
0.0086661913 -0.063439056 0.72800004
0.012206032 -0.061796512 0.72544444
0.017269842 -0.060789526 0.72533339
0.022118574 -0.060824528 0.72574997
0.027657147 -0.060845718 0.72599995
0.032681432 -0.061384052 0.72624999
0.03737776 -0.062293135 0.72678584
0.042017143 -0.063924961 0.7280001
0.018002858 -0.058852382 0.727
0.022375477 -0.058105953 0.72850007
0.027752383 -0.058279525 0.72850007
0.032273576 -0.05864691 0.72875005
0.036102861 -0.059014291 0.72900003
0.017404763 -0.13575715 0.73100007
0.017404765 -0.13436477 0.73100007
0.021581909 -0.13436477 0.73100007
0.028660955 -0.1349162 0.73400003
0.030758098 -0.1349162 0.73400003
-0.0062714294 -0.077346995 0.73166674
-0.0048733335 -0.076580957 0.73100001
-0.00069666671 -0.071059525 0.73150003
0.00069619052 -0.070315242 0.73100001
0.049429528 -0.070315242 0.73100001
0.05268354 -0.072202727 0.73200005
0.056391433 -0.073100008 0.73100001
-0.0006980953 -0.068412386 0.73300004
0.0020904765 -0.066750243 0.73199999
0.047416985 -0.067637622 0.73216671
0.0043268572 -0.063787438 0.73280007
0.0072629941 -0.062382728 0.73128575
0.011139048 -0.060568575 0.73100001
0.039682861 -0.060568575 0.73100001
0.042545717 -0.061840639 0.73233336
0.045345239 -0.064179525 0.73250002
0.0090628574 -0.059257146 0.73200005
0.013018018 -0.057648502 0.73224998
0.017279431 -0.056715813 0.73159999
0.022119287 -0.055906907 0.73150003
0.027866669 -0.055732854 0.73149997
0.032917619 -0.056255244 0.73150003
0.037483815 -0.057270307 0.73254555
0.041243814 -0.059419051 0.73400003
0.018175241 -0.053826671 0.73400003
0.022369526 -0.053826671 0.73400003
0.026913336 -0.053477149 0.73400003
0.031457145 -0.053826671 0.73400009
-0.0042057144 -0.07500191 0.73600006
-0.0031136058 -0.072380006 0.73785722
0.053309053 -0.070844293 0.73650002
0.056931432 -0.071690485 0.73800009
-0.0016414288 -0.067021757 0.73816675
0.00070095243 -0.065188579 0.73600006
0.04886651 -0.066167787 0.73650002
0.052402545 -0.068019696 0.73799998
-0.0012668573 -0.062920578 0.73900002
0.002261905 -0.062194183 0.7374444
0.0063171433 -0.061065719 0.73700005
0.044160005 -0.060982861 0.73600006
0.047731429 -0.062469907 0.73700005
0.0042228573 -0.059823815 0.73900002
0.0079011908 -0.05794619 0.73750001
0.011226429 -0.056133099 0.73675001
0.039253339 -0.056076191 0.73600006
0.042704687 -0.057210557 0.73708338
0.046800748 -0.058206249 0.73833334
0.0091495244 -0.054193337 0.73900002
0.012846236 -0.052853689 0.73818183
0.017346531 -0.052240957 0.73700005
0.022441547 -0.051896546 0.73637503
0.027625335 -0.051744193 0.73620003
0.032496933 -0.052135024 0.73644447
0.037201591 -0.05264201 0.73699999
0.041511193 -0.053119291 0.73874998
0.017595239 -0.049970478 0.73900002
0.022958413 -0.049434289 0.73800004
0.027411429 -0.049199052 0.73800004
0.032036878 -0.049309257 0.73814285
0.037301909 -0.049970478 0.73900002
-0.0069226669 -0.073031239 0.74160004
-0.0049444446 -0.071811751 0.74166673
-0.0039936509 -0.067657143 0.74000001
0.053845719 -0.066071756 0.74066675
0.056864768 -0.068010665 0.74080002
-0.0035238098 -0.063428581 0.74000001
0.00070666673 -0.06006667 0.74200004
0.051749393 -0.062642455 0.74142867
0.056609526 -0.064393334 0.74300003
0.0029425398 -0.057579368 0.74183339
0.0068184133 -0.056196198 0.74066675
0.048245084 -0.056246355 0.74133337
0.050207146 -0.057985239 0.74250007
0.0044815876 -0.054014921 0.74300003
0.0077791535 -0.052567519 0.74255562
0.012271429 -0.050360579 0.74060005
0.043078337 -0.051197626 0.74150008
0.046978813 -0.054041669 0.74175006
0.013720192 -0.048233338 0.74260008
0.017840596 -0.047513451 0.74187493
0.022334194 -0.04706886 0.74210006
0.027578574 -0.046670958 0.74250007
0.032379322 -0.047107212 0.74142867
0.037444927 -0.048041433 0.74183339
0.041041907 -0.048825718 0.74300003
-0.0073422231 -0.070810162 0.74600005
-0.0071109529 -0.06896238 0.74650002
0.053723138 -0.061642598 0.74642861
0.056952387 -0.062647149 0.7475
0.00070952385 -0.056052383 0.74500006
0.052149214 -0.057600327 0.74666667
0.0033506125 -0.052503817 0.74642861
0.0070952387 -0.050376195 0.74500006
0.047648303 -0.051913612 0.74671429
0.050545242 -0.054104291 0.74750006
0.0049866671 -0.049154289 0.74800003
0.0081783338 -0.048715957 0.74675
0.012072111 -0.046974696 0.74571437
0.01631905 -0.046119049 0.74500006
0.034057148 -0.046119049 0.74500006
0.03772318 -0.046263497 0.74733341
0.042738371 -0.047812931 0.74614292
0.046779688 -0.048679367 0.74800003
0.013804573 -0.0442621 0.74720007
0.017753335 -0.044029213 0.74566674
0.022744941 -0.04264411 0.74631256
0.027742781 -0.042678654 0.74691671
0.032446194 -0.043686386 0.74710011
0.037471242 -0.0443101 0.74800009
0.022083811 -0.039180957 0.74800003
0.053214293 -0.055599686 0.75166672
0.057091434 -0.058522966 0.75244451
-0.0014342858 -0.050917145 0.75300002
0.0014311112 -0.052234288 0.75133342
0.049285717 -0.050714288 0.75000006
0.051695812 -0.051981151 0.75180006
0.0028685718 -0.04948286 0.75300002
0.0071514291 -0.046668574 0.75100005
0.042857148 -0.046428576 0.75000006
0.047713429 -0.046539746 0.75181824
0.051372703 -0.048982859 0.75266671
0.0089519052 -0.043686192 0.75200003
0.011986072 -0.042576548 0.75137508
0.017147858 -0.041442148 0.75025004
0.032499999 -0.041071434 0.75000006
0.037415452 -0.041703288 0.75066668
0.042078674 -0.043364577 0.75139999
0.045867145 -0.043716669 0.75250006
0.013625715 -0.03944286 0.75300002
0.017199049 -0.039416671 0.7525
0.022201905 -0.037777383 0.75199997
0.027353784 -0.037376255 0.7518667
0.031910479 -0.037797254 0.75200009
0.037273217 -0.038706072 0.75262511
0.058320008 -0.061200004 0.75600004
0.057876334 -0.056025177 0.75557154
0.061200004 -0.056160003 0.75600004
-0.0018723812 -0.052818675 0.75560009
0.053928576 -0.052490484 0.75500005
0.056940012 -0.052613448 0.75677776
-0.0018039288 -0.048131071 0.75712502
0.0020168573 -0.047093432 0.75610006
0.005036667 -0.046049051 0.75550008
0.052767031 -0.047182504 0.75637501
0.056019053 -0.049286358 0.7573334
0.00072000007 -0.042480003 0.75600004
0.007199842 -0.042249367 0.7561667
0.010785715 -0.040985718 0.75500005
0.043142859 -0.040985718 0.75500005
0.04754417 -0.042500123 0.75637501
0.051120002 -0.043920003 0.75600004
0.0088952389 -0.039188575 0.7573334
0.01224177 -0.038166128 0.75614291
0.017277224 -0.036714688 0.75591677
0.022299685 -0.035248891 0.75533342
0.025166668 -0.035233337 0.75500005
0.033315878 -0.035712704 0.75500005
0.037429053 -0.035987619 0.75575006
0.042054921 -0.038689844 0.75699997
0.045480002 -0.039704766 0.75800002
0.01901016 -0.033448257 0.75800008
0.022558914 -0.032860409 0.7571429
0.027300954 -0.032536976 0.7561819
0.032437306 -0.033156034 0.75683331
0.036509719 -0.033334102 0.75760001
0.060880005 -0.052180476 0.76100004
-0.0021728573 -0.047137622 0.7615
0.054285716 -0.045600004 0.76000005
0.057285905 -0.048002865 0.76140004
-0.0014533334 -0.04432667 0.76300001
0.0025433335 -0.043963335 0.76300001
0.0055580959 -0.042295244 0.76133341
0.04921905 -0.041257147 0.76000005
0.052646674 -0.043073718 0.76140004
0.0084695248 -0.037512064 0.76233339
0.011950477 -0.035851903 0.76050001
0.043196987 -0.036439531 0.76016676
0.047159623 -0.037725527 0.76180005
0.050580643 -0.039447304 0.76233339
0.012636763 -0.033554859 0.76260006
0.016855717 -0.032442383 0.76125008
0.021714287 -0.031123811 0.76000005
0.028228574 -0.031123811 0.76000005
0.032571431 -0.031123813 0.76000011
0.038427081 -0.03200395 0.76128584
0.042516764 -0.033519052 0.76180011
0.019620001 -0.029793335 0.76300001
0.022837859 -0.029361669 0.76125002
0.027563691 -0.029012978 0.76162505
0.032657146 -0.029027622 0.76200002
0.036696669 -0.029430002 0.76300001
0.058400005 -0.046718575 0.7665
0.060471434 -0.048814289 0.76500005
-0.001457143 -0.042257145 0.76500005
0.0024790477 -0.04154953 0.76540005
0.0051000002 -0.040071432 0.76500005
0.054187812 -0.04133372 0.76679999
0.056667387 -0.043505479 0.76775002
0.0067466674 -0.037387621 0.76600003
0.048814289 -0.035700001 0.76500005
0.051532384 -0.037643813 0.76749998
0.0080415886 -0.033631112 0.7676667
0.012032144 -0.031723574 0.76575005
0.016757144 -0.031328574 0.76500005
0.043393575 -0.031723574 0.76575005
0.047451906 -0.033579528 0.7665
0.013403493 -0.029487938 0.7676667
0.017536124 -0.027764287 0.76721448
0.022443693 -0.026821788 0.76637501
0.027721908 -0.026261907 0.76600009
0.032828577 -0.026261907 0.76600003
0.037376668 -0.026800476 0.76574999
0.041893944 -0.028480606 0.76681823
0.019748572 -0.024137145 0.76800001
0.022674289 -0.024137145 0.76800001
0.028510479 -0.02353943 0.7676
0.03289286 -0.023390001 0.76750004
0.036991239 -0.02353943 0.7676
-0.00073333341 -0.040333334 0.77000004
0.0014666668 -0.040333334 0.77000004
0.058417961 -0.041635923 0.77085716
-0.00073523814 -0.038967621 0.77200001
0.0026947621 -0.037978575 0.77183342
0.0051333336 -0.035933334 0.77000004
0.052869529 -0.036714289 0.77100003
0.056183539 -0.037700005 0.77185714
0.0029435717 -0.033854049 0.77275002
0.0071044448 -0.031599898 0.77166665
0.011000001 -0.030066669 0.77000004
0.047709212 -0.030826669 0.77066672
0.052185636 -0.032339126 0.77175009
0.055745341 -0.033388 0.77220005
0.0095642861 -0.027956668 0.77250004
0.012301668 -0.026993336 0.77125007
0.015400001 -0.025666669 0.77000004
0.043605719 -0.026280001 0.77080005
0.047311272 -0.02769921 0.77216673
0.051533334 -0.028711431 0.77300006
0.013978573 -0.023542382 0.77250004
0.017638002 -0.022782382 0.77170008
0.022762861 -0.022027623 0.77100003
0.026911749 -0.02226286 0.77066672
0.032289051 -0.021280477 0.7705
0.037497144 -0.022057144 0.77200001
0.041528814 -0.023887383 0.77175003
0.022821907 -0.019877147 0.77300012
0.027239051 -0.019877147 0.77300012
0.031656191 -0.019877147 0.77300012
-0.00074190483 -0.037095241 0.77900004
0.0012301588 -0.036658734 0.77500004
0.058309529 -0.036904763 0.77500004
0.002589524 -0.032166667 0.77650005
0.005166667 -0.030261906 0.77500004
0.058309529 -0.034690477 0.77500004
0.0075065317 -0.027601499 0.77728575
0.048714288 -0.02657143 0.77500004
0.050928574 -0.027309526 0.77500004
0.0096447626 -0.024482859 0.77900004
0.012594422 -0.022539729 0.77785718
0.015500001 -0.021404764 0.77500004
0.038694289 -0.020946987 0.77633345
0.042198103 -0.021714605 0.77733338
0.046051241 -0.023542287 0.77740002
0.017770002 -0.01925143 0.77750003
-0.00074285717 -0.034914289 0.78000003
0.056000005 -0.030613335 0.78400004
0.0067028576 -0.026066668 0.78200006
0.049771432 -0.026000002 0.78000003
-0.0022457144 -0.03518286 0.78600001
-0.0015028572 -0.033814289 0.78900003
0.0011269047 -0.031925481 0.78875005
