# .PCD v0.7 - Point Cloud Data file format
VERSION 0.7
FIELDS x y z
SIZE 4 4 4
TYPE F F F
COUNT 1 1 1
WIDTH 1407
HEIGHT 1
VIEWPOINT 0 0 0 1 0 0 0
POINTS 1407
DATA ascii
-0.38826299 0.13911757 0.8490001
-0.37056547 0.13967668 0.84700006
-0.36478838 0.13923484 0.84585726
-0.35044959 0.13822867 0.84900004
-0.34572479 0.13895267 0.84800005
-0.33317679 0.13771997 0.84628576
-0.32558909 0.13563767 0.84372729
-0.31441268 0.13602228 0.84636021
-0.30511254 0.13702659 0.84527785
-0.29455966 0.13726377 0.84416121
-0.2851465 0.13597035 0.84440005
-0.27526355 0.13700533 0.84364283
-0.26470798 0.13654831 0.84463644
-0.25522596 0.13716692 0.84500003
-0.24511534 0.1361082 0.84415388
-0.23441918 0.13620248 0.84435028
-0.22603624 0.13605574 0.84418756
-0.21485275 0.13760954 0.84419042
-0.20492813 0.13658941 0.84440011
-0.19493058 0.13605481 0.8440001
-0.18479079 0.13628085 0.8441335
-0.17500128 0.13573766 0.84289688
-0.1647636 0.13454847 0.84424007
-0.15495339 0.13453378 0.84423548
-0.14561094 0.1333355 0.84444827
-0.13511631 0.13335663 0.84244847
-0.12535539 0.13267259 0.84272736
-0.11522947 0.13213703 0.84268421
-0.10462897 0.13126501 0.84342855
-0.094781004 0.13097914 0.84240001
-0.084605515 0.1314507 0.84259987
-0.074952655 0.13157429 0.84205264
-0.069398396 0.13091692 0.84200001
-0.05696401 0.13061959 0.84150004
-0.43071648 0.14743441 0.847
-0.42479205 0.14749756 0.84609085
-0.41491511 0.1463899 0.84448272
-0.40512815 0.14613703 0.84370995
-0.39522454 0.14388999 0.84457147
-0.38507709 0.14401709 0.84543204
-0.37583765 0.14334616 0.84558827
-0.36350593 0.14182012 0.84319055
-0.35519326 0.14316125 0.84635311
-0.34489009 0.1432136 0.84414291
-0.3361139 0.14249143 0.84291673
-0.32945108 0.14088854 0.84100002
-0.30644593 0.1413288 0.84100002
-0.2701686 0.14044827 0.84100002
-0.26043564 0.1413288 0.84100002
-0.25429884 0.14090978 0.84060001
-0.24834248 0.14028126 0.84000003
-0.23243479 0.14116076 0.84000003
-0.22919433 0.14116074 0.84000003
-0.42248967 0.15117414 0.84244454
-0.41636005 0.15154222 0.84114295
0.35623693 0.10898357 0.8543334
0.37791282 0.10927815 0.85900003
0.38424078 0.10918728 0.85828578
0.39552227 0.10835594 0.85739994
0.40542027 0.10963228 0.85650003
0.41407654 0.10924725 0.85699999
0.42812645 0.10883132 0.85550004
0.43524489 0.10883728 0.8571111
0.44529971 0.10902268 0.85699999
0.45559651 0.1089037 0.8556
0.46456051 0.10865276 0.85480005
0.47561443 0.10793837 0.85635293
0.48518431 0.10756738 0.85408354
0.49298728 0.10674209 0.85485721
-0.062592842 0.11993083 0.85800004
-0.059954539 0.11827187 0.85900003
-0.04233139 0.11872156 0.85900003
-0.034065284 0.11898947 0.85850006
-0.024055479 0.11817212 0.85787511
-0.014599345 0.11813314 0.85800004
-0.0046705925 0.11830615 0.85816681
0.0060013868 0.11778054 0.85663623
0.014977979 0.11768597 0.85666656
0.024616119 0.11744557 0.85582149
0.03488991 0.11665198 0.85647064
0.044700515 0.11682659 0.8561725
0.054927956 0.11720791 0.85534477
0.064931571 0.11781737 0.85528582
0.074783459 0.11711016 0.85444134
0.084941059 0.11678179 0.85431242
0.095375337 0.11615714 0.85392517
0.10467964 0.11635306 0.85396993
0.11472589 0.11635486 0.85477155
0.125192 0.11558975 0.854963
0.13487822 0.11580453 0.85457128
0.14464687 0.11506936 0.85448003
0.15489002 0.11578155 0.8545804
0.16490437 0.11624319 0.85454535
0.17441675 0.11679775 0.85482746
0.18491532 0.11715775 0.85460877
0.19381523 0.11614287 0.85533333
0.20525512 0.11613438 0.85472745
0.21511881 0.11716615 0.85446668
0.22428988 0.11612137 0.85446668
0.35574698 0.11374232 0.85263634
0.3644993 0.11365945 0.85552174
0.37474737 0.11412559 0.85493958
0.38416508 0.11286199 0.85411769
0.39474869 0.1123712 0.85361534
0.4047544 0.11181084 0.85411775
0.41520277 0.11155511 0.85285723
0.42477944 0.11143552 0.85411114
0.43564457 0.11253161 0.85285723
0.44476238 0.11221278 0.85344005
0.45370236 0.11142492 0.8518573
0.46617541 0.11115152 0.85200006
0.47479206 0.11118083 0.85162514
0.48457697 0.11079039 0.85066664
0.49091524 0.11017172 0.85200006
-0.33259201 0.12797211 0.85857153
-0.3258628 0.12854776 0.85822231
-0.31447005 0.12908551 0.85730773
-0.30548111 0.1285633 0.85733348
-0.29536662 0.12872002 0.85671443
-0.28618848 0.12923425 0.85757148
-0.27595106 0.12996371 0.85900003
-0.26574376 0.12880708 0.85814291
-0.25458893 0.12829314 0.85771441
-0.24504276 0.12906434 0.85900003
-0.2349544 0.12906349 0.85780001
-0.22463505 0.12936388 0.85881835
-0.21540077 0.12876329 0.85780019
-0.20476888 0.12927322 0.85799998
-0.1946142 0.12943839 0.85850006
-0.18476877 0.12887982 0.8573572
-0.17434216 0.12777087 0.85666674
-0.16540901 0.12733813 0.85614806
-0.15498523 0.12728553 0.8552174
-0.14465804 0.12705785 0.85473931
-0.13510509 0.12591039 0.85441673
-0.12495671 0.12500231 0.85463351
-0.11452513 0.12399554 0.85483348
-0.10533743 0.12339856 0.85361898
-0.094299264 0.12337951 0.85379988
-0.084987387 0.12436814 0.85416687
-0.075243138 0.12384325 0.8547222
-0.065349311 0.12317181 0.85466671
-0.054404572 0.12266006 0.85462499
-0.045464873 0.12319744 0.8545807
-0.035945799 0.12219378 0.85199988
-0.026007509 0.12178319 0.85274994
-0.015122058 0.12102339 0.85350007
-0.004865095 0.12073208 0.8541429
0.0048866882 0.12048042 0.85109997
0.014759491 0.12159502 0.85136372
0.021755209 0.1205925 0.85000008
0.037576638 0.12096009 0.85049999
0.045299452 0.12087054 0.8510716
0.053628076 0.12098173 0.85150003
0.095026731 0.1205925 0.85000002
0.11327009 0.1205925 0.85000008
-0.41261438 0.13857108 0.85800004
-0.40422627 0.13731822 0.85621446
-0.39485881 0.13689928 0.85460722
-0.38462204 0.13766244 0.85500008
-0.3747288 0.13749541 0.85511124
-0.3644478 0.13723575 0.85536838
-0.35587692 0.13707837 0.8540833
-0.34614301 0.13738632 0.85569233
-0.33485916 0.13338521 0.85578936
-0.32560146 0.13248631 0.85604542
-0.31627455 0.13276134 0.8524375
-0.3046917 0.13236292 0.85250008
-0.29521737 0.13230382 0.85264987
-0.28451085 0.13187155 0.85363644
-0.2745451 0.13276605 0.85392869
-0.26434079 0.13270161 0.85307395
-0.25471073 0.13247883 0.85299975
-0.24498484 0.13184164 0.85447836
-0.23530693 0.13115944 0.8523531
-0.22390461 0.13286746 0.85285014
-0.21551195 0.13327856 0.8530938
-0.20475759 0.1322711 0.85428578
-0.19441029 0.13177937 0.85331595
-0.18459886 0.13176705 0.85194457
-0.17513746 0.13169684 0.85141194
-0.16543958 0.13127938 0.85171443
-0.15609023 0.13144317 0.85028571
-0.43334788 0.14499627 0.85750008
-0.42477557 0.14356413 0.85500014
-0.41430148 0.14225174 0.85450029
-0.40548402 0.14201753 0.85246164
-0.39962319 0.14122729 0.85100001
-0.38126886 0.14033629 0.85100001
-0.3763445 0.14093029 0.85100001
-0.35596085 0.14086424 0.85150003
0.42116886 0.099632189 0.86900002
0.45103508 0.098115787 0.86900008
0.47175857 0.099632189 0.86900008
0.48622116 0.099536657 0.86816669
0.49739468 0.099517539 0.86800003
0.50059092 0.099517539 0.86800003
0.012460522 0.10938812 0.86700004
0.027967375 0.10848038 0.86700004
0.030703876 0.10848038 0.86700004
0.046996921 0.1086055 0.86800003
0.055825759 0.1094585 0.86900008
0.06500911 0.10943828 0.86900002
0.076003507 0.10905671 0.86870003
0.085221089 0.10854137 0.86750019
0.095253594 0.10891405 0.86685729
0.10574327 0.10902 0.8665002
0.11448735 0.10774944 0.86717397
0.12547562 0.10762092 0.86741674
0.13383538 0.10852208 0.86735731
0.14633487 0.10877328 0.86790001
0.154438 0.10811482 0.8670001
0.16471455 0.10833465 0.86584628
0.17396307 0.10866147 0.86725008
0.18579352 0.1093997 0.86710006
0.19479322 0.10909474 0.86788887
0.20509318 0.10868901 0.86736369
0.2148717 0.10915045 0.86633337
0.22677717 0.10921136 0.86800003
0.23164767 0.10860549 0.86800003
0.36503109 0.10494222 0.86596441
0.37435254 0.10629865 0.86407912
0.3849304 0.10577597 0.86387116
0.39504313 0.10533406 0.86496288
0.40499198 0.1056782 0.86431432
0.4150565 0.10449947 0.86471438
0.42472631 0.10516134 0.8629486
0.43498385 0.10495199 0.86429036
0.44512999 0.10388696 0.86428219
0.45494312 0.10374932 0.86383796
0.46572179 0.10436665 0.86444747
0.47555938 0.10388998 0.86433351
0.48534471 0.10316089 0.8640359
0.49481314 0.10191482 0.86304778
0.50113595 0.10098384 0.86500001
-0.17519179 0.11951103 0.86800003
-0.16508771 0.11919092 0.86650008
-0.15437175 0.11890861 0.86775005
-0.14521088 0.11833448 0.86693341
-0.13473068 0.11953459 0.86620009
-0.12281057 0.11933949 0.86566675
-0.11472506 0.11863542 0.86552948
-0.10478975 0.11785188 0.86584616
-0.094975412 0.11735241 0.86573339
-0.08471258 0.11727591 0.86495847
-0.075265221 0.117121 0.86459994
-0.065136448 0.1167023 0.86310732
-0.054393541 0.11603076 0.86441183
-0.045063116 0.11670677 0.86409092
-0.034694094 0.11561155 0.86421233
-0.025053157 0.11432771 0.86396295
-0.014785818 0.11444454 0.86435986
-0.0050904378 0.11398986 0.86347073
0.0048810686 0.11304809 0.86390328
0.015412376 0.11234078 0.86388892
0.025108075 0.11237657 0.86404008
0.034986172 0.11149149 0.86318201
0.045443006 0.11191644 0.8636958
0.05493211 0.11244669 0.86373681
0.0647365 0.11291145 0.86326939
0.075252235 0.11217017 0.86380953
0.084823176 0.11180644 0.86233336
0.093293816 0.11144365 0.86184621
0.10535946 0.11184934 0.86150014
0.11576013 0.11181089 0.86305892
0.12467526 0.11163989 0.86162508
0.13544956 0.11123047 0.86253351
0.1445827 0.11124761 0.86344457
0.15534361 0.11150911 0.86085719
0.16495937 0.11148033 0.86120021
0.17506652 0.11200278 0.86219054
0.1848727 0.11260589 0.86247998
0.19560522 0.11221065 0.86247617
0.20447168 0.11192934 0.86300009
0.21524051 0.11240526 0.861579
0.22421984 0.11138421 0.86280012
0.36520493 0.11088477 0.86100006
0.37199879 0.11133551 0.86100006
0.42495015 0.11030579 0.86000001
-0.40212694 0.12950779 0.86800003
-0.39459285 0.12950779 0.86800003
-0.38842863 0.12950779 0.86800003
-0.37200519 0.12852439 0.86750007
-0.36785397 0.12866412 0.86600012
-0.34267408 0.12646857 0.86641681
-0.33526817 0.1248538 0.86488241
-0.3246527 0.12498111 0.86530316
-0.31569046 0.12505661 0.86499989
-0.30491295 0.12474756 0.86484617
-0.29509026 0.12582228 0.86533344
-0.28506172 0.12549096 0.8646251
-0.27536911 0.12619402 0.86417091
-0.26506668 0.12566145 0.86639404
-0.2550914 0.12484723 0.86591667
-0.24477412 0.12589669 0.86500007
-0.23450564 0.12543969 0.8650589
-0.2253063 0.12473085 0.86565
-0.21470703 0.12594305 0.86650014
-0.20426556 0.12573288 0.86528563
-0.1947038 0.1250985 0.86403054
-0.18519534 0.12366632 0.86497217
-0.17597866 0.12346638 0.86342299
-0.1648014 0.12268841 0.86307704
-0.15507242 0.12283745 0.86315393
-0.14538814 0.12235776 0.86272001
-0.13556778 0.12193808 0.86252624
-0.12603801 0.12140174 0.86307693
-0.11490581 0.12119129 0.86057156
-0.10535814 0.12139248 0.86200011
-0.095440917 0.12072493 0.86000013
-0.085539781 0.12075064 0.86000007
-0.075257607 0.12105438 0.86018193
-0.066357955 0.1202104 0.86000007
-0.055198714 0.12036046 0.86000007
-0.045867093 0.12085727 0.86033338
-0.44152924 0.13823786 0.86766672
-0.43461001 0.13887596 0.86673343
-0.42398268 0.13701552 0.86533332
-0.41505021 0.13473988 0.86400002
-0.40516046 0.13246775 0.86390477
-0.3939755 0.13238458 0.86307698
-0.38472182 0.133242 0.86399996
-0.37434006 0.13317066 0.86525005
-0.36588627 0.13296081 0.86330014
-0.35440701 0.13462174 0.86506671
-0.34526148 0.13381328 0.86314297
-0.33890009 0.13221712 0.86049998
-0.32302043 0.13011502 0.86000001
-0.28202865 0.13026631 0.86100006
-0.44077989 0.14083369 0.86500007
-0.43593246 0.14250231 0.86360008
-0.42665553 0.14164113 0.86220008
-0.41881278 0.1410839 0.86100006
-0.34684691 0.14001963 0.86000001
0.508322 0.089734957 0.87900007
0.09817633 0.099858396 0.87900007
0.10280029 0.099858396 0.87900007
0.15949342 0.099744797 0.87800002
0.16540535 0.099744797 0.87800008
0.1705783 0.099744797 0.87800002
0.22692651 0.098825537 0.87800002
0.23246895 0.098825529 0.87800002
0.36671597 0.097932689 0.871889
0.37471256 0.098943301 0.875
0.38629323 0.098712966 0.87700003
0.39552283 0.098356873 0.87655556
0.40460342 0.097744167 0.8759231
0.4153195 0.097660251 0.87460005
0.42489898 0.09868627 0.87574995
0.43468386 0.098148018 0.87500012
0.44427758 0.098075852 0.87287509
0.45544454 0.097733684 0.87269253
0.46557739 0.098616682 0.87405276
0.47535911 0.097678743 0.87482142
0.48503539 0.096479028 0.87293744
0.49533793 0.096859455 0.87392002
0.50440854 0.094664663 0.87518525
-0.10792957 0.10893745 0.87800002
-0.08511135 0.10952257 0.87742865
-0.075922333 0.10971053 0.87775004
-0.06490162 0.10881233 0.87700009
-0.055132758 0.10920507 0.87720007
-0.044236735 0.10857163 0.87676936
-0.034957893 0.10807675 0.87662506
-0.02426899 0.10735794 0.87578952
-0.01505931 0.10664841 0.87599993
-0.0046536187 0.10747258 0.87466669
0.0052061947 0.10698581 0.87426478
0.015303567 0.10640922 0.87469697
0.024768511 0.10556056 0.87468576
0.034899328 0.10581963 0.87468427
0.044634804 0.10572843 0.87461543
0.054867029 0.10541765 0.87487185
0.065244801 0.10572698 0.875
0.074901782 0.10519449 0.87450016
0.084958196 0.10420841 0.87535292
0.095317505 0.10421851 0.87476486
0.10466737 0.10366089 0.87482351
0.11553875 0.10329187 0.87475997
0.12516564 0.10280552 0.87508339
0.13555698 0.10370358 0.87467766
0.14464386 0.10413897 0.87494749
0.1551338 0.10364559 0.87546146
0.16474009 0.10429211 0.87474996
0.17503485 0.10484593 0.87460017
0.18484864 0.10525876 0.8751381
0.1951953 0.10548755 0.87403238
0.20509399 0.10436591 0.87360609
0.2152784 0.10413018 0.87400025
0.2251403 0.1044011 0.87368196
0.23175609 0.10368352 0.87388235
0.37720853 0.10088809 0.8720001
0.38500488 0.10152116 0.87380004
0.39410603 0.10125469 0.87226337
0.40487468 0.10068646 0.87207711
0.4125402 0.10074608 0.87275004
0.42649096 0.10077343 0.87100005
0.43554014 0.10088743 0.87100017
0.44367298 0.10092543 0.87100017
-0.34224051 0.11740086 0.87599999
-0.33728805 0.11794477 0.87511116
-0.32369518 0.11808979 0.87600005
-0.31554744 0.11855427 0.87628585
-0.3063378 0.11952557 0.87700003
-0.29600862 0.11930777 0.87720007
-0.28786367 0.11969536 0.87600005
-0.27444434 0.1194043 0.87771434
-0.2655755 0.11861009 0.87600011
-0.25683528 0.11877819 0.87600011
-0.24567711 0.11881693 0.87628573
-0.23537111 0.11893316 0.87714297
-0.2245855 0.11848348 0.87700003
-0.21496066 0.11725752 0.87700003
-0.20550862 0.11854222 0.8757143
-0.19442429 0.11786962 0.87573695
-0.18520445 0.11756521 0.87515402
-0.17485288 0.11695545 0.87537038
-0.16497716 0.11646266 0.87558335
-0.15520839 0.11636765 0.87515384
-0.14421412 0.1148154 0.87583327
-0.13481598 0.11511358 0.87423539
-0.12553263 0.11572473 0.87458843
-0.11516468 0.11383567 0.8755883
-0.10521159 0.11278363 0.87433344
-0.094357423 0.11279379 0.87433338
-0.08502344 0.11293609 0.87374991
-0.075105309 0.11281222 0.87372738
-0.064788722 0.11235025 0.87221056
-0.055282105 0.11162962 0.87185717
-0.044984709 0.11216367 0.87247616
-0.036470871 0.1114146 0.87171429
-0.024716046 0.11080188 0.87153846
-0.014646074 0.11080368 0.87100005
-0.0069591086 0.11041133 0.87150002
0.048201278 0.11067752 0.87000006
0.050031926 0.11067752 0.87000006
-0.44144034 0.12838808 0.87900007
-0.43470335 0.12894367 0.87722224
-0.42398861 0.12791942 0.87552375
-0.41578707 0.1282815 0.87545466
-0.40449733 0.12638344 0.87574291
-0.39517844 0.12666461 0.87464297
-0.38515326 0.12691267 0.87445456
-0.37511185 0.12615207 0.87389654
-0.36485472 0.12654272 0.8751114
-0.35563728 0.12670019 0.87563342
-0.34612212 0.12457415 0.87293339
-0.3347342 0.12089931 0.87400001
-0.32500297 0.12068514 0.87290913
-0.31535134 0.12127083 0.8726154
-0.30446321 0.12193955 0.87338459
-0.29552272 0.12217057 0.87364697
-0.28536153 0.12133573 0.87516683
-0.27402678 0.12162168 0.87360013
-0.264296 0.12096029 0.87300003
-0.25539756 0.12147226 0.87371427
-0.2457713 0.12127578 0.87344438
-0.23482423 0.12080606 0.8731429
-0.22381638 0.12072056 0.87280005
-0.21515878 0.12238269 0.87293333
-0.20532769 0.12155579 0.8724286
-0.19544838 0.12106951 0.87122238
-0.44357848 0.13351032 0.87550002
-0.43523428 0.13365492 0.87316674
-0.42666966 0.13250633 0.87100005
-0.41334262 0.13052863 0.8724001
-0.40903574 0.13025381 0.87300003
-0.38230616 0.13071708 0.87000006
-0.37788206 0.13071708 0.87000006
-0.36294496 0.13215831 0.87150002
-0.35570222 0.13220395 0.87060004
0.42581135 0.089825056 0.88900006
0.43531564 0.089724019 0.88800013
0.44457492 0.088736318 0.88650006
0.45186538 0.089724012 0.88800007
0.46961635 0.089724012 0.88800007
0.47241914 0.089414105 0.88800013
0.48587251 0.088794284 0.88800013
0.49383038 0.088575751 0.88714296
0.50601244 0.088314146 0.88437521
0.51182282 0.086332366 0.88425004
-0.011535492 0.09907712 0.88850009
-0.0047216071 0.098989509 0.88771445
0.0051219016 0.098835513 0.88633347
0.015465886 0.098232761 0.88562512
0.024244677 0.098187752 0.88545465
0.03457693 0.098521814 0.88647068
0.044653919 0.098391272 0.88680023
0.054668617 0.098700911 0.88680023
0.065708235 0.098367333 0.88700002
0.074633732 0.097502723 0.88628596
0.085274592 0.096842118 0.88544017
0.094286934 0.096857049 0.88568419
0.1057691 0.097529814 0.8854118
0.11459235 0.09779717 0.88535994
0.12501934 0.098361932 0.88552952
0.1349922 0.09793105 0.88568407
0.14559224 0.097205274 0.88484621
0.15466924 0.097812414 0.88493353
0.16543004 0.097722419 0.88417661
0.17419043 0.097633719 0.88515395
0.18481259 0.098299325 0.88522232
0.19459388 0.098375872 0.88500011
0.20464899 0.098331623 0.88489485
0.21485962 0.098149888 0.884579
0.22484119 0.097426072 0.88433343
0.23309278 0.097266711 0.88475001
0.37708202 0.09626893 0.88228583
0.38581833 0.095692165 0.88399994
0.39494473 0.094823778 0.88445157
0.40570191 0.09412282 0.88541365
0.4148128 0.093218029 0.88559252
0.42569691 0.094242252 0.88393945
0.43508828 0.093907185 0.88337928
0.44509989 0.093882293 0.88282764
0.45450947 0.093787238 0.88428009
0.46468636 0.093447693 0.88482857
0.47502124 0.092748709 0.88415408
0.48456228 0.091864385 0.88381821
0.49490726 0.091695778 0.88185722
0.50238228 0.091792338 0.88183343
-0.35259438 0.10877053 0.8824445
-0.34825447 0.10937148 0.88900006
-0.19746326 0.10960778 0.88640016
-0.17307651 0.10919925 0.88760006
-0.16470374 0.10883149 0.88650012
-0.15522909 0.10912544 0.88700008
-0.14436029 0.10774376 0.88657159
-0.13496111 0.10666542 0.88739151
-0.12447147 0.10660742 0.88611776
-0.11507679 0.10637905 0.88497138
-0.10495108 0.1073316 0.88437498
-0.095015228 0.10585947 0.88591415
-0.085955165 0.10606569 0.88476682
-0.074872866 0.10613725 0.88431019
-0.065526925 0.10545994 0.88495994
-0.05439144 0.1055212 0.88459998
-0.045127783 0.10470721 0.88417387
-0.03489833 0.10380629 0.88496423
-0.025936732 0.10334533 0.88496
-0.015078892 0.10228309 0.88445449
-0.0045992113 0.10255359 0.88357139
0.0049443976 0.10155658 0.88222224
0.013905128 0.1025238 0.88150001
0.0239146 0.10153309 0.88200003
0.035900708 0.1014685 0.88260001
0.04506705 0.10158335 0.88333333
0.054888554 0.10068537 0.88266671
0.06485752 0.10121734 0.88283336
0.074627005 0.10113902 0.88276923
0.08528813 0.10043008 0.88200003
0.093871661 0.10019921 0.88200003
0.10268718 0.10019921 0.88200003
0.11475051 0.10112266 0.88200003
0.12774181 0.10112266 0.88200003
0.13269088 0.10112266 0.88200009
0.14862067 0.10019921 0.88200003
0.154807 0.10019922 0.88200009
0.16281907 0.10008561 0.88100004
0.17673467 0.10087208 0.88183331
0.18607596 0.10098861 0.88207704
0.19465558 0.10158439 0.88120002
0.20545635 0.10100801 0.88100004
0.21194462 0.10100802 0.88100004
-0.41606411 0.11943069 0.8876667
-0.40790561 0.11907113 0.88499999
-0.39144361 0.11801394 0.88866675
-0.38463399 0.11781415 0.88845015
-0.37510195 0.11889049 0.88668752
-0.36734775 0.11952564 0.88542867
-0.35325325 0.11479432 0.8850345
-0.3454375 0.11402092 0.88385725
-0.3349025 0.1150647 0.88394427
-0.32635212 0.11553222 0.88361913
-0.31456164 0.11496786 0.88361281
-0.30490258 0.11525209 0.8842001
-0.29415867 0.11538495 0.88478774
-0.28544989 0.11466406 0.88515377
-0.27586749 0.1153582 0.88454831
-0.26489547 0.11506552 0.88393319
-0.25510681 0.11559979 0.88349998
-0.24514076 0.11571184 0.88442314
-0.23563667 0.1155751 0.88517249
-0.22458319 0.11548326 0.88450015
-0.21399719 0.11301546 0.88306683
-0.20480239 0.11435644 0.88396901
-0.19542433 0.11313272 0.88414294
-0.1851145 0.11296092 0.88524997
-0.17487581 0.11243559 0.88383323
-0.16487838 0.11195095 0.88220018
-0.15492259 0.11195456 0.88260031
-0.14523502 0.11088096 0.88250005
-0.13483171 0.11064769 0.88125008
-0.12486663 0.1116157 0.88100004
-0.11988457 0.11115448 0.88100004
-0.10030574 0.11102831 0.88000005
-0.094982125 0.11056763 0.88000005
-0.45157909 0.1259234 0.88650006
-0.44581631 0.12646599 0.88515389
-0.43537289 0.12677962 0.88385737
-0.42400303 0.12368196 0.8842001
-0.41462991 0.12334269 0.88270843
-0.40489471 0.121968 0.88250005
-0.39478788 0.12226863 0.88468766
-0.38544819 0.12187562 0.88444453
-0.37555927 0.12202666 0.88215393
-0.36539268 0.1219001 0.8833077
-0.35587528 0.12234957 0.88429415
-0.34834296 0.12165467 0.88133335
-0.31047258 0.12024191 0.88000005
-0.30306581 0.12024191 0.88000005
-0.29195568 0.12024191 0.88000005
-0.28454891 0.1202419 0.88000005
-0.27991968 0.12024191 0.88000005
-0.44893306 0.13052502 0.88100004
0.50711918 0.078599177 0.89900005
0.51862687 0.079540431 0.89900005
0.02896736 0.089794211 0.89800006
0.030856926 0.089794211 0.89800006
0.098991401 0.088952951 0.89900005
0.10528602 0.089367487 0.89807713
0.1145939 0.089702614 0.89842868
0.12589042 0.089289449 0.8986001
0.13540605 0.089894205 0.89900011
0.14320917 0.089894205 0.89900005
0.15834254 0.088717639 0.89900005
0.16447265 0.088790223 0.89871436
0.19578186 0.089737326 0.89900011
0.20492491 0.089894205 0.89900011
0.2150138 0.089894205 0.89900011
0.22535494 0.089894205 0.89900011
0.23548871 0.089200042 0.89833343
0.37894383 0.088975176 0.89450002
0.38599604 0.087978773 0.8965556
0.39563531 0.088035285 0.89606673
0.4053244 0.087149829 0.89651728
0.4148199 0.086896323 0.89531982
0.42529285 0.087172568 0.89527291
0.43503356 0.085873961 0.89528567
0.44477907 0.084524982 0.89491433
0.45463124 0.086371936 0.89373088
0.46468803 0.086382873 0.89367497
0.47476158 0.08534357 0.89435476
0.48516554 0.085857913 0.89423525
0.49513876 0.084292449 0.89347225
0.5051043 0.083610915 0.89481258
0.51431978 0.082884178 0.89646167
-0.15331006 0.099306732 0.89900005
-0.14597985 0.099306732 0.89900005
-0.13330436 0.09961009 0.89750004
-0.12450162 0.09919969 0.89727283
-0.11476455 0.098778844 0.89723533
-0.10590098 0.099175908 0.89688897
-0.096198313 0.099824242 0.89520007
-0.08563111 0.099480085 0.89814299
-0.074861385 0.09828262 0.89825004
-0.065328151 0.09811677 0.89735723
-0.054693773 0.097508021 0.89690495
-0.044494554 0.098012425 0.89687508
-0.035139401 0.097738937 0.8954584
-0.025128793 0.097721443 0.8953706
-0.015164313 0.096412621 0.8941853
-0.0051760906 0.095285542 0.89340025
0.0046737692 0.09553761 0.89478272
0.014989374 0.094684713 0.89418179
0.025247442 0.093379147 0.89282626
0.034756713 0.094137385 0.89361554
0.044850968 0.094386987 0.89366663
0.055431917 0.094812572 0.89437521
0.064824626 0.093811922 0.89393353
0.075701654 0.093087718 0.89354533
0.085162036 0.092187211 0.89480001
0.095815293 0.093084887 0.89352626
0.10443613 0.093680054 0.89400023
0.11523841 0.093125641 0.89431816
0.12514701 0.093586929 0.89353567
0.13490689 0.093348898 0.89355993
0.14443526 0.092838317 0.89469582
0.155619 0.093282498 0.89385724
0.16465342 0.093091197 0.89328587
0.17518826 0.093713298 0.89492601
0.1852002 0.094289109 0.89496768
0.19478826 0.093748666 0.89415997
0.20486054 0.093794383 0.89489293
0.21547951 0.093727961 0.89475864
0.22528432 0.093262456 0.89487505
0.23339415 0.092803918 0.89433342
0.38529271 0.091828823 0.89220011
0.39404503 0.091314055 0.89185727
0.40385363 0.091028079 0.89166677
0.41589528 0.090338096 0.89100003
0.42386329 0.090027131 0.89100003
0.45943764 0.090857923 0.89000005
-0.35144621 0.10820398 0.89475006
-0.34481192 0.10832885 0.8970834
-0.33438668 0.10794305 0.89569998
-0.3252731 0.10796859 0.89630002
-0.31507516 0.10851049 0.89682347
-0.30483666 0.10837538 0.89720005
-0.29489744 0.10771714 0.89525008
-0.28609157 0.10826483 0.89414281
-0.27548546 0.10928239 0.89700001
-0.26494232 0.10886373 0.8948462
-0.25579992 0.10790462 0.89547068
-0.24456391 0.10777646 0.89574999
-0.23500475 0.10816478 0.8937273
-0.22449413 0.10770648 0.89490026
-0.2150082 0.10732039 0.89477783
-0.20510106 0.10687809 0.89356524
-0.19499336 0.10710018 0.89455003
-0.18483932 0.10738216 0.89349991
-0.17466429 0.10656098 0.89365214
-0.16484608 0.10594738 0.89360851
-0.15465583 0.10466498 0.89399999
-0.14532749 0.10341322 0.8930667
-0.13527191 0.10269483 0.89342862
-0.12586598 0.10242976 0.89275014
-0.11390579 0.10182243 0.89300007
-0.104514 0.10275921 0.89295477
-0.095129862 0.10113916 0.8933751
-0.084055051 0.10210292 0.89362508
-0.075547785 0.10184838 0.89300013
-0.064287066 0.10178602 0.89258832
-0.054958474 0.10103993 0.89283341
-0.045555994 0.10102117 0.89266676
-0.03785757 0.10133526 0.89200002
-0.45519876 0.11974729 0.89700001
-0.44343078 0.11806503 0.89850003
-0.43445241 0.11739007 0.89826322
-0.42458948 0.11764808 0.8946501
-0.41459301 0.11636958 0.89507157
-0.40491977 0.11588693 0.89685303
-0.39553896 0.11505443 0.89400017
-0.38507128 0.11344254 0.89422232
-0.37488741 0.1158215 0.89571428
-0.36605385 0.11670311 0.89584619
-0.35934955 0.11645864 0.89100003
-0.34441102 0.11098258 0.89450002
-0.33439338 0.11132696 0.89162493
-0.32510594 0.11167739 0.89350003
-0.31570134 0.11120296 0.89250004
-0.30453295 0.1111099 0.89174998
-0.29697344 0.11135869 0.89166665
-0.28298262 0.11048687 0.89200002
-0.27507281 0.11104952 0.89353341
-0.26461259 0.11130494 0.89171433
-0.25455004 0.11127932 0.8925001
-0.24591541 0.111274 0.89233345
-0.23467806 0.11130539 0.89130771
-0.22616434 0.11290904 0.89122713
-0.2148277 0.11108891 0.89033329
-0.20748903 0.11089225 0.89000005
-0.19133672 0.11042634 0.89000005
-0.18805943 0.11042634 0.89000005
-0.4546147 0.12164074 0.89552963
-0.44432685 0.12202294 0.89400011
-0.43552807 0.12262518 0.89281833
-0.42824528 0.12107678 0.89066672
-0.40486404 0.12109645 0.89380008
-0.39916858 0.1228155 0.89200002
-0.36263049 0.12081206 0.89100003
0.38699302 0.07921119 0.90600002
0.39539567 0.079316102 0.90720004
0.40631771 0.079473473 0.90900004
0.41626379 0.079473473 0.90900004
0.42541289 0.079314858 0.90900004
0.43576741 0.078740686 0.90788895
0.44502503 0.079005212 0.90494132
0.45415974 0.077915721 0.90700024
0.46603036 0.078019977 0.90870011
0.47504199 0.078713715 0.90784627
0.48598233 0.078343265 0.90758842
0.49520639 0.077015698 0.90596157
0.50535387 0.076744385 0.90613043
0.51496863 0.075840108 0.90486228
0.52247763 0.075906239 0.90572733
-0.078746013 0.088038974 0.90900004
-0.062009789 0.088990696 0.90900004
-0.058184363 0.088990696 0.90900004
-0.044157814 0.089942418 0.90900004
-0.034516569 0.089559212 0.90833336
-0.024730191 0.088987269 0.90809107
-0.015769435 0.088891745 0.90800017
-0.0054960987 0.088022172 0.90678948
0.004929367 0.088470049 0.90785724
0.015235365 0.087059297 0.90628564
0.024738876 0.087275043 0.90503579
0.034475908 0.087842904 0.90547371
0.045850184 0.08701811 0.90617388
0.054999795 0.08678811 0.90470839
0.064908355 0.08662115 0.90451539
0.074929014 0.087269209 0.90540004
0.084810413 0.087048985 0.90334618
0.095090665 0.086099572 0.9049378
0.10464285 0.085918762 0.9057501
0.11519566 0.086373463 0.90476006
0.12461137 0.085789204 0.90408725
0.13482831 0.085940786 0.90440738
0.14517717 0.086032011 0.90474993
0.15482427 0.086334318 0.90393108
0.16528565 0.085491978 0.90443486
0.1748894 0.08647164 0.90493339
0.18533911 0.086252555 0.90512908
0.19485328 0.086344972 0.90511566
0.20504478 0.087074906 0.90494996
0.21519597 0.086790375 0.90459108
0.22511016 0.085695721 0.90473348
0.23487301 0.085199773 0.90492308
0.38658538 0.082991317 0.90292871
0.3951593 0.083183527 0.9028182
0.40459424 0.082453556 0.9039526
0.41513404 0.081939779 0.90411782
0.42471057 0.082262754 0.9042176
0.43381226 0.081568703 0.90384626
0.44238204 0.081694648 0.90200007
0.45734134 0.081319459 0.90454566
0.46484849 0.081172064 0.90475017
0.47448465 0.080965117 0.90440005
0.48439428 0.081529051 0.90366685
0.49412188 0.081045657 0.90228575
0.50359195 0.080750249 0.90200007
-0.34556931 0.098507918 0.90900004
-0.33457121 0.098507918 0.90900004
-0.32362285 0.098844849 0.90860003
-0.31573752 0.099195272 0.90755558
-0.2958388 0.099459641 0.90900004
-0.27599442 0.099459641 0.90900004
-0.26141 0.098507918 0.90900004
-0.25746503 0.097199306 0.90899998
-0.21311401 0.099459641 0.90900004
-0.202355 0.099459641 0.90900004
-0.19430569 0.099459641 0.90900004
-0.1837652 0.098998219 0.90653336
-0.17393942 0.098558858 0.90435296
-0.16451015 0.097893365 0.90526092
-0.15489382 0.09732347 0.90393347
-0.14521015 0.097901091 0.90562505
-0.13488452 0.096758723 0.90515012
-0.12518197 0.095898882 0.90473926
-0.11541492 0.094718851 0.90509105
-0.1055248 0.095822163 0.90439153
-0.095190085 0.097227447 0.9050526
-0.084469728 0.095158651 0.90406674
-0.075559482 0.093739226 0.90351868
-0.064417474 0.093900926 0.90396452
-0.054586135 0.092536092 0.90416658
-0.044840813 0.093453638 0.90350008
-0.034974821 0.0930278 0.903
-0.025046185 0.092945352 0.90214998
-0.015661582 0.091983348 0.90246159
-0.0049038585 0.091430336 0.90099996
0.0055857571 0.091525726 0.90153861
0.013531896 0.091391221 0.90092301
0.037195437 0.090916164 0.90114295
0.044979062 0.090639561 0.90080005
0.053854845 0.091076694 0.90054548
0.064066693 0.090936497 0.90000004
0.074103698 0.090936497 0.90000004
0.093656912 0.090936497 0.90000004
0.14755653 0.090094194 0.90100002
0.17725861 0.091037534 0.90100002
0.18515812 0.090408646 0.90100002
0.19116172 0.090094194 0.90100002
0.20538081 0.090094194 0.90100002
0.22481355 0.090094194 0.90100002
0.23381898 0.090094194 0.90100002
-0.45220298 0.10992859 0.90900004
-0.44801527 0.10942302 0.90875006
-0.42467037 0.10942739 0.90800011
-0.41404945 0.10744773 0.90757149
-0.40586787 0.10730484 0.90649998
-0.3950367 0.10792609 0.90606678
-0.38596392 0.10910471 0.90655559
-0.37551546 0.10934483 0.90766674
-0.36206144 0.10339844 0.90600008
-0.35443711 0.10462485 0.90433347
-0.34535122 0.10379571 0.90444469
-0.33497271 0.10328279 0.90521759
-0.32533351 0.10319762 0.90503705
-0.31496054 0.10381145 0.90293097
-0.30546862 0.1035556 0.90383345
-0.29533735 0.10409976 0.9050715
-0.28465888 0.10392229 0.90502936
-0.27474648 0.10408402 0.9037894
-0.26508787 0.10366374 0.90399998
-0.25478527 0.10335174 0.9038437
-0.24529679 0.10329504 0.90437496
-0.23536286 0.1039153 0.90675008
-0.22498715 0.10350074 0.90445006
-0.21543083 0.10352389 0.90191293
-0.20500544 0.10256745 0.90355992
-0.19505 0.10269069 0.9024545
-0.18489096 0.10265173 0.90194988
-0.17596611 0.10259832 0.90135717
-0.16506475 0.1023663 0.90056247
-0.1579783 0.10224409 0.90000004
-0.46218091 0.11642647 0.90700006
-0.45457539 0.11580259 0.90577424
-0.44531253 0.11457306 0.90492868
-0.43475029 0.11304385 0.90495241
-0.42563123 0.11276846 0.90472746
-0.4162389 0.11188283 0.90380007
-0.4060989 0.11089512 0.90209097
-0.39543939 0.11079494 0.90250003
-0.3835845 0.11088452 0.90307695
-0.37467265 0.11269347 0.90470588
-0.36740181 0.11447358 0.90233344
0.50038928 0.068651728 0.91700006
0.51621163 0.069611825 0.917
0.52273178 0.069535911 0.91600001
0.0074066045 0.079385571 0.91900003
0.015025798 0.079318553 0.91653842
0.024966333 0.078409165 0.91883343
0.032188047 0.078338049 0.9180001
0.055810511 0.079058915 0.9180001
0.06424354 0.078862906 0.91740006
0.074778624 0.078426257 0.91716689
0.085353173 0.078331187 0.91690922
0.09571372 0.078611791 0.91631263
0.1049478 0.07869494 0.91658348
0.11602824 0.077936523 0.91780013
0.12265363 0.078338049 0.9180001
0.13939458 0.077697292 0.9180001
0.14638567 0.077808261 0.91742873
0.15463924 0.078346223 0.91650021
0.16511467 0.078340054 0.91630787
0.17398936 0.078200251 0.91640007
0.18430543 0.079299204 0.9180001
0.19468541 0.078142025 0.91830772
0.20444831 0.078261547 0.9187144
0.21570979 0.078598879 0.91825008
0.22452243 0.078948259 0.91766673
0.23657838 0.078600839 0.91586655
0.24051164 0.077826031 0.91200006
0.389128 0.077996701 0.91400003
0.39533913 0.077333391 0.91399986
0.40507951 0.076730952 0.91549999
0.41533691 0.075976618 0.91533327
0.42482808 0.074927181 0.91511112
0.43469766 0.075098321 0.91414285
0.44459423 0.074335426 0.91485709
0.45522574 0.074513115 0.91500008
0.4645789 0.074847184 0.91436374
0.47543925 0.07413125 0.91548002
0.48471725 0.073607303 0.91474187
0.49520582 0.072402887 0.91455555
0.50498921 0.072066657 0.91421056
0.51377118 0.072151683 0.91381824
0.52471834 0.072102971 0.91344452
0.53029728 0.071532018 0.91700006
-0.17031321 0.089871794 0.91800004
-0.16587041 0.089871794 0.91800004
-0.15147963 0.089871794 0.91800004
-0.14480233 0.089502469 0.91750014
-0.13543978 0.089345887 0.91542864
-0.12447784 0.088037126 0.91584617
-0.11485982 0.088450372 0.91655564
-0.10523483 0.088080823 0.91687512
-0.094707675 0.088535868 0.91537499
-0.085208654 0.088591829 0.91473329
-0.074194096 0.087733947 0.91480011
-0.064951159 0.086842284 0.91566676
-0.05424083 0.087236919 0.91585714
-0.044287324 0.08677277 0.91579163
-0.035239443 0.08558549 0.91492319
-0.025407283 0.085310623 0.91363639
-0.015151911 0.084415413 0.91424155
-0.0048381314 0.083986297 0.91510522
0.0045572468 0.083517537 0.91446155
0.01419162 0.082579188 0.91243744
0.025145059 0.081818417 0.91452616
0.03487324 0.083031923 0.91525924
0.04462653 0.081962526 0.91558337
0.055373482 0.082523055 0.91381252
0.065195069 0.081644438 0.91200018
0.075499825 0.082146503 0.91227788
0.084909879 0.081962712 0.91200012
0.093590565 0.081446886 0.91172743
0.10587592 0.081957422 0.9126668
0.11515731 0.081559472 0.91344452
0.12416869 0.081585266 0.9149335
0.13490663 0.081172094 0.91429424
0.14435595 0.081254698 0.91300017
0.15480627 0.081711002 0.91192323
0.16509274 0.081577875 0.91207707
0.1754891 0.08145868 0.91238481
0.18456301 0.081356175 0.91306692
0.19561386 0.081537396 0.91350013
0.20533456 0.082120784 0.91456521
0.21455838 0.082169883 0.91433328
0.22516643 0.081292093 0.91306674
0.23474692 0.080862522 0.91199988
-0.36315629 0.097237758 0.91569227
-0.35499924 0.096974872 0.91441691
-0.34529096 0.096700668 0.91466671
-0.33563945 0.096743017 0.91333354
-0.32559299 0.097097151 0.91486686
-0.31430283 0.097870849 0.9156667
-0.30518565 0.096915759 0.91666681
-0.29512534 0.097232386 0.91775
-0.28513536 0.097640477 0.91610003
-0.2737014 0.097023867 0.91693759
-0.26561493 0.095933042 0.91571999
-0.25467759 0.096689239 0.9141053
-0.2451411 0.097327776 0.9163
-0.2349347 0.09738709 0.9155336
-0.22569059 0.096944056 0.91637504
-0.21480559 0.096957147 0.9151727
-0.20476274 0.095712617 0.91433334
-0.19545938 0.095583625 0.91383988
-0.18530746 0.09443529 0.91426933
-0.17505363 0.094102994 0.91491294
-0.1650618 0.092922054 0.91338104
-0.1556711 0.093258344 0.91439134
-0.14530492 0.093101174 0.91165382
-0.13579957 0.092218779 0.9113
-0.12542062 0.091700934 0.911125
-0.11466296 0.09112636 0.91207701
-0.10437749 0.091907687 0.91263151
-0.095183589 0.092674755 0.91142297
-0.087891214 0.092197463 0.91060001
-0.071492523 0.090994142 0.91000003
-0.066146992 0.090994135 0.91000003
-0.47068471 0.10813355 0.91800004
-0.46405432 0.10804279 0.9172309
-0.45514655 0.10669743 0.91588235
-0.44479582 0.1074104 0.9157058
-0.43435416 0.10601093 0.9155454
-0.42449421 0.10592011 0.91387999
-0.41479966 0.10351542 0.9121666
-0.40451536 0.10467298 0.91299993
-0.39489529 0.10473531 0.91317403
-0.38433406 0.1058177 0.91431999
-0.37535349 0.10724835 0.9127273
-0.36407349 0.10116096 0.9108572
-0.3544066 0.10052183 0.91000003
-0.34419423 0.10083942 0.91000003
-0.33678573 0.10120238 0.91000003
-0.30237421 0.10056965 0.91333336
-0.29517686 0.10055796 0.91250008
-0.28640747 0.10000672 0.91400003
-0.25335902 0.10063229 0.91100007
-0.24301586 0.10071435 0.91175008
-0.23131444 0.1015861 0.91100007
-0.22626062 0.1006836 0.91271436
-0.20831139 0.1015861 0.91100007
-0.46398276 0.11208788 0.91206264
-0.4562856 0.11129508 0.91128588
-0.44306973 0.11052938 0.91171443
-0.43498954 0.11014628 0.9108001
-0.37132078 0.11004952 0.91000003
0.096814767 0.069475248 0.92800003
0.10120833 0.069475248 0.92800003
0.39729357 0.068820998 0.92575002
0.40365377 0.068030961 0.92599994
0.4164378 0.067727245 0.92626679
0.42486164 0.067664266 0.92480969
0.43517965 0.067570657 0.9260627
0.44480938 0.067629285 0.92495257
0.45508799 0.067440271 0.92675012
0.46507305 0.067876689 0.92608345
0.47467473 0.067502134 0.92571431
0.48489836 0.067122497 0.92530435
0.49504352 0.067113504 0.92548007
0.50496715 0.066479251 0.92400014
0.51472789 0.066564403 0.9244138
0.5250333 0.06662178 0.92387503
0.53190845 0.066109054 0.92360014
-0.11533912 0.078304075 0.92900008
-0.0642538 0.079276741 0.92900002
-0.054561898 0.079197004 0.92807692
-0.044380136 0.079498015 0.92723089
-0.034983095 0.078978539 0.9278
-0.024253409 0.078704029 0.92799991
-0.014897483 0.078216732 0.92664695
-0.0049650916 0.078077868 0.92749995
0.0054589431 0.077066287 0.92584211
0.015381641 0.075916879 0.92366683
0.024922408 0.075874738 0.92316681
0.034894172 0.07567203 0.92326099
0.044542436 0.075744867 0.92285728
0.054633092 0.075879753 0.92325014
0.065053575 0.075321831 0.9241001
0.074753083 0.075067505 0.92400014
0.085044764 0.074761286 0.92395657
0.095170155 0.073696397 0.92312515
0.10446044 0.07431484 0.9232918
0.1144843 0.074427985 0.92347825
0.12520772 0.074991979 0.92292863
0.13487057 0.074829757 0.92330307
0.14491928 0.073034436 0.92346156
0.1554039 0.073868863 0.92491299
0.16525951 0.074066341 0.9247601
0.17491695 0.074125312 0.92495662
0.1848467 0.075631283 0.92540014
0.19507211 0.074307889 0.92600006
0.20540814 0.074939989 0.92565233
0.21505855 0.0748142 0.92536014
0.22523251 0.074314602 0.92559272
0.23500213 0.074389763 0.92503858
0.24137188 0.072726399 0.92528582
0.39442605 0.07386265 0.92416668
0.4051905 0.071894273 0.92261559
0.41476998 0.071588136 0.92237514
0.42502779 0.071277104 0.92200005
0.43463236 0.070955671 0.92200005
0.44604418 0.070659555 0.92233342
0.45503259 0.070897937 0.92214304
0.46476141 0.070808336 0.92236376
0.47487783 0.070892595 0.92116678
0.4875074 0.0708028 0.92000002
0.49452487 0.0708028 0.92000002
-0.37622476 0.088745616 0.92800009
-0.36481422 0.088741377 0.92771435
-0.35572147 0.088907555 0.92800003
-0.34459117 0.089199029 0.92800009
-0.33847269 0.089555308 0.92800009
-0.32350206 0.08987917 0.92800003
-0.31211138 0.089879178 0.92800009
-0.30553731 0.08987917 0.92800009
-0.29469985 0.08987917 0.92800003
-0.28762135 0.089150459 0.92800003
-0.27663746 0.088421747 0.92800003
-0.24929978 0.08987917 0.92800003
-0.23475033 0.089754649 0.9267143
-0.22355416 0.089248598 0.92650008
-0.21493506 0.088768303 0.92563647
-0.20442753 0.088747188 0.92633343
-0.19438063 0.087809585 0.92555565
-0.18463284 0.087860972 0.9265334
-0.17446187 0.086874351 0.92489475
-0.16473046 0.086175062 0.92422229
-0.15466362 0.086306006 0.92460877
-0.14451054 0.085284851 0.92403865
-0.13466369 0.085827254 0.92336011
-0.12379482 0.083727054 0.92495847
-0.11463913 0.08361882 0.92527282
-0.1047681 0.084212855 0.92421901
-0.094741501 0.084440246 0.92512006
-0.084905475 0.084488772 0.9253335
-0.074872047 0.083144099 0.9255501
-0.064425059 0.082122177 0.92455548
-0.054988239 0.08289592 0.92282367
-0.045748409 0.082597926 0.92175019
-0.033489164 0.081630565 0.92463636
-0.025091646 0.081701867 0.92445469
-0.013894859 0.081486918 0.92100006
-0.0053355275 0.080522627 0.92100012
0.0011243469 0.080522627 0.92100006
0.036492154 0.080522627 0.92100006
0.040324248 0.080435194 0.92000002
0.12840578 0.080435194 0.92000002
0.13130957 0.080435194 0.92000002
-0.47632468 0.097433113 0.92900008
-0.46557331 0.09872999 0.92900008
-0.45286798 0.098010704 0.9283334
-0.44568524 0.097636178 0.92785716
-0.4348135 0.097715415 0.92752939
-0.42651862 0.098793074 0.92555553
-0.41573906 0.098829404 0.92745465
-0.40490863 0.09866602 0.92839998
-0.39413542 0.098203875 0.92676467
-0.38784796 0.099488005 0.92700005
-0.37488973 0.09473335 0.92668962
-0.36540192 0.09305267 0.92379183
-0.35492039 0.092188783 0.92440003
-0.34576067 0.092356265 0.92472225
-0.33515269 0.093180157 0.92626309
-0.3247253 0.09394262 0.92500007
-0.31504574 0.093644328 0.92416012
-0.3043744 0.091783866 0.92414308
-0.29517642 0.092972778 0.92478287
-0.28473881 0.093080133 0.9244585
-0.27534744 0.092811801 0.92427272
-0.26483884 0.09184166 0.92554557
-0.25434121 0.092791803 0.92571449
-0.24482876 0.093563236 0.92435306
-0.23518418 0.092395306 0.92241669
-0.22456174 0.092494205 0.92217666
-0.21497901 0.09222614 0.92233354
-0.20553888 0.091271996 0.92244458
-0.19460829 0.091150112 0.9204616
-0.18447724 0.090549201 0.92000002
-0.17663009 0.090618007 0.92000008
-0.16100496 0.090067588 0.92000002
-0.15568136 0.090067588 0.92000002
-0.4728415 0.10316504 0.92623538
-0.46519992 0.1032956 0.92438465
-0.45478234 0.10247065 0.92426097
-0.44537449 0.10277928 0.92270374
-0.43500656 0.10182872 0.9223333
-0.42500269 0.10141301 0.92025006
-0.41335973 0.10148231 0.92220002
-0.40492788 0.10145687 0.92285711
-0.39562929 0.10153627 0.92270005
-0.38496977 0.10187851 0.92357147
-0.37662974 0.1034788 0.92166674
0.39666224 0.058189671 0.93400002
0.4030261 0.057922699 0.93599999
0.4551115 0.059357613 0.93700004
0.4871428 0.058115743 0.93675005
0.49468583 0.058008026 0.93633336
0.50538802 0.058376577 0.9370001
0.51522517 0.058167364 0.93562514
0.52496415 0.058216803 0.93543768
0.5345785 0.0577824 0.93586683
0.5418632 0.059357613 0.93700004
-0.022292983 0.069241814 0.93800002
-0.015129779 0.069393314 0.93740004
0.0016385335 0.068259731 0.93800002
0.018047048 0.069419444 0.93600005
0.024867672 0.069117039 0.93633336
0.033020481 0.069003269 0.93700004
0.046001144 0.068880759 0.93710011
0.0551138 0.068119876 0.93514299
0.065433219 0.068149015 0.93650007
0.074423432 0.068323277 0.93620008
0.085872851 0.068659805 0.93512505
0.094971873 0.067389429 0.93389481
0.10507885 0.068161011 0.93444455
0.11463521 0.067985117 0.9357779
0.12412041 0.067984335 0.93664706
0.13508369 0.067127787 0.93759978
0.14506321 0.066995241 0.93632007
0.1550739 0.066761449 0.93712497
0.16532837 0.067127585 0.93595254
0.17486461 0.067006886 0.93554544
0.18488622 0.06851802 0.93620008
0.19471149 0.067695782 0.93591678
0.20504481 0.067566261 0.93551856
0.21549822 0.068128109 0.93623537
0.22502816 0.068234228 0.93611771
0.23488815 0.067879267 0.93655568
0.24264136 0.067336231 0.93658346
0.39718083 0.063726254 0.93469226
0.40436751 0.062675357 0.93534994
0.41442907 0.063967064 0.93543744
0.42566431 0.063305132 0.93472737
0.43599069 0.063581459 0.93384212
0.44454351 0.063015752 0.93311131
0.4551259 0.063029431 0.93334788
0.46492684 0.063438371 0.93373924
0.47527242 0.062984772 0.93410015
0.48539409 0.062138148 0.93344009
0.49546546 0.061813109 0.93229431
0.50503308 0.061888136 0.9339475
0.51437879 0.061522134 0.93141675
0.52534962 0.062212504 0.93080026
0.53513056 0.061855942 0.93180019
0.54070657 0.061188806 0.93500006
-0.20341264 0.079959422 0.93700004
-0.19503322 0.079959422 0.93700004
-0.18394281 0.079959422 0.93700004
-0.17617902 0.079374455 0.93671447
-0.16524754 0.079679132 0.93700016
-0.15573239 0.078974478 0.93590921
-0.14535089 0.07795053 0.93463165
-0.13521679 0.077027209 0.93547642
-0.1258081 0.077405557 0.93581247
-0.11531317 0.076587982 0.93556249
-0.10465676 0.077416219 0.93621737
-0.094691351 0.077615358 0.9354167
-0.084836878 0.076614238 0.93506896
-0.075165212 0.076347753 0.93587101
-0.065303177 0.075865105 0.93445826
-0.05387155 0.075394861 0.9346
-0.044686515 0.075683556 0.93463165
-0.034721997 0.075014994 0.935
-0.024659134 0.073724888 0.93311119
-0.014689766 0.073234409 0.93285185
-0.0041828812 0.072652087 0.9340415
0.005189918 0.072320059 0.93433321
0.014982961 0.071890496 0.93333358
0.024969703 0.072054811 0.93099999
0.035316002 0.071441732 0.9337858
0.046037018 0.071514301 0.93180007
0.055528462 0.07168626 0.93149996
0.065165661 0.07168626 0.93149996
0.074784189 0.071165502 0.93163639
0.084307194 0.071298428 0.9306668
0.10794946 0.071572393 0.93000007
0.11453768 0.071572393 0.93000013
0.12532628 0.071223319 0.93183339
0.13438673 0.07064423 0.93060011
0.15668535 0.07110963 0.93160009
0.16521718 0.070750512 0.9320001
0.17347017 0.070750512 0.93200004
0.18499167 0.072005123 0.93200016
0.19463378 0.071726322 0.9320001
0.20574671 0.071726322 0.9320001
0.21555227 0.071075782 0.9320001
0.22445898 0.070750512 0.93200004
0.23539214 0.070750512 0.9320001
0.24088325 0.070750512 0.93200004
-0.3852132 0.089374572 0.93800002
-0.37388119 0.087551557 0.93516672
-0.36458763 0.086110219 0.93524992
-0.35545889 0.086004533 0.93444455
-0.34480482 0.085550979 0.93433326
-0.3355808 0.086321063 0.93596548
-0.32570067 0.08722984 0.93666673
-0.31510219 0.086578459 0.93494439
-0.30503657 0.086302258 0.93584204
-0.29538295 0.085432202 0.93446445
-0.28500861 0.086935282 0.93483996
-0.27409098 0.086194567 0.93514311
-0.2645503 0.086055525 0.93500018
-0.25486857 0.086227618 0.93435723
-0.24486339 0.086663552 0.93391305
-0.23486634 0.085974976 0.93374085
-0.22541711 0.08563593 0.93392003
-0.21521385 0.086636066 0.93390018
-0.20404756 0.085128456 0.93420029
-0.19489729 0.083522752 0.93473697
-0.18537766 0.083547883 0.9333002
-0.17567983 0.082573242 0.93200016
-0.16477033 0.081824049 0.93125021
-0.15486221 0.081837863 0.93128598
-0.1455778 0.080984928 0.93000019
-0.13495117 0.081358865 0.93057168
-0.12651023 0.081510291 0.93071437
-0.10611892 0.080422163 0.93100011
-0.094364896 0.08139693 0.93100005
-0.084178068 0.08139693 0.93100005
-0.075264603 0.081396922 0.93100005
-0.48145199 0.095860213 0.93900007
-0.47502387 0.097728468 0.9362002
-0.46509176 0.09804938 0.93518192
-0.45535982 0.096985422 0.93500006
-0.44428608 0.094745345 0.93480009
-0.43498114 0.094258077 0.93517655
-0.42505133 0.095556639 0.93539298
-0.41445884 0.094261736 0.93496561
-0.40568891 0.094579101 0.93415993
-0.3960906 0.09562587 0.93480009
-0.38529888 0.096077122 0.93427998
-0.33276483 0.090475902 0.93128586
-0.32518122 0.091009758 0.93212509
-0.31705308 0.090266585 0.93200004
-0.30136421 0.090266585 0.93200004
-0.26316574 0.091144487 0.93100011
-0.25941098 0.091144487 0.93100005
-0.24618769 0.090494655 0.93100011
-0.4651157 0.10100041 0.93200004
-0.40628245 0.10002461 0.93200004
0.08484827 0.059247471 0.94700003
0.11922185 0.059991103 0.94700003
0.12486776 0.059991103 0.94700003
0.13470484 0.059579618 0.94520015
0.14552511 0.059991103 0.94700003
0.15442571 0.059991103 0.94700003
0.16106795 0.059991103 0.94700003
0.24827236 0.058130592 0.94900006
0.40727061 0.056371592 0.9410001
0.41539991 0.057669826 0.94333333
0.42557797 0.057540905 0.94510013
0.43479893 0.057661701 0.94500011
0.44442636 0.057637002 0.94550008
0.45541129 0.058273174 0.94376487
0.46521801 0.057213895 0.94305569
0.47461486 0.056920223 0.94547373
0.4849585 0.056661498 0.94424999
0.49564493 0.055636961 0.94407153
0.50557661 0.055412382 0.94463158
0.51563686 0.054161508 0.94364005
0.52512807 0.052911941 0.94295233
0.5354172 0.053116821 0.94462508
0.54352045 0.052561946 0.94460028
-0.1301363 0.068066619 0.94900006
-0.12494497 0.068949506 0.94749999
-0.11506553 0.068880662 0.94825
-0.10403423 0.068918273 0.94900006
-0.094867915 0.068343237 0.94825017
-0.084855601 0.067915529 0.94691682
-0.075176843 0.067663789 0.94553858
-0.064885385 0.068453483 0.94750011
-0.055039506 0.068502665 0.94710523
-0.044524889 0.068109132 0.94633329
-0.033983286 0.067898124 0.94516671
-0.024623925 0.067210153 0.94499999
-0.013712054 0.066486329 0.94544452
-0.0042743613 0.066332206 0.94453865
0.0053519555 0.065487981 0.94451725
0.015081026 0.065496728 0.94440752
0.024720421 0.063971139 0.94296306
0.034760244 0.065182045 0.94273102
0.044221275 0.064863674 0.94425946
0.055005711 0.063942201 0.94304359
0.064666323 0.062941022 0.94376689
0.074795976 0.063470878 0.94380021
0.084889501 0.063647158 0.94361544
0.094598465 0.06271071 0.94322234
0.10548032 0.063102894 0.94419074
0.1146071 0.063030355 0.94331831
0.12439238 0.063545644 0.94255567
0.13438764 0.063125402 0.94200009
0.14567107 0.062369861 0.94300008
0.15523124 0.062244367 0.94290924
0.16472173 0.062399205 0.94376487
0.17553458 0.062372304 0.94406694
0.18518764 0.063850932 0.94383347
0.19528766 0.062458284 0.94410545
0.20471388 0.062429871 0.94469243
0.21531238 0.063718759 0.94433349
0.22508317 0.063616917 0.94431585
0.23485179 0.063334964 0.94433349
0.24504563 0.062616676 0.94511127
