# .PCD v0.7 - Point Cloud Data file format
VERSION 0.7
FIELDS x y z
SIZE 4 4 4
TYPE F F F
COUNT 1 1 1
WIDTH 319
HEIGHT 1
VIEWPOINT 0 0 0 1 0 0 0
POINTS 319
DATA ascii
0.20712563 0.047656558 0.55740631
0.21457878 0.047756217 0.55635709
0.22409377 0.047800958 0.55361825
0.23655367 0.047290623 0.55500007
0.24098985 0.046196621 0.55710006
0.20822932 0.051409394 0.55769241
0.21551836 0.054046988 0.55708724
0.22514157 0.054930784 0.55721605
0.23297988 0.053188615 0.55790323
0.22210978 0.039445721 0.56650007
0.23601413 0.03977631 0.56700003
0.24586377 0.038974289 0.56543326
0.25219235 0.037627541 0.56556523
0.19730024 0.048739463 0.56664705
0.20522273 0.045033731 0.56355
0.21484046 0.042698283 0.56452501
0.22359252 0.043041784 0.56360972
0.23586237 0.042370882 0.56522506
0.2446671 0.043870009 0.5619334
0.25148162 0.042494338 0.56393337
0.19837953 0.054211166 0.56756419
0.20475745 0.055407204 0.56364036
0.2133321 0.058255147 0.56129736
0.22333255 0.059397049 0.56
0.23601025 0.056427963 0.56093872
0.24349827 0.055498615 0.56485718
0.20631088 0.064026698 0.56748539
0.21494845 0.065298341 0.56488097
0.22492154 0.06526836 0.56373817
0.23475355 0.06513755 0.56560999
0.24389164 0.062722966 0.56830317
0.20952126 0.070399836 0.56900001
0.21582945 0.072553404 0.56797636
0.22510794 0.073444098 0.5678066
0.23361839 0.07185939 0.56852186
0.18844536 0.034136366 0.57805008
0.19234128 0.034463547 0.57788479
0.20659204 0.036306918 0.57615089
0.21428253 0.037064973 0.57373756
0.22132796 0.037428088 0.57338458
0.23726845 0.036942273 0.57352942
0.24485342 0.035736948 0.574579
0.2523407 0.033475846 0.57660878
0.18974297 0.048370492 0.57866669
0.19241279 0.047019076 0.57510257
0.2078905 0.040883005 0.57000005
0.21838516 0.040883005 0.57000005
0.22108379 0.040883005 0.57000005
0.23907465 0.040286213 0.57000005
0.18985225 0.050621718 0.57900006
0.19409104 0.054832775 0.57389516
0.24790452 0.057694156 0.57100004
0.19758639 0.064530268 0.57522219
0.20269075 0.066574872 0.57110626
0.24548477 0.066730946 0.57169044
0.19851905 0.072306603 0.57818753
0.20490029 0.074797235 0.57475019
0.21449097 0.077113435 0.57142633
0.22458051 0.078587055 0.57064849
0.23548342 0.076180845 0.57180327
0.24402346 0.074039362 0.57463813
0.20656709 0.082954168 0.57761699
0.21520744 0.084682286 0.57517916
0.22495298 0.085251056 0.57435721
0.23464713 0.084692128 0.5764156
0.24253897 0.082833782 0.57757902
0.21825497 0.090579569 0.57866669
0.22473212 0.09127219 0.57804358
0.23215753 0.090579569 0.57866669
0.19490764 0.027055604 0.5871703
0.20487735 0.027748296 0.58641666
0.21053889 0.027823852 0.58400005
0.23595266 0.028122133 0.58813339
0.24450192 0.028210334 0.58575004
0.25490043 0.027096817 0.58687502
0.19642276 0.031720538 0.58135474
0.20431593 0.031807967 0.58164865
0.21239145 0.032181975 0.58100003
0.23684625 0.032418102 0.58322221
0.2443575 0.031538814 0.58154058
0.25250635 0.030716224 0.58089995
0.18994914 0.057957366 0.58366668
0.19174492 0.058025125 0.58170581
0.18968141 0.061357155 0.58600003
0.19327094 0.06532573 0.58442134
0.19607502 0.075260803 0.58436006
0.20066909 0.078283802 0.58033335
0.24694848 0.079184219 0.58100003
0.19785397 0.083994173 0.58636737
0.20318651 0.08606945 0.58213264
0.21138294 0.088682301 0.580625
0.23774379 0.089194655 0.5801667
0.24448317 0.085630946 0.58130234
0.19949599 0.091488346 0.58840007
0.20528632 0.09464971 0.58563381
0.21475363 0.094963223 0.58192265
0.22510985 0.096097901 0.58139086
0.23480752 0.095312499 0.58271062
0.24358156 0.094168432 0.58685005
0.20774961 0.10258287 0.58843476
0.21531259 0.10459207 0.58721077
0.22480541 0.10491618 0.58604604
0.2342712 0.10409655 0.58749193
0.24089964 0.10140451 0.58875
0.21722147 0.1103892 0.58900005
0.22541118 0.11058542 0.58900011
0.230932 0.11008086 0.58900005
0.19956121 0.016622607 0.59900004
0.20139597 0.01870762 0.59883338
0.24709107 0.018944938 0.59776467
0.25115594 0.018982172 0.59433341
0.19669117 0.022927077 0.59217387
0.20512263 0.022868259 0.59502131
0.21412833 0.023483032 0.59668177
0.22556472 0.024046816 0.59501576
0.23478122 0.023663297 0.5947966
0.24515773 0.023211323 0.59447706
0.25285715 0.023199769 0.5921579
0.18857004 0.068662345 0.59500003
0.19065757 0.067885078 0.59210008
0.18915826 0.072952725 0.5968889
0.19237994 0.075594202 0.59521163
0.18947792 0.081219323 0.59900004
0.19421433 0.085151576 0.5942381
0.19687048 0.094836019 0.59518665
0.20092994 0.098088577 0.59076929
0.24745172 0.097269326 0.59108335
0.25092688 0.095616184 0.59249997
0.19827329 0.10438135 0.59748662
0.20415048 0.10577925 0.5927527
0.21177085 0.10887787 0.59000003
0.23795229 0.10759128 0.59056252
0.24573267 0.10532469 0.59505087
0.25071329 0.10376278 0.597
0.19918424 0.11091632 0.59850001
0.20592766 0.11445812 0.59601319
0.21463779 0.11532588 0.59259784
0.22489512 0.11584219 0.59221667
0.23459527 0.11495876 0.59307593
0.24416168 0.113647 0.59751123
0.20830825 0.12164589 0.59845459
0.21482186 0.12311905 0.59766048
0.22480385 0.1241629 0.59680647
0.23402987 0.12316441 0.59729272
0.24012306 0.12052839 0.59800005
0.20683348 0.017095435 0.6030001
0.21499988 0.015968697 0.60479975
0.22505434 0.016531222 0.60449028
0.23508036 0.016109535 0.60426861
0.24262838 0.017168062 0.6009286
0.21769081 0.020849701 0.60033339
0.22375594 0.020670835 0.60000002
0.23340616 0.020424418 0.60014284
0.18922789 0.077401794 0.60135722
0.19105676 0.077585727 0.60000002
0.18829486 0.08081051 0.60533345
0.19295779 0.086573869 0.60133338
0.18929638 0.094622791 0.60650003
0.19270746 0.094910122 0.60362792
0.19507653 0.10594495 0.60328311
0.19727631 0.11504517 0.60515243
0.20192862 0.11728692 0.60091311
0.24604441 0.11808126 0.60123074
0.19858786 0.12290204 0.60740006
0.20450698 0.12544207 0.60334325
0.21524766 0.12799026 0.60051525
0.22563575 0.12889127 0.60042113
0.23621079 0.12744132 0.60106671
0.24498172 0.12506574 0.60548007
0.25139436 0.12451367 0.60876936
0.20675929 0.13423058 0.60662717
0.21483478 0.13501641 0.60378259
0.22456555 0.13491824 0.6029011
0.23479222 0.13484646 0.60497403
0.24266706 0.13356128 0.60791677
0.21607584 0.14330027 0.60804337
0.22511275 0.14266755 0.60759991
0.23441136 0.14196478 0.60770977
0.21898705 0.011198165 0.611
0.22091554 0.011837881 0.611
0.18941575 0.095320895 0.61100006
0.19103214 0.094845556 0.61000001
0.19341876 0.11663232 0.61381096
0.18929191 0.12087244 0.61900002
0.19497915 0.12501456 0.61513644
0.24847136 0.12794994 0.61000007
0.25087804 0.12789673 0.61000001
0.19743589 0.13392067 0.61550003
0.20231433 0.1360938 0.61173809
0.24644834 0.13566747 0.61154056
0.25105131 0.13745497 0.61633343
0.19880013 0.14148177 0.61900002
0.20498197 0.14469105 0.61500001
0.21337157 0.14684817 0.6107319
0.22527117 0.14747779 0.61014712
0.23461474 0.14726798 0.6117838
0.24490564 0.14498967 0.61687493
0.25045651 0.14081115 0.61833334
0.20725891 0.1529455 0.61765712
0.21480739 0.15497957 0.61504334
0.22476044 0.15451035 0.61353755
0.2347904 0.15475143 0.61609828
0.24208322 0.15284008 0.61837512
0.21692361 0.16278136 0.61850017
0.22454154 0.16261634 0.61804545
0.23206918 0.16158554 0.61880004
0.18959771 0.11912029 0.62
0.18891641 0.12359787 0.6212858
0.19117312 0.127206 0.62088239
0.19419621 0.13492362 0.62143344
0.19710582 0.14504139 0.62486804
0.20078118 0.14835154 0.62090009
0.24778591 0.14841168 0.62033331
0.2528708 0.1405419 0.62
0.19839862 0.15355419 0.62776929
0.20346542 0.15604466 0.62287891
0.23924966 0.15863939 0.62019998
0.24595362 0.15580463 0.62290245
0.25148824 0.15652235 0.62712502
0.19962941 0.16124129 0.62900007
0.20564407 0.16424429 0.62508005
0.21370119 0.16600804 0.6216141
0.22587021 0.16767497 0.62131256
0.23547871 0.16535409 0.62220377
0.24457628 0.16515678 0.62663651
0.25084791 0.16076577 0.62800002
0.20819734 0.17219123 0.62829995
0.21533823 0.17420349 0.62576389
0.2247939 0.17466049 0.62520576
0.23445518 0.17372845 0.62720454
0.2424238 0.17133927 0.62900007
0.21782805 0.1801201 0.62900001
0.22302765 0.181155 0.62900007
0.19449748 0.14647979 0.63109094
0.195472 0.15553638 0.63384902
0.19755018 0.16435799 0.63532001
0.20171618 0.16769059 0.63168192
0.24912106 0.16973022 0.63200003
0.25018123 0.16999876 0.63300002
0.19905756 0.1720641 0.63819999
0.20414588 0.17524378 0.63328773
0.21187805 0.1783198 0.63028574
0.22977372 0.17908724 0.63000005
0.23665228 0.17784844 0.63040012
0.24542075 0.17545216 0.63276786
0.25105932 0.17610985 0.63590008
0.20666748 0.1843417 0.63598341
0.21474144 0.18498398 0.6323908
0.22525932 0.18573567 0.63161004
0.2347241 0.18496796 0.6335147
0.24434669 0.18499862 0.63744658
0.25119147 0.18223375 0.63871431
0.20798579 0.19110012 0.63840002
0.21565448 0.19314609 0.63720006
0.22499382 0.19496019 0.63717127
0.23463832 0.19331719 0.63770592
0.24077415 0.19135848 0.63866675
0.22633329 0.20104757 0.63900006
0.19270088 0.15801866 0.64085722
0.19365403 0.16588745 0.64460421
0.19624679 0.17473957 0.6439507
0.20058322 0.17782485 0.64050007
0.19829217 0.18450755 0.64591897
0.20204248 0.18571264 0.64107692
0.24857111 0.18796061 0.64000005
0.25150499 0.18528029 0.6400001
0.1994611 0.1909374 0.64725006
0.20493898 0.19523419 0.6447295
0.21388008 0.19755347 0.6408056
0.22163744 0.19935195 0.64000005
0.23520643 0.19777933 0.64085191
0.24541494 0.19504084 0.64350021
0.20677078 0.20416763 0.64743143
0.21499859 0.205212 0.64431697
0.22459397 0.20491923 0.64210922
0.23505165 0.20503347 0.64484388
0.24372031 0.20396248 0.64782059
0.21636505 0.2137949 0.64857805
0.22543786 0.21397956 0.64757895
0.23386921 0.21312508 0.64816129
0.24148308 0.21047926 0.64900005
0.19371538 0.17604336 0.65093338
0.19510204 0.18588457 0.65352625
0.19686747 0.19416316 0.65435201
0.20099483 0.19866537 0.6516667
0.19903158 0.20371719 0.65764284
0.20223863 0.20547913 0.65364283
0.24758631 0.2071535 0.65235722
0.25119898 0.20634848 0.65475005
0.19944403 0.21182497 0.65900004
0.20531137 0.21461701 0.6561473
0.21238288 0.21622187 0.65203142
0.22527561 0.21902302 0.65100002
0.23652203 0.21754946 0.65196007
0.24516866 0.2153265 0.65502232
0.25181022 0.21313001 0.65826678
0.19875069 0.22941926 0.65900004
0.2077945 0.22558631 0.65861136
0.21509998 0.2249649 0.65536225
0.22498517 0.22448671 0.65353703
0.23492147 0.22494371 0.65480691
0.24302116 0.22427435 0.6581381
0.19485071 0.23010923 0.65899998
0.20279513 0.23010924 0.65900004
0.1926906 0.18956995 0.66200006
0.18920815 0.19211137 0.66200006
0.19324741 0.19461693 0.66219997
0.19681543 0.20555609 0.6640889
0.19841592 0.21483073 0.66451514
0.20165594 0.21824344 0.6604445
0.24974231 0.21940209 0.66000003
0.25260869 0.21774647 0.66266674
0.19577567 0.225968 0.66474682
0.20367639 0.22496679 0.6614998
0.24653319 0.22693405 0.66058058
0.19370596 0.20804521 0.67300004
0.19462816 0.21537578 0.6745162
0.19319513 0.22232819 0.67383325
0.19124956 0.21344073 0.68368191
