# .PCD v0.7 - Point Cloud Data file format
VERSION 0.7
FIELDS x y z
SIZE 4 4 4
TYPE F F F
COUNT 1 1 1
WIDTH 1458
HEIGHT 1
VIEWPOINT 0 0 0 1 0 0 0
POINTS 1458
DATA ascii
0.17971088 -0.090247884 1.189
0.18513164 -0.090247892 1.189
0.37433252 -0.091779135 1.1873336
0.38433349 -0.091830432 1.1880002
0.39766568 -0.090793908 1.1880001
0.40745649 -0.091001213 1.1880001
0.4157891 -0.091001213 1.1880002
0.42516327 -0.091415823 1.1880001
0.4351624 -0.090586603 1.1880002
0.44503656 -0.090669528 1.1880001
0.45528564 -0.090171985 1.1880001
0.46578473 -0.091415823 1.1880001
0.47596008 -0.091354266 1.1872002
0.4844687 -0.092209987 1.1854
0.49388736 -0.092977159 1.1848185
0.50368619 -0.092005067 1.1864287
0.51422668 -0.092155538 1.1855001
0.52465034 -0.091961101 1.1858573
0.53415537 -0.093237437 1.1865557
0.54456902 -0.09258166 1.1870002
0.55586082 -0.093340851 1.1861112
0.56535739 -0.094359338 1.1843337
0.5751189 -0.094100051 1.1852223
0.58436489 -0.094072901 1.1854002
0.59370589 -0.094315156 1.1853336
0.60439777 -0.094442576 1.1850002
0.61494178 -0.095172055 1.1852001
0.62484473 -0.095433302 1.1846668
0.63565558 -0.093810692 1.1843849
0.64524812 -0.094298266 1.1846001
0.65561962 -0.095259614 1.1842222
0.66622287 -0.096894443 1.184
0.6749993 -0.09746436 1.1842222
0.68086767 -0.09871237 1.1860001
-0.022903278 -0.080153778 1.187
-0.014161407 -0.081810832 1.187
-0.0041706976 -0.082639351 1.187
0.0067120404 -0.080863938 1.1870002
0.015186304 -0.080775164 1.187
0.024552593 -0.082639351 1.1870002
0.034740895 -0.08251404 1.1852001
0.0458057 -0.082363345 1.1846366
0.055130359 -0.082923874 1.1839335
0.064790487 -0.082087867 1.1835001
0.07548862 -0.081605256 1.1828002
0.084247708 -0.08208786 1.1835001
0.095187448 -0.08169619 1.1853335
0.1052219 -0.083545551 1.1836667
0.11484867 -0.085349523 1.1832001
0.12513801 -0.084376626 1.1842223
0.13473344 -0.083672225 1.184
0.14399564 -0.08414112 1.1833334
0.15526539 -0.083947435 1.1838462
0.16479477 -0.085058928 1.1843001
0.17539313 -0.084760755 1.1845386
0.18510537 -0.086114638 1.1835002
0.19509938 -0.085510403 1.1837001
0.20515616 -0.08471483 1.1850555
0.2153465 -0.084886573 1.18445
0.22475487 -0.085538812 1.1852859
0.23504838 -0.084728263 1.18575
0.24571502 -0.084513627 1.1858574
0.25477198 -0.083480105 1.1832224
0.26496866 -0.083354086 1.1842728
0.27501953 -0.084655665 1.1850002
0.28510463 -0.084057294 1.1846366
0.2954089 -0.082870066 1.1843336
0.30534479 -0.084014222 1.1852667
0.31480986 -0.084252298 1.1847894
0.32463321 -0.084992543 1.1837695
0.33617574 -0.085521489 1.1838334
0.34564376 -0.085024431 1.1855456
0.35500824 -0.085187703 1.184
0.36592871 -0.086163014 1.1828463
0.37480092 -0.08666119 1.1818463
0.38498411 -0.087346159 1.1820002
0.39521107 -0.085918657 1.1820002
0.4043732 -0.086861417 1.1824002
0.4146328 -0.086649738 1.1823335
0.4246062 -0.087031782 1.182182
0.43547416 -0.087024741 1.1824001
0.44585848 -0.086571038 1.1826668
0.4549818 -0.087155253 1.1826667
0.46427438 -0.087085463 1.1832001
0.47496688 -0.08819019 1.1828573
0.48623613 -0.087402716 1.1800002
0.49586046 -0.087894075 1.1803751
0.50736833 -0.087969862 1.1818001
0.51734346 -0.089792475 1.1830001
0.528234 -0.089173183 1.1830001
0.53539062 -0.088966742 1.1830001
0.5438363 -0.089084707 1.1830001
0.55343783 -0.08896675 1.1830001
0.56090552 -0.089792475 1.1830001
0.63807261 -0.089792475 1.1830001
-0.23466396 -0.07032977 1.189
-0.22510257 -0.070424743 1.1864001
-0.21488518 -0.071085192 1.1860001
-0.20502824 -0.071723878 1.1858182
-0.19619267 -0.073008694 1.1862859
-0.1840685 -0.072229125 1.185143
-0.17480339 -0.071244814 1.1857778
-0.16538422 -0.073100775 1.1861819
-0.1551189 -0.072485842 1.1857778
-0.14594457 -0.072171457 1.186
-0.13520731 -0.072236665 1.1862222
-0.1237879 -0.072613828 1.1856002
-0.11459629 -0.072637901 1.1860001
-0.10478734 -0.072377428 1.184
-0.095372722 -0.072938606 1.1828001
-0.084986597 -0.073518351 1.1835001
-0.075874992 -0.074717514 1.1835002
-0.063844427 -0.074887432 1.1839169
-0.054640166 -0.077001199 1.184667
-0.045524672 -0.077362388 1.1842002
-0.035326608 -0.075949036 1.1848183
-0.025537765 -0.07703723 1.1836668
-0.014611538 -0.079883672 1.1830001
-0.0044055688 -0.079883672 1.1830001
0.015342566 -0.078232214 1.1830001
0.024469856 -0.079883672 1.1830001
0.038160786 -0.079264373 1.1830001
0.081031978 -0.078578591 1.182
0.093467765 -0.07981614 1.182
0.23648629 -0.079748616 1.1810001
0.24373434 -0.079748616 1.1810001
0.26547855 -0.079748616 1.1810001
0.31269458 -0.079748616 1.1810001
-0.35564137 -0.062011909 1.1846666
-0.33566889 -0.06332738 1.1877143
-0.3240217 -0.062560312 1.1880001
-0.31579971 -0.062617533 1.1867002
-0.30559763 -0.062673084 1.1853999
-0.29512748 -0.063826442 1.1856668
-0.28534192 -0.064307451 1.1850002
-0.27523756 -0.064425319 1.1850002
-0.26460522 -0.065056704 1.1853079
-0.25455007 -0.066746056 1.1852858
-0.24455914 -0.067198783 1.1843847
-0.23551552 -0.066849686 1.1836667
-0.22469801 -0.067383558 1.1810001
-0.21444717 -0.067383558 1.1810001
-0.20494185 -0.067383558 1.1810001
-0.19483653 -0.069797412 1.1800002
-0.18465643 -0.069550328 1.1800002
-0.17422806 -0.068561964 1.1800002
-0.16384438 -0.069124639 1.1805716
-0.15395063 -0.068561956 1.1800001
-0.1452145 -0.068227611 1.1813334
-0.13602807 -0.068188876 1.1806668
-0.12518981 -0.068561956 1.1800001
-0.11488558 -0.069056146 1.1800002
-0.10677462 -0.069797412 1.1800001
-0.05504654 -0.069797412 1.1800001
-0.35296297 -0.057587814 1.1830001
-0.34567216 -0.057809368 1.1846668
-0.33533832 -0.058604628 1.1826668
-0.32586133 -0.058567803 1.184
-0.30111334 -0.059964519 1.1810001
0.57461917 -0.1020491 1.1960001
0.58615226 -0.10230508 1.1990001
0.59527153 -0.10159312 1.1980001
0.60384417 -0.1017079 1.1975
0.61453164 -0.10206837 1.1975456
0.6242258 -0.10197556 1.1951001
0.63558549 -0.10210198 1.1966
0.64598882 -0.10182838 1.1947273
0.65453798 -0.10312699 1.19575
0.66474885 -0.10281385 1.1951666
0.67505795 -0.10422888 1.1937369
0.68401396 -0.10566264 1.1955001
0.026062271 -0.092262268 1.199
0.03867691 -0.091006912 1.199
0.044353496 -0.091006912 1.199
0.051712036 -0.09100692 1.1990001
0.075259373 -0.09194842 1.199
0.084089622 -0.091948427 1.199
0.096073531 -0.091425359 1.199
0.10490377 -0.091320753 1.199
0.1133829 -0.091036119 1.19525
0.12445646 -0.092262268 1.199
0.13407916 -0.093097709 1.197625
0.14534724 -0.09223149 1.1986001
0.1552251 -0.092475168 1.1963334
0.16502757 -0.091454834 1.1950001
0.17394377 -0.091417 1.1952223
0.18570785 -0.092614442 1.1965716
0.19482642 -0.091789268 1.195143
0.20482196 -0.091835111 1.1952223
0.21490288 -0.09199556 1.1955
0.22473854 -0.092256077 1.1965716
0.23502605 -0.092089124 1.19675
0.24472198 -0.092185311 1.1980001
0.26495862 -0.092882141 1.1980001
0.27381653 -0.091414355 1.1972859
0.28481576 -0.091126733 1.1958573
0.29594147 -0.092495367 1.1965834
0.30483559 -0.092530057 1.1956667
0.31437233 -0.092051439 1.19625
0.32477477 -0.090794384 1.1962001
0.33531758 -0.091356412 1.197
0.34569126 -0.092233196 1.1962858
0.35534137 -0.092108361 1.197
0.36455172 -0.092957065 1.1950001
0.37513858 -0.094995648 1.1947778
0.38523102 -0.096029826 1.1947275
0.39449906 -0.094107889 1.1945
0.40462855 -0.094806574 1.1948574
0.4146429 -0.095497034 1.195182
0.42479521 -0.095403098 1.1945002
0.43505996 -0.092971638 1.192
0.44769692 -0.093231633 1.1953334
0.45445758 -0.093799204 1.1934286
0.46450299 -0.093969285 1.19475
0.47405767 -0.094022073 1.194
0.48521757 -0.095377423 1.1940001
0.4919982 -0.096940145 1.1947501
0.50534266 -0.096211784 1.1945715
0.51576769 -0.096577689 1.1941251
0.52479851 -0.096164525 1.192875
0.53561169 -0.097040258 1.1960001
0.54552341 -0.095706455 1.1932223
0.55400932 -0.096861117 1.1937778
0.56180108 -0.09808962 1.1935
0.57570678 -0.098712973 1.1920002
0.58555031 -0.098155491 1.1943334
0.59476423 -0.097984277 1.19225
0.60437846 -0.097881548 1.1910002
0.61332512 -0.097963728 1.1920002
0.62807626 -0.097799361 1.1900001
0.63508743 -0.098048545 1.1900001
0.64466518 -0.099045292 1.1900001
0.65499413 -0.099045292 1.1900001
0.66344512 -0.099045292 1.1900001
-0.12248324 -0.080761507 1.1960001
-0.11574128 -0.080739006 1.1956668
-0.10729375 -0.080693983 1.1950001
-0.099121593 -0.080693983 1.1950001
-0.085417509 -0.081945151 1.1950001
-0.075359456 -0.081945151 1.1950001
-0.065049969 -0.081945151 1.1950001
-0.054489028 -0.081945151 1.1950001
-0.044982444 -0.082642116 1.1930001
-0.03567348 -0.082204834 1.1931539
-0.025947735 -0.082642823 1.193
-0.015169851 -0.085013479 1.1926668
-0.0047504054 -0.08376763 1.1932223
0.0058474694 -0.084903888 1.1926
0.015464842 -0.086679049 1.1942354
0.024992781 -0.087475404 1.1942309
0.034508582 -0.087669104 1.1950002
0.044369098 -0.086725466 1.1937779
0.054532215 -0.088127166 1.194
0.065730736 -0.086568706 1.1940001
0.074967146 -0.086795419 1.1928463
0.084955573 -0.086719811 1.1918184
0.094717994 -0.086918257 1.1932858
0.10448281 -0.08845146 1.1911429
0.11601029 -0.08907786 1.1900001
0.1265655 -0.088138245 1.1917143
0.1349014 -0.08813671 1.1922222
0.1445774 -0.088604607 1.1920002
0.15487856 -0.088557377 1.1904446
0.16577707 -0.088143416 1.1900001
0.17235005 -0.087831929 1.1900001
0.19914272 -0.088053353 1.1930001
0.20667364 -0.089302421 1.1930001
0.22801121 -0.089302421 1.1930001
0.23421866 -0.088771455 1.1942501
0.24377882 -0.088877648 1.1940001
0.25498149 -0.088913627 1.1952223
0.26463643 -0.088733248 1.1946666
0.27319664 -0.088677883 1.1930001
0.28574818 -0.088053361 1.1930001
0.29468724 -0.087162681 1.193625
0.30394787 -0.088053353 1.1930001
0.31775451 -0.088053353 1.1930001
0.32800496 -0.089302421 1.1930001
0.33418679 -0.089277469 1.1926668
0.34654149 -0.08922758 1.1920002
0.35528311 -0.089302421 1.1930001
0.36326283 -0.08922758 1.1920002
-0.35304844 -0.071304277 1.197
-0.34504351 -0.07192079 1.1966366
-0.33523753 -0.071519129 1.197
-0.32786125 -0.070802972 1.197
-0.30645216 -0.070802972 1.197
-0.29763663 -0.072056234 1.197
-0.28294408 -0.072056234 1.197
-0.27538794 -0.072056234 1.197
-0.26471794 -0.072509378 1.1962001
-0.25544071 -0.073606148 1.1950002
-0.24486049 -0.072845675 1.1945
-0.23480706 -0.073157944 1.1945
-0.22505839 -0.073572233 1.193625
-0.21498457 -0.075128034 1.1940001
-0.2047513 -0.077070184 1.1934547
-0.19510098 -0.076724052 1.1937778
-0.18505414 -0.07630758 1.1937779
-0.17478645 -0.077378243 1.1940001
-0.16694362 -0.077855065 1.1925714
-0.15506385 -0.077127807 1.1940001
-0.14467895 -0.076461494 1.1940002
-0.13470475 -0.076525547 1.1938183
-0.12475028 -0.07747604 1.1936001
-0.11477283 -0.077637985 1.192889
-0.10599195 -0.077569276 1.1931001
-0.095416702 -0.078215286 1.1932224
-0.085632816 -0.078241676 1.1910001
-0.074856617 -0.07917691 1.1910001
-0.064832233 -0.07917691 1.1910001
-0.041776165 -0.07917691 1.1910001
-0.039270069 -0.07917691 1.1910001
-0.35295478 -0.065335289 1.1928183
-0.34548414 -0.064862728 1.1921178
-0.33518344 -0.065731511 1.1926428
-0.32626364 -0.067193888 1.193
-0.31491932 -0.068173878 1.1948183
-0.30430424 -0.068184435 1.1950001
-0.29477391 -0.068910636 1.1946001
-0.28466371 -0.069456749 1.1954001
-0.27435422 -0.068562061 1.1943334
-0.26526329 -0.069317296 1.1930001
-0.25898749 -0.069317296 1.1930001
-0.35348785 -0.059175555 1.1900001
0.59768242 -0.11057006 1.207
0.65736681 -0.11057006 1.207
0.67735684 -0.11171024 1.2056668
0.68541455 -0.11235657 1.2041252
0.69148827 -0.11286482 1.2045001
0.29570889 -0.10040474 1.2063334
0.30444172 -0.10049351 1.2074001
0.31120422 -0.10062668 1.2090001
0.34586582 -0.1012596 1.2090001
0.35317975 -0.10189252 1.2090001
0.36801958 -0.10189252 1.2090001
0.37671733 -0.10166778 1.2063335
0.3862437 -0.10256805 1.2050002
0.39514026 -0.10150534 1.2074001
0.40406686 -0.10189326 1.2060001
0.41443107 -0.10267355 1.2033002
0.42539927 -0.10323945 1.2050002
0.43483555 -0.10232407 1.205778
0.44491205 -0.10121862 1.2074287
0.45499367 -0.10148275 1.2057778
0.46503466 -0.10175668 1.2055001
0.47648582 -0.10180824 1.2080001
0.48485762 -0.10160597 1.2056001
0.49443352 -0.10259351 1.2040001
0.50498438 -0.10385164 1.2060003
0.51451516 -0.10373989 1.2055387
0.52491432 -0.10342239 1.204667
0.53445661 -0.1042513 1.2058463
0.54541743 -0.10353475 1.2060002
0.55463356 -0.10441083 1.2059001
0.56386346 -0.1040933 1.2038183
0.57460392 -0.10348608 1.2030001
0.58585203 -0.10486072 1.2035716
0.59379196 -0.10622218 1.2037143
0.60436392 -0.1063185 1.2058572
0.61548537 -0.10601588 1.2055
0.62502909 -0.10686404 1.2047777
0.63500583 -0.10714114 1.2063334
0.64498419 -0.10760449 1.2052222
0.65408117 -0.10766534 1.2043333
0.66488594 -0.10798549 1.2047777
0.6732282 -0.10822514 1.2043334
-0.073510319 -0.091690034 1.2080001
-0.066520184 -0.091690034 1.2080001
-0.036017802 -0.091184117 1.2080001
-0.025185406 -0.090787262 1.2065001
-0.015228395 -0.092759319 1.2054446
-0.004685591 -0.092422277 1.2045715
0.0049334872 -0.092155762 1.2051538
0.016043819 -0.093633279 1.2045001
0.02513586 -0.093987696 1.2050002
0.034830946 -0.094317593 1.2048182
0.04477771 -0.093830183 1.2047777
0.054864496 -0.092755578 1.2054001
0.064700611 -0.092410117 1.205
0.073986545 -0.095045313 1.2047144
0.086411551 -0.09603706 1.205
0.095376775 -0.096421011 1.2049999
0.10427779 -0.095524162 1.2045
0.11485188 -0.09387967 1.2063334
0.12552387 -0.095686041 1.2052224
0.13499492 -0.096665397 1.2030001
0.14448178 -0.097025171 1.204154
0.15420182 -0.096988916 1.2038181
0.16461682 -0.095783003 1.2046667
0.17550367 -0.095371753 1.2042859
0.18577473 -0.095589086 1.2040001
0.1961056 -0.096021481 1.2052001
0.20509629 -0.096429817 1.2040001
0.21410103 -0.096348681 1.2030001
0.22484259 -0.095778279 1.2048573
0.23480003 -0.095047325 1.2042223
0.24632859 -0.095822252 1.2054287
0.25494 -0.094802648 1.2036
0.26587388 -0.097050883 1.2038752
0.27493227 -0.096223213 1.2048889
0.28494909 -0.095595099 1.2047857
0.29417068 -0.096390635 1.2017779
0.30484888 -0.097194456 1.2010001
0.31534368 -0.096708477 1.2031819
0.32508522 -0.096381918 1.2046669
0.33478355 -0.096051902 1.204077
0.3447088 -0.096961014 1.2038572
0.35516623 -0.096485592 1.2034616
0.36572874 -0.097539023 1.2060001
0.37519905 -0.098485008 1.2027144
0.38748622 -0.098703392 1.2010001
0.3950676 -0.098200411 1.2010001
0.40454435 -0.099332109 1.2010001
0.41496882 -0.099960834 1.2010001
0.42349792 -0.099960834 1.2010001
0.43520823 -0.097172156 1.2015002
0.4451901 -0.097451277 1.2026001
0.4543792 -0.09800864 1.2012858
0.4644382 -0.097997196 1.2011429
0.47471115 -0.097802185 1.2015001
0.48447552 -0.097997196 1.201143
0.49573994 -0.098621212 1.2
0.50584006 -0.098621204 1.2
0.51543522 -0.098872483 1.2
0.52688205 -0.099877611 1.2
0.53538293 -0.099877603 1.2
0.54466242 -0.099877603 1.2
0.5547626 -0.099877603 1.2
0.56517833 -0.099877611 1.2
0.57212222 -0.099877603 1.2
0.58159107 -0.099877603 1.2
-0.27136484 -0.081639349 1.2090001
-0.26415691 -0.081639349 1.2090001
-0.25482902 -0.081639349 1.2090001
-0.24387796 -0.081201717 1.2078574
-0.23569165 -0.080267169 1.2074001
-0.22534862 -0.081306413 1.2077999
-0.21548861 -0.082649887 1.2083335
-0.20531519 -0.083162054 1.2045556
-0.19584303 -0.083970755 1.2060908
-0.18532597 -0.084033847 1.2070001
-0.17496745 -0.084774755 1.2060909
-0.16503552 -0.083598964 1.20525
-0.15512358 -0.08220005 1.2042
-0.144986 -0.082579374 1.2042001
-0.13457336 -0.083040357 1.205909
-0.12503903 -0.084983759 1.2055001
-0.11543512 -0.08528059 1.2045001
-0.10553631 -0.084987625 1.2025716
-0.094800204 -0.084462382 1.2033848
-0.084629223 -0.085894041 1.2050002
-0.074387357 -0.087031052 1.2060001
-0.064578697 -0.08679878 1.2040002
-0.054988686 -0.086977966 1.2040001
-0.045542199 -0.087510645 1.2044001
-0.034586638 -0.086985692 1.2024001
-0.025717592 -0.087430038 1.2016001
-0.015074012 -0.089826412 1.2
-0.0054788915 -0.087732419 1.2
0.0033587208 -0.087313615 1.2
-0.35199398 -0.074874207 1.202
-0.3437295 -0.075799048 1.2033334
-0.33492258 -0.075195916 1.2034546
-0.32487646 -0.073293231 1.2041819
-0.31463504 -0.072633155 1.2042223
-0.30508795 -0.073843762 1.2038183
-0.29519722 -0.073487341 1.2040001
-0.28587687 -0.074874192 1.2045001
-0.27506399 -0.075259067 1.2044547
-0.26521549 -0.076960772 1.2041819
-0.25372747 -0.078206554 1.2037779
-0.24560438 -0.077125639 1.2027501
-0.23450296 -0.077429824 1.2026001
-0.2248991 -0.077391192 1.2020001
-0.21491988 -0.079212971 1.2010001
-0.20891792 -0.079841696 1.2010001
-0.19459748 -0.079841696 1.2010001
-0.18617371 -0.079632126 1.2010002
-0.1781711 -0.079841696 1.2010001
0.69473648 -0.12409291 1.2171177
0.406306 -0.11021193 1.217
0.41492739 -0.11021192 1.217
0.42529863 -0.11021192 1.217
0.43490165 -0.11021192 1.217
0.51940817 -0.11148612 1.217
0.52523851 -0.11124323 1.2166667
0.53451627 -0.1124858 1.2160002
0.54456836 -0.11088526 1.2160001
0.55557078 -0.11063063 1.2160001
0.56439829 -0.11012137 1.2160001
0.57292736 -0.11181891 1.2160001
0.58678693 -0.11097014 1.2160001
0.59444422 -0.11251942 1.2144001
0.60530031 -0.11184736 1.214
0.6153096 -0.11236335 1.2142222
0.62569368 -0.11293938 1.2143333
0.63462102 -0.11274487 1.2148573
0.64435762 -0.11139452 1.2160001
0.65500069 -0.1116343 1.214
0.66626352 -0.11305448 1.2142857
0.67476064 -0.1143832 1.2154616
0.68489027 -0.11635198 1.2156668
0.69288421 -0.11772055 1.2141112
0.059694882 -0.10120931 1.2160001
0.066313088 -0.10305706 1.2171249
0.074835472 -0.10279848 1.2167
0.084621504 -0.10246375 1.2157501
0.093705051 -0.1026339 1.2136365
0.1045455 -0.10128146 1.2138001
0.11571493 -0.10283564 1.2176669
0.12478669 -0.10346015 1.217
0.1350269 -0.10400356 1.2172223
0.1450088 -0.10395097 1.2155457
0.1557741 -0.10384303 1.2170001
0.16506004 -0.10279866 1.2146668
0.17469241 -0.10296172 1.2156001
0.1853255 -0.10336882 1.2176666
0.19418614 -0.10269647 1.217
0.20436133 -0.10380961 1.2166001
0.21421769 -0.10278998 1.2166001
0.22470598 -0.10300363 1.2178572
0.23445511 -0.10324702 1.2175001
0.2452925 -0.1027353 1.2190001
0.25649625 -0.10307609 1.2180001
0.26543367 -0.10333157 1.2174287
0.27596861 -0.10196181 1.2162859
0.28498814 -0.10197445 1.2160001
0.29397833 -0.10296512 1.2166667
0.30562791 -0.10385799 1.2172002
0.31636357 -0.10312113 1.2160001
0.32386604 -0.10232616 1.2162859
0.33514723 -0.10190173 1.2166668
0.343945 -0.10348688 1.2153335
0.3560594 -0.10402574 1.2166667
0.36533836 -0.10448662 1.2156
0.37476662 -0.10575643 1.2162224
0.38440064 -0.10645507 1.2161111
0.39552015 -0.10701674 1.2156667
0.40352303 -0.10688191 1.2139001
0.41606379 -0.10700428 1.2143334
0.42553014 -0.10739813 1.214
0.43506581 -0.1071972 1.2146
0.44466227 -0.10670581 1.2166364
0.45450929 -0.10594175 1.2155
0.4653978 -0.10669526 1.2151819
0.47349352 -0.10637587 1.215
0.48583159 -0.10538631 1.2152224
0.49391666 -0.10599547 1.2154001
0.50473928 -0.10800681 1.2147145
0.51472181 -0.1083973 1.2138001
0.52444661 -0.1085797 1.2130002
0.53480196 -0.10984968 1.2130002
0.5448519 -0.10771792 1.2128334
0.55483007 -0.10725069 1.2123334
0.56572956 -0.10772878 1.212
0.57550097 -0.10776354 1.2133334
0.58422381 -0.10851737 1.2146667
0.59123236 -0.10975912 1.212
0.60908431 -0.10849016 1.212
0.61354733 -0.10849016 1.212
0.62948656 -0.10849016 1.212
0.63905013 -0.10912465 1.212
0.64223802 -0.10975912 1.212
-0.1900904 -0.092449054 1.2180001
-0.18534148 -0.092423759 1.2176666
-0.16603351 -0.091098949 1.217
-0.13423687 -0.091098949 1.217
-0.12560704 -0.090874381 1.214
-0.11492568 -0.091274165 1.2136667
-0.10465959 -0.091353796 1.217
-0.093135983 -0.092627995 1.217
-0.083759837 -0.092671379 1.2153333
-0.075585738 -0.094060883 1.2140834
-0.064448871 -0.093408838 1.2138749
-0.054253876 -0.093620248 1.2147777
-0.044318248 -0.092827618 1.2138182
-0.034001287 -0.093603022 1.2131
-0.025317924 -0.095247187 1.2130001
-0.015896 -0.097409099 1.21225
-0.0046875295 -0.098299064 1.2132224
0.0065836646 -0.097619846 1.2125002
0.015255886 -0.097619832 1.2125
0.024959827 -0.098802052 1.2129999
0.034181472 -0.099044718 1.2128751
0.04493152 -0.097927622 1.2147501
0.056673724 -0.096493714 1.2138572
0.064593293 -0.096602097 1.2119093
0.074738495 -0.098257318 1.2110001
0.08429417 -0.098257318 1.2110001
0.10729589 -0.098952912 1.21175
0.11513051 -0.098372601 1.2124002
0.12496173 -0.099020764 1.21
0.13790429 -0.099443063 1.21
0.15572681 -0.099443063 1.21
0.16760848 -0.098176181 1.21
0.17397366 -0.098176181 1.21
0.18415797 -0.098176181 1.21
0.19510607 -0.098176181 1.21
0.20367788 -0.098176181 1.21
0.2162385 -0.099443056 1.21
0.22553167 -0.099443056 1.21
0.23627007 -0.098836549 1.2114286
0.24466459 -0.098872438 1.2133335
0.25501314 -0.09977179 1.2140001
0.26372278 -0.099443056 1.21
0.27708966 -0.098176181 1.21
0.33356583 -0.099771783 1.2140001
-0.33014899 -0.081706882 1.21
-0.32445842 -0.083541483 1.2157334
-0.31643206 -0.082401589 1.2165
-0.30461717 -0.082414791 1.2173336
-0.29516813 -0.082793787 1.2180001
-0.28581068 -0.083373792 1.2158
-0.27560323 -0.083475292 1.2152224
-0.26532912 -0.084683299 1.2163334
-0.25530204 -0.085898779 1.2155002
-0.24450004 -0.085798666 1.2157274
-0.23550585 -0.083938465 1.215778
-0.22505105 -0.085968412 1.2165002
-0.21485214 -0.087207787 1.2160002
-0.20424388 -0.088125229 1.2155001
-0.19407794 -0.088397905 1.2148751
-0.18427967 -0.088804424 1.2135001
-0.17444597 -0.089303739 1.2148573
-0.16395235 -0.087715462 1.2142501
-0.15552896 -0.086880833 1.2140002
-0.14497849 -0.086902522 1.2142857
-0.13641576 -0.087784447 1.2142222
-0.1275222 -0.088186756 1.2120001
-0.1041446 -0.089455709 1.2120001
-0.095558643 -0.089455716 1.212
-0.085017487 -0.089455709 1.2120001
-0.33142203 -0.077906273 1.21
-0.32452667 -0.07781335 1.211
-0.31505457 -0.077984802 1.2112001
-0.30478504 -0.07882344 1.2124002
-0.29530355 -0.077984802 1.2112001
-0.28431964 -0.078750864 1.21
-0.27540839 -0.078328572 1.21
0.69576579 -0.13156492 1.2260001
0.70254129 -0.13220777 1.2260001
0.58724147 -0.12094937 1.2290001
0.59047407 -0.12287951 1.2290001
0.60986948 -0.12159275 1.2290001
0.61518449 -0.12149382 1.228
0.62457335 -0.12143445 1.2274001
0.63469523 -0.12151854 1.2282501
0.64390677 -0.12164214 1.2273335
0.65569973 -0.12167749 1.2280002
0.67655587 -0.12020809 1.228
0.68710297 -0.12447193 1.2265714
0.6925016 -0.12675735 1.2245001
0.062867932 -0.1112081 1.228
0.13909443 -0.11249381 1.228
0.16428792 -0.11120809 1.228
0.17397776 -0.1112081 1.228
0.18503007 -0.11192955 1.2278572
0.19456956 -0.11159103 1.2275002
0.20546366 -0.11111753 1.2270001
0.21579105 -0.11111753 1.2270001
0.31971034 -0.11111753 1.2270001
0.37813884 -0.1123106 1.2260001
0.38437325 -0.1123106 1.2260001
0.39479417 -0.11215793 1.2243334
0.40580848 -0.11319712 1.2232223
0.41491228 -0.1133652 1.2235003
0.42511982 -0.11349302 1.2248889
0.43412018 -0.11348062 1.2232223
0.44494793 -0.11208419 1.2234999
0.45414105 -0.11068738 1.2222501
0.46492526 -0.1121043 1.2237272
0.4739086 -0.1127234 1.2235001
0.48842278 -0.1123106 1.2260001
0.49638969 -0.11396464 1.2272002
0.50623238 -0.11506733 1.2280002
0.51428455 -0.11442201 1.2247335
0.52414668 -0.11607862 1.2226365
0.53401685 -0.11620882 1.2207144
0.54512262 -0.11513763 1.2226669
0.55421293 -0.11462405 1.2246002
0.5664227 -0.11521672 1.2261668
0.57587272 -0.11526641 1.2213573
0.58519393 -0.11499235 1.2219232
0.5950045 -0.1169721 1.2237
0.6050036 -0.11741035 1.2241112
0.6140579 -0.11684456 1.2208335
0.62477916 -0.11667049 1.2223334
0.63549012 -0.1178769 1.2228572
0.64503831 -0.11681633 1.2227502
0.6544534 -0.11672603 1.2229168
0.66397822 -0.11646579 1.2246668
0.67222613 -0.11808585 1.2260001
0.68401039 -0.11981654 1.2240001
-0.073171951 -0.10229132 1.2290001
-0.064444013 -0.10229132 1.2290001
-0.054746311 -0.10229132 1.2290001
-0.044464312 -0.10310775 1.2267778
-0.035859924 -0.10139381 1.2267778
-0.023826474 -0.10144634 1.2254286
-0.014946297 -0.10395771 1.2258334
-0.0063895574 -0.10438916 1.2256924
0.0047196173 -0.10413388 1.2250001
0.014717806 -0.10493658 1.2240001
0.02423507 -0.10586997 1.2256668
0.034243472 -0.10504272 1.22475
0.045548655 -0.1037973 1.2254668
0.055794355 -0.1049492 1.22525
0.064020954 -0.10652411 1.2229
0.075398304 -0.10700442 1.224
0.085949451 -0.10793597 1.2255
0.095618218 -0.10841811 1.2255
0.10507295 -0.10622196 1.2257273
0.11474691 -0.10717925 1.2260001
0.12462848 -0.10841811 1.2255
0.13491149 -0.10825096 1.2252222
0.14388056 -0.1091143 1.226125
0.15454075 -0.10905836 1.2255
0.16477707 -0.10819433 1.223
0.17532812 -0.10819433 1.223
0.18576889 -0.10746264 1.2230002
0.19624643 -0.10764556 1.2230002
0.20560732 -0.10853994 1.2240001
0.21572414 -0.10828385 1.2240002
0.22527477 -0.10742539 1.2243078
0.23557703 -0.10794478 1.2245001
0.24514282 -0.10640525 1.2245001
0.25477287 -0.10679066 1.2245001
0.26535568 -0.10725925 1.2240001
0.2754623 -0.10692884 1.2247778
0.28475586 -0.1070476 1.2245001
0.29392299 -0.10726231 1.2253335
0.3048715 -0.1067642 1.2261668
0.31426036 -0.10778237 1.2247778
0.32469487 -0.10752804 1.2245001
0.33459315 -0.10593197 1.2247778
0.34456661 -0.10781682 1.2245001
0.35525969 -0.10832965 1.2245001
0.36514646 -0.10848046 1.2241429
0.37605006 -0.10947482 1.223
0.38566059 -0.10940768 1.2222501
0.39265436 -0.10929579 1.2210001
0.45592138 -0.10929579 1.2210001
0.4787232 -0.10673901 1.2210001
0.48408923 -0.10859272 1.2226665
0.49542314 -0.10929579 1.2210001
0.50398719 -0.10929579 1.2210001
-0.31372294 -0.091652043 1.2243999
-0.30549252 -0.09048903 1.2260001
-0.28162989 -0.091772653 1.2260001
-0.27131093 -0.091772653 1.2260001
-0.26099196 -0.091772653 1.2260001
-0.25551 -0.091772653 1.2260001
-0.24472518 -0.091111176 1.224
-0.23429452 -0.091239952 1.2240001
-0.22437778 -0.092379026 1.2242858
-0.21472044 -0.093290389 1.2240001
-0.20551242 -0.093242265 1.2238182
-0.19526558 -0.094304241 1.2236668
-0.18453912 -0.095229164 1.2236667
-0.17527673 -0.094725728 1.2226669
-0.16577876 -0.093982473 1.2230002
-0.15601368 -0.09270478 1.2232224
-0.14550593 -0.093077466 1.223182
-0.13550958 -0.094589278 1.2236668
-0.12541638 -0.095273063 1.2215
-0.11574063 -0.095680706 1.2218
-0.10543293 -0.095391624 1.2229999
-0.09506277 -0.095089979 1.222778
-0.084516957 -0.096974455 1.2232224
-0.073389672 -0.098858938 1.2236667
-0.064288594 -0.098000012 1.2236
-0.05445677 -0.098551214 1.2225002
-0.045197789 -0.098304018 1.2205715
-0.036054708 -0.097710222 1.22
-0.028674249 -0.097710222 1.22
0.048981003 -0.098987557 1.22
0.053901311 -0.098987564 1.22
-0.31401634 -0.08720433 1.2242308
-0.30555442 -0.086804919 1.2247
-0.29589725 -0.08711648 1.2236667
-0.28487307 -0.087780461 1.2240001
-0.27480581 -0.087999843 1.2238182
-0.2652247 -0.088532351 1.2242857
-0.25467637 -0.088914365 1.222
-0.24985513 -0.088914365 1.222
-0.23485576 -0.087634936 1.222
-0.15266261 -0.088841602 1.2210001
-0.14945109 -0.088841602 1.2210001
0.68694162 -0.13108388 1.2360001
0.69456476 -0.13386077 1.2353336
0.70320511 -0.13533562 1.2370002
0.34630093 -0.12128488 1.2390001
0.3528187 -0.1217173 1.2390001
0.40664488 -0.12134855 1.2370001
0.41566008 -0.1212261 1.2340002
0.42582971 -0.12142057 1.2347144
0.43575063 -0.12222045 1.2367779
0.44276345 -0.12258212 1.2390001
0.456209 -0.12118699 1.2380002
0.46584162 -0.12295996 1.23625
0.47515455 -0.12322386 1.2380002
0.48460698 -0.12248317 1.238
0.49528742 -0.12248317 1.238
0.50232089 -0.12248317 1.238
0.51482487 -0.12248317 1.238
0.52600139 -0.12275536 1.2355
0.53449625 -0.12179907 1.235
0.54592574 -0.12283111 1.2364615
0.55576056 -0.1228193 1.2359166
0.56478852 -0.12347552 1.2358572
0.5756557 -0.12223741 1.2355
0.58530807 -0.12320797 1.2355
0.59593582 -0.12359301 1.2346666
0.60396683 -0.12419521 1.2356668
0.61345577 -0.12415263 1.23525
0.62401927 -0.12477245 1.235
0.63889927 -0.12524061 1.2332501
0.64657968 -0.12507121 1.2336668
0.65415877 -0.12633955 1.2345002
0.66530478 -0.12354127 1.2345004
0.67486441 -0.1236268 1.2354618
0.68389267 -0.1256078 1.2336669
-0.014187736 -0.11173581 1.2358572
-0.005896599 -0.11058477 1.2354001
0.0047637257 -0.110728 1.2370001
0.014617123 -0.1109596 1.2338001
0.024234053 -0.11051315 1.2346001
0.035171576 -0.11136123 1.2354001
0.045263033 -0.11230357 1.2353334
0.054216709 -0.11265732 1.2340001
0.064970121 -0.11326647 1.2336
0.074538797 -0.11175145 1.2340001
0.084855862 -0.11265775 1.2340001
0.094039015 -0.11236038 1.2325716
0.10624934 -0.11169247 1.2333335
0.11498082 -0.11270702 1.2326669
0.12514126 -0.11335267 1.2326669
0.1353154 -0.11481686 1.2336003
0.14499237 -0.11450169 1.2342223
0.15470541 -0.11347482 1.2340001
0.1649092 -0.11352444 1.2336
0.17516644 -0.11427508 1.2333333
0.18519041 -0.11538094 1.2328888
0.19548599 -0.11537759 1.2332858
0.20476337 -0.11452077 1.2325
0.21549231 -0.11490227 1.2321429
0.2248621 -0.11322983 1.2325
0.23487782 -0.11359837 1.233
0.24498007 -0.11149941 1.2327778
0.25537249 -0.11166298 1.233
0.26553953 -0.11182654 1.2332224
0.27574053 -0.11243713 1.233
0.28482974 -0.11353339 1.2332858
0.29466721 -0.11346486 1.2331537
0.30543861 -0.11330165 1.2336667
0.31437689 -0.11392928 1.2335715
0.3260583 -0.11402255 1.2335715
0.33495164 -0.11485767 1.2342381
0.34430218 -0.11516627 1.2336191
0.35449472 -0.11594444 1.2335001
0.36491972 -0.11553538 1.2336501
0.3751944 -0.11602598 1.2332858
0.38459393 -0.11723398 1.2350001
0.39504686 -0.11737753 1.2339286
0.40424123 -0.11775436 1.2311429
0.4139339 -0.11738978 1.2308
0.42365828 -0.11714711 1.2305715
0.43417364 -0.11746286 1.2306668
0.4449963 -0.11755587 1.2348573
0.45465621 -0.11744335 1.2336429
0.46446797 -0.11765312 1.2318183
0.47425872 -0.11786444 1.2322859
0.48461086 -0.11651032 1.23305
0.49425733 -0.11639486 1.231357
0.50472343 -0.11718926 1.2326155
0.51641488 -0.1186689 1.233
0.52104789 -0.11940659 1.233
0.55823535 -0.11811565 1.233
0.56580251 -0.11811564 1.233
0.57553178 -0.11940659 1.233
0.63196152 -0.11940659 1.233
-0.3018882 -0.1018264 1.2390001
-0.24498832 -0.10052917 1.2390002
-0.23540725 -0.10052916 1.2390001
-0.22478566 -0.10125806 1.2373333
-0.21482056 -0.10141988 1.2357779
-0.20613481 -0.10104962 1.2362858
-0.19615376 -0.10028575 1.2360001
-0.18496619 -0.10209958 1.2360001
-0.17521389 -0.10209958 1.2360001
-0.16588992 -0.10202063 1.2368572
-0.15429778 -0.10167847 1.2372
-0.14421982 -0.10206544 1.2356001
-0.13391548 -0.10225008 1.2351431
-0.12407537 -0.10262042 1.2351431
-0.11558906 -0.10229704 1.2357144
-0.10460325 -0.10158195 1.2360001
-0.094163597 -0.10296379 1.2351252
-0.084400341 -0.10444127 1.2340835
-0.074829191 -0.10569257 1.2345455
-0.064432308 -0.106441 1.2356668
-0.054363914 -0.10634814 1.2350001
-0.044158868 -0.10747429 1.2343334
-0.034892656 -0.10565023 1.2356668
-0.025132483 -0.10574666 1.235182
-0.017304678 -0.10778804 1.233
-0.0034675018 -0.10778805 1.233
0.0047483211 -0.10778804 1.233
0.038476437 -0.10778803 1.233
0.044619285 -0.10903476 1.2325001
0.051407062 -0.10899053 1.2320001
0.077330723 -0.10899053 1.2320001
0.26894733 -0.10890206 1.2310001
0.27283272 -0.10890206 1.2310001
0.30456346 -0.10890206 1.2310001
0.31039152 -0.10890206 1.2310001
-0.31127134 -0.096013501 1.2310001
-0.30474201 -0.095183402 1.2337501
-0.29555357 -0.094552003 1.2350001
-0.28547299 -0.094393335 1.2338572
-0.27537957 -0.095209613 1.235
-0.26527467 -0.095486611 1.2343845
-0.2550247 -0.097091697 1.2357273
-0.24561809 -0.096171588 1.233
-0.23618919 -0.096287951 1.2321429
-0.22668624 -0.096978128 1.2323334
-0.2153277 -0.097254924 1.2304
-0.20571554 -0.097302347 1.2310001
-0.19597453 -0.097286545 1.2308
-0.18523401 -0.098768674 1.23
-0.17578724 -0.098511115 1.23
-0.16390382 -0.097912528 1.2317145
-0.15494527 -0.097222604 1.2317778
-0.14549667 -0.09762536 1.2309999
-0.13502374 -0.098511115 1.23
-0.12544756 -0.098511115 1.23
-0.11431849 -0.099798925 1.23
-0.10008362 -0.097223304 1.23
-0.093181871 -0.099798933 1.23
-0.087789871 -0.099798925 1.23
0.67729652 -0.14023396 1.2460001
0.68561709 -0.14016643 1.2454001
0.69509095 -0.14099044 1.2450001
0.70338678 -0.14185944 1.2450001
0.71277404 -0.14012142 1.245
0.42856678 -0.13120726 1.2470001
0.43250266 -0.13120726 1.2470001
0.55976319 -0.13120726 1.2470001
0.56304312 -0.13120726 1.2470001
0.60438681 -0.13136153 1.2443334
0.64583462 -0.13327631 1.2460001
0.65443802 -0.13124929 1.2438573
0.66495448 -0.13141342 1.2440001
0.67595702 -0.13309494 1.2445716
0.6836679 -0.13436672 1.24225
0.6932686 -0.13738516 1.2412223
0.70512807 -0.13826039 1.24
0.71186841 -0.13696212 1.24
0.094301663 -0.12056871 1.2450001
0.13612559 -0.12155348 1.2461667
0.1446321 -0.12202166 1.2465001
0.15437146 -0.12154701 1.2470001
0.16512632 -0.12252533 1.2490001
0.1744509 -0.12277273 1.2467779
0.18381166 -0.12332675 1.2465
0.19372724 -0.122068 1.2470001
0.20595729 -0.12190539 1.248
0.21487291 -0.12126826 1.2462224
0.22551131 -0.12181579 1.2477502
0.23456137 -0.12201086 1.247889
0.24298774 -0.12190539 1.248
0.25519979 -0.12262043 1.2490002
0.26424465 -0.12207696 1.2490001
0.27471966 -0.12174069 1.2490001
0.28526601 -0.12216588 1.248
0.29601532 -0.12223115 1.2486668
0.30496168 -0.12216588 1.248
0.31500626 -0.12216588 1.248
0.32623145 -0.12180771 1.2470001
0.33418921 -0.12235063 1.2448751
0.34428599 -0.12344945 1.2458572
0.35438034 -0.1241217 1.2451429
0.36569631 -0.12384258 1.2457274
0.37518156 -0.12214504 1.2458572
0.38506478 -0.12388955 1.2463335
0.39554983 -0.12327892 1.2448183
0.40499043 -0.12470453 1.2457778
0.41429216 -0.12420519 1.2455001
0.4263095 -0.12574163 1.2464287
0.4358972 -0.12643558 1.245
0.44500816 -0.1252342 1.244375
0.45466191 -0.12491234 1.2441
0.46461487 -0.12822297 1.2447779
0.47636309 -0.12740438 1.2430001
0.48597297 -0.12508205 1.2445002
0.49474341 -0.12625502 1.2445002
0.50506979 -0.12561758 1.2447779
0.51228487 -0.12494951 1.2453336
0.52472872 -0.12625876 1.2432501
0.53703439 -0.12703785 1.2445002
0.54391956 -0.12732808 1.2431113
0.55527204 -0.12776652 1.2440002
0.56453693 -0.12833823 1.2445002
0.57473588 -0.12777311 1.2453334
0.58516359 -0.12805219 1.2448752
0.59511769 -0.12912096 1.2436669
0.60472625 -0.1284104 1.2410002
0.61553723 -0.12823772 1.2435001
0.62470317 -0.12871981 1.2445716
0.63523477 -0.12795 1.2445002
0.64434427 -0.12890469 1.2445716
0.65238249 -0.12927662 1.2410001
0.66805035 -0.12797728 1.2410001
0.67457861 -0.12797728 1.2410001
0.68110687 -0.12797728 1.2410001
-0.18215272 -0.11031752 1.2470001
-0.13419493 -0.11156346 1.2463334
-0.12104921 -0.11022905 1.2460001
-0.1123098 -0.11022906 1.2460001
-0.10466281 -0.11022905 1.2460001
-0.09483096 -0.11022905 1.2460002
-0.083407305 -0.1132109 1.2460002
-0.074980006 -0.11377001 1.2460002
-0.06467998 -0.11414273 1.2460002
-0.055285104 -0.11370787 1.2460002
-0.044145405 -0.11221468 1.2445002
-0.034243375 -0.1123752 1.2452002
-0.024664987 -0.11355801 1.2443336
-0.015866656 -0.11561459 1.2446668
-0.0050253789 -0.11493795 1.2440002
0.0047888258 -0.11522662 1.2436001
0.015094874 -0.11556602 1.24375
0.024650281 -0.11535716 1.2422001
0.034063213 -0.11489135 1.2435
0.04467655 -0.11517143 1.243
0.054569222 -0.11665817 1.245
0.06496536 -0.11650907 1.2434
0.074097916 -0.11647286 1.243
0.084122643 -0.11733907 1.243
0.095238924 -0.11690596 1.243
0.10420983 -0.11650991 1.2434
0.1148005 -0.11663526 1.243
0.12400565 -0.11733229 1.2435
0.13185865 -0.1173526 1.2420001
0.14526729 -0.11862214 1.2410001
0.1557027 -0.11793252 1.2427144
0.16483994 -0.1178659 1.2424446
0.17468235 -0.11841732 1.2406667
0.18481007 -0.11878621 1.24
0.19498032 -0.11893948 1.2416
0.20557702 -0.11832866 1.2420001
0.21351126 -0.11748793 1.24
0.22554162 -0.11763952 1.2416
0.23503716 -0.11748793 1.24
0.24520166 -0.11709934 1.2427499
0.25448668 -0.11780679 1.2433335
0.26455534 -0.11767953 1.2420001
0.27478519 -0.11780249 1.2417778
0.28461194 -0.11878621 1.24
0.29536742 -0.11848118 1.2413332
0.30454862 -0.1177939 1.2414999
0.31500018 -0.11871352 1.2414999
0.32368311 -0.11867718 1.24225
-0.30234298 -0.10267147 1.2440002
-0.29718775 -0.10289272 1.248
-0.28143156 -0.10256606 1.248
-0.27399111 -0.10256606 1.248
-0.26367104 -0.10298757 1.2478335
-0.25438806 -0.10332526 1.2448889
-0.24458054 -0.10379758 1.2453333
-0.2343843 -0.10401554 1.245
-0.22416602 -0.10501681 1.2443334
-0.21442626 -0.10654054 1.2452222
-0.20428959 -0.10516866 1.244
-0.19456722 -0.10497842 1.2438889
-0.18463592 -0.10764664 1.244143
-0.17456095 -0.10762197 1.2443335
-0.16433987 -0.10590574 1.2450001
-0.15497981 -0.10548808 1.2447778
-0.14462906 -0.1071437 1.2458571
-0.13486598 -0.10763731 1.2448182
-0.125315 -0.10732684 1.2441
-0.11349246 -0.10647114 1.2440001
-0.1044528 -0.10610258 1.2435
-0.095471218 -0.10654341 1.242143
-0.084508471 -0.10944174 1.2420001
-0.074272618 -0.10987519 1.2420001
-0.06447234 -0.10987519 1.2420001
-0.055325408 -0.10961512 1.2420001
-0.048138537 -0.10987519 1.2420001
-0.033982575 -0.10857482 1.2420001
-0.028537974 -0.10857482 1.2420001
-0.2933366 -0.09925162 1.2446668
-0.28540948 -0.098839357 1.2457145
-0.27333108 -0.099632382 1.2440001
-0.26395127 -0.099632382 1.2440002
0.68436295 -0.1509243 1.2590001
0.70754325 -0.1509243 1.2590001
0.71345651 -0.15077445 1.25775
0.72078919 -0.1509243 1.2590001
0.67746562 -0.14405933 1.2550666
0.68535262 -0.14480622 1.2540715
0.69501519 -0.14533456 1.2543333
0.70534301 -0.14594845 1.2534287
0.71478891 -0.14593777 1.2521819
0.25875795 -0.13094336 1.2570001
0.26581123 -0.13094336 1.2570002
0.27198282 -0.13094336 1.2570001
0.33645397 -0.13094336 1.2570001
0.34551302 -0.13120657 1.2570001
0.35535243 -0.13138834 1.2558572
0.36463696 -0.13073501 1.255
0.37183046 -0.13094336 1.2570001
0.3830716 -0.13094336 1.2570001
0.40577888 -0.1317506 1.2563334
0.41117766 -0.13215421 1.256
0.42766285 -0.1323106 1.2533334
0.43557882 -0.13340575 1.2533334
0.44436675 -0.13358101 1.2555001
0.45583892 -0.13113864 1.2546668
0.46442673 -0.13156345 1.2535
0.4754529 -0.13198756 1.2544001
0.48495764 -0.13230033 1.2560002
0.49438557 -0.1318229 1.2542225
0.50411934 -0.13310221 1.2542858
0.51326162 -0.1323339 1.2552001
0.52416021 -0.1316282 1.256
0.53364521 -0.13204899 1.2550001
0.54434174 -0.13264339 1.2544001
0.55516267 -0.13323735 1.2538
0.5652597 -0.13500902 1.2536365
0.57542574 -0.13403505 1.2533573
0.5849967 -0.13399051 1.2534668
0.59496415 -0.13443865 1.2527502
0.60411882 -0.13637072 1.2532859
0.61477709 -0.13391805 1.2525001
0.62590873 -0.13458188 1.253154
0.63542694 -0.13520774 1.2534001
0.64478379 -0.1349353 1.2521429
0.65529072 -0.13667524 1.2532223
0.66495204 -0.13479188 1.253
0.67476928 -0.13671017 1.2528183
-0.07048481 -0.12031893 1.256
-0.06453836 -0.12031893 1.256
-0.055949043 -0.12031893 1.256
-0.030915475 -0.1219245 1.2590001
-0.023893224 -0.12294368 1.2578572
-0.015304964 -0.12254997 1.2552501
-0.0037578649 -0.12217021 1.257
0.0055107423 -0.1219245 1.2590001
0.016097177 -0.12229934 1.2583334
0.025339274 -0.12304898 1.257
0.035267264 -0.12341046 1.2573334
0.045968384 -0.12292197 1.2577692
0.055186111 -0.12380603 1.255778
0.06567508 -0.12436505 1.2570001
0.075213589 -0.12390484 1.2567778
0.08588212 -0.12356308 1.2550001
0.095319949 -0.12383389 1.2545555
0.10538508 -0.12421277 1.2546474
0.11561857 -0.12404046 1.2546431
0.12515193 -0.12356813 1.2533334
0.13490324 -0.12541468 1.2557778
0.14544192 -0.12799421 1.2557143
0.15501161 -0.12541284 1.255778
0.16495749 -0.1257976 1.2562859
0.17530179 -0.12768522 1.2560002
0.18423188 -0.12770483 1.2553334
0.19413221 -0.12656689 1.256
0.20585749 -0.12600937 1.2570001
0.21577561 -0.12699616 1.257
0.22525133 -0.12671086 1.2565454
0.23542702 -0.12689617 1.256
0.2458224 -0.12598617 1.2556667
0.25457197 -0.12754437 1.2550001
0.2652331 -0.12747398 1.2546364
0.27475128 -0.12653768 1.2548182
0.28431243 -0.12533493 1.255
0.29450724 -0.12483435 1.2538
0.30479953 -0.12618801 1.2547778
0.31471792 -0.12614544 1.254143
0.32522023 -0.12643604 1.2543334
0.33363298 -0.12721989 1.2534446
0.34362254 -0.12737815 1.2530001
0.35416877 -0.1279029 1.2530001
0.3652423 -0.1279029 1.2530001
0.37579364 -0.12745731 1.254143
0.384036 -0.12797163 1.2536668
0.39413393 -0.12847769 1.2543334
0.40479064 -0.12921478 1.2530001
0.41563696 -0.1284605 1.2541668
0.42367002 -0.12820816 1.2541428
0.43291962 -0.12911168 1.2520001
0.44740909 -0.12911166 1.2520001
0.45267802 -0.12823777 1.2520001
0.48736495 -0.12780082 1.2520001
0.50931865 -0.12911166 1.2520001
0.51425886 -0.12924916 1.2533334
0.52404076 -0.12807164 1.2546668
0.53519744 -0.12931791 1.2540001
-0.25348479 -0.11120218 1.2570002
-0.24577025 -0.11120218 1.2570001
-0.23651284 -0.11142153 1.2570001
-0.22482698 -0.11164015 1.256
-0.21463707 -0.11127227 1.2528334
-0.20489414 -0.1122971 1.2545
-0.19522384 -0.11235238 1.255125
-0.18579014 -0.11310196 1.2553334
-0.17587391 -0.11244011 1.2536668
-0.16531907 -0.11251827 1.2570002
-0.15517999 -0.11251827 1.2570001
-0.14503023 -0.11321592 1.2550001
-0.13558649 -0.11450257 1.2540001
-0.12573338 -0.11308166 1.2535
-0.11535617 -0.11252321 1.2537779
-0.10445847 -0.11399812 1.2530001
-0.094742373 -0.11417489 1.2535001
-0.085634939 -0.11641371 1.2528751
-0.074270241 -0.11714581 1.253
-0.064939521 -0.11722036 1.251
-0.053825174 -0.11780249 1.251
-0.044627849 -0.11745724 1.2535
-0.034856167 -0.11727889 1.2530001
-0.024796251 -0.11853016 1.251
-0.014041306 -0.118467 1.2503333
-0.0043976749 -0.11853017 1.251
0.0054713488 -0.11843542 1.25
0.015334754 -0.11948242 1.25
0.025417348 -0.11974417 1.25
0.035061568 -0.11869717 1.25
0.042952292 -0.11712667 1.25
0.055774722 -0.11974417 1.25
0.065572374 -0.11974417 1.25
0.076268688 -0.11974417 1.25
0.081748351 -0.11974417 1.25
-0.29474956 -0.10633586 1.2556925
-0.28549078 -0.10534544 1.256889
-0.27530649 -0.10614791 1.2560002
-0.2656869 -0.10702088 1.25425
-0.25655198 -0.10872082 1.2536668
-0.24571469 -0.10813818 1.2520001
-0.23491347 -0.10813818 1.2520001
-0.22503427 -0.10813817 1.2520001
-0.20435384 -0.10840034 1.2520001
-0.19473809 -0.10944901 1.2520001
-0.16497107 -0.10901209 1.2530001
-0.15522134 -0.10944901 1.2520001
0.67857677 -0.15185332 1.26675
0.68722743 -0.1532506 1.2655001
0.69506752 -0.15264462 1.2645
0.70570171 -0.15336166 1.2654999
0.71597332 -0.15614747 1.2662141
0.72406542 -0.15634309 1.2655001
0.50653404 -0.14259955 1.2670001
0.51470417 -0.14237759 1.2663333
0.52469003 -0.14127247 1.2690001
0.53626102 -0.14105102 1.2690001
0.54516172 -0.14226893 1.2690001
0.55450761 -0.14193679 1.2690001
0.56509942 -0.14282255 1.2690001
0.57588387 -0.14309296 1.2655001
0.58560753 -0.1438521 1.2663333
0.59512556 -0.14264213 1.2640003
0.605021 -0.14404568 1.2654445
0.614797 -0.14296061 1.2654999
0.62542099 -0.1433623 1.2647649
0.635409 -0.14333817 1.2639092
0.64438641 -0.14385426 1.2645384
0.65477484 -0.14373133 1.26625
0.66525316 -0.14373603 1.2664999
0.67377794 -0.14523906 1.2640001
0.69982523 -0.14875907 1.263
0.018223692 -0.13076165 1.268
0.025620846 -0.13115385 1.2662858
0.034193479 -0.13127077 1.2665
0.046026304 -0.13202912 1.2674288
0.054572016 -0.1322452 1.2671818
0.064871736 -0.13199823 1.267125
0.074002013 -0.13115227 1.2675002
0.084326439 -0.13198507 1.2670001
0.094723895 -0.13198507 1.2670001
0.10551708 -0.1318184 1.2654002
0.11510101 -0.13332011 1.2656667
0.12397791 -0.13300306 1.2658572
0.13557968 -0.1314882 1.2658572
0.14489555 -0.13130963 1.264143
0.1553693 -0.13156092 1.2645001
0.16469763 -0.13160852 1.2647778
0.17413451 -0.13346705 1.2656667
0.18524164 -0.13356596 1.2648184
0.19440573 -0.13228977 1.2656667
0.20454048 -0.13180128 1.2652223
0.21430372 -0.13253684 1.2652223
0.22540592 -0.13296299 1.2648182
0.23478493 -0.13398591 1.265
0.24358761 -0.13358425 1.265
0.25482249 -0.13277896 1.2637144
0.26473075 -0.13429762 1.2637777
0.27560672 -0.1328918 1.263
0.28462878 -0.13199212 1.2642223
0.2948612 -0.13092849 1.2653334
0.30515599 -0.13177776 1.265
0.31501061 -0.13139483 1.2645
0.32453129 -0.13199167 1.2642223
0.33461076 -0.1341508 1.2637777
0.34411556 -0.13470545 1.2644999
0.35339767 -0.13485709 1.2637144
0.36469209 -0.13517383 1.2651111
0.37642804 -0.13468118 1.2649001
0.38434601 -0.13508838 1.265
0.39549506 -0.13231535 1.2647145
0.40420014 -0.13483799 1.2633336
0.41489688 -0.13561995 1.2637695
0.42495236 -0.13544326 1.263
0.43475303 -0.13806789 1.2650002
0.44552416 -0.13801673 1.263
0.45448175 -0.13556433 1.2618889
0.46580741 -0.13575009 1.2650001
0.47438154 -0.13566422 1.2642001
0.48544306 -0.13597696 1.2630002
0.49493146 -0.13720077 1.2617273
0.50535142 -0.13796137 1.261
0.51458204 -0.13657694 1.2621429
0.52557617 -0.13446863 1.2629002
0.53509581 -0.13552044 1.2653002
0.54444802 -0.13699317 1.2628889
0.55593753 -0.13785285 1.2617145
0.56376135 -0.13887873 1.2613335
0.57470959 -0.13925956 1.2608001
0.58468801 -0.13890734 1.2600001
0.61641502 -0.13785198 1.2600001
0.6242584 -0.13785197 1.2600001
0.66654181 -0.13928163 1.261
0.67165011 -0.13917118 1.2600001
-0.1942405 -0.12135353 1.2668002
-0.18403119 -0.12089996 1.2690001
-0.17568676 -0.12023564 1.2690001
-0.16433832 -0.12023564 1.2690001
-0.15599388 -0.12023564 1.2690001
-0.14598055 -0.12236146 1.2690001
-0.13596722 -0.12256075 1.2690001
-0.12495255 -0.12189644 1.2690001
-0.11575783 -0.12137268 1.2670001
-0.10502421 -0.12215928 1.2672858
-0.095082588 -0.12328633 1.2668183
-0.084999941 -0.12307731 1.2646365
-0.075230576 -0.12396166 1.2643573
-0.065012351 -0.12518206 1.2652501
-0.054346874 -0.12337395 1.2648335
-0.044443898 -0.12433843 1.2643572
-0.034915231 -0.12428772 1.2640002
-0.024846552 -0.12600444 1.2646668
-0.013312766 -0.12666754 1.2646667
-0.0048923395 -0.1267505 1.2662221
0.0055384645 -0.12607251 1.2653334
0.014787171 -0.1267056 1.2657778
0.025147917 -0.12770234 1.2640001
0.035743505 -0.12725382 1.2648001
0.044551373 -0.12759931 1.2656001
0.054870069 -0.12770234 1.2640001
0.06504342 -0.12836404 1.2640001
0.074817829 -0.12902574 1.2640001
0.08576405 -0.129087 1.2646
0.095554315 -0.12892367 1.263
0.10319491 -0.12892368 1.263
0.11548629 -0.12892367 1.263
0.12556301 -0.12870327 1.263
0.13309287 -0.12892367 1.263
0.16033323 -0.12760131 1.263
0.19753958 -0.12892367 1.263
0.2032977 -0.12892368 1.263
0.21082756 -0.12892367 1.263
0.24803391 -0.12892367 1.263
0.29483974 -0.12750028 1.2620001
0.30094734 -0.12750027 1.2620001
0.31621641 -0.12882158 1.2620001
0.3221913 -0.12882158 1.2620001
-0.29268545 -0.11301967 1.2625716
-0.28463796 -0.11394279 1.2640002
-0.27438176 -0.11473313 1.2650626
-0.26550126 -0.1139857 1.2631873
-0.25484863 -0.11442559 1.2635
-0.24475996 -0.11548786 1.2632726
-0.23564596 -0.11543707 1.2629999
-0.22574468 -0.1154791 1.2637777
-0.21566975 -0.11597019 1.2638572
-0.20510112 -0.1177894 1.2641249
-0.19508031 -0.11822123 1.2632222
-0.18561694 -0.11846782 1.2622858
-0.17452687 -0.1162452 1.264111
-0.16536753 -0.11571091 1.2630999
-0.15534225 -0.11618634 1.261889
-0.14536487 -0.11803617 1.2625002
-0.13570257 -0.11840624 1.2618752
-0.1252591 -0.11772444 1.2620002
-0.11585943 -0.11726229 1.2608335
-0.10517596 -0.11806368 1.2600001
-0.095233649 -0.11806367 1.2600001
-0.29122737 -0.10768057 1.2620001
-0.28584227 -0.10853267 1.2616668
-0.27772966 -0.10891552 1.261
0.69536322 -0.16256839 1.2780001
0.71677887 -0.16328184 1.2752001
0.72569054 -0.16278085 1.2761668
0.7317661 -0.16511522 1.2770001
0.51626545 -0.15198269 1.279
0.52299362 -0.15064359 1.279
0.54553294 -0.15064359 1.279
0.55596161 -0.15064359 1.279
0.56067133 -0.15064359 1.279
0.59700334 -0.15198269 1.279
0.60406792 -0.15198269 1.279
0.61804992 -0.15186387 1.2780001
0.62902504 -0.15126972 1.273
0.63170367 -0.15126972 1.273
0.64494145 -0.15119484 1.2780001
0.65739805 -0.15298794 1.274
0.66579717 -0.15401976 1.277
0.67645413 -0.15313473 1.2758572
0.6851424 -0.15697217 1.2759999
0.6955651 -0.15869093 1.2755001
0.70570171 -0.15806381 1.2752222
0.71345854 -0.15891306 1.2755001
0.72679532 -0.1592667 1.273
0.16614105 -0.14104889 1.2770001
0.17420223 -0.14104889 1.2770002
0.26589727 -0.14075436 1.2743334
0.2720665 -0.14093843 1.276
0.28146383 -0.14093843 1.276
0.32576555 -0.14093843 1.276
0.33561036 -0.14182909 1.276
0.35499084 -0.14188416 1.2725
0.36437294 -0.14188416 1.2725
0.38606751 -0.14140804 1.2730001
0.39571139 -0.140828 1.2750001
0.40588185 -0.14162083 1.272778
0.41507083 -0.14238606 1.2725
0.42407623 -0.14228621 1.2725
0.43340448 -0.14269231 1.2737501
0.44503322 -0.14188677 1.2725
0.4570784 -0.14155304 1.2725
0.46680683 -0.1426079 1.2750001
0.47585338 -0.14401171 1.2755835
0.48531035 -0.14427197 1.2754616
0.49474648 -0.143411 1.2728889
0.50444233 -0.14594024 1.2750912
0.51585263 -0.14717111 1.2746667
0.52487671 -0.1454563 1.2752224
0.53561431 -0.14479373 1.2755386
0.54486549 -0.14693689 1.2758751
0.55603755 -0.14678998 1.2754287
0.56521636 -0.14726421 1.2767779
0.5745672 -0.14793926 1.2758751
0.58566326 -0.14895426 1.276
0.59500456 -0.1487208 1.274
0.60485631 -0.1487208 1.274
0.61571205 -0.14819977 1.2752501
