# .PCD v0.7 - Point Cloud Data file format
VERSION 0.7
FIELDS x y z
SIZE 4 4 4
TYPE F F F
COUNT 1 1 1
WIDTH 528
HEIGHT 1
VIEWPOINT 0 0 0 1 0 0 0
POINTS 528
DATA ascii
0.033096462 -0.082578108 0.79757142
0.03722487 -0.082805611 0.79766667
0.041027386 -0.082054526 0.79775006
0.032814287 -0.077718355 0.79790908
0.037213255 -0.077462941 0.79741669
0.042025939 -0.077446446 0.79784626
0.034200002 -0.073720008 0.79800004
0.037430003 -0.072390005 0.79799998
0.042352732 -0.072061829 0.79800004
0.046360005 -0.071440011 0.79800004
0.038760003 -0.069160007 0.79800004
0.042560004 -0.069160007 0.79800004
0.047120005 -0.069160007 0.79800004
0.053600006 -0.086525723 0.80400002
0.05742858 -0.086525723 0.80400008
0.062022861 -0.086525723 0.80400002
0.023737144 -0.083462864 0.80400002
0.02749774 -0.082504645 0.80212504
0.031277142 -0.083915241 0.801
0.043936513 -0.081523821 0.80000007
0.047521215 -0.081793427 0.80127287
0.052853685 -0.082304761 0.8021819
0.05732207 -0.082545564 0.80250001
0.061869964 -0.082470141 0.80381823
0.022971429 -0.076571435 0.80400002
0.027493339 -0.077144772 0.80200005
0.031238098 -0.075428575 0.80000001
0.044952385 -0.076952383 0.80000001
0.048 -0.07695239 0.80000007
0.052571435 -0.07695239 0.80000007
0.057175457 -0.076995559 0.80044454
0.061774526 -0.077074528 0.80325001
0.022971431 -0.073508576 0.80400002
0.027523339 -0.072636999 0.80283332
0.032571428 -0.072190486 0.80000007
0.035809524 -0.070857145 0.80000001
0.044952385 -0.073904768 0.80000001
0.048435379 -0.072598651 0.80000007
0.052571431 -0.072380953 0.80000007
0.057142861 -0.07238096 0.80000007
0.061921272 -0.072622232 0.80266666
0.029084763 -0.06811969 0.80366671
0.032726239 -0.067467354 0.80254549
0.037154049 -0.067639768 0.80025005
0.04266667 -0.067047626 0.80000007
0.048217691 -0.067374162 0.80000007
0.052586462 -0.067827947 0.80022228
0.057386331 -0.067374893 0.80145466
0.061793715 -0.067757145 0.80299997
0.065085717 -0.069680005 0.80400002
0.03405286 -0.063513815 0.80350006
0.037590653 -0.062881395 0.80254549
0.042421635 -0.06281402 0.80157149
0.047675245 -0.062400408 0.80185717
0.052612469 -0.06289576 0.80272728
0.05701096 -0.063896671 0.80350006
0.043645717 -0.058960006 0.80400002
0.047014859 -0.05865372 0.80400002
0.053240824 -0.092540964 0.80685723
0.057329532 -0.09118858 0.80800003
0.019238096 -0.085417151 0.80800003
0.022095714 -0.087041438 0.8070001
0.02609905 -0.087508574 0.80600005
0.048950717 -0.086960249 0.8062501
0.052581906 -0.0882762 0.80600011
0.057187624 -0.088660009 0.80600005
0.062433027 -0.087252706 0.80600011
0.066508852 -0.08717607 0.80800003
0.070796192 -0.088495247 0.80800003
0.018853333 -0.082339056 0.80800003
0.022069046 -0.082135253 0.80600011
0.066695482 -0.082262628 0.80725008
0.0184527 -0.077658415 0.80733341
0.021646857 -0.078143619 0.80600005
0.063712388 -0.079064764 0.80600005
0.066894613 -0.077657782 0.80733341
0.01872508 -0.074130803 0.80800003
0.021510478 -0.071958736 0.80666673
0.067037344 -0.072724581 0.80720007
0.023216764 -0.0687261 0.80720007
0.026732385 -0.067138866 0.80660009
0.06294477 -0.065247625 0.80600005
0.066097468 -0.067633338 0.8070001
0.028736383 -0.06316077 0.80680007
0.032152113 -0.061562188 0.80657154
0.036078099 -0.060641907 0.80600005
0.054500956 -0.060641907 0.80600005
0.057619687 -0.061459687 0.80666673
0.062062863 -0.062445723 0.80700004
0.065409526 -0.063870482 0.80800003
0.033078812 -0.058080718 0.80775005
0.037654392 -0.057633653 0.80688894
0.042027142 -0.057379529 0.80600011
0.047631752 -0.056850165 0.80666679
0.052284449 -0.058178417 0.80733341
0.056175243 -0.059253339 0.80800003
0.038476191 -0.054636195 0.80800003
0.042323813 -0.054636195 0.80800003
0.04694096 -0.054636195 0.80800003
0.050019052 -0.054636195 0.80800003
0.052716196 -0.10000572 0.81400001
0.05581715 -0.10000572 0.81400001
0.052716196 -0.098455243 0.81400001
0.058142863 -0.095354289 0.81400001
0.061243813 -0.096129529 0.81400001
0.018605717 -0.090702862 0.81400001
0.058665246 -0.092629053 0.81050003
0.062641278 -0.09202794 0.8120001
0.067427307 -0.092228569 0.8137778
0.070934288 -0.091865726 0.81400001
0.017585954 -0.087553583 0.81174999
0.068657145 -0.086400002 0.81000006
0.072091438 -0.086882733 0.81142867
0.075105719 -0.086719051 0.81300002
0.013777524 -0.082208008 0.81280005
0.016825145 -0.082584381 0.81040001
0.068657145 -0.082542859 0.81000006
0.071961068 -0.082792811 0.81244451
0.075818293 -0.082640387 0.81400007
0.014080382 -0.077836573 0.81240004
0.016200002 -0.07791429 0.81000012
0.072062351 -0.077542864 0.81200022
0.075973339 -0.079074286 0.81400001
0.014729525 -0.072872385 0.81400001
0.017436827 -0.072070479 0.81177783
0.071732193 -0.072193533 0.81160015
0.075198099 -0.072097145 0.81400001
0.018864129 -0.068479374 0.81400001
0.021892067 -0.06670858 0.81133336
0.068313815 -0.066769049 0.81050003
0.070890956 -0.067790955 0.81350005
0.022660952 -0.062949054 0.81350005
0.026517782 -0.062047303 0.81100005
0.064028576 -0.060942862 0.81000006
0.066507623 -0.062252387 0.81200004
0.024032382 -0.058918096 0.81400001
0.027260575 -0.05777448 0.81320012
0.030875718 -0.05712048 0.81050009
0.053614289 -0.056700006 0.81000006
0.058310099 -0.057224005 0.81199998
0.062504523 -0.058245003 0.8127501
0.065895244 -0.059693336 0.81400001
0.032478098 -0.054132383 0.81200004
0.037881672 -0.052568335 0.81174999
0.042521268 -0.051796615 0.81177783
0.047147937 -0.051782444 0.81155556
0.052398391 -0.052633699 0.81184632
0.056310803 -0.052693658 0.8136667
0.044188574 -0.048840005 0.81400001
0.048064768 -0.048840005 0.81400001
0.051940955 -0.048840005 0.81400001
0.058990479 -0.10012858 0.81500006
0.061836511 -0.10064604 0.81500006
0.057438098 -0.097800002 0.81500006
0.063234285 -0.097181916 0.81633341
0.06766668 -0.096445404 0.81666672
0.070806675 -0.095705718 0.81700003
0.01474762 -0.086933345 0.81500006
0.07839524 -0.086157158 0.81500006
0.013195239 -0.083828583 0.81500006
0.078838781 -0.083274163 0.81500012
0.013211429 -0.077712387 0.81599998
0.076066673 -0.076066673 0.81500006
0.01474762 -0.070633337 0.81500006
0.076711118 -0.072042547 0.81633347
0.014795875 -0.06774953 0.81766671
0.017334921 -0.067011118 0.81500006
0.073333524 -0.067415439 0.8174001
0.076440006 -0.069420002 0.81900007
0.014820001 -0.064740002 0.81900007
0.018236721 -0.062833555 0.81677783
0.020957144 -0.061319053 0.81500006
0.068777621 -0.062947623 0.81599998
0.071442232 -0.062867939 0.81833339
0.022536194 -0.057508573 0.81600004
0.026390478 -0.055109527 0.81500006
0.063299052 -0.055531431 0.81550002
0.067520954 -0.057984054 0.81725007
0.024120955 -0.053688575 0.81700003
0.027544573 -0.053064581 0.81700003
0.032647863 -0.051306438 0.81625003
0.037257146 -0.050452385 0.81500006
0.05878 -0.051528573 0.81566668
0.062848575 -0.052612927 0.81757152
0.066300005 -0.053820003 0.81900007
0.032370001 -0.048750002 0.81900007
0.037346672 -0.047461912 0.81700009
0.042535719 -0.047195718 0.81575006
0.04717565 -0.046952251 0.81585723
0.052085001 -0.047223814 0.81625009
0.056608334 -0.047657382 0.81700009
0.060060006 -0.049140003 0.81900007
0.039000005 -0.044460002 0.81900007
0.042484768 -0.044042859 0.81850004
0.047580004 -0.043680005 0.81900012
0.051740006 -0.043940004 0.81900012
0.064898096 -0.10086572 0.82100004
0.068631113 -0.10203367 0.82200003
0.072052076 -0.10259715 0.82233334
0.064898096 -0.099301912 0.82100004
0.068025716 -0.099301919 0.82100004
0.071674608 -0.098780647 0.82100004
0.013292382 -0.068807617 0.82100004
0.077621527 -0.066822104 0.82160008
0.080585241 -0.067283332 0.82150006
0.017983811 -0.06020667 0.82100004
0.07385017 -0.062106356 0.82200003
0.080732383 -0.063488573 0.82300001
0.019056827 -0.058215559 0.82233334
0.021137144 -0.056364767 0.82200003
0.069068253 -0.056036513 0.82100004
0.072632857 -0.057361431 0.82225001
0.023757145 -0.052471429 0.82233334
0.026975716 -0.051214762 0.82100004
0.064116195 -0.050823811 0.82100004
0.068136826 -0.052733339 0.82233334
0.072110482 -0.054082859 0.82300001
0.027612144 -0.047978338 0.82249999
0.031760193 -0.046780385 0.82140011
0.058642861 -0.046132386 0.82100004
0.062042147 -0.047557861 0.82200003
0.065056197 -0.048596196 0.82300001
0.029000955 -0.044677146 0.82300001
0.032348439 -0.043541912 0.82271427
0.037236191 -0.042712193 0.82140011
0.043317527 -0.042066481 0.82100004
0.047696196 -0.041440956 0.82100004
0.05269143 -0.042517148 0.82166672
0.056711707 -0.043287482 0.8221429
0.061137147 -0.044677146 0.82300001
0.033703811 -0.039974287 0.82300001
0.037958782 -0.039302453 0.82300007
0.043109525 -0.038854562 0.82300007
0.047498863 -0.039347243 0.82300007
0.05173143 -0.039974287 0.82300001
0.063084766 -0.10566762 0.82800007
0.068148576 -0.10668095 0.82566679
0.071500003 -0.10607143 0.82500005
0.063720003 -0.10384096 0.82600003
0.066503048 -0.10392209 0.82540005
0.01403181 -0.062596388 0.8278001
0.016013652 -0.061170481 0.82700002
0.077849425 -0.062121168 0.82566673
0.016740002 -0.057238843 0.82833338
0.077110171 -0.05868794 0.82900012
0.01908743 -0.053162098 0.82820004
0.021863431 -0.052378859 0.82580006
0.068357147 -0.051071431 0.82500005
0.071673334 -0.051981907 0.82700002
0.019738097 -0.048950478 0.82900006
0.022700692 -0.047480781 0.82718194
0.025928574 -0.046357147 0.82500005
0.067322142 -0.0474381 0.82674998
0.070737466 -0.049173653 0.82833338
0.024065716 -0.04339667 0.82850003
0.027545908 -0.042498481 0.82639998
0.031447146 -0.040881429 0.82550007
0.054214288 -0.040071432 0.82500005
0.058042098 -0.041053142 0.82580006
0.062380195 -0.042056572 0.82700008
0.065885715 -0.04339667 0.82850003
0.028686035 -0.038160324 0.82900012
0.032549798 -0.037505992 0.8278572
0.036766943 -0.036541365 0.82642871
0.042346261 -0.036055107 0.82557148
0.048202857 -0.036516331 0.82585722
0.052742545 -0.036997359 0.82655561
0.057403579 -0.037281666 0.82850003
0.06131969 -0.03816032 0.82900012
0.037897147 -0.033949528 0.82900006
0.041844767 -0.033160001 0.82900012
0.047371432 -0.033423178 0.82900012
0.052503336 -0.033554766 0.82900006
0.016167756 -0.052799601 0.83100003
0.073602863 -0.051442862 0.83100003
0.075977147 -0.052234292 0.83100003
0.01789581 -0.048616197 0.83140004
0.068854287 -0.045111433 0.83100003
0.072094835 -0.047194701 0.83185726
0.075366668 -0.049980003 0.83300006
0.022965239 -0.041574292 0.83150005
0.026117144 -0.040362861 0.83100003
0.06768667 -0.04168972 0.83220005
0.070606671 -0.043633334 0.83300006
0.024534287 -0.038780004 0.83100003
0.027193334 -0.036698729 0.83166671
0.031657144 -0.035614289 0.83100003
0.059357148 -0.035614289 0.83100003
0.063076198 -0.036683809 0.8313334
0.066322863 -0.038313337 0.83233345
0.029353335 -0.034113336 0.83300006
0.032902859 -0.033696193 0.8325001
0.036995515 -0.032018099 0.83157146
0.041945718 -0.030865718 0.83100003
0.04748572 -0.031393334 0.83100003
0.05334229 -0.031498861 0.83100003
0.056907244 -0.032812003 0.83220005
0.038080003 -0.029353335 0.83300006
0.042364001 -0.028718669 0.83300012
0.047600005 -0.028560005 0.83300012
0.052756671 -0.028956668 0.83300006
0.078120008 -0.050220001 0.83700001
0.018332381 -0.045834765 0.83700001
0.074045718 -0.046178099 0.83600003
0.075849205 -0.047105085 0.83833337
0.019564763 -0.042722858 0.83850002
0.02147143 -0.041352384 0.83500004
0.069185719 -0.040557146 0.83500004
0.072591163 -0.042277418 0.8375715
0.023362543 -0.037436515 0.83633339
0.068207622 -0.036889531 0.83600008
0.071472384 -0.037931435 0.83850002
0.024218097 -0.033799052 0.83833337
0.027691429 -0.03247286 0.83674997
0.032301527 -0.031665336 0.83540004
0.059280954 -0.032225717 0.8355
0.062992707 -0.032690272 0.83722222
0.066320956 -0.03356 0.83900005
0.029147623 -0.028348573 0.83850002
0.032682013 -0.027899155 0.83700001
0.037161227 -0.027387897 0.83528578
0.041750003 -0.026640479 0.83500004
0.046919055 -0.02624286 0.83500004
0.052670289 -0.026891623 0.83540004
0.057901528 -0.027752763 0.83740008
0.062059373 -0.029032066 0.83900011
0.033160478 -0.024370953 0.83900005
0.037525404 -0.0231527 0.83833337
0.042282227 -0.023134286 0.83766669
0.04706889 -0.023134286 0.83766669
0.051869739 -0.023140425 0.83788896
0.056898814 -0.023756906 0.83850008
0.047942862 -0.019976191 0.83900005
0.077815562 -0.047332387 0.84233332
0.01683034 -0.042021092 0.84157151
0.074488573 -0.040848576 0.84100002
0.076841347 -0.042831432 0.84219998
0.017395239 -0.038269527 0.84300005
0.020683622 -0.037359431 0.84180003
0.073883243 -0.037341524 0.84140009
0.077234864 -0.037092004 0.84300005
0.018465716 -0.034522861 0.84300005
0.022460956 -0.03289175 0.84233332
0.068178855 -0.032885905 0.84219998
0.024888573 -0.028902858 0.84300005
0.027110666 -0.027751429 0.84219998
0.06327524 -0.027632859 0.84100002
0.065834291 -0.028100003 0.84300005
0.029705716 -0.024888573 0.84300005
0.032878097 -0.021917779 0.84200001
0.037673339 -0.020039685 0.8416667
0.04245048 -0.020023812 0.84100002
0.045654289 -0.020023812 0.84100002
0.052061908 -0.020023812 0.84100002
0.057188004 -0.020664573 0.84100002
0.061583098 -0.022867145 0.84249997
0.065031432 -0.024888573 0.84300005
0.037734292 -0.018465716 0.84300011
0.042482864 -0.01843651 0.8416667
0.047331117 -0.018451113 0.84233344
0.052185714 -0.018465716 0.84300011
0.056200005 -0.018465716 0.84300005
0.079671435 -0.047480956 0.84500003
0.08215791 -0.047940005 0.84740013
0.013680954 -0.042652383 0.84500003
0.015290477 -0.044261906 0.84500003
0.079269052 -0.042250004 0.84500003
0.081280962 -0.042652383 0.84500003
0.012876193 -0.037823815 0.84500015
0.015826985 -0.036750797 0.84500003
0.078866675 -0.038628574 0.84500003
0.081280954 -0.038628574 0.84500003
0.013705239 -0.033858575 0.84650004
0.016920004 -0.033301592 0.84600008
0.020679368 -0.03195937 0.84600008
0.071770757 -0.033062182 0.84671438
0.075108573 -0.034727622 0.84800005
0.022934968 -0.028007351 0.84714293
0.025036192 -0.025036192 0.84800005
0.068063095 -0.027787859 0.84575003
0.070262864 -0.029881908 0.84800005
0.028073858 -0.022354893 0.84663647
0.032190479 -0.020119049 0.84500003
0.063114926 -0.020679368 0.84600008
0.066107623 -0.023378097 0.84650004
0.029074289 -0.01857524 0.84800005
0.033610795 -0.01747651 0.84700006
0.037934765 -0.016142381 0.84750009
0.042728104 -0.016122382 0.84650004
0.047480956 -0.01609524 0.84500015
0.052309528 -0.01609524 0.84500015
0.057484776 -0.016471975 0.84671444
0.061038416 -0.018014923 0.84700006
0.039573334 -0.013729525 0.84800005
0.043449905 -0.012760381 0.84800005
0.047649521 -0.012114287 0.84800005
0.052495241 -0.012921905 0.84800005
0.056264132 -0.013191111 0.84800005
0.013778096 -0.030797144 0.85100007
0.0159327 -0.03105524 0.8506667
0.073753342 -0.030797144 0.85100007
0.076859765 -0.032850716 0.85175008
0.08023715 -0.03403905 0.85100007
0.013810476 -0.027620003 0.85300004
0.01735105 -0.027567049 0.85140002
0.021055557 -0.026724128 0.85033339
0.068809532 -0.025095239 0.85000002
0.072057366 -0.027323812 0.85222226
0.075640008 -0.028466668 0.85400003
0.018706668 -0.023586668 0.85400003
0.022393744 -0.022161363 0.85285723
0.025114922 -0.021873018 0.8506667
0.067837469 -0.021349844 0.85133332
0.070760004 -0.022773335 0.85400003
0.023586668 -0.018706668 0.85400003
0.027796905 -0.016842619 0.85225004
0.032111116 -0.015920635 0.85000008
0.062947623 -0.016479049 0.85100001
0.066794291 -0.017713143 0.85320008
0.028466668 -0.013013334 0.85400003
0.032474447 -0.012176986 0.85250014
0.037867144 -0.011946668 0.85049999
0.042095244 -0.011333334 0.85000002
0.052619051 -0.01052381 0.85000008
0.058039051 -0.011607303 0.85033333
0.061988574 -0.012721272 0.8526668
0.034160003 -0.0089466674 0.85400003
0.038407143 -0.0075180964 0.85350007
0.043016512 -0.0073026461 0.85222232
0.047836833 -0.0072958744 0.85133344
0.052798312 -0.0073092077 0.852889
0.057702225 -0.0081263501 0.85333341
0.061000004 -0.0089466674 0.85400003
0.039853334 -0.0040666671 0.85400003
0.043106671 -0.0040666675 0.85400003
0.047986671 -0.0040666675 0.85400003
0.051240005 -0.0040666671 0.85400003
0.078534611 -0.030707303 0.85600013
0.081379056 -0.030754289 0.85733336
0.013859048 -0.025272382 0.85600007
0.015489525 -0.025272382 0.85600007
0.074186675 -0.025272382 0.85600007
0.077674523 -0.026706906 0.85624999
0.081714295 -0.026965719 0.85799998
0.013859048 -0.022011429 0.85600013
0.016677009 -0.02203973 0.85714293
0.020404764 -0.021220002 0.85700005
0.073046267 -0.02178531 0.85628581
0.077569522 -0.022045715 0.8573333
0.08130572 -0.022471432 0.85800004
0.022368385 -0.017470097 0.85720009
0.025272382 -0.016304763 0.85600007
0.068560958 -0.01632381 0.85699999
0.072887622 -0.017353334 0.85749996
0.0774673 -0.017124021 0.85622221
0.080897145 -0.018794287 0.85800004
0.023697145 -0.01389143 0.85800004
0.02646286 -0.012006805 0.85685718
0.063860327 -0.011141589 0.85600013
0.066748954 -0.012565334 0.85680002
0.076811433 -0.01389143 0.85800004
0.028600002 -0.0089885723 0.85800004
0.03181497 -0.0073414976 0.8565715
0.035598733 -0.0062501593 0.85600013
0.057881914 -0.005706667 0.85600013
0.062535241 -0.0076735243 0.85720009
0.033502858 -0.0040857145 0.85800004
0.037654154 -0.0029140138 0.85685718
0.042798374 -0.001515102 0.85714293
0.048117146 -0.001630794 0.85633337
0.053043541 -0.002447075 0.85685718
0.057541911 -0.0036723809 0.85700005
0.018838096 -0.020476192 0.86000001
0.017568382 -0.017568383 0.86200011
0.02105397 -0.016133334 0.86133337
0.071257144 -0.015561906 0.86000001
0.022420954 -0.012305397 0.86133337
0.069126993 -0.012295239 0.86066669
0.072654292 -0.013545714 0.86200005
0.023807621 -0.0090304771 0.86200005
0.026862621 -0.0071759531 0.86125004
0.030304763 -0.0057333335 0.86000001
0.064208895 -0.0062838099 0.86066675
0.067625314 -0.0073825866 0.86142862
0.028733335 -0.0041047623 0.86200005
0.032265402 -0.0024603177 0.86133337
0.035765085 -0.0013650795 0.86000001
0.054876193 -0.00081904768 0.86000001
0.058507811 -0.0014746668 0.86040014
0.062642232 -0.0030085719 0.86166668
0.042689525 0.00082095241 0.86200005
0.047558095 0.00082000007 0.861
0.051690001 0.0016414288 0.86150002
0.055003814 0.00082095241 0.86200005
0.016888097 -0.016888097 0.86500007
0.017799322 -0.012611839 0.86642867
0.020595239 -0.011533334 0.86500007
0.072727814 -0.011378477 0.86580008
0.077438101 -0.012357144 0.86500007
0.019035239 -0.0091038104 0.86900002
0.022263814 -0.0074216332 0.86585724
0.071111821 -0.007424572 0.86620009
0.024000954 -0.0041380953 0.86900002
0.027541144 -0.0028024763 0.86580008
0.030480955 -0.0016476192 0.86500007
0.063433334 -0.00082380959 0.86500007
0.066973574 -0.0022659525 0.86550015
0.071508102 -0.0037204763 0.86800003
0.033854287 0.00082571432 0.86700004
0.037429798 0.0020088439 0.86785722
0.041847214 0.0029484355 0.86642867
0.047011431 0.0033 0.86600012
0.052342862 0.0037095239 0.86550003
0.057131432 0.0026833334 0.8662501
0.061960746 0.0024801057 0.86744452
0.065381907 0.00082761911 0.86900002
0.075486675 -0.01078381 0.87100005
0.018291429 -0.0083142864 0.87300003
0.073827624 -0.008295238 0.87100005
0.07649143 -0.0091457153 0.87300003
0.025774287 -0.0024942858 0.87300003
0.072293811 -0.001662381 0.87250006
0.078333341 -0.010833334 0.87500006
0.019232383 -0.0058533335 0.87800002
0.020833334 -0.0058333338 0.87500006
0.07416667 -0.0058333338 0.87500006
0.075833336 -0.0066666668 0.87500006
0.01596 -0.01092 0.88200003
