# .PCD v0.7 - Point Cloud Data file format
VERSION 0.7
FIELDS x y z
SIZE 4 4 4
TYPE F F F
COUNT 1 1 1
WIDTH 771
HEIGHT 1
VIEWPOINT 0 0 0 1 0 0 0
POINTS 771
DATA ascii
-0.021653336 -0.24565336 0.7840001
-0.026506668 -0.24229334 0.78400004
-0.022400005 -0.24266666 0.78400004
-0.018666668 -0.24266669 0.7840001
-0.026133334 -0.23968002 0.78400004
-0.022080006 -0.23904005 0.78400004
-0.018666668 -0.23968002 0.78400004
-0.02780286 -0.2507267 0.78900003
-0.022292383 -0.2507267 0.78900003
0.0030057146 -0.25022572 0.78900003
-0.036820006 -0.24722001 0.78900003
-0.032298204 -0.24711601 0.78866673
-0.027524086 -0.24770966 0.78714293
-0.02322313 -0.2481723 0.78657156
-0.017260004 -0.24665654 0.78800005
-0.013068001 -0.24619375 0.78860009
-0.036377829 -0.24283798 0.78871435
-0.032271326 -0.24240382 0.78800005
-0.028563267 -0.24273147 0.78628582
-0.016490478 -0.24209622 0.78700006
-0.012736087 -0.24199452 0.78666675
-0.0091438098 -0.24179755 0.78700006
-0.032003053 -0.23904382 0.78880006
-0.027553745 -0.23832901 0.78800017
-0.022691429 -0.23667535 0.78815395
-0.017119829 -0.23729871 0.78781825
-0.013088255 -0.237665 0.78777778
-0.0082595255 -0.2388024 0.78850001
-0.021791432 -0.2336943 0.78900003
-0.018773811 -0.23429668 0.78850007
-0.0015080953 -0.25629479 0.79149997
0.00075333338 -0.25538 0.79100001
-0.036944445 -0.25107142 0.79166669
-0.032124002 -0.2517179 0.79180002
-0.027907621 -0.25344098 0.792
-0.02277505 -0.25322613 0.79180002
-0.018857144 -0.25193238 0.79200006
-0.0018341498 -0.25278902 0.7930001
0.0017577781 -0.25261778 0.79100001
-0.016615238 -0.24998383 0.79300004
-0.012454286 -0.24944955 0.79250002
-0.0073697446 -0.24800085 0.79223084
-0.0022657146 -0.24792409 0.79300016
0.001961143 -0.24783145 0.79240006
-0.03616 -0.24031335 0.79100001
-0.0063552391 -0.24315825 0.79185712
-0.0022626668 -0.24248861 0.79220003
0.00075523823 -0.24243145 0.7930001
-0.03616 -0.23880668 0.79100001
-0.032393336 -0.23780224 0.79100007
-0.027873335 -0.23654668 0.79100001
-0.011811747 -0.2364943 0.79166669
-0.00709162 -0.23796137 0.79220003
-0.0022606351 -0.23900795 0.79166669
-0.026433336 -0.23487906 0.79300004
-0.022724491 -0.23273242 0.79157144
-0.017636765 -0.23319907 0.79140007
-0.013962857 -0.2335981 0.79250002
-0.023560002 -0.26524001 0.79800004
-0.037430003 -0.26201001 0.79799998
-0.032984 -0.26128802 0.79800004
-0.028880002 -0.26068002 0.79800004
-0.022040002 -0.26220003 0.79800004
-0.040229525 -0.25655812 0.79700005
-0.03722487 -0.25753284 0.79766667
-0.032635134 -0.25728193 0.79688889
-0.02757418 -0.25778839 0.79688889
-0.021819646 -0.25746825 0.796875
-0.017460357 -0.25716871 0.79712498
-0.012909881 -0.25724894 0.79737502
-0.0075887311 -0.25721052 0.79666662
-0.0037857145 -0.25667146 0.79500002
-0.037193339 -0.25428098 0.79700011
-0.034071431 -0.25364289 0.79500002
-0.016668096 -0.25304526 0.79550004
-0.012876826 -0.25299209 0.79533339
-0.007571429 -0.25288576 0.79500002
-0.0037857145 -0.25364289 0.79500002
-0.036273908 -0.23721755 0.79680008
-0.032843675 -0.23706248 0.79671425
-0.029023811 -0.2359762 0.79500002
-0.011357144 -0.23547144 0.79500002
-0.0075839292 -0.23663631 0.79637504
-0.0031828575 -0.23746629 0.79560006
-0.03737377 -0.23274072 0.79790908
-0.032512002 -0.2328987 0.79759997
-0.027849086 -0.23218651 0.7969231
-0.02256286 -0.23153429 0.79500002
-0.01687262 -0.23166883 0.79624999
-0.012716072 -0.23249325 0.79712498
-0.0080560008 -0.23453604 0.79800004
-0.0038000003 -0.23484002 0.79800004
-0.025576193 -0.2291705 0.79766673
-0.022193335 -0.22843122 0.7974444
-0.018234048 -0.22868787 0.79775006
-0.038614288 -0.2241143 0.79500002
-0.02762422 -0.26588601 0.80257148
-0.021965001 -0.26665217 0.80225003
-0.018048981 -0.26701555 0.80400002
-0.035809524 -0.26438096 0.80000001
-0.032380953 -0.264 0.80000001
-0.026942227 -0.2625683 0.80066669
-0.022105526 -0.26207432 0.80039996
-0.017568257 -0.26275113 0.80200005
-0.012962541 -0.26231432 0.80066675
-0.009142858 -0.26133335 0.80000001
-0.01752381 -0.25980955 0.80000001
-0.012952382 -0.25980955 0.80000001
-0.035809524 -0.23085716 0.80000001
-0.033523813 -0.23085716 0.80000001
-0.012190477 -0.23085716 0.80000001
-0.0074998415 -0.23223987 0.80083346
-0.003809524 -0.23314288 0.80000001
-0.036771432 -0.22794044 0.80200011
-0.03269228 -0.22833377 0.80244446
-0.027701089 -0.22716396 0.80157155
-0.021812571 -0.22620571 0.80080003
-0.017153334 -0.22680716 0.80050004
-0.013119655 -0.22777006 0.80181825
-0.0099295247 -0.22990668 0.80200005
-0.026493717 -0.22374173 0.80400002
-0.022183619 -0.22290516 0.80319995
-0.018345399 -0.22347113 0.80266666
-0.016120002 -0.26866668 0.80600005
-0.014200954 -0.26751527 0.80600005
-0.0066118091 -0.23047392 0.80720007
-0.003074286 -0.23210764 0.80700004
-0.036078099 -0.22644763 0.80600005
-0.033411905 -0.22658716 0.80650008
-0.010613714 -0.22658935 0.80760002
-0.0084585715 -0.22840621 0.80750006
-0.036860637 -0.2234689 0.80633342
-0.033052642 -0.22269976 0.80709094
-0.028122775 -0.2218419 0.80600011
-0.022260955 -0.22030668 0.80600011
-0.017240547 -0.22193606 0.80714297
-0.01255725 -0.22357485 0.80733341
-0.008464762 -0.22393145 0.80800003
-0.030780954 -0.21777527 0.80800003
-0.026903706 -0.21753439 0.8071112
-0.022285504 -0.21747452 0.80688894
-0.018829525 -0.21788955 0.80700004
-0.0030857145 -0.23065716 0.81000006
-0.0065093883 -0.22692792 0.81085718
-0.0025083337 -0.22744834 0.81024998
-0.036346667 -0.22117144 0.81200004
-0.012460318 -0.22149062 0.8122223
-0.00697181 -0.22382212 0.81320012
-0.0023200002 -0.22349082 0.8120001
-0.036436193 -0.21939239 0.81400001
-0.033225186 -0.21764085 0.81133336
-0.027066668 -0.21576002 0.81200004
-0.02242667 -0.21576002 0.81200004
-0.017190715 -0.21729741 0.81125003
-0.012998732 -0.21789484 0.8135556
-0.031766195 -0.21422143 0.81350005
-0.02709672 -0.21289822 0.81288898
-0.022451216 -0.21289822 0.81288898
-0.018394526 -0.21279931 0.81325006
-0.038220003 -0.22074002 0.81900007
-0.0065465318 -0.22136833 0.81557149
-0.0023285716 -0.22121429 0.81500006
-0.037180003 -0.21658002 0.81900012
-0.034152381 -0.21578097 0.81500006
-0.011646396 -0.21618903 0.8152858
-0.0071556196 -0.21734439 0.81680006
-0.0021910826 -0.21797846 0.81663656
-0.036465 -0.21274501 0.81900012
-0.032068096 -0.21203049 0.81625003
-0.02716667 -0.21034764 0.81500006
-0.022509526 -0.21034764 0.81500006
-0.016718097 -0.21190001 0.81650001
-0.012766096 -0.21283372 0.8174001
-0.0070200004 -0.21450001 0.81900012
-0.035100002 -0.20982002 0.81900007
-0.031599898 -0.20785938 0.81811124
-0.027250003 -0.2070967 0.81750011
-0.022587147 -0.20718175 0.81783342
-0.018804764 -0.20752205 0.81785733
-0.022620002 -0.20358001 0.81900007
-0.041541908 -0.22025049 0.82300001
-0.041541912 -0.21711525 0.82300007
-0.038899764 -0.2177605 0.82100004
-0.0027390476 -0.21554574 0.82150006
-0.041541912 -0.2124124 0.82300007
-0.038938861 -0.21127068 0.82100004
-0.016420001 -0.21033239 0.82100004
-0.011989208 -0.21085367 0.82100004
-0.0072428579 -0.2124138 0.82225001
-0.0023514288 -0.21398002 0.82300007
0.00078380958 -0.21398002 0.82300001
-0.043109529 -0.20927715 0.82300001
-0.037282478 -0.20787051 0.82240003
-0.033127941 -0.20632923 0.82166672
-0.016820952 -0.20693906 0.82150006
-0.012532225 -0.20758271 0.82249999
-0.008621905 -0.20849335 0.82300001
-0.031550478 -0.20311747 0.82133341
-0.027366668 -0.20251335 0.82100004
-0.022675239 -0.20231786 0.82100004
-0.018442586 -0.2028777 0.82157153
-0.014108572 -0.2045743 0.82300001
-0.031352386 -0.19987144 0.82300001
-0.027093906 -0.19905011 0.8222
-0.022711432 -0.19892573 0.82233346
-0.018811431 -0.19987144 0.82300001
-0.043388896 -0.21694574 0.82833338
-0.043773018 -0.21205303 0.82566679
-0.0060428577 -0.21098891 0.82766676
-0.0025628572 -0.21218833 0.82825005
0.0019738097 -0.21159239 0.82900006
-0.047168575 -0.20712784 0.82820004
-0.042734444 -0.20698158 0.82583332
-0.037321433 -0.2054643 0.82500005
-0.011 -0.20507145 0.82500005
-0.0068957149 -0.20713478 0.82775003
-0.0025659525 -0.20784217 0.82900006
0.0019738097 -0.20882906 0.82900006
-0.046055563 -0.20290765 0.82900012
-0.042316627 -0.20256132 0.82700002
-0.03699863 -0.20230848 0.82655561
-0.033413336 -0.20205003 0.82550007
-0.016500002 -0.20192859 0.82500005
-0.012592541 -0.20229384 0.82650006
-0.0070987302 -0.20353274 0.82833338
-0.0039476193 -0.20448668 0.82900006
-0.045002859 -0.19817048 0.82900012
-0.041619189 -0.19839607 0.82900012
-0.036940347 -0.19732201 0.82845467
-0.032306354 -0.19698128 0.82733333
-0.027744628 -0.1969014 0.82557148
-0.022840532 -0.19611503 0.82700002
-0.017970998 -0.19754815 0.82700002
-0.012632381 -0.19974954 0.82900006
-0.037107624 -0.19343334 0.82900012
-0.031975716 -0.19303858 0.82900006
-0.02760556 -0.19244874 0.82816672
-0.023212003 -0.19280173 0.82900012
-0.018670795 -0.19380288 0.82833338
-0.024475239 -0.18869621 0.82900006
-0.043528575 -0.22080858 0.83100003
-0.00079142861 -0.21289431 0.83100003
0.0015828572 -0.21289431 0.83100003
-0.00079142861 -0.20656288 0.83100003
0.0026908573 -0.20719603 0.83100003
0.0055400003 -0.20735431 0.83100003
-0.047749531 -0.2020781 0.83100003
-0.010288572 -0.20023145 0.83100003
-0.007122857 -0.20102286 0.83100003
-0.0025728573 -0.20306216 0.83125001
0.0011087619 -0.20327412 0.8318001
-0.046354763 -0.19690621 0.83200002
-0.042262293 -0.19643258 0.83100003
-0.038780004 -0.19706573 0.83100003
-0.015441906 -0.19678763 0.83150005
-0.01208762 -0.19755906 0.83225
-0.0075366669 -0.19873001 0.83300006
-0.045616671 -0.19317669 0.83300006
-0.042013019 -0.19262445 0.83233339
-0.036868572 -0.19226763 0.83250004
-0.032797147 -0.19155107 0.83179998
-0.022555716 -0.19113001 0.83100003
-0.017959049 -0.19254921 0.83200002
-0.035700001 -0.18881334 0.83300006
-0.03228939 -0.18840832 0.83271438
-0.027722223 -0.18771777 0.83166671
-0.022990342 -0.18789104 0.83242869
-0.01904 -0.18881334 0.83300006
-0.055002861 -0.20646001 0.83700001
-0.051794291 -0.20717494 0.8366667
0.0039857146 -0.20646001 0.83700001
0.0063771433 -0.20646001 0.83700001
-0.055534288 -0.20194289 0.83700001
-0.051926494 -0.20255923 0.83645457
-0.0013253971 -0.20172541 0.83500004
0.0029188362 -0.20193833 0.83588886
0.0070312559 -0.20229828 0.83718193
0.010375239 -0.20111907 0.83800006
-0.055933341 -0.19736478 0.83900011
-0.051774286 -0.19726762 0.83633333
-0.048509531 -0.1980143 0.83500004
-0.010350477 -0.19586192 0.83600003
-0.0067114295 -0.19669159 0.8361429
-0.0023895241 -0.19760984 0.8366667
0.0023942858 -0.19792669 0.83800006
0.0071914289 -0.19896287 0.83900011
0.01038762 -0.19896287 0.83900005
-0.051693529 -0.19256687 0.83760005
-0.047544528 -0.19196549 0.8355
-0.042147622 -0.19006191 0.83500004
-0.038171433 -0.19085716 0.83500004
-0.015917461 -0.19180414 0.83566666
-0.012090998 -0.19252221 0.83627272
-0.0073342854 -0.19247547 0.83719999
-0.0023960846 -0.19251949 0.8387779
-0.051538572 -0.18897477 0.83900005
-0.047020216 -0.18727715 0.83677781
-0.042181272 -0.1870289 0.83566672
-0.03758667 -0.18673763 0.83525002
-0.03292286 -0.18592668 0.83500004
-0.027833335 -0.1852905 0.83500004
-0.022664286 -0.18568811 0.83500004
-0.017200002 -0.18683144 0.83619994
-0.011972594 -0.187576 0.83811116
-0.0071891011 -0.18772605 0.83877784
-0.0039952383 -0.18857525 0.83900005
-0.045491431 -0.18356097 0.83800006
-0.042078506 -0.18325049 0.83814293
-0.037456617 -0.182496 0.83677775
-0.03265683 -0.18239906 0.83633333
-0.02787693 -0.18239863 0.83633333
-0.0231163 -0.18254404 0.83700001
-0.017880382 -0.18312629 0.83820009
-0.01238524 -0.1841805 0.83900005
-0.0087895244 -0.18458001 0.83900005
-0.040751431 -0.17978573 0.83900005
-0.037526671 -0.17964289 0.83833337
-0.032760955 -0.17978573 0.83900011
-0.028348573 -0.17927906 0.83850002
-0.02423778 -0.17925303 0.83900011
-0.019976191 -0.17978573 0.83900005
0.0024028574 -0.19623336 0.84100002
0.0067606806 -0.19672832 0.84214294
0.010437144 -0.19830573 0.84300005
-0.056066673 -0.19302955 0.84100002
0.0024064763 -0.19293717 0.84200001
0.0056200004 -0.19348858 0.84300005
-0.056437995 -0.18767908 0.84255552
-0.052308578 -0.18658668 0.84175009
-0.048057146 -0.18502001 0.84100002
-0.0064076195 -0.18502001 0.84100002
-0.0022047621 -0.18778905 0.84175003
0.0013374605 -0.1890562 0.84233332
-0.055932384 -0.18331906 0.84300011
-0.052185722 -0.18305144 0.84300005
-0.047528099 -0.18188573 0.84224999
-0.043251432 -0.18101525 0.84100002
-0.021625716 -0.1802143 0.84100002
-0.01649962 -0.18085507 0.84100002
-0.011827381 -0.18183123 0.84200001
-0.0076219058 -0.18334383 0.84250009
-0.045762859 -0.17903715 0.84300005
-0.042535242 -0.1781635 0.84266675
-0.037703812 -0.1780927 0.84233344
-0.032865714 -0.17795175 0.8416667
-0.027752955 -0.17790382 0.84219998
-0.022440951 -0.17751572 0.84150004
-0.017172383 -0.17830992 0.84260005
0.0088523813 -0.19636193 0.84500003
0.010461905 -0.19636193 0.84500003
0.0040238099 -0.19072859 0.84500003
0.0074479766 -0.19222301 0.84537506
0.010474286 -0.19256763 0.84600008
-0.058747623 -0.18590002 0.84500003
-0.0016095239 -0.18590002 0.84500003
0.0024180957 -0.18746226 0.84600008
0.0074927891 -0.18844491 0.84714293
0.010499048 -0.18817525 0.84800005
-0.057195246 -0.18171336 0.8458572
-0.052759767 -0.18082835 0.84575003
-0.006796055 -0.18143716 0.84671432
-0.0026229764 -0.18344964 0.84762508
0.00080761907 -0.18413717 0.84800005
0.0088838097 -0.18494478 0.84800005
0.010499048 -0.18413717 0.84800005
-0.051596195 -0.17735906 0.84650016
-0.047704421 -0.17711101 0.84636378
-0.043065146 -0.17597221 0.84680003
-0.037958097 -0.1768686 0.84800005
-0.033053815 -0.17574811 0.8465001
-0.028595477 -0.1759955 0.84575003
-0.021728573 -0.17624287 0.84500003
-0.016382542 -0.17618129 0.84600008
-0.012080319 -0.17799145 0.84566677
-0.0088733342 -0.17827144 0.84700006
-0.046034288 -0.17363811 0.84800005
-0.032304764 -0.17363811 0.84800005
-0.027302451 -0.17337321 0.84671432
-0.022635067 -0.17324512 0.84609103
-0.018553335 -0.17343144 0.84700006
0.0035111117 -0.18606603 0.8506667
0.0064795241 -0.18629953 0.85049999
-0.002024286 -0.18103477 0.85049999
0.0026383335 -0.18242024 0.8522501
0.0070802732 -0.18327947 0.85314292
-0.057460722 -0.17765501 0.85275012
-0.054280639 -0.17742352 0.8506667
-0.041285716 -0.17566667 0.85000002
-0.038047623 -0.17566667 0.85000008
-0.012189208 -0.17635557 0.85333341
-0.0068378244 -0.17740874 0.85171437
-0.0024342861 -0.17865334 0.8526668
-0.057543341 -0.17303666 0.85400003
-0.052715771 -0.17274328 0.85155565
-0.048020959 -0.17242764 0.85100001
-0.042916406 -0.17247324 0.85022223
-0.038086984 -0.17260765 0.85088897
-0.033026192 -0.1720224 0.85100013
-0.027685717 -0.17145716 0.85000002
-0.020793652 -0.1714832 0.8506667
-0.017040765 -0.17283201 0.85200006
-0.012606667 -0.17446001 0.85400003
-0.0081333341 -0.17486668 0.85400003
-0.057421338 -0.16933601 0.85400003
-0.05255492 -0.16876954 0.85333341
-0.047617149 -0.16917677 0.85320008
-0.042904001 -0.16787581 0.85320008
-0.038196824 -0.16741431 0.85333341
-0.032490358 -0.16732416 0.85287511
-0.026798733 -0.16728288 0.85266674
-0.022393743 -0.16836546 0.85285723
-0.018706668 -0.16998668 0.85400003
-0.058492385 -0.16166383 0.85300004
-0.038226668 -0.16185334 0.85400003
-0.032370668 -0.16315468 0.85400003
-0.058355242 -0.15966383 0.85100007
0.0024457145 -0.18016765 0.85600013
0.0076632383 -0.18081982 0.85600007
-0.059512384 -0.1752762 0.85600007
-0.005706667 -0.1752762 0.85600007
-0.0024466668 -0.17615971 0.85633337
0.0020423811 -0.17844145 0.85750002
0.0089676194 -0.17853716 0.85600007
-0.015906192 -0.17170715 0.85650003
-0.011699366 -0.17248732 0.85700005
-0.0075473813 -0.17236879 0.85675001
-0.0028600001 -0.17364287 0.85800004
-0.057133336 -0.16650191 0.85699999
-0.053283498 -0.16664478 0.85633337
-0.048364628 -0.16676845 0.85657144
-0.044022858 -0.16549334 0.85600007
-0.021368762 -0.16654895 0.85640001
-0.018794287 -0.16751431 0.85800004
-0.056927621 -0.16370097 0.85800004
-0.053114288 -0.16342859 0.85799998
-0.048211437 -0.16424572 0.85800004
-0.041946672 -0.16315621 0.85799998
-0.037135717 -0.16242048 0.85699999
-0.032258574 -0.16170049 0.85750002
-0.026705308 -0.16291432 0.85714293
-0.022378668 -0.16351543 0.85760003
-0.018794287 -0.16424572 0.85800004
0.0027878098 -0.17691432 0.86080009
0.0063973339 -0.17830822 0.86120003
-0.013104763 -0.17118096 0.86000001
-0.0057333335 -0.17118096 0.86000001
-0.0021329527 -0.17207506 0.86120003
0.0022280277 -0.17363216 0.86171442
-0.059790481 -0.16872382 0.86000001
-0.016412383 -0.16822955 0.8616668
-0.012455758 -0.16759068 0.86145467
-0.0075873816 -0.16835265 0.8612501
-0.0024628574 -0.16993716 0.86200011
-0.05575905 -0.16071907 0.86100006
-0.052479051 -0.16071907 0.861
-0.047310997 -0.16160262 0.86054546
-0.04302524 -0.16144525 0.8605001
-0.030304763 -0.1613524 0.86000001
-0.027059048 -0.16071907 0.86100006
-0.021592699 -0.16126573 0.861
-0.018881906 -0.16172764 0.86200011
-0.056607626 -0.1583377 0.86142874
-0.051720005 -0.15844384 0.86200011
-0.046794292 -0.15844384 0.86200011
-0.041502099 -0.15895201 0.86120003
-0.036900003 -0.15907906 0.86100006
-0.031980004 -0.15907906 0.861
-0.02748524 -0.15876144 0.86150002
-0.023780001 -0.15907906 0.86100006
0.0077438103 -0.17613049 0.86500007
0.0028009526 -0.17118762 0.86500007
0.0074142865 -0.1721762 0.86500013
0.010709524 -0.17135239 0.86500007
-0.016476192 -0.16558573 0.86500007
-0.010709524 -0.16558573 0.86500007
-0.0070057148 -0.16609335 0.86550003
-0.0024750265 -0.16753197 0.86655563
0.0022695239 -0.16777574 0.86675012
0.0076692523 -0.16814603 0.86728579
0.010734286 -0.16761748 0.86700004
-0.016476192 -0.16229048 0.86500013
-0.012373017 -0.16249768 0.86611122
-0.0076464289 -0.16305883 0.86800003
-0.0035863495 -0.16414446 0.86900008
0.010759048 -0.1646962 0.86900002
-0.052140005 -0.15807524 0.86900008
-0.047083817 -0.15694445 0.86733341
-0.042160001 -0.15706573 0.86800003
-0.037158415 -0.15688446 0.8670001
-0.032152701 -0.15664382 0.86566681
-0.027217146 -0.15670383 0.86600012
-0.022094764 -0.1575481 0.86725008
-0.017550953 -0.15796143 0.86725008
-0.012403494 -0.15960795 0.86833334
-0.04551905 -0.15393716 0.86900002
-0.041794762 -0.15435097 0.86900002
-0.037015002 -0.1532274 0.86849999
-0.032252386 -0.1529908 0.86833334
-0.027774831 -0.15329513 0.86871439
-0.023173336 -0.15476477 0.86900002
-0.017380001 -0.15476477 0.86900002
-0.036415242 -0.14979906 0.86900002
-0.033932384 -0.14979906 0.86900002
-0.00082952384 -0.16507524 0.87100005
0.0029033336 -0.16549 0.87100005
0.0071339058 -0.16573887 0.87100011
-0.0070509533 -0.16051286 0.87100005
-0.0022821431 -0.16164169 0.87150013
0.0024915347 -0.16192096 0.871889
0.0069171428 -0.16243336 0.87166679
-0.052260004 -0.15595049 0.87100017
-0.048112385 -0.15512097 0.87100005
-0.020738097 -0.15512097 0.87100005
-0.016879048 -0.15579271 0.87166679
-0.012452804 -0.15689917 0.87166679
-0.0076842858 -0.15721144 0.87225008
-0.002494286 -0.15813772 0.87300009
0.0016628572 -0.15880287 0.87300003
-0.052298736 -0.15357938 0.87166679
-0.046994478 -0.15227412 0.87180007
-0.042513099 -0.15159549 0.87100017
-0.038987622 -0.15097335 0.87100005
-0.031521909 -0.15014382 0.87100005
-0.02672248 -0.15120819 0.87140006
-0.022419581 -0.15195653 0.871889
-0.017652381 -0.15222764 0.87225008
-0.012804002 -0.15314917 0.87300009
-0.0091457153 -0.1538143 0.87300003
-0.042070288 -0.14816058 0.87300009
-0.037400641 -0.14793746 0.87266678
-0.032388575 -0.14782381 0.8720001
-0.028502543 -0.14804414 0.87166679
-0.022448573 -0.14882572 0.87300003
-0.0058333338 -0.15583335 0.87500006
-0.0025000002 -0.15625001 0.87500006
0.0020840478 -0.15763357 0.87575006
0.0058333338 -0.15916668 0.87500006
-0.051755242 -0.15192525 0.87650007
-0.048667304 -0.15156128 0.87600005
-0.015833335 -0.15083334 0.87500006
-0.012083335 -0.15125 0.87500006
-0.0071706669 -0.15327124 0.87560004
-0.0025085718 -0.15469524 0.87800002
-0.051007621 -0.14884192 0.87800002
-0.04759239 -0.14778033 0.87666672
-0.04291667 -0.14625001 0.87500006
-0.037500005 -0.14583334 0.87500012
-0.032572385 -0.14616668 0.87700003
-0.026991591 -0.14719447 0.87650007
-0.02252893 -0.14747918 0.8761251
-0.018010478 -0.14802627 0.87671435
-0.012542859 -0.14967811 0.87800002
-0.0091980956 -0.14967811 0.87800002
-0.045990478 -0.14466096 0.87800002
-0.042254101 -0.14379428 0.87680006
-0.037608098 -0.14374238 0.87750006
-0.033000242 -0.14411929 0.87725002
-0.027259812 -0.14399201 0.87800008
-0.022577144 -0.14466098 0.87800002
-0.018396191 -0.14466096 0.87800002
0.0030761908 -0.1562832 0.88066673
0.0058755558 -0.15696001 0.88133335
-0.057249527 -0.15070096 0.88400006
-0.053761907 -0.15036002 0.88200009
-0.0072102859 -0.15109296 0.88040012
-0.0025161908 -0.1518089 0.88066667
0.0023109524 -0.15233524 0.88250005
0.0058800005 -0.15372001 0.88200003
-0.057249531 -0.14817524 0.88400006
-0.053402182 -0.14699948 0.88200015
-0.015947938 -0.14688763 0.88133335
-0.012593228 -0.14692424 0.88155556
-0.0077785719 -0.14737526 0.88300002
-0.0028624765 -0.14834362 0.884
-0.051240008 -0.14363748 0.88200009
-0.047890861 -0.14282954 0.88220006
-0.043052796 -0.14138696 0.8814286
-0.037757143 -0.14095905 0.88100004
-0.032504048 -0.14154786 0.88075
-0.027957462 -0.14146477 0.88066673
-0.022656297 -0.14181526 0.88111115
-0.017859049 -0.14224906 0.88250005
-0.013049524 -0.14354476 0.88400006
-0.0092609534 -0.14396572 0.88400006
-0.036201905 -0.1389143 0.88400006
-0.034518097 -0.1389143 0.88400006
-0.027751429 -0.1391762 0.88300008
-0.02441524 -0.1389143 0.88400006
-0.017680001 -0.1389143 0.88400006
-0.057443812 -0.14614382 0.88700002
-0.0059133335 -0.14614382 0.88700002
-0.0021161907 -0.14681335 0.88850009
0.0023273812 -0.14787072 0.88850003
-0.056988001 -0.14323144 0.88780004
-0.053501591 -0.14276478 0.88700002
-0.049840957 -0.14107525 0.88700002
-0.016050477 -0.14107525 0.88700002
-0.012333525 -0.14175108 0.88700002
-0.0074045244 -0.1427936 0.88849998
-0.0025400005 -0.14393334 0.88900006
0.0021166669 -0.14435667 0.88900006
-0.051646668 -0.13970001 0.88900006
-0.048009053 -0.13810192 0.88825005
-0.043115243 -0.13779841 0.8876667
-0.038225479 -0.137485 0.88700002
-0.032734528 -0.13748501 0.88700002
-0.027897462 -0.13695367 0.8876667
-0.022616668 -0.1376 0.88774997
-0.017998507 -0.13782817 0.8878572
-0.013032192 -0.13895981 0.88859999
-0.0084666666 -0.13970001 0.88900006
-0.046566669 -0.13377334 0.88900006
-0.042841334 -0.13394268 0.88900006
-0.038100004 -0.13292667 0.88900006
-0.032992151 -0.13302477 0.88825005
-0.028493335 -0.13344066 0.88866675
-0.023706667 -0.13462001 0.88900006
-0.056948576 -0.14109859 0.89250004
-0.053460002 -0.14001429 0.89100003
-0.0059400005 -0.14001429 0.89100003
-0.0025457146 -0.14086288 0.89099997
0.0025473472 -0.14184615 0.89185721
-0.055342861 -0.13878286 0.89400005
-0.051868584 -0.13723545 0.89280003
-0.016150001 -0.13599858 0.89250004
-0.012176191 -0.1364886 0.89200008
-0.0086782863 -0.13732745 0.89340001
-0.051001433 -0.13429858 0.89250004
-0.047342859 -0.13210572 0.89300007
-0.043324769 -0.13139145 0.89200008
-0.033094287 -0.13152859 0.89100003
-0.027040003 -0.13145259 0.89280003
-0.02276486 -0.13199916 0.8919
-0.018339185 -0.13348043 0.89271438
-0.013172857 -0.1338743 0.89250004
-0.0093657151 -0.13367429 0.89400005
-0.041720003 -0.1278846 0.89400005
-0.037755102 -0.12856002 0.89228582
-0.033384494 -0.12880328 0.89228582
-0.029750001 -0.12919858 0.89250004
-0.060721908 -0.14111429 0.89800006
-0.058880005 -0.14080001 0.89600003
-0.060721911 -0.13769335 0.89800012
-0.057403103 -0.13721216 0.89624995
-0.053760003 -0.13653335 0.89600003
-0.006403334 -0.13703573 0.89649999
-0.0029047623 -0.13859545 0.89720005
0.0017104764 -0.13940382 0.89800006
-0.060721908 -0.1342724 0.89800006
-0.057237148 -0.13326764 0.89700007
-0.051843271 -0.13235049 0.89657152
-0.048640002 -0.13056001 0.89600003
-0.017502382 -0.13105953 0.89649999
-0.012818414 -0.13160828 0.89733338
-0.0085428581 -0.13241334 0.89700007
-0.05045905 -0.12828572 0.89800006
-0.046980321 -0.12727155 0.89688897
-0.041813336 -0.12586667 0.89600003
-0.037546668 -0.12544 0.89600003
-0.03293867 -0.12612267 0.89600003
-0.027961906 -0.12700334 0.89650005
-0.023057146 -0.12724002 0.89666677
-0.018157857 -0.12753738 0.89725012
-0.04618286 -0.12315429 0.89800006
-0.041649532 -0.12274832 0.89771444
-0.036968093 -0.1220162 0.89750004
-0.032996573 -0.12327011 0.89760011
-0.028564954 -0.12332534 0.89800006
-0.022663811 -0.12358192 0.89800006
-0.019670477 -0.12400953 0.89800006
-0.040196192 -0.1188781 0.89800006
-0.038485717 -0.1188781 0.89800006
-0.0025771433 -0.13630128 0.90200013
0.0021457144 -0.13780001 0.90150005
-0.061782859 -0.13300477 0.90100002
-0.055900004 -0.13158001 0.90300006
-0.054060005 -0.13128857 0.90100002
-0.0064357147 -0.13257572 0.90100002
-0.0034400001 -0.13330001 0.90300006
-0.052902181 -0.12777266 0.90214288
-0.016303811 -0.12614001 0.90100002
-0.012877355 -0.12791842 0.90144444
-0.0083063506 -0.12861811 0.90233338
-0.051600002 -0.12470001 0.90300006
-0.047677621 -0.12241381 0.90200007
-0.042904764 -0.12099144 0.90100002
-0.031749528 -0.12099144 0.90100002
-0.027192701 -0.12165302 0.90166676
-0.023542669 -0.12183906 0.90220004
-0.018037146 -0.12282327 0.9018572
-0.01462 -0.12470001 0.90300006
-0.045580003 -0.11954001 0.90300006
-0.043000005 -0.11954001 0.90300006
-0.036938097 -0.11854859 0.90200007
-0.032680005 -0.11954001 0.90300006
-0.00086190482 -0.13531905 0.90500003
0.0029356193 -0.13627772 0.90680009
-0.061837465 -0.13144064 0.90600008
-0.058131814 -0.13092344 0.90560007
-0.002343538 -0.13162628 0.90671444
0.00144127 -0.13346159 0.90800011
-0.0613981 -0.12884954 0.90800005
-0.057652503 -0.12717727 0.90687507
-0.011241905 -0.12539048 0.90800005
-0.0067320005 -0.12652096 0.90620005
-0.0037473019 -0.12827304 0.90800011
-0.056209527 -0.12366096 0.90800005
-0.052664053 -0.12259191 0.9065001
-0.049210005 -0.12086525 0.90650004
-0.016403334 -0.12086525 0.90650004
-0.013231114 -0.12309938 0.90600008
-0.0083541274 -0.12330365 0.90750003
-0.047196984 -0.11798842 0.90650004
-0.04232667 -0.11661238 0.90700012
-0.037111051 -0.11651029 0.90620005
-0.031932767 -0.11823639 0.90620005
-0.026978098 -0.11805905 0.90650004
-0.022810344 -0.11849335 0.90628582
-0.019172573 -0.11865944 0.90680009
0.0031777779 -0.13202223 0.91000003
0.0065000001 -0.13216668 0.91000003
-0.061736196 -0.12782001 0.91300005
-0.059800003 -0.12566668 0.91000003
-0.0020241272 -0.12696034 0.91100001
0.0023168256 -0.1282578 0.91200006
0.0060866671 -0.12955905 0.91300005
-0.057795435 -0.12270667 0.91120005
-0.053733338 -0.12046667 0.91000003
-0.012575953 -0.12099929 0.91075003
-0.0073780953 -0.12109858 0.91150004
-0.0034709526 -0.12326953 0.91150004
-0.052376039 -0.11777064 0.9115001
-0.048140716 -0.11579501 0.91075003
-0.036400001 -0.11526667 0.91000003
-0.031720005 -0.11596 0.91000003
-0.026866671 -0.11526667 0.91000003
-0.022533335 -0.11526667 0.91000003
-0.017631272 -0.11648557 0.91049999
-0.014086287 -0.11773353 0.91300005
-0.042606674 -0.11390763 0.91300005
-0.037389528 -0.11390763 0.91300005
-0.032172382 -0.11390763 0.91300005
-0.026955239 -0.11390763 0.91300005
-0.022607621 -0.11390763 0.91300005
-0.019129526 -0.11390763 0.91300005
-0.061871432 -0.12635715 0.91500002
0.0031984129 -0.12703018 0.9156667
0.0061066672 -0.12736668 0.91600001
-0.060798418 -0.12305048 0.91633338
-0.058385719 -0.12112858 0.91500002
-0.002182381 -0.1225681 0.91600001
0.0017447621 -0.12387715 0.91600001
-0.057619371 -0.11785652 0.91666669
-0.054319054 -0.11648097 0.91500008
-0.01178381 -0.1173981 0.91650003
-0.0082914289 -0.11914477 0.91650003
-0.032242861 -0.11154287 0.91500008
-0.027014289 -0.11154287 0.91500008
-0.021793019 -0.1115832 0.91533339
-0.017447621 -0.1125362 0.91600001
-0.013973335 -0.11440668 0.91700006
-0.064100958 -0.12732382 0.92200005
0.0043809526 -0.12529525 0.92000002
-0.061872862 -0.12155096 0.92149997
-0.0021909527 -0.12054144 0.92050004
0.00087809528 -0.12205525 0.92200005
-0.0078925733 -0.11698439 0.92080003
-0.06430953 -0.1277381 0.92500007
0.0032342863 -0.12199619 0.92600012
0.0061666672 -0.12421429 0.92500007
-0.064726666 -0.13300097 0.93100005
