# .PCD v0.7 - Point Cloud Data file format
VERSION 0.7
FIELDS x y z
SIZE 4 4 4
TYPE F F F
COUNT 1 1 1
WIDTH 822
HEIGHT 1
VIEWPOINT 0 0 0 1 0 0 0
POINTS 822
DATA ascii
-0.021515239 -0.23518382 0.77900004
-0.018547621 -0.23518382 0.77900004
-0.022257144 -0.23370002 0.77900004
-0.040961906 -0.24502668 0.78200006
-0.03783112 -0.24615113 0.78400004
-0.032853335 -0.24565335 0.78400004
-0.040961906 -0.24204764 0.78200006
-0.037333339 -0.24266666 0.78400004
-0.032052066 -0.24225527 0.78266674
-0.027579682 -0.24225527 0.78266668
-0.022675812 -0.24212193 0.78320003
-0.01715143 -0.24161242 0.78300011
-0.012984763 -0.24164763 0.78360003
-0.0097066676 -0.24117334 0.78400004
-0.041066669 -0.23818669 0.7840001
-0.0367526 -0.23851855 0.78399998
-0.032025147 -0.2372804 0.78200006
-0.027493972 -0.2370394 0.7802223
-0.022353247 -0.23710655 0.78000009
-0.016900001 -0.23715717 0.78000009
-0.012515812 -0.23740232 0.78240007
-0.0097066676 -0.23893335 0.78400004
-0.030574288 -0.23415336 0.78300005
-0.027422098 -0.23292954 0.78240007
-0.022348164 -0.23208614 0.782143
-0.017273715 -0.2327503 0.78180003
-0.013787144 -0.23363097 0.78250003
-0.036820002 -0.25022572 0.78900003
-0.03306286 -0.25022572 0.78900003
-0.02780286 -0.25022572 0.78900003
-0.02254286 -0.25022572 0.78900003
-0.018785715 -0.25022572 0.78900003
-0.0372127 -0.24848764 0.78666675
-0.031843573 -0.2476393 0.78675002
-0.02772746 -0.2472913 0.78683341
-0.022496786 -0.24746203 0.78737503
-0.017263971 -0.24771033 0.7881667
-0.013065143 -0.24673222 0.78840011
-0.0077626994 -0.24691765 0.78883338
-0.0037571432 -0.24872287 0.78900003
-0.020960001 -0.24478288 0.78600001
-0.017217144 -0.24478289 0.78600001
-0.012725716 -0.24403431 0.78600001
-0.0072496301 -0.24263483 0.78766668
-0.037886906 -0.23669837 0.78775001
-0.033685718 -0.23580001 0.78600001
-0.0075002387 -0.23745024 0.78775012
-0.035294764 -0.23429668 0.78850007
-0.032099791 -0.23269707 0.78788894
-0.028445717 -0.23130858 0.78600001
-0.016468573 -0.23130858 0.78600001
-0.012373811 -0.23268692 0.78750002
-0.030808574 -0.22843429 0.78900003
-0.027627794 -0.22832081 0.78790921
-0.022681102 -0.22859524 0.78776932
-0.017253652 -0.22879651 0.78766668
-0.014253018 -0.22879653 0.78766674
-0.024797145 -0.22467716 0.78900003
-0.02794381 -0.25602573 0.79300004
-0.020391431 -0.2575362 0.7930001
-0.016615238 -0.25715858 0.79300004
-0.014349525 -0.25602573 0.79300004
-0.005286667 -0.25602573 0.79300004
-0.0037761908 -0.25602573 0.79300004
-0.037194926 -0.25308287 0.79166669
-0.032213204 -0.25307226 0.79185712
-0.027908575 -0.25344098 0.792
-0.022622144 -0.25336075 0.79175007
-0.017160239 -0.25287551 0.792
-0.013330477 -0.25228924 0.79233336
-0.0072243554 -0.25217623 0.79242867
-0.0037666669 -0.25086001 0.79100001
-0.011802223 -0.24885112 0.79100007
-0.0072822226 -0.24809778 0.79100001
-0.0037666669 -0.24709335 0.79100001
-0.0052733338 -0.24182002 0.79100001
-0.0030133333 -0.24332666 0.79100001
-0.03992667 -0.23654668 0.79100001
-0.0067800004 -0.23579335 0.79100007
-0.0030133335 -0.23880668 0.79100001
-0.037246674 -0.23260427 0.79227275
-0.033928573 -0.23146701 0.79166669
-0.011314286 -0.23081049 0.79200006
-0.0080219051 -0.23304617 0.79190916
-0.036251433 -0.22808191 0.79300004
-0.032589313 -0.22711188 0.79166669
-0.028250001 -0.22562334 0.79100001
-0.021865716 -0.22618988 0.79166669
-0.017326668 -0.22600001 0.79100001
-0.013079367 -0.22788954 0.79233336
-0.031680956 -0.22402287 0.79200006
-0.027873335 -0.22374003 0.79100007
-0.02219143 -0.2238905 0.79260004
-0.017672574 -0.22370155 0.79300004
-0.022800002 -0.26524001 0.79800004
-0.040229525 -0.26035336 0.79700005
-0.037193339 -0.26111242 0.79700005
-0.032639049 -0.26111239 0.79700005
-0.027553942 -0.26194254 0.79763639
-0.022213453 -0.26218492 0.79737502
-0.017770858 -0.26261088 0.7974
-0.012160001 -0.26068002 0.79800004
-0.040162228 -0.25688797 0.79566669
-0.037316334 -0.2571041 0.79500002
-0.032557145 -0.25742859 0.79500002
-0.027185988 -0.25790685 0.79614294
-0.022729049 -0.25759098 0.79550004
-0.018020002 -0.25848863 0.79500002
-0.012701429 -0.25764334 0.79625005
-0.0083502652 -0.25735411 0.79711103
-0.0030285716 -0.25515717 0.79500002
-0.011357144 -0.25364289 0.79500002
-0.007571429 -0.25364289 0.79500002
-0.0027761906 -0.25313812 0.79500002
-0.0030285716 -0.24152859 0.79500002
-0.0030400001 -0.23864001 0.79800004
-0.040216908 -0.23219359 0.79675007
-0.038614288 -0.23092858 0.79500002
-0.0066346433 -0.23106393 0.79612499
-0.0038000003 -0.23028001 0.79800004
-0.040280003 -0.22876002 0.79800004
-0.037369389 -0.22692588 0.79614294
-0.034157146 -0.22543716 0.79700005
-0.01198362 -0.22647963 0.79640007
-0.0085736057 -0.22824356 0.79771435
-0.035720002 -0.22420001 0.79800004
-0.032666985 -0.222587 0.79766667
-0.027520262 -0.2221608 0.79663634
-0.022480318 -0.22202764 0.79566675
-0.017225308 -0.2217671 0.79628581
-0.014110667 -0.22319792 0.79660004
-0.031160003 -0.21888001 0.79800004
-0.027415751 -0.21786502 0.79792309
-0.022257145 -0.2185543 0.79800004
-0.018240001 -0.21964002 0.79800004
-0.02514286 -0.26438096 0.80000001
-0.040515557 -0.22703747 0.80266666
-0.038857147 -0.22628573 0.80000001
-0.0068643391 -0.22653586 0.80088896
-0.0038142861 -0.22732955 0.801
-0.040582858 -0.22358859 0.80400002
-0.037514634 -0.22251932 0.80090916
-0.033523813 -0.2201905 0.80000001
-0.016000001 -0.2201905 0.80000001
-0.012407382 -0.22238834 0.80175006
-0.0086220419 -0.22343785 0.80228579
-0.036564574 -0.21831623 0.80320007
-0.033125527 -0.21675718 0.80140013
-0.027174605 -0.21561906 0.80000007
-0.021800762 -0.2163364 0.80039996
-0.017431343 -0.21717684 0.8021819
-0.014536509 -0.21804637 0.8033334
-0.031316191 -0.21463048 0.80200005
-0.02731308 -0.21343291 0.80272728
-0.022180744 -0.2133964 0.80311114
-0.019126987 -0.2134559 0.8033334
-0.040683813 -0.2210743 0.80600005
-0.039148573 -0.22030668 0.80600005
-0.011522541 -0.22048891 0.80666673
-0.0069157672 -0.22208531 0.806889
-0.0038428574 -0.22288382 0.80700004
-0.040734291 -0.21827334 0.80700004
-0.03802143 -0.21737097 0.80650002
-0.012627755 -0.21732493 0.80714297
-0.032208044 -0.21281038 0.80733341
-0.027657147 -0.21101271 0.80666679
-0.022260955 -0.21109526 0.80600011
-0.017166562 -0.21206816 0.80711114
-0.01460889 -0.21298097 0.80733341
-0.026409846 -0.2081978 0.80766672
-0.022297779 -0.20836765 0.80733341
-0.019214287 -0.20905048 0.80700004
-0.0061933338 -0.22067145 0.81300002
-0.0038761906 -0.22094287 0.81400001
-0.042573098 -0.21750453 0.81275004
-0.038184766 -0.2162724 0.81160015
-0.010808255 -0.2169486 0.81066674
-0.007354286 -0.21834718 0.81300008
-0.003097143 -0.21834764 0.81300002
-0.04186286 -0.21474096 0.81400001
-0.037371192 -0.2127993 0.81325006
-0.033497144 -0.21132116 0.81040013
-0.012165889 -0.21219809 0.81236374
-0.032288305 -0.20776561 0.8127144
-0.027403336 -0.2064843 0.81050009
-0.022371432 -0.20597145 0.81000012
-0.017565478 -0.20751263 0.81075001
-0.013942223 -0.20785081 0.81333339
-0.030234288 -0.20233718 0.81400001
-0.027089525 -0.20277874 0.81266683
-0.022454288 -0.20286095 0.81300014
-0.017797619 -0.20273606 0.81250018
-0.014200637 -0.20320383 0.81333339
-0.027133334 -0.19884858 0.81400001
-0.022481907 -0.19846097 0.81400001
-0.016280001 -0.1992362 0.81400001
-0.044242859 -0.21500477 0.81500006
-0.0066840011 -0.21594308 0.81619996
-0.0031123811 -0.21631049 0.81700003
-0.046020001 -0.21450001 0.81900007
-0.042366128 -0.21271499 0.81728584
-0.039221909 -0.21164097 0.81550002
-0.010090477 -0.21112382 0.81500006
-0.0070058201 -0.21253429 0.8174445
-0.0031161907 -0.21345811 0.81800008
-0.041340001 -0.20982002 0.81900007
-0.036946565 -0.20739968 0.81766671
-0.033376191 -0.20569049 0.81500006
-0.011428164 -0.20694409 0.81557149
-0.0085747624 -0.20735191 0.81850004
-0.035489999 -0.20241001 0.81900007
-0.032627307 -0.20275146 0.81566668
-0.01165562 -0.20221142 0.8160001
-0.0085800001 -0.20280001 0.81900007
-0.03192921 -0.19779527 0.81766689
-0.027234288 -0.1966612 0.81700003
-0.022537144 -0.19708171 0.81599998
-0.018009091 -0.1971149 0.81572735
-0.013540953 -0.19799449 0.81720012
-0.026520003 -0.19422001 0.81900007
-0.022174289 -0.19288288 0.81900012
-0.017935555 -0.1926073 0.81877786
-0.014300002 -0.19370002 0.81900012
-0.046551432 -0.2120243 0.82150006
-0.044177622 -0.21150525 0.82100004
-0.0062552383 -0.21033239 0.82100004
-0.0031276192 -0.2111143 0.82100004
-0.041908577 -0.20797431 0.82250005
-0.039251622 -0.20689201 0.82100004
-0.0062619057 -0.20745715 0.82200003
-0.0023514286 -0.20748562 0.82300007
-0.041541908 -0.2045743 0.82300001
-0.038533099 -0.20244072 0.82150006
-0.0067838104 -0.20276003 0.82200003
-0.0023514288 -0.20379052 0.82300007
-0.036795717 -0.19845431 0.82200003
-0.010790288 -0.19750917 0.82100004
-0.0075721689 -0.19715166 0.82255554
-0.031654831 -0.19362165 0.8221429
-0.027550099 -0.19206499 0.82180005
-0.023300763 -0.19094115 0.82100004
-0.017983813 -0.19000289 0.82100004
-0.012106741 -0.19221444 0.82223082
-0.008621905 -0.19281715 0.82300001
-0.027119813 -0.18827106 0.82300007
-0.022487145 -0.18712762 0.82125002
-0.017988257 -0.1869254 0.82122225
-0.013762313 -0.18742381 0.82242864
-0.021162858 -0.18419525 0.82300001
-0.018027622 -0.18419525 0.82300007
-0.047928575 -0.21135716 0.82500005
-0.047228575 -0.20780429 0.8265
-0.044112246 -0.20709185 0.82499999
-0.0039285715 -0.2082143 0.82500005
-0.047333337 -0.2027432 0.82833338
-0.043272913 -0.20219928 0.82611114
-0.0055000004 -0.20114288 0.82500005
-0.0023612701 -0.20154892 0.82666671
0.0015790476 -0.20132859 0.82900006
-0.045792386 -0.19738096 0.82900006
-0.042278256 -0.19746779 0.82716668
-0.037575815 -0.19668059 0.82540005
-0.0055000004 -0.19800001 0.82500005
-0.0022180956 -0.19707541 0.82681817
0.0019171429 -0.19787718 0.82871431
-0.040241431 -0.19252621 0.82850003
-0.037187446 -0.1925187 0.82754552
-0.032859243 -0.19196402 0.82540005
-0.00662245 -0.19227554 0.82499999
-0.0028148303 -0.19248995 0.82785726
-0.036040638 -0.18783018 0.82866669
-0.032300163 -0.18748938 0.8271668
-0.027753066 -0.18595716 0.82585722
-0.024386667 -0.18565239 0.82600003
-0.010742223 -0.18707463 0.82533336
-0.0070771435 -0.18714957 0.82566661
-0.0029540476 -0.18717146 0.82750005
-0.03181937 -0.18275908 0.82833338
-0.027566668 -0.18194003 0.82700008
-0.022830287 -0.18216592 0.82660007
-0.018086031 -0.18164541 0.82566673
-0.012525496 -0.18270367 0.82607698
-0.0070919576 -0.18203694 0.82744449
-0.0035504764 -0.18266383 0.82850003
-0.03079143 -0.17843239 0.82900006
-0.02740776 -0.17809401 0.82900012
-0.022878624 -0.17749915 0.82833338
-0.018125398 -0.17730868 0.82744449
-0.012829934 -0.17772421 0.82728583
-0.0073283003 -0.17803225 0.82871443
-0.0039476193 -0.17922191 0.82900006
-0.022106668 -0.17448477 0.82900006
-0.01721162 -0.17416897 0.82900012
-0.013421905 -0.17448477 0.82900006
-0.049900007 -0.20831144 0.83166671
-0.049068578 -0.20260572 0.83100003
0.0015828572 -0.20339715 0.83100003
-0.047296833 -0.19738066 0.83233345
-0.043528575 -0.19706573 0.83100003
0.0023774605 -0.1956397 0.83166671
0.0055533336 -0.19595334 0.83300006
-0.045220003 -0.19357336 0.83300006
-0.042661149 -0.19300401 0.83260012
-0.00079142861 -0.19152573 0.83100003
0.0015838097 -0.19239494 0.83133334
-0.040460002 -0.18802002 0.83300006
-0.038384289 -0.18717287 0.83100003
-0.00079142861 -0.18756858 0.83100003
0.0018498413 -0.1881327 0.83233345
-0.03693505 -0.18403526 0.83220005
-0.033656195 -0.18134525 0.83150005
-0.0014249524 -0.18259069 0.83140004
0.0007933334 -0.18484668 0.83300006
-0.035700001 -0.17850001 0.83300006
-0.032903813 -0.17839192 0.83250004
-0.028525716 -0.17590763 0.83200008
-0.0063314289 -0.17648858 0.83100003
-0.0026403177 -0.17802128 0.83200014
-0.026148573 -0.17432287 0.83200002
-0.023209663 -0.17310736 0.83214301
-0.017960954 -0.17273811 0.83200002
-0.011554859 -0.17395602 0.83100003
-0.0074428576 -0.17435603 0.83140004
-0.0039571431 -0.17490573 0.83100003
-0.055134289 -0.2061543 0.83900005
-0.052263178 -0.20666128 0.83566666
-0.055134289 -0.20295811 0.83900005
-0.051972564 -0.20273413 0.83718193
-0.051263813 -0.19766811 0.83775002
-0.048548259 -0.19657938 0.83566666
-0.050340004 -0.19336954 0.83900005
-0.047159899 -0.1920833 0.83611113
-0.04320794 -0.19059208 0.83500004
0.0039833337 -0.19279191 0.83650005
0.0062744222 -0.19289376 0.83842868
-0.046417717 -0.18805659 0.83740008
-0.042602047 -0.18665375 0.8350001
0.0031809527 -0.18608573 0.83500004
0.0063771433 -0.18732858 0.83700001
-0.042227406 -0.18244751 0.83655554
-0.037616741 -0.18171689 0.83528578
-0.00079523813 -0.18051906 0.83500004
0.0023874075 -0.18220563 0.83544445
0.0071869851 -0.18283653 0.83833343
-0.040751431 -0.17898667 0.83900005
-0.037440684 -0.17764097 0.83642858
-0.032621145 -0.17646801 0.83540004
-0.0013260319 -0.17641811 0.83566666
0.0023929102 -0.17780881 0.83722228
0.0071884659 -0.17809279 0.83855563
-0.032215878 -0.17385653 0.83866668
-0.028077994 -0.17244691 0.83700001
-0.023061907 -0.17097621 0.83500004
-0.017018097 -0.17129432 0.83500004
-0.011760477 -0.17163476 0.83724999
-0.006944627 -0.17246491 0.83671433
-0.0025372298 -0.17251022 0.83754551
0.0023965081 -0.1748524 0.83833337
0.0055933339 -0.17499144 0.83900005
-0.026337145 -0.16919525 0.83800006
-0.022938572 -0.1685462 0.83774996
-0.017544763 -0.16826224 0.83733338
-0.012605526 -0.1683564 0.83780003
-0.007182858 -0.16919526 0.838
-0.056867622 -0.20584477 0.84100002
-0.060214289 -0.20232001 0.84300005
-0.057365045 -0.2025498 0.84157151
-0.056445725 -0.19876193 0.84266663
-0.053663813 -0.1970343 0.84100002
-0.052344363 -0.19276695 0.84185719
-0.050520003 -0.18924859 0.84200001
-0.047763135 -0.18658219 0.84185719
-0.046405148 -0.18256973 0.84300005
-0.043251432 -0.1802143 0.84100002
-0.042518418 -0.17755811 0.84233344
-0.038068574 -0.17591335 0.84150004
0.0080285724 -0.17582573 0.84300005
-0.036663812 -0.17368478 0.84300011
-0.033425719 -0.17194192 0.84233332
-0.029635239 -0.17060287 0.84100002
-0.00080095243 -0.17060287 0.84100002
0.0014443811 -0.17277087 0.84219998
-0.031846672 -0.1683324 0.84300011
-0.028062996 -0.16734029 0.84185719
-0.02290724 -0.16611755 0.84100002
-0.016820002 -0.16579716 0.84100002
-0.011704572 -0.16659562 0.84180003
-0.0072171437 -0.16679525 0.84200013
-0.0024053971 -0.16926889 0.84233332
-0.027029525 -0.16405049 0.84300011
-0.022689959 -0.16305499 0.84263641
-0.017077416 -0.16332722 0.84242862
-0.013648572 -0.16298001 0.84300011
-0.060357146 -0.20038573 0.84500003
-0.060428575 -0.19740193 0.84600008
-0.057709377 -0.1967459 0.84550011
-0.056887865 -0.19406025 0.84725004
-0.054014765 -0.19187191 0.84650004
-0.051642623 -0.18800882 0.84725004
-0.050880007 -0.18332955 0.84800005
-0.048838288 -0.18197125 0.84619999
-0.046581525 -0.17842571 0.84619999
-0.043777779 -0.17591304 0.84600008
0.0080761909 -0.17525335 0.84800005
-0.041795924 -0.17282395 0.84628576
-0.038533609 -0.17219023 0.84542871
0.0037047626 -0.17217867 0.84560007
0.0071010478 -0.17216162 0.84710008
-0.036910672 -0.16875601 0.84619999
-0.033405609 -0.16720434 0.84633332
-0.029829051 -0.16687858 0.84650004
-0.0026186905 -0.16700727 0.84612513
0.0016116668 -0.16914929 0.84575003
-0.031441428 -0.16284905 0.84650004
-0.028166668 -0.16256192 0.84500003
-0.022082478 -0.16069697 0.84619999
-0.016578097 -0.16079144 0.84500009
-0.011539684 -0.16235684 0.8453334
-0.0072509525 -0.16275193 0.84600008
-0.0040380955 -0.16233143 0.84800005
-0.021482667 -0.15845488 0.84800005
-0.016927304 -0.1571743 0.84633338
-0.012098095 -0.15730003 0.84700012
-0.0077300682 -0.15771648 0.84800011
-0.013729525 -0.15425524 0.84800005
-0.060857147 -0.19230859 0.85200012
-0.057730243 -0.19182312 0.85075003
-0.0542381 -0.1902381 0.85000002
-0.061000004 -0.18869334 0.85400003
-0.057687838 -0.18768401 0.85311121
-0.05366705 -0.18694019 0.85120004
-0.057543341 -0.18320334 0.85400003
-0.053172249 -0.18221661 0.85142869
-0.051817905 -0.17819354 0.85280001
-0.048340321 -0.17688446 0.8506667
-0.051240005 -0.17486668 0.85400003
-0.047900535 -0.17292319 0.85244453
-0.044171434 -0.17222573 0.85100001
-0.047173336 -0.16998668 0.85400003
-0.043027434 -0.16771811 0.85240012
-0.038617779 -0.16716191 0.8506667
-0.00080952386 -0.16595238 0.85000002
0.0026400001 -0.16725144 0.85250008
0.0056933337 -0.16998668 0.85400003
-0.04138286 -0.16472001 0.85200006
-0.03804658 -0.16260038 0.8532728
-0.033248574 -0.16259477 0.85150003
-0.028333336 -0.16163495 0.85000008
-0.0017382314 -0.1626313 0.85200012
0.0013549207 -0.16280891 0.85333341
-0.037142225 -0.15805779 0.85400003
-0.032287039 -0.15806286 0.8524617
-0.026783332 -0.15744525 0.85216683
-0.022275714 -0.15673476 0.85049999
-0.0056666671 -0.15704763 0.85000002
-0.0036528576 -0.15831955 0.85250008
-0.026840001 -0.15372001 0.85400003
-0.021798097 -0.15302928 0.85345459
-0.017033653 -0.15248731 0.85166681
-0.012015238 -0.15261792 0.8524
-0.0076673022 -0.15325716 0.85244447
-0.020333335 -0.14884001 0.85400003
-0.017893335 -0.14884001 0.85400003
-0.061142862 -0.1858743 0.85600007
-0.05839191 -0.18089192 0.85750002
-0.054748576 -0.18058859 0.85800004
-0.057200003 -0.1789543 0.85800004
-0.053869531 -0.17711429 0.85700005
-0.052085716 -0.17258249 0.85720009
-0.049729526 -0.17038478 0.85600007
0.0081714289 -0.17078286 0.85800004
-0.047681365 -0.16752355 0.85685718
-0.044838097 -0.16549334 0.85600007
0.0040761908 -0.16549334 0.85600007
0.0071407147 -0.16747501 0.85675001
-0.046577144 -0.16424572 0.85800004
-0.042730801 -0.16302858 0.85733336
-0.039946668 -0.1622324 0.85600007
-0.00081523816 -0.16060191 0.85600007
0.0024488892 -0.16263112 0.85666674
0.0065285717 -0.1640543 0.85700005
-0.039176192 -0.15834001 0.85700005
-0.032609526 -0.15571049 0.85600007
-0.0029911115 -0.15637526 0.85666674
-0.03087391 -0.1530606 0.85760003
-0.026924446 -0.15175177 0.85666668
-0.023641907 -0.15081906 0.85600007
-0.012228572 -0.15081906 0.85600007
-0.0062501593 -0.15136257 0.85600013
-0.0032685716 -0.15362287 0.85800004
-0.02533143 -0.14953715 0.85800004
-0.021500956 -0.14833143 0.85733336
-0.016825905 -0.14783315 0.85760003
-0.012446668 -0.14793333 0.85699999
-0.0084368261 -0.14887619 0.85733336
-0.05822064 -0.1771197 0.86100006
-0.054876193 -0.17609525 0.86000001
-0.056947816 -0.1734682 0.86160004
-0.054330163 -0.17281906 0.86000001
-0.051933657 -0.16782638 0.86100006
-0.04996191 -0.16708574 0.86000001
-0.046498232 -0.16244927 0.86085725
-0.042929526 -0.16050796 0.86133337
0.0016419049 -0.16008572 0.86200005
-0.041047622 -0.15844382 0.86200005
-0.036580957 -0.15599965 0.86120003
-0.00081968261 -0.15819874 0.86066669
0.00081904768 -0.15643811 0.86000001
-0.03571143 -0.15228668 0.86200005
-0.03307334 -0.15197176 0.86100006
-0.0022253066 -0.15185744 0.8605715
0.0016419049 -0.1518762 0.86200005
-0.030899048 -0.14902352 0.86133337
-0.027273098 -0.14825691 0.86125004
-0.022543095 -0.14673597 0.86075008
-0.016666032 -0.14617589 0.86066669
-0.011211431 -0.14574224 0.86133337
-0.0071747624 -0.14718907 0.86100006
-0.0018459526 -0.14743739 0.86124998
0.0013657145 -0.14808826 0.86066675
-0.021071112 -0.14311938 0.86200011
-0.017697144 -0.14357035 0.86142862
-0.013529525 -0.14349906 0.86100006
-0.061957147 -0.17694686 0.86740011
-0.061578646 -0.17267852 0.86871433
-0.057279814 -0.17150383 0.86660004
-0.056660004 -0.16915047 0.86849999
-0.053039685 -0.16626257 0.86566675
-0.051845007 -0.162965 0.86750007
-0.048093017 -0.16131589 0.86566675
-0.051312383 -0.15890287 0.86900002
-0.047103174 -0.15783103 0.86766672
-0.04232068 -0.15713511 0.86642867
-0.038719051 -0.15570001 0.86500007
0.0018123811 -0.15734765 0.86500007
-0.046070799 -0.15421304 0.86900008
-0.041966666 -0.15318431 0.86825001
-0.038077909 -0.15214495 0.86540002
0.0016476192 -0.15405239 0.86500007
-0.040553335 -0.14897144 0.86900002
-0.036983334 -0.14813572 0.86775005
-0.032418098 -0.14723253 0.86642867
-0.027207939 -0.14592668 0.86566675
-0.005766667 -0.1458143 0.86500007
-0.0041190479 -0.14663811 0.86500007
-0.03558762 -0.14400572 0.86900002
-0.032269318 -0.14314106 0.86877781
-0.027256826 -0.14288436 0.86722225
-0.022792067 -0.14196986 0.86500013
-0.016888097 -0.14128333 0.86500007
-0.01182508 -0.14218764 0.86633343
-0.0079070758 -0.14317811 0.86757147
-0.026207939 -0.13931589 0.86900008
-0.022320002 -0.13887906 0.86800003
-0.017128572 -0.13805905 0.86675006
-0.012873335 -0.13831145 0.8681429
-0.0091038104 -0.13986763 0.86900002
-0.063873336 -0.17502953 0.87100005
-0.065532386 -0.17337048 0.87100005
-0.062629052 -0.17088191 0.87100005
-0.062285721 -0.16775528 0.8720001
-0.057647813 -0.16762762 0.87220001
-0.056537148 -0.16379143 0.87300003
-0.053919051 -0.16175716 0.87100005
-0.052280642 -0.15656351 0.87133348
-0.048941907 -0.15512097 0.87100005
-0.050717145 -0.1538143 0.87300003
-0.047317784 -0.15302509 0.87166679
-0.043445401 -0.15081176 0.87166679
-0.041548099 -0.14707857 0.87250006
-0.038434606 -0.14571971 0.87100005
-0.0024885717 -0.14516668 0.87100005
-0.037031814 -0.14231144 0.87180007
-0.032351434 -0.14018953 0.87100005
-0.029033335 -0.14018953 0.87100005
-0.0062247622 -0.1415143 0.87150002
-0.0030469846 -0.14239652 0.87266672
-0.032377463 -0.13863651 0.87166679
-0.027404763 -0.13785809 0.8720001
-0.022422861 -0.13619715 0.8720001
-0.017845716 -0.13570479 0.87150007
-0.011789906 -0.13633202 0.87180007
-0.0083038099 -0.13785905 0.8720001
-0.0016628572 -0.13552287 0.87300003
-0.016628573 -0.13386001 0.87300003
-0.014101906 -0.13355334 0.87100005
-0.061666675 -0.16583334 0.87500006
-0.057500005 -0.16583334 0.87500012
-0.060937624 -0.16361192 0.87650001
-0.057566673 -0.16240701 0.87600011
-0.054166671 -0.16083334 0.87500006
-0.055897146 -0.15767811 0.87600005
-0.054352384 -0.15636763 0.87800002
-0.051505081 -0.15284668 0.87700003
-0.047867052 -0.15160345 0.87560004
-0.046628002 -0.14823793 0.87740004
-0.043787859 -0.14720833 0.87575001
-0.042383458 -0.14301297 0.87687516
-0.038611114 -0.14138891 0.87500012
-0.0013907937 -0.14227018 0.87700003
0.00083619053 -0.14298859 0.87800002
-0.040973336 -0.13964382 0.87800002
-0.037050635 -0.13844937 0.87750006
-0.032555714 -0.13689955 0.87650013
-0.02791667 -0.13625 0.87500006
-0.0070897625 -0.13719976 0.87575001
-0.0025023813 -0.13857001 0.87650001
0.00083619053 -0.13964382 0.87800002
-0.031608004 -0.13328879 0.87800008
-0.027594289 -0.1329543 0.87800014
-0.022569207 -0.13290317 0.87766677
-0.017756872 -0.1321528 0.87585723
-0.012513335 -0.13292921 0.87600011
-0.0091666672 -0.13416667 0.87500006
-0.0016723811 -0.13462667 0.87800002
-0.027594289 -0.12960953 0.87800002
-0.022577144 -0.12960953 0.87800002
-0.017560001 -0.12919143 0.87800002
-0.014215239 -0.12877333 0.87800002
-0.061180957 -0.1609143 0.88000005
-0.058946036 -0.16063493 0.88000005
-0.061459053 -0.15575239 0.88400006
-0.058195557 -0.15668002 0.88133335
-0.054600004 -0.15540001 0.88200003
-0.061459053 -0.15406857 0.88400006
-0.058296002 -0.15304802 0.88200009
-0.053181272 -0.15198192 0.88166684
-0.049447622 -0.15001906 0.88000005
-0.058091432 -0.14901716 0.88400006
-0.051719047 -0.14758669 0.88300002
-0.04908476 -0.14683239 0.88100004
-0.051356193 -0.14396572 0.88400006
-0.047535054 -0.14276592 0.8818
-0.04441905 -0.1416381 0.88000005
-0.042829204 -0.13800256 0.88177776
-0.038993809 -0.13668621 0.88050002
-0.0058666673 -0.13660954 0.88000005
-0.0041904766 -0.13660954 0.88000005
-0.041253336 -0.13386287 0.88400006
-0.037448004 -0.13265754 0.88160008
-0.033942856 -0.1328381 0.88000005
-0.011733335 -0.13158096 0.88000005
-0.0075558098 -0.13265792 0.88160002
-0.0035291433 -0.13328229 0.88240004
-0.036201905 -0.12881143 0.88400006
-0.032570098 -0.1280943 0.88140005
-0.027678097 -0.12664698 0.88066673
-0.022645717 -0.12664698 0.88066673
-0.017371431 -0.12663348 0.88057154
-0.01204233 -0.12761611 0.88222229
-0.0092609534 -0.12881143 0.88400006
-0.027361905 -0.12333906 0.88400006
-0.022484086 -0.12251729 0.88371432
-0.017848467 -0.12251218 0.88311112
-0.013613715 -0.12319773 0.88240004
-0.061667625 -0.15290192 0.88700002
-0.057162225 -0.15177557 0.88700002
-0.054909527 -0.15121239 0.88700002
-0.060113337 -0.14647335 0.88900006
-0.056944452 -0.14743495 0.88800001
-0.054064766 -0.14783335 0.88700002
-0.055033337 -0.14478001 0.88900006
-0.052434288 -0.14292477 0.88800001
-0.049840957 -0.14107525 0.88700002
-0.048022147 -0.13814025 0.88850003
-0.043927621 -0.13600667 0.88700002
-0.046990003 -0.13335001 0.88900006
-0.043343574 -0.13256501 0.88800007
-0.039703812 -0.1309381 0.88700002
-0.0059266672 -0.13123333 0.88900006
-0.042333335 -0.12954001 0.88900006
-0.038063269 -0.12772232 0.88814288
-0.033790477 -0.12586953 0.88700002
-0.008456191 -0.12770382 0.88800001
-0.032432064 -0.12323841 0.88833344
-0.028240955 -0.12158572 0.88780004
-0.023653336 -0.12080096 0.88700002
-0.017740002 -0.12080096 0.88700002
-0.012255239 -0.12213715 0.88750005
-0.0093133338 -0.12446001 0.88900006
-0.027093336 -0.11938 0.88900006
-0.022860002 -0.11938001 0.88900012
-0.017520955 -0.11805538 0.88814294
-0.013038668 -0.11870267 0.88900006
-0.057702862 -0.14510572 0.89100003
-0.055250004 -0.14279857 0.89250004
-0.052788578 -0.14133716 0.89400005
-0.051001433 -0.13770144 0.89250004
-0.050065719 -0.13492286 0.89100003
-0.048422858 -0.1316743 0.89200008
-0.0042428575 -0.13152859 0.89100003
-0.046116002 -0.12813774 0.89340001
-0.042833067 -0.12704206 0.89185721
-0.039882861 -0.12643716 0.89100003
-0.0065057147 -0.1281343 0.89100003
-0.040868573 -0.12345715 0.89400005
-0.037755102 -0.12346123 0.89228582
-0.033735242 -0.12104954 0.89300007
-0.011031429 -0.12134572 0.89100003
-0.0093552396 -0.12161621 0.89300007
-0.028035242 -0.11780001 0.89200008
-0.022911429 -0.11710286 0.89099997
-0.018668573 -0.11625429 0.89100003
-0.013577144 -0.11625429 0.89100003
-0.027245715 -0.11494286 0.89400005
-0.022545002 -0.11442072 0.89325005
-0.017827304 -0.1129016 0.89133328
-0.013592381 -0.11298478 0.89200008
-0.017880002 -0.1098343 0.89400005
-0.05752223 -0.14266509 0.89700001
-0.053760003 -0.14080001 0.89600003
-0.056249905 -0.13763125 0.89760011
-0.053125333 -0.13716726 0.89680004
-0.051632114 -0.13267866 0.89714301
-0.0022217145 -0.13147734 0.89760011
0.0021380954 -0.13127905 0.89800006
-0.05045905 -0.12828572 0.89800006
-0.047659431 -0.12657677 0.89680004
-0.0068419054 -0.12657525 0.89800006
-0.0025657145 -0.12914096 0.89800006
0.0034209527 -0.12914096 0.89800006
-0.046520006 -0.12246451 0.89742875
-0.042084359 -0.1216158 0.89657146
-0.037546668 -0.12032001 0.89600003
-0.0072576194 -0.12166905 0.89649999
-0.040196192 -0.1188781 0.89800006
-0.036775239 -0.11745271 0.89800012
-0.032813065 -0.11722396 0.89657146
-0.029900003 -0.11618191 0.89700007
-0.011093335 -0.11690667 0.89600009
-0.0085419053 -0.11703715 0.89700001
-0.035064764 -0.11374667 0.89800006
-0.032328002 -0.11237829 0.89800006
-0.028189208 -0.11189714 0.89688897
-0.023253337 -0.11157334 0.89599997
-0.012127239 -0.11120305 0.89680004
-0.0088374615 -0.11317652 0.89800012
-0.027367622 -0.10776 0.89800006
-0.023074923 -0.10767938 0.89733338
-0.017940002 -0.10763907 0.89700001
-0.013668573 -0.10763906 0.89700001
-0.061060004 -0.14104 0.90300006
-0.059208576 -0.14158572 0.90100002
-0.061060004 -0.13846001 0.90300006
-0.058600195 -0.13764858 0.90220016
-0.055838101 -0.13401049 0.90200007
-0.054120004 -0.13229239 0.90200007
-0.052430958 -0.12849811 0.90250009
-0.0060066669 -0.12614001 0.90100002
-0.0025750003 -0.12767667 0.90125
0.0023291158 -0.12736587 0.90100008
-0.050740004 -0.12470001 0.90300006
-0.048965715 -0.12198382 0.90200007
-0.0060066669 -0.12356572 0.90100002
-0.0025785186 -0.12289005 0.90233338
0.0025764024 -0.12282997 0.90188885
0.0060133338 -0.12370382 0.90200007
-0.045580003 -0.11954001 0.90300006
-0.04229619 -0.11744096 0.90174997
-0.037756193 -0.11584286 0.90100002
-0.0060066669 -0.11755906 0.90100002
-0.0038700001 -0.11825001 0.90300006
-0.036586862 -0.11285277 0.9018001
-0.033465717 -0.1106943 0.90100002
-0.0071552387 -0.11192097 0.90166676
-0.031355716 -0.10866905 0.90200007
-0.026660001 -0.10578001 0.90300006
-0.023204129 -0.10570192 0.90233344
-0.01802 -0.10554572 0.90100002
-0.012442382 -0.10683287 0.90100002
-0.0080763819 -0.10809125 0.90220004
-0.018060002 -0.10406002 0.90300006
-0.01376 -0.10320001 0.90300006
-0.06291905 -0.1422143 0.90500003
-0.062160004 -0.13640524 0.90650004
-0.059471432 -0.13531905 0.90500003
-0.0613981 -0.13317335 0.90800005
-0.05806024 -0.13187382 0.9065001
-0.056209527 -0.12884954 0.90800005
-0.053959049 -0.12690859 0.90650004
-0.051757861 -0.12335453 0.90575004
-0.049291432 -0.12020192 0.90800005
-0.047052387 -0.11719573 0.90650004
-0.0014374604 -0.11734667 0.90600008
0.0015542858 -0.11865944 0.90680009
-0.04204708 -0.11356164 0.90628582
-0.03825397 -0.11188319 0.90600008
-0.0036217147 -0.11332915 0.90560007
-0.036290716 -0.1088693 0.90725005
-0.031944763 -0.10705333 0.90650004
-0.02844286 -0.10601429 0.90500003
-0.011204762 -0.10601429 0.90500003
-0.0073261913 -0.10687619 0.90500003
-0.0043238099 -0.10896 0.90800005
-0.023074524 -0.10286572 0.90575004
-0.018110953 -0.10176049 0.90550005
-0.012246477 -0.10194515 0.90560007
-0.0083498415 -0.10336795 0.90700006
-0.062504292 -0.13282144 0.91150004
-0.057905402 -0.12767905 0.91200006
-0.05651905 -0.12434191 0.91300005
-0.053319048 -0.12209392 0.91180003
-0.051301908 -0.11825524 0.91300005
-0.049481429 -0.11632334 0.91150004
0.00086952385 -0.11564668 0.91300005
-0.046613973 -0.11320319 0.91200006
-0.0425031 -0.11102549 0.91075003
-0.039000001 -0.11006667 0.91000003
-0.0020250797 -0.11192097 0.91100001
-0.0043333336 -0.10660001 0.91000003
-0.063614286 -0.13332859 0.91500002
-0.061228383 -0.12786268 0.91580003
-0.060260005 -0.12488668 0.91700006
-0.057764381 -0.12268247 0.9162001
-0.054900005 -0.12112858 0.91500002
-0.05560223 -0.11790001 0.91700006
-0.053180385 -0.11769354 0.91540003
-0.00087238103 -0.11166382 0.91600001
-0.063961908 -0.13142858 0.92000002
-0.063469216 -0.1272305 0.92133331
-0.066214293 -0.13507715 0.92700005
-0.066214293 -0.13242859 0.92700005
