# .PCD v0.7 - Point Cloud Data file format
VERSION 0.7
FIELDS x y z
SIZE 4 4 4
TYPE F F F
COUNT 1 1 1
WIDTH 815
HEIGHT 1
VIEWPOINT 0 0 0 1 0 0 0
POINTS 815
DATA ascii
-0.021653336 -0.24117336 0.7840001
-0.017173335 -0.24117336 0.7840001
-0.013440001 -0.24117334 0.78400004
-0.02135467 -0.23908269 0.78400004
-0.016800001 -0.23930669 0.78400004
-0.01368889 -0.23918223 0.7840001
-0.027301908 -0.2507267 0.78900003
-0.023670003 -0.25060144 0.78900003
-0.030808574 -0.24646857 0.78900003
-0.027977975 -0.24729039 0.78862506
-0.022510119 -0.24761821 0.78787506
-0.017459525 -0.24725169 0.78850007
-0.012951788 -0.24683705 0.78837508
-0.0082604764 -0.24631286 0.78850007
-0.031184288 -0.24308714 0.78900003
-0.027605524 -0.24258001 0.78759998
-0.022906287 -0.24343546 0.78600007
-0.016842859 -0.24366002 0.78600001
-0.012132573 -0.24251126 0.78640002
-0.0082534393 -0.24236986 0.78788888
-0.026266668 -0.23940192 0.78800005
-0.022566754 -0.23718894 0.78745461
-0.017383119 -0.23675197 0.78736377
-0.012757462 -0.2373994 0.78800005
-0.0086383335 -0.23925406 0.78875005
-0.018785715 -0.2336943 0.78900003
-0.031442225 -0.25178635 0.79233336
-0.028375557 -0.25186449 0.79100007
-0.021868763 -0.25262269 0.79180002
-0.017344192 -0.2517179 0.79180002
-0.01312743 -0.25184476 0.79220003
-0.005286667 -0.25149429 0.79300004
-0.0022657146 -0.25149429 0.7930001
0.0024545239 -0.25281596 0.7930001
0.005286667 -0.25224954 0.79300004
-0.035406668 -0.24634002 0.79100001
-0.032836061 -0.24815199 0.79128569
-0.0113 -0.24935335 0.79100001
-0.0067885723 -0.24891528 0.792
-0.0022619048 -0.24805684 0.79166663
0.0022612701 -0.24798679 0.79144448
0.005277778 -0.24805686 0.79166669
-0.035406671 -0.24332669 0.79100007
-0.032979291 -0.24216023 0.79149997
-0.028626669 -0.24031335 0.79100001
-0.0052733338 -0.24257335 0.79100001
-0.0022606351 -0.24267463 0.79133332
0.0022628573 -0.24287811 0.79200006
0.0052733338 -0.24483335 0.79100001
-0.032475241 -0.23941049 0.79300004
-0.027532857 -0.23873192 0.79200006
-0.022629526 -0.23609143 0.79200006
-0.01206762 -0.23609143 0.79200006
-0.007544524 -0.2380517 0.79225004
-0.0030209525 -0.23941049 0.79300004
0.0030209525 -0.23941049 0.79300004
-0.020365715 -0.23382764 0.79200006
-0.016594287 -0.23382764 0.79200006
-0.013577144 -0.23382764 0.79200006
-0.01596 -0.26524001 0.79800004
-0.028120002 -0.26068002 0.79800004
-0.021280002 -0.26068002 0.79800004
-0.016466668 -0.26118672 0.79800004
-0.013354287 -0.26241717 0.79800004
-0.035720002 -0.25612003 0.79800004
-0.032480001 -0.25736979 0.79775
-0.027525976 -0.25739819 0.79681814
-0.022171432 -0.25721145 0.79666662
-0.01744614 -0.2571393 0.79644448
-0.012890159 -0.25706711 0.79622227
-0.0078502651 -0.25702634 0.79766667
-0.0022782541 -0.25661254 0.79716676
0.0012644446 -0.25659716 0.79633343
-0.035675239 -0.25352192 0.79700005
-0.033651114 -0.25377494 0.79700011
-0.017414287 -0.25364289 0.79500002
-0.011357144 -0.25364289 0.79500002
-0.0079048993 -0.25326738 0.79585719
-0.0022714287 -0.25364289 0.79500002
-0.032557145 -0.2400143 0.79500002
-0.0007571429 -0.2400143 0.79500002
0.0007571429 -0.2400143 0.79500002
-0.032480001 -0.23799501 0.79775
-0.027636573 -0.23733754 0.79720002
-0.02274381 -0.23576763 0.796
-0.011357144 -0.23547144 0.79500002
-0.0072631305 -0.2366716 0.79685718
-0.0022766141 -0.23754689 0.79688889
0.00075904763 -0.23758003 0.79700005
-0.031160003 -0.23484002 0.79800004
-0.026596857 -0.23329058 0.79789996
-0.022341166 -0.23242331 0.79666668
-0.017637417 -0.23209323 0.79528582
-0.012709287 -0.23219478 0.79675001
-0.00818762 -0.23355971 0.79766667
-0.0030400003 -0.23484002 0.79800004
-0.021598097 -0.22824329 0.79771435
-0.017335847 -0.22799042 0.79772729
-0.014055477 -0.22830787 0.79775006
-0.021280002 -0.22420001 0.79800004
-0.017480001 -0.22420001 0.79800004
-0.02638286 -0.26575524 0.80299997
-0.022151746 -0.2665683 0.80200005
-0.018063495 -0.26685527 0.80133337
-0.013714286 -0.26590478 0.80000001
-0.006891429 -0.26570287 0.80400002
-0.002297143 -0.2657029 0.80400008
-0.032040954 -0.26242289 0.801
-0.02701143 -0.2629467 0.80120003
-0.022504764 -0.26280478 0.801
-0.017838096 -0.26329336 0.80040008
-0.011428572 -0.26209527 0.80000001
-0.0076302383 -0.26250547 0.80125004
-0.0022920636 -0.2627511 0.80200005
0.0015309525 -0.26324242 0.80350006
-0.0068571432 -0.25980955 0.80000007
-0.0022857145 -0.25980955 0.80000007
0.0015238096 -0.25980955 0.80000001
-0.033777781 -0.23593652 0.80000007
-0.00076190481 -0.23542859 0.80000001
0.00076190481 -0.23542859 0.80000001
-0.03262667 -0.23339678 0.80200011
-0.028825477 -0.2317412 0.80175
-0.011428572 -0.23085716 0.80000001
-0.0070421165 -0.2317071 0.80177778
-0.0022914289 -0.23372385 0.80200005
0.00076380954 -0.23372382 0.80200005
-0.025879459 -0.22810318 0.80257154
-0.022740191 -0.22723316 0.80120003
-0.01904762 -0.22780953 0.80000001
-0.012403334 -0.2272805 0.80150002
-0.0095652388 -0.22880526 0.80350006
-0.022205716 -0.22435431 0.80400008
-0.017589526 -0.22330956 0.80299997
-0.013921524 -0.22382323 0.80319995
-0.0053733336 -0.26713145 0.80600005
-0.0038380956 -0.26789907 0.80600005
-0.032643337 -0.23157954 0.80650008
-0.0053733336 -0.23105335 0.80600005
-0.0023066667 -0.2314343 0.80733341
0.00076888892 -0.23143432 0.80733341
-0.028425399 -0.22765779 0.80666679
-0.0069137672 -0.22734949 0.80672735
-0.002616381 -0.22793297 0.80800003
0.00076952385 -0.22854859 0.80800003
-0.025984002 -0.22401603 0.80720007
-0.022280211 -0.22202456 0.80666679
-0.017669208 -0.22125652 0.80666679
-0.011992001 -0.22232495 0.80720007
-0.0084556192 -0.22401603 0.80720007
-0.022008382 -0.21869867 0.80800003
-0.017997334 -0.2185901 0.80760002
-0.014620953 -0.21931431 0.80800003
-0.03394286 -0.23142858 0.81000006
-0.036316827 -0.22742669 0.81133336
-0.032446314 -0.22711393 0.81112516
-0.0020593654 -0.22604859 0.81100005
0.00077269849 -0.22639811 0.81133336
-0.036406353 -0.22231242 0.81333339
-0.032493971 -0.22203718 0.81233352
-0.027671298 -0.22213881 0.81028575
-0.011074922 -0.22073334 0.81133336
-0.0067414977 -0.22268601 0.81228584
-0.0025822222 -0.22360067 0.81333345
0.00077523815 -0.22404383 0.81400001
-0.036436193 -0.21861716 0.81400001
-0.032438647 -0.21865089 0.81371439
-0.026926756 -0.21786632 0.8120001
-0.022615513 -0.21655838 0.81085718
-0.017541226 -0.2165584 0.81085718
-0.012626192 -0.21764746 0.8118335
-0.0085276198 -0.21861716 0.81400001
-0.030234288 -0.21474096 0.81400001
-0.026939526 -0.21338432 0.81400007
-0.022311049 -0.2127225 0.81340009
-0.017946495 -0.21234097 0.81290925
-0.013954287 -0.2131905 0.81400007
-0.01783048 -0.20853907 0.81400001
-0.0059552388 -0.22087651 0.81566668
-0.0021106123 -0.22123337 0.81671435
0.00077714294 -0.22226192 0.81600004
-0.035879999 -0.21762002 0.81900007
-0.032408256 -0.21673939 0.81666672
-0.010607937 -0.21552226 0.81500006
-0.006821482 -0.21702361 0.81611115
-0.0026500956 -0.21844898 0.81860012
0.00078000006 -0.21918002 0.81900007
-0.031523675 -0.21308805 0.81871444
-0.027590001 -0.21099478 0.81599998
-0.023285717 -0.21034764 0.81500006
-0.0163 -0.21034764 0.81500006
-0.011662858 -0.21190001 0.81650001
-0.0080460329 -0.2136308 0.81766671
-0.031460002 -0.20878002 0.81900012
-0.027267305 -0.20722447 0.81800008
-0.022574607 -0.20705526 0.8173334
-0.018119048 -0.20663878 0.81700003
-0.013903812 -0.20745048 0.81757146
-0.027300004 -0.20358001 0.81900012
-0.021840002 -0.20358001 0.81900007
-0.017611241 -0.20400362 0.81820011
-0.014287937 -0.20393303 0.81833339
0.0015638096 -0.22127905 0.82100004
-0.036986262 -0.21621569 0.82128584
-0.0054733339 -0.21502383 0.82100004
-0.002348254 -0.21650159 0.82166672
0.0023481634 -0.21793079 0.82185721
-0.036378916 -0.21256205 0.82271439
-0.033621907 -0.2126781 0.82100004
-0.010946668 -0.21033239 0.82100004
-0.0070444453 -0.21241558 0.82200003
-0.0039190478 -0.21398002 0.82300001
-0.032606669 -0.20685112 0.82166672
-0.010959684 -0.2074559 0.82200003
-0.008621905 -0.20927715 0.82300001
-0.031276193 -0.20251334 0.82100004
-0.027366668 -0.20173144 0.82100004
-0.02289864 -0.20206656 0.82100004
-0.017983811 -0.20173144 0.82100004
-0.013040636 -0.20267907 0.82166672
-0.030568574 -0.19987144 0.82300001
-0.027278356 -0.1976455 0.82263637
-0.022693969 -0.19719844 0.82166672
-0.018475512 -0.19852777 0.82300007
-0.014099525 -0.19896621 0.82250005
-0.040168572 -0.21502002 0.82700002
-0.0013126986 -0.21554384 0.82700008
0.001969524 -0.21633144 0.82749999
-0.040200956 -0.21204033 0.82766676
-0.038531117 -0.21152668 0.82566679
-0.0063009523 -0.21108192 0.82700002
-0.00281483 -0.2123131 0.82785726
-0.040897336 -0.20732896 0.82900012
-0.036843725 -0.20753205 0.82627285
-0.033785716 -0.20507145 0.82500005
-0.0070864558 -0.20714299 0.82700008
-0.0035528573 -0.20803954 0.82900006
-0.037088569 -0.20279844 0.82855558
-0.033413336 -0.20165715 0.82550001
-0.011017144 -0.20225303 0.8263334
-0.0076250802 -0.20327018 0.82833338
-0.041393608 -0.19794492 0.82900012
-0.037069101 -0.19795842 0.82811117
-0.03225027 -0.19742638 0.82588899
-0.02907143 -0.19564287 0.82500005
-0.01745086 -0.19668059 0.82540005
-0.012539309 -0.19714884 0.82772744
-0.040217146 -0.1924105 0.82800007
-0.037018094 -0.19296668 0.82700008
-0.032267202 -0.19281071 0.82633346
-0.027500004 -0.19250001 0.82499993
-0.02280413 -0.19265431 0.82566667
-0.017340818 -0.19234355 0.82771432
-0.013412857 -0.19331573 0.82850003
-0.040265717 -0.18711716 0.82900012
-0.037041429 -0.18756622 0.82750005
-0.032292388 -0.18745337 0.82700002
-0.02756667 -0.18745242 0.82700008
-0.023008918 -0.18787301 0.82790923
-0.019096954 -0.1882886 0.82860005
-0.040265717 -0.18316954 0.82900006
-0.037088573 -0.18228181 0.82855558
-0.032327514 -0.18213429 0.82788897
-0.027830718 -0.18257737 0.82900006
-0.023685716 -0.18395907 0.82900006
-0.036791813 -0.1785903 0.82900012
-0.032370478 -0.17843239 0.82900012
0.0031733336 -0.21658002 0.83300006
0.0055533336 -0.21658002 0.83300006
-0.00079142861 -0.21210288 0.83100003
0.000792381 -0.21235621 0.83200008
-0.0015844445 -0.20760289 0.83200002
-0.045507148 -0.20141858 0.83100003
-0.041747861 -0.2031993 0.83099997
-0.0065974607 -0.20136701 0.83133334
-0.0035676192 -0.20376335 0.83250004
-0.045995243 -0.19746034 0.83266675
-0.04313286 -0.19746144 0.83100003
-0.010288572 -0.1962743 0.83100003
-0.008319525 -0.19769859 0.83200002
-0.045748889 -0.19383781 0.83300006
-0.04277207 -0.19247082 0.83166671
-0.011877619 -0.19164145 0.83150005
-0.042806353 -0.18787017 0.83233345
-0.021368572 -0.18598573 0.83100003
-0.016634049 -0.18734118 0.83175004
-0.012693334 -0.18881334 0.83300006
-0.042230621 -0.18261811 0.83214295
-0.026117144 -0.18123716 0.83100003
-0.023176905 -0.18204834 0.83200002
-0.018246667 -0.18484668 0.83300006
-0.040411431 -0.17907715 0.83200002
-0.037250858 -0.17674269 0.83220005
-0.032487623 -0.17590761 0.83200002
-0.027891621 -0.17796727 0.83200008
-0.023800001 -0.17850001 0.83300006
0.0031904764 -0.21602573 0.83700001
0.0063923812 -0.21654192 0.83900005
0.0023957144 -0.21241859 0.83850002
-0.00079523813 -0.20596668 0.83500004
0.00079777784 -0.20822001 0.83766669
-0.0020350267 -0.20174637 0.83655554
0.00079841277 -0.203594 0.83833337
-0.048509527 -0.19642383 0.83500004
-0.0062589129 -0.19721267 0.83642858
-0.0029273019 -0.19773939 0.83833349
-0.050260004 -0.19226319 0.83766669
-0.047310796 -0.19198129 0.83566666
-0.01034635 -0.19233429 0.83566666
-0.0075306883 -0.19274361 0.83744454
-0.0039952383 -0.19416858 0.83900005
-0.050340004 -0.18857525 0.83900005
-0.046834052 -0.18752834 0.83700007
-0.015109525 -0.18529049 0.83500004
-0.011711974 -0.18661839 0.83585715
-0.0079869851 -0.18770097 0.83866668
-0.045437146 -0.18334287 0.83700001
-0.043738097 -0.18131429 0.83500004
-0.02147143 -0.18131429 0.83500004
-0.017504605 -0.18221796 0.8355
-0.012166191 -0.18290856 0.83775002
-0.0087895244 -0.18458001 0.83900005
-0.041910287 -0.17799602 0.83660001
-0.038171433 -0.17574763 0.83500004
-0.027038097 -0.17574763 0.83500004
-0.022842042 -0.17694384 0.83528578
-0.017764069 -0.17802331 0.83754551
-0.01358381 -0.17898667 0.83900005
-0.036579244 -0.17362954 0.8386001
-0.032696191 -0.17224829 0.83733332
-0.027915716 -0.17228335 0.83749998
-0.023557143 -0.17448762 0.83850002
-0.019177143 -0.17499144 0.83900005
-0.029564764 -0.16859905 0.83900005
0.004004762 -0.2154562 0.84100002
0.0040142857 -0.21356001 0.84300005
0.0024028574 -0.20744668 0.84100002
0.0020038097 -0.20236002 0.84150004
-0.0013355557 -0.19692288 0.8416667
0.0013355557 -0.19906001 0.8416667
-0.0056066671 -0.19142763 0.84100002
-0.0032073017 -0.19245622 0.84200001
-0.050520003 -0.18604097 0.84200001
-0.048362862 -0.18570065 0.8416667
-0.0059297155 -0.1870303 0.84140009
-0.0040142857 -0.18867144 0.84300005
-0.050580002 -0.1838543 0.84300005
-0.047046036 -0.18203239 0.84200001
-0.010954604 -0.18089113 0.8416667
-0.0088314293 -0.18305144 0.84300005
-0.045762859 -0.17903715 0.84300005
-0.04279105 -0.17677353 0.84140009
-0.039246671 -0.17540859 0.84100002
-0.015764128 -0.1760816 0.8416667
-0.012351811 -0.17758344 0.8422001
-0.041588005 -0.17293544 0.84300005
-0.038178734 -0.17167082 0.84100002
-0.02254466 -0.17260987 0.84211111
-0.018465716 -0.17422001 0.84300005
-0.040945716 -0.16860001 0.84300005
-0.037511669 -0.1678974 0.84250003
-0.032873761 -0.16757472 0.8418889
-0.027874283 -0.1674462 0.84224999
-0.024353337 -0.16886763 0.84300011
-0.03131143 -0.16458572 0.84300005
-0.029705716 -0.16458572 0.84300005
0.0064380956 -0.21648097 0.84500003
0.0040238099 -0.21084763 0.84500003
0.0072492859 -0.21264359 0.84575021
0.010499048 -0.21078859 0.84800005
0.0040238099 -0.20682383 0.84500003
0.0070666666 -0.20776001 0.84800005
0.010499048 -0.20917335 0.84800005
0.0040238099 -0.20199525 0.84500003
0.0067301593 -0.2032508 0.84800005
-0.00080476195 -0.19555716 0.84500003
0.0021512702 -0.19751668 0.8465001
-0.0012078572 -0.19210501 0.84575003
0.001614762 -0.1929062 0.84750009
-0.0026882542 -0.1879524 0.84700012
0.0016152381 -0.18979049 0.84800005
-0.050790004 -0.18219763 0.84650004
-0.049206674 -0.18149811 0.84700006
-0.0070754504 -0.18207122 0.84633338
-0.046581533 -0.17745887 0.84619999
-0.044261906 -0.17624287 0.84500003
-0.01176781 -0.17616896 0.84619999
-0.0088838097 -0.17848381 0.84800005
-0.046034288 -0.17363811 0.84800005
-0.043971431 -0.17217867 0.84560007
-0.020679368 -0.17107874 0.84600008
-0.017123692 -0.17284966 0.84612501
-0.042464904 -0.16721295 0.84585726
-0.039433338 -0.16658573 0.84500003
-0.022119263 -0.16756395 0.84633332
-0.041996196 -0.16394667 0.84800005
-0.037525188 -0.16344307 0.84633338
-0.033205461 -0.16265412 0.84663647
-0.027894193 -0.16317098 0.84650004
-0.023902223 -0.16463302 0.84600008
0.0089047626 -0.20642859 0.85000002
0.011351111 -0.20674986 0.85133338
0.0082731433 -0.20162554 0.85159999
0.01096762 -0.20268859 0.85300004
0.0040507941 -0.19686733 0.8506667
0.0067016669 -0.19775549 0.85275006
0.0040571438 -0.19230859 0.85200012
0.0056933342 -0.19276002 0.85400003
-0.0017813335 -0.18643963 0.85039997
0.0019700683 -0.18754505 0.85142869
-0.052120641 -0.18120509 0.8506667
-0.0056666671 -0.18052383 0.85000002
-0.0028971431 -0.18286452 0.8522858
-0.051972702 -0.17784129 0.8526668
-0.048779812 -0.17712803 0.85080004
-0.010548572 -0.17608002 0.85200006
-0.0072974158 -0.17758261 0.85142863
-0.0040666671 -0.17974667 0.85400003
-0.051890671 -0.17324001 0.85400003
-0.048093576 -0.17268263 0.8522501
-0.0159327 -0.17148319 0.8506667
-0.01236881 -0.17298596 0.85175008
-0.0089466674 -0.17486668 0.85400003
-0.052053336 -0.16754667 0.85400003
-0.047758102 -0.16748105 0.85254562
-0.044576194 -0.16695715 0.85100007
-0.020238096 -0.16595238 0.85000002
-0.0170427 -0.16718367 0.85216677
-0.01316381 -0.1685261 0.85320008
-0.047173336 -0.16348001 0.85400003
-0.043235719 -0.16238001 0.85250008
-0.039126989 -0.16163495 0.85000008
-0.026324287 -0.16159478 0.85049999
-0.021923622 -0.16239832 0.85260004
-0.017080002 -0.16348001 0.85400003
-0.041431431 -0.15922573 0.85300004
-0.038157884 -0.158309 0.85244447
-0.03246776 -0.15746722 0.8522858
-0.027125716 -0.15853792 0.85280007
-0.022773335 -0.15860002 0.85400003
0.0089676194 -0.19810286 0.85600007
0.010598096 -0.19810288 0.85600013
0.0081587303 -0.19336192 0.85666668
0.010598096 -0.19484192 0.85600007
0.002450794 -0.18643683 0.85733336
0.005706667 -0.1899505 0.85600007
-0.0013587303 -0.1817981 0.85600013
-0.0062546036 -0.17595622 0.85666674
-0.0032638097 -0.17874573 0.85700005
-0.052990481 -0.17364572 0.85600007
-0.010598096 -0.17120001 0.85600007
-0.0081580952 -0.17214859 0.85666668
-0.049729526 -0.16549334 0.85600007
-0.012241906 -0.16691145 0.85699999
-0.0089885723 -0.16914858 0.85800004
-0.052297145 -0.16342857 0.85800004
-0.047817912 -0.16205792 0.85680008
-0.044838097 -0.16060191 0.85600007
-0.020380953 -0.16060191 0.85600007
-0.017126035 -0.1614797 0.85633337
-0.013074286 -0.16424572 0.85800004
-0.043308575 -0.15934287 0.85800004
-0.03671556 -0.15583177 0.85666674
-0.02690286 -0.15571049 0.85600013
-0.022037145 -0.15725176 0.85700005
-0.017486859 -0.15868917 0.85799998
-0.035654604 -0.15377524 0.85733336
-0.031636432 -0.15287502 0.85724998
-0.027292574 -0.1537863 0.85799998
0.0081904763 -0.19083811 0.86000001
0.0041000005 -0.18695906 0.86100006
0.0071447627 -0.18821636 0.86085725
-0.00081904768 -0.18100953 0.86000001
0.0012309526 -0.18337572 0.86150002
-0.0024587305 -0.17766701 0.86100006
-0.0057377778 -0.17295176 0.86066669
-0.0035574608 -0.17431557 0.86200011
-0.010655874 -0.16639429 0.86066675
-0.0076558739 -0.16816446 0.86133337
-0.050839052 -0.16071907 0.86100006
-0.048788577 -0.16112858 0.861
-0.012952382 -0.16182934 0.86080009
-0.051279526 -0.15835096 0.86150002
-0.046357621 -0.15876144 0.86150002
-0.041820001 -0.15689239 0.86100006
-0.020476192 -0.15643811 0.86000001
-0.017220002 -0.15634573 0.86100006
-0.013940001 -0.15907906 0.86100006
-0.037597559 -0.15237688 0.86085725
-0.033580955 -0.15152381 0.86000001
-0.026829936 -0.15125553 0.86114293
-0.022136722 -0.15331896 0.86088896
-0.018881906 -0.15269715 0.86200005
-0.036080003 -0.14923906 0.86100006
-0.031989288 -0.14866692 0.86125004
-0.027912382 -0.14777145 0.86200005
0.0041190479 -0.18535715 0.86500007
0.007774286 -0.18670498 0.8682
0.0029484357 -0.18212613 0.86642867
0.0057933335 -0.18455906 0.86900002
-0.00082380959 -0.17629525 0.86500007
0.0016517462 -0.17745906 0.86666673
-0.0022664287 -0.17216881 0.86600012
0.0013793651 -0.17407589 0.86900008
-0.0067579052 -0.16665088 0.86540002
-0.0034691431 -0.16802612 0.86740011
-0.010717778 -0.16241431 0.86566675
-0.0076411911 -0.16296501 0.86750007
-0.050368574 -0.15771145 0.86700004
-0.04675867 -0.15712288 0.86740011
-0.042838097 -0.15570001 0.86500007
-0.015652383 -0.15570001 0.86500007
-0.012727429 -0.15818726 0.86780006
-0.0091038104 -0.15973049 0.86900002
-0.04551905 -0.15476477 0.86900002
-0.042145927 -0.15287377 0.86766666
-0.022242859 -0.15075716 0.86500013
-0.017330477 -0.15268669 0.86660004
-0.041380957 -0.14979906 0.86900002
-0.037394699 -0.14733049 0.86700016
-0.032128572 -0.1462262 0.86500007
-0.02653848 -0.1468703 0.86540002
-0.022513574 -0.1480931 0.86750007
-0.019035239 -0.14897144 0.86900002
-0.036233336 -0.1434425 0.86860007
-0.032244552 -0.14303039 0.86811113
-0.027538368 -0.14360341 0.86871439
-0.023173336 -0.14483334 0.86900002
0.0041476195 -0.18000668 0.87100005
0.0076231179 -0.18241967 0.87172747
0.0041476199 -0.17668858 0.87100005
0.0074828574 -0.17709431 0.87300009
-0.00083142862 -0.17044286 0.87300003
0.0024917463 -0.17295018 0.87166679
0.0074828579 -0.17376858 0.87300003
-0.0033209526 -0.1660962 0.87200004
-0.0063641276 -0.16077366 0.87166679
-0.0041571432 -0.16379143 0.87300003
-0.051430479 -0.15678 0.87100005
-0.048426352 -0.15579271 0.87166679
-0.012116 -0.1565202 0.87140006
-0.0074758735 -0.1586816 0.87233341
-0.046855923 -0.15218928 0.87185729
-0.043964766 -0.15014382 0.87100005
-0.016175715 -0.15138809 0.87100005
-0.013272382 -0.15346192 0.87100005
-0.042328149 -0.14690024 0.87144458
-0.038987622 -0.14516668 0.87100005
-0.020738097 -0.14599621 0.87100005
-0.017723177 -0.14704984 0.87233341
-0.041294288 -0.14328288 0.87300003
-0.037787147 -0.14201143 0.87200004
-0.032351434 -0.14018953 0.87100005
-0.027054289 -0.14091752 0.87140006
-0.022656195 -0.14246164 0.87185729
-0.019122858 -0.14383715 0.87300003
-0.032425717 -0.13884859 0.87300003
-0.028268574 -0.13884859 0.87300003
0.0025028572 -0.17195953 0.87650001
0.0079166666 -0.17208335 0.87500006
-0.0012514286 -0.16736907 0.87650001
-0.0036187302 -0.16287145 0.87700003
-0.051756673 -0.15610048 0.87650001
-0.010833334 -0.15583335 0.87500006
-0.0086215883 -0.15712255 0.87600011
-0.0041809524 -0.15971239 0.87800002
-0.049335241 -0.15218668 0.87800002
-0.012849334 -0.15237582 0.87620014
-0.0091980956 -0.15469524 0.87800002
-0.046826672 -0.14842382 0.87800002
-0.015860477 -0.14691667 0.87650001
-0.013797143 -0.14842382 0.87800002
-0.046826668 -0.14466096 0.87800002
-0.042921912 -0.14245868 0.87680006
-0.038333334 -0.14083335 0.87500006
-0.021666668 -0.14083335 0.87500006
-0.017551431 -0.14291798 0.87757158
-0.040973336 -0.13964382 0.87800002
-0.03702921 -0.13836986 0.87700003
-0.032611433 -0.13713524 0.87800014
-0.027564764 -0.13836986 0.87700003
-0.022549525 -0.13948478 0.87700003
-0.019232383 -0.13964382 0.87800002
0.0029357146 -0.17064907 0.88050008
0.0072152386 -0.17095849 0.88080007
-0.00083809532 -0.16510478 0.88000005
0.002519577 -0.16707535 0.88155556
0.0073500006 -0.16737002 0.88200003
-0.0016765081 -0.16181366 0.88033336
0.0025238097 -0.16228297 0.88288891
0.0067352382 -0.16332954 0.88400006
-0.051961906 -0.15504763 0.88000005
-0.00653981 -0.15645908 0.88040012
-0.0027297623 -0.15733358 0.88225007
0.00084190484 -0.15912001 0.88400006
-0.05198127 -0.15175208 0.88033336
-0.049447622 -0.15001906 0.88000005
-0.01089524 -0.15169525 0.88000005
-0.0077604773 -0.15207668 0.88100004
-0.0042047622 -0.1530543 0.88300002
-0.052119371 -0.14710987 0.88266671
-0.048190478 -0.14750478 0.88000005
-0.011758732 -0.14699875 0.88200015
-0.009250477 -0.14800668 0.88300002
-0.047655515 -0.14296436 0.88228583
-0.044469528 -0.14095905 0.88100004
-0.015941907 -0.14095905 0.88100004
-0.013714604 -0.14274383 0.88166666
-0.04228064 -0.13803811 0.88199997
-0.038993809 -0.13668621 0.88050008
-0.027453065 -0.13630641 0.88114291
-0.022684446 -0.13695282 0.88222218
-0.017920638 -0.13831811 0.88200009
-0.014312382 -0.1389143 0.88400006
-0.037250374 -0.13284403 0.88222229
-0.032747306 -0.13266668 0.88166678
-0.028322544 -0.13263938 0.88333338
-0.023573335 -0.13386287 0.88400006
-0.034518097 -0.12881143 0.88400006
0.0025400002 -0.16002001 0.88900006
0.0067580957 -0.16134953 0.88700002
-0.00084476196 -0.15628096 0.88700002
0.00084571436 -0.15730192 0.88800001
-0.0059133335 -0.15121239 0.88700002
-0.0021990479 -0.15344667 0.8882001
0.00084666675 -0.15494001 0.88900006
-0.0076157148 -0.14850572 0.88850009
-0.051569209 -0.14287081 0.8876667
-0.049315244 -0.14174446 0.8876667
-0.011410478 -0.14242287 0.88750005
-0.0093133338 -0.14393334 0.88900006
-0.046461906 -0.13938573 0.88700002
-0.043646034 -0.13713303 0.88700002
-0.017326668 -0.13650572 0.88750005
-0.013026478 -0.13822041 0.88819999
-0.042286672 -0.13277715 0.88800013
-0.039703812 -0.13178286 0.88700002
-0.026750796 -0.13150129 0.88700002
-0.022580819 -0.1322298 0.88757151
-0.018894289 -0.13395461 0.88833332
-0.041486673 -0.12784669 0.88900012
-0.038072277 -0.12774995 0.88833338
-0.032762386 -0.12745428 0.88775009
-0.027925188 -0.12778232 0.88855553
-0.024553334 -0.12954001 0.88900006
-0.038100004 -0.12446001 0.88900006
-0.033020005 -0.12446001 0.88900012
-0.029633336 -0.12446001 0.88900006
0.0042428575 -0.16038001 0.89100003
0.0067885718 -0.16038001 0.89100003
0.0033942861 -0.15698573 0.89099997
0.0066371425 -0.15775029 0.89340001
-0.0025485717 -0.15130001 0.89250004
0.0025542858 -0.15410858 0.89400005
0.0059600002 -0.15410858 0.89400005
-0.0068000006 -0.14704859 0.89250004
-0.004257143 -0.149 0.89400005
-0.050065719 -0.14001429 0.89100003
-0.048368573 -0.14001429 0.89100003
-0.0087980963 -0.14218859 0.89400005
-0.047478288 -0.13698688 0.89340001
-0.04497429 -0.13662001 0.89100003
-0.016177144 -0.13537715 0.89400005
-0.012345715 -0.13708001 0.89400005
-0.046363577 -0.13143358 0.89325005
-0.04497429 -0.13322572 0.89100003
-0.021285716 -0.13026857 0.89400005
-0.018973336 -0.1316743 0.89200008
-0.045977145 -0.12771431 0.89400005
-0.043313574 -0.12739071 0.89175004
-0.023161428 -0.12749858 0.89250004
-0.019582858 -0.12856573 0.89400005
-0.041700002 -0.12291063 0.8935715
-0.03766191 -0.12317906 0.89200008
-0.033150006 -0.12239859 0.8925001
-0.027837144 -0.12303572 0.89250004
-0.024691431 -0.12345715 0.89400005
-0.00085333339 -0.15104 0.89600003
0.0025624493 -0.15240356 0.89685714
0.0059733335 -0.15274668 0.89600003
-0.0059733335 -0.14592001 0.89600003
-0.0029047623 -0.14816573 0.89720005
0.00085523818 -0.14966668 0.89800006
-0.053231116 -0.14147493 0.89666671
-0.0066613341 -0.14229333 0.89680004
-0.055590481 -0.13598287 0.89800006
-0.052144554 -0.13762562 0.89755565
-0.048640002 -0.13738668 0.89600003
-0.011946667 -0.13568 0.89600003
-0.0087192385 -0.13797335 0.89760011
-0.057019599 -0.13198885 0.89742869
-0.052157041 -0.13252869 0.89777786
-0.048640005 -0.13226667 0.89600009
-0.016896002 -0.13192534 0.89600003
-0.012818202 -0.13246265 0.89733344
-0.057300955 -0.12914096 0.89800012
-0.051741906 -0.12871334 0.89800006
-0.047414288 -0.12686287 0.89700001
-0.022186669 -0.12544 0.89600003
-0.017725239 -0.12707476 0.89700007
-0.014539049 -0.12914096 0.89800006
-0.046114292 -0.1221162 0.89666671
-0.041813336 -0.12032001 0.89600009
-0.037546668 -0.12032001 0.89600003
-0.033280004 -0.12032001 0.89600009
-0.028160002 -0.12032001 0.89600009
-0.022832621 -0.12184691 0.89624995
-0.018986287 -0.12264115 0.89800006
-0.04190667 -0.11738145 0.89800012
-0.036968097 -0.11688764 0.89750004
-0.032813065 -0.11722396 0.89657152
-0.028201485 -0.1170798 0.89733344
-0.023946669 -0.11802287 0.89800006
-0.037345402 -0.11317652 0.89800012
-0.032499049 -0.11374667 0.89800006
-0.028222859 -0.11374667 0.89800006
0.0034323812 -0.15016668 0.90100002
0.0060066669 -0.15016668 0.90100002
-0.0020025398 -0.14621589 0.90133333
0.0022344764 -0.14796022 0.90220004
0.0060200002 -0.14878 0.90300006
-0.0037203177 -0.14283589 0.90166676
-0.0066992389 -0.13724402 0.9018001
-0.0090195248 -0.13315144 0.90200007
-0.057063337 -0.12742715 0.90100002
-0.052372858 -0.1270681 0.90150005
-0.04891143 -0.12614001 0.90100002
-0.012663572 -0.12771168 0.90150005
-0.0094600003 -0.12986001 0.90300006
-0.051811114 -0.12308508 0.90166664
-0.048911434 -0.12270763 0.90100002
-0.016741905 -0.12234572 0.90150005
-0.01460381 -0.12370192 0.90200007
-0.047034055 -0.11790406 0.90200007
-0.04204667 -0.11584286 0.90100002
-0.02275143 -0.11719524 0.90150005
-0.019780001 -0.11954001 0.90300006
-0.046119686 -0.11372223 0.90233344
-0.042098943 -0.11254785 0.90211117
-0.036653019 -0.11196128 0.90200013
-0.031534564 -0.11202545 0.9018572
-0.027323622 -0.11221544 0.90220004
-0.024348257 -0.11372223 0.90233344
-0.036980003 -0.10922001 0.90300006
-0.033540003 -0.10922001 0.90300006
0.0025885717 -0.14639749 0.90600008
0.0060533336 -0.1478743 0.90800005
-0.0022432383 -0.14205697 0.90620005
0.00086476194 -0.14268573 0.90800005
-0.0060333339 -0.13531905 0.90500003
-0.0043238099 -0.13922668 0.90800005
-0.0072063501 -0.13230859 0.90800011
-0.057747621 -0.12670001 0.90500003
-0.054300003 -0.12670001 0.90500003
-0.0094809532 -0.12842382 0.90500003
-0.056598417 -0.12440159 0.90500009
-0.05368134 -0.12168743 0.90620005
-0.012446669 -0.12312206 0.90585726
-0.051265717 -0.11754572 0.90620005
-0.049128573 -0.11635715 0.90500003
-0.021547621 -0.11635715 0.90500003
-0.017783526 -0.11741134 0.90650004
-0.01468881 -0.11750834 0.90725005
-0.051020958 -0.11328382 0.90800005
-0.048006512 -0.11239636 0.90550011
-0.022859763 -0.1130031 0.90575004
-0.019269207 -0.1136089 0.90600008
-0.046621431 -0.10964334 0.90650004
-0.042087857 -0.10813072 0.90650004
-0.037123337 -0.10705191 0.9065001
-0.031714648 -0.1076544 0.90612513
-0.027353652 -0.1085508 0.90700006
0.0043404764 -0.14583859 0.91150004
0.0083034029 -0.14660302 0.9108572
-0.00086666673 -0.14126667 0.91000003
0.0026047621 -0.14431271 0.91100001
0.0075744223 -0.1429064 0.91257149
-0.0028922223 -0.13802715 0.91149998
0.0069561908 -0.13999334 0.91300005
-0.0060666669 -0.13173334 0.91000003
-0.0043476196 -0.13303716 0.91300005
-0.0081558097 -0.12791583 0.91120005
-0.05651905 -0.12260287 0.91300005
-0.012133334 -0.12046667 0.91000003
-0.0095647629 -0.12347239 0.91300005
-0.05382048 -0.11805953 0.91150004
-0.012321524 -0.11750211 0.91120005
-0.051301908 -0.11216858 0.91300005
-0.022570478 -0.11111477 0.91150004
-0.018224003 -0.1119463 0.91120005
-0.014781905 -0.11390763 0.91300005
0.0026156465 -0.14158873 0.91528577
-0.0013080953 -0.13652715 0.91600001
0.002037778 -0.13740444 0.917
0.0069714291 -0.13855715 0.91500002
-0.0015697144 -0.13210686 0.9162001
0.0026200004 -0.13274668 0.917
0.0061133336 -0.13362001 0.91700006
-0.0066853976 -0.12703016 0.9156667
-0.0031146943 -0.12821893 0.9158572
-0.0075574606 -0.12296097 0.9156667
-0.0034933337 -0.12401334 0.91700006
-0.054028578 -0.11677144 0.91500002
-0.011328572 -0.11590001 0.91500002
-0.0096066669 -0.11877334 0.91700006
-0.013089842 -0.11286857 0.91633338
0.0037968257 -0.13697779 0.92000002
0.0061333338 -0.13668573 0.92000002
-0.00087619055 -0.12617144 0.92000002
0.0014603175 -0.12821588 0.92000002
-0.0067219054 -0.12070921 0.92066669
-0.0043857144 -0.12104477 0.921
0.00088095246 -0.13126191 0.92500007
0.00088285719 -0.12624858 0.92700005
0.0035428572 -0.13197143 0.93000007
