# .PCD v0.7 - Point Cloud Data file format
VERSION 0.7
FIELDS x y z
SIZE 4 4 4
TYPE F F F
COUNT 1 1 1
WIDTH 742
HEIGHT 1
VIEWPOINT 0 0 0 1 0 0 0
POINTS 742
DATA ascii
0.10212223 -0.14162445 0.70700002
0.10811048 -0.1364305 0.70800006
0.11170667 -0.13598096 0.70800006
0.11800001 -0.13553144 0.708
0.12204573 -0.13553144 0.708
0.13553144 -0.13553144 0.708
0.10906573 -0.13266572 0.70800006
0.11242314 -0.13250887 0.70770007
0.11725612 -0.13275662 0.70758343
0.12259024 -0.13269407 0.70725
0.12761934 -0.13260642 0.7075001
0.13241914 -0.13264422 0.70758337
0.13726531 -0.13264166 0.70800006
0.11335087 -0.12898478 0.7076
0.11717188 -0.12846859 0.70738465
0.1229416 -0.12855428 0.70733333
0.12750873 -0.12812984 0.70723081
0.13179176 -0.12797129 0.70783341
0.12744002 -0.12474287 0.70800006
0.10396715 -0.14134049 0.71350002
0.10738613 -0.14231078 0.71300012
0.11242594 -0.14138128 0.71255559
0.11755763 -0.14134143 0.71350002
0.12230551 -0.14164478 0.713889
0.12782201 -0.1418283 0.71390009
0.13283448 -0.14126459 0.71380007
0.13687509 -0.14118049 0.71383333
0.14144 -0.14076 0.71400005
0.10304226 -0.1368769 0.71309102
0.10663944 -0.13862078 0.71140003
0.11340144 -0.13775003 0.71016669
0.11779074 -0.13761985 0.71118188
0.12251362 -0.13779254 0.71071428
0.12736253 -0.13752636 0.71133345
0.13258564 -0.13739116 0.71127278
0.13767493 -0.13812719 0.71288896
0.14140715 -0.1380081 0.71383333
0.10373953 -0.13318525 0.71350002
0.10661031 -0.13223282 0.71136367
0.13770859 -0.1321045 0.71028578
0.14016858 -0.13475144 0.71100003
0.10404 -0.12988001 0.71400005
0.10910168 -0.12881453 0.71375006
0.1122319 -0.12713526 0.71133345
0.11784846 -0.12577552 0.71057147
0.1222958 -0.12616219 0.71057153
0.12527144 -0.12527144 0.71100003
0.13320954 -0.12577143 0.71000004
0.13751423 -0.1276522 0.71190912
0.11396002 -0.12347525 0.71366668
0.11765797 -0.12235642 0.71284628
0.12222939 -0.12243699 0.71330786
0.12737706 -0.12293533 0.71245456
0.13250715 -0.12367287 0.71350002
0.13539176 -0.12363873 0.71200007
0.12036001 -0.11900001 0.71400005
0.10804287 -0.15522477 0.71800005
0.11161619 -0.15544096 0.71900004
0.10744203 -0.15260795 0.71855557
0.11220314 -0.15211497 0.71900004
0.11640953 -0.15133239 0.71900004
0.1081343 -0.14810658 0.7181111
0.11259443 -0.14810422 0.71899998
0.11748926 -0.14749892 0.71842855
0.1231826 -0.14643404 0.71800011
0.12730928 -0.14707048 0.71763635
0.13263415 -0.14726257 0.71815383
0.13814107 -0.146496 0.71766669
0.14252603 -0.14708859 0.71833336
0.11327572 -0.14398238 0.71650004
0.11736858 -0.14398238 0.71650004
0.12297016 -0.14388192 0.71600002
0.1261524 -0.14388192 0.71600002
0.13215315 -0.14360915 0.71600002
0.13819937 -0.14342731 0.71600002
0.14228553 -0.14337657 0.71620005
0.10174572 -0.13862 0.71700001
0.10645191 -0.13033476 0.71650004
0.10811634 -0.12804261 0.71785718
0.11115048 -0.1261524 0.71600002
0.10994001 -0.12496287 0.71700001
0.11228456 -0.12276223 0.71744448
0.11524191 -0.12069715 0.71600002
0.12410668 -0.12069715 0.71600002
0.12751621 -0.12069716 0.71600002
0.13211066 -0.12186017 0.71750009
0.11435524 -0.11983334 0.71900004
0.11757382 -0.11894025 0.71775001
0.12281676 -0.11852314 0.71700007
0.12679112 -0.11880922 0.71833342
0.11268573 -0.15565716 0.72000003
0.11736445 -0.15580128 0.72066677
0.12248239 -0.15619764 0.72250009
0.12600859 -0.15630573 0.72300005
0.1125943 -0.15373716 0.72000003
0.11764024 -0.15296787 0.72025013
0.12222715 -0.1524424 0.72100002
0.12756225 -0.15219246 0.72121441
0.13261005 -0.1527252 0.72145462
0.13706419 -0.15218566 0.72153854
0.1410286 -0.1506286 0.72000003
0.12182858 -0.14834288 0.72000003
0.13714287 -0.14880002 0.72000003
0.10744192 -0.12665334 0.72040004
0.10908629 -0.12284135 0.7222001
0.111164 -0.12133124 0.72140008
0.13390002 -0.12085239 0.72100008
0.13592002 -0.12079048 0.72200006
0.11369213 -0.11820341 0.72100002
0.11744684 -0.1167592 0.72116679
0.12217756 -0.11668042 0.72128588
0.12799715 -0.11782344 0.72180003
0.13251609 -0.11876394 0.72187507
0.13647488 -0.11802115 0.72300005
0.1184343 -0.11499143 0.72300005
0.12187716 -0.11499144 0.72300005
0.12290477 -0.1567381 0.72500002
0.12819842 -0.15719843 0.72500002
0.13096033 -0.15627779 0.72500008
0.10409501 -0.12622787 0.72624999
0.10602453 -0.12640025 0.72525001
0.10432635 -0.12375747 0.72866672
0.10717802 -0.12253404 0.72690916
0.10869779 -0.11840446 0.72800004
0.11193274 -0.11683594 0.72590905
0.11600001 -0.11530953 0.72500002
0.1249762 -0.11530953 0.72500002
0.12808515 -0.11592553 0.72540009
0.13218977 -0.11646476 0.72575003
0.13593684 -0.11608794 0.72700012
0.11328594 -0.1128235 0.72777784
0.11756565 -0.11230139 0.72700006
0.12232529 -0.11199094 0.72692311
0.12691958 -0.11320129 0.72822225
0.13122001 -0.11455715 0.72900003
0.13608001 -0.11455715 0.72900003
0.12150001 -0.10900287 0.72900003
0.10382699 -0.12194382 0.73166674
0.10526858 -0.12130287 0.73200005
0.1041581 -0.1188381 0.73400003
0.10639763 -0.1168561 0.73210001
0.10814381 -0.11288953 0.73260003
0.11151159 -0.11210831 0.73114288
0.1281431 -0.11142834 0.73125005
0.13255334 -0.11254953 0.73142868
0.13670222 -0.11228922 0.73233336
0.10975049 -0.10975049 0.73400003
0.11287668 -0.10869025 0.73275
0.11725818 -0.10721894 0.73199999
0.12252599 -0.10729594 0.73157144
0.12718986 -0.10796635 0.73244452
0.13176 -0.10945144 0.73200005
0.1188381 -0.1041581 0.73400003
0.12093525 -0.1041581 0.73400003
0.10181402 -0.1214758 0.73728579
0.10308456 -0.11744434 0.73744446
0.10428017 -0.11295001 0.73816675
0.10685065 -0.11105922 0.73650002
0.13248001 -0.11004953 0.73600006
0.13668573 -0.11004953 0.73600006
0.10486762 -0.10909048 0.73900002
0.10774858 -0.10774858 0.73825002
0.1116643 -0.10675596 0.73625004
0.12871239 -0.1062662 0.73650002
0.13276 -0.10747049 0.73755556
0.13681227 -0.10765679 0.73762506
0.1400581 -0.10768286 0.73900002
0.10909048 -0.10416381 0.73900002
0.11243703 -0.1025987 0.73787516
0.11704709 -0.10224814 0.7367273
0.12237948 -0.10221539 0.73728585
0.12726249 -0.10290867 0.7375834
0.13184699 -0.10392922 0.73900002
0.11331335 -0.099237159 0.73900002
0.1175362 -0.099237159 0.73900002
0.12246287 -0.099237151 0.73900002
0.10114413 -0.11811875 0.74266672
0.10286747 -0.1125192 0.74150008
0.10343191 -0.10790715 0.7421667
0.10604382 -0.10604446 0.74066675
0.13796763 -0.10550382 0.74100006
0.14043716 -0.1058562 0.74100006
0.10402001 -0.10331239 0.74300003
0.10719222 -0.10231292 0.74181819
0.12897144 -0.10078096 0.74000001
0.13302763 -0.10215144 0.74100006
0.13759105 -0.10238001 0.74240011
0.14078954 -0.10197715 0.74100006
0.10821652 -0.099729531 0.74266672
0.11236191 -0.098696515 0.74200004
0.11734644 -0.09755215 0.74225003
0.12242929 -0.098048329 0.74200004
0.12745444 -0.098793477 0.74171436
0.13220668 -0.099684767 0.74233341
0.13704222 -0.099774294 0.74300003
0.14152381 -0.099774294 0.74300003
0.10075238 -0.11565239 0.74500006
0.10151429 -0.11291239 0.74800003
0.10224821 -0.10708363 0.74660003
0.10218448 -0.10196807 0.74630767
0.10571905 -0.10004286 0.74500006
0.13835715 -0.10004286 0.74500006
0.10321788 -0.097523503 0.74744451
0.1075803 -0.097488873 0.74610013
0.1122089 -0.096889324 0.74622232
0.11785857 -0.095850006 0.74550003
0.12274762 -0.095785722 0.74500006
0.12745947 -0.096633345 0.74528581
0.1325435 -0.097449951 0.746889
0.13668621 -0.098954767 0.74750006
0.10400762 -0.094746672 0.74800003
0.10685715 -0.094746672 0.74800003
0.1125562 -0.094746672 0.74800003
0.11772763 -0.093754612 0.74766678
0.12221927 -0.093740538 0.74755561
0.12707524 -0.094327144 0.74750006
0.13036573 -0.094746672 0.74800003
0.098701909 -0.11515334 0.75100005
0.09968286 -0.11259144 0.75300002
0.10113858 -0.11257572 0.75050002
0.099369533 -0.10711315 0.75280005
0.10080381 -0.10795303 0.75066674
0.098450884 -0.10213279 0.75142866
0.10071429 -0.105 0.75000006
0.098258972 -0.097608231 0.75209099
0.101 -0.096714295 0.75000006
0.10928572 -0.095000006 0.75000006
0.13285714 -0.095000006 0.75000006
0.13757144 -0.096851088 0.75127274
0.14108953 -0.099550486 0.75200003
0.099082671 -0.092773341 0.75280005
0.10238476 -0.092360005 0.75177777
0.10723746 -0.092223816 0.75066674
0.11217609 -0.092169739 0.75022227
0.11674605 -0.091825403 0.75000006
0.12242859 -0.091285728 0.75000006
0.12759905 -0.091978863 0.75099999
0.13255461 -0.092428461 0.75233334
0.13643619 -0.093426041 0.75266671
0.10255143 -0.089642867 0.75300002
0.10824935 -0.087915331 0.75272745
0.11264515 -0.087850861 0.7524001
0.11738472 -0.087571897 0.7524668
0.12264408 -0.08760114 0.75227278
0.12711748 -0.089125089 0.75266671
0.094569527 -0.11333905 0.75800002
0.097564004 -0.11269677 0.75660002
0.097546205 -0.10739826 0.75683331
0.094569527 -0.10178858 0.75800002
0.096385911 -0.10330286 0.75640005
0.14365906 -0.10034477 0.75800002
0.14582478 -0.10034477 0.75800002
0.09384229 -0.097014107 0.7568
0.095920973 -0.097359054 0.75500005
0.14236057 -0.097067766 0.75657147
0.093602456 -0.092573337 0.75685716
0.096678644 -0.092569537 0.75514293
0.13760842 -0.092297956 0.75516671
0.14189759 -0.092477322 0.75699997
0.094046675 -0.088032708 0.75766671
0.09745077 -0.088030986 0.75623089
0.1021716 -0.087062076 0.75550008
0.10627525 -0.086717151 0.75500005
0.11217143 -0.08556667 0.75500005
0.12080001 -0.08556667 0.75500005
0.12750123 -0.086610071 0.75514293
0.13258953 -0.087671816 0.75580019
0.13779287 -0.088012874 0.75750005
0.14077143 -0.088072389 0.75800002
0.098900959 -0.084462866 0.75800002
0.10284573 -0.0829188 0.75709093
0.10740992 -0.082177393 0.7569167
0.1124409 -0.082165785 0.75681257
0.11743715 -0.082131751 0.75650001
0.12228628 -0.082448453 0.75657147
0.12759049 -0.082895666 0.75688893
0.13271366 -0.082944773 0.75733328
0.13723432 -0.083552003 0.75760001
0.14077143 -0.084462866 0.75800002
0.093740009 -0.11118001 0.76300001
0.095730007 -0.11168668 0.7615
0.093955822 -0.10731734 0.76240003
0.095730007 -0.10878572 0.7615
0.093117796 -0.10247145 0.76188898
0.089380004 -0.097373337 0.76300001
0.091715105 -0.098141506 0.76171434
0.14710604 -0.097829856 0.76088899
0.088653341 -0.092286676 0.76300001
0.091274656 -0.092724174 0.76062506
0.14403811 -0.0904762 0.76000005
0.14727578 -0.092666678 0.76061547
0.15022287 -0.092163816 0.76200002
0.088895559 -0.088895559 0.76300001
0.091910772 -0.086828865 0.76230001
0.14327525 -0.087122627 0.76075006
0.1472141 -0.087543063 0.76220006
0.15042001 -0.087926678 0.76300001
0.094279528 -0.084126197 0.7615
0.097454861 -0.082702465 0.7617501
0.1019541 -0.081070296 0.76140004
0.12377144 -0.080342859 0.76000005
0.12747525 -0.080395713 0.76050001
0.13263145 -0.080448583 0.76100004
0.13777734 -0.081445917 0.76220006
0.14147145 -0.082630478 0.76275003
0.10324915 -0.078853719 0.76240003
0.10792202 -0.077777028 0.76166672
0.1122397 -0.077480949 0.76033342
0.11732122 -0.077489451 0.76041675
0.12255652 -0.077593125 0.76144451
0.12725697 -0.07777486 0.76180011
0.13209558 -0.077868678 0.7625556
0.13697667 -0.07884334 0.76300001
0.10972667 -0.07484667 0.76300001
0.112924 -0.074265338 0.76300001
0.11740859 -0.074223816 0.76300007
0.12280668 -0.07484667 0.76300001
0.12644002 -0.07484667 0.76300001
0.092528574 -0.11001429 0.76500005
0.089907154 -0.10671953 0.76750004
0.091919057 -0.10724001 0.76600003
0.084114291 -0.10020572 0.76800001
0.088271298 -0.10161172 0.76600009
0.091071434 -0.10345715 0.76500005
0.083420001 -0.096862294 0.76700002
0.086767249 -0.097268201 0.76559997
0.082617864 -0.09246739 0.76600003
0.085971437 -0.092528574 0.76500005
0.078685716 -0.08524286 0.76500005
0.082355954 -0.087456435 0.76525009
0.087088145 -0.087087706 0.76546156
0.14862859 -0.08524286 0.76500005
0.15081429 -0.08524286 0.76500005
0.078224637 -0.082805857 0.76557153
0.082146198 -0.082389683 0.76783341
0.088459171 -0.082976311 0.76762503
0.09240596 -0.082199767 0.76550001
0.096171439 -0.080871433 0.76500005
0.14440288 -0.082037151 0.76500005
0.14815949 -0.082471646 0.7663334
0.15130715 -0.083329052 0.76750004
0.089965723 -0.07972572 0.76800001
0.09301357 -0.078394048 0.76750004
0.097556368 -0.078190312 0.76600009
0.10218553 -0.076346673 0.76640004
0.10680858 -0.075625718 0.76500005
0.12895715 -0.075042859 0.76500005
0.13308573 -0.075528577 0.76500005
0.13801715 -0.076391436 0.76575011
0.14222685 -0.077311277 0.76583338
0.14639752 -0.078041792 0.76762503
0.10308604 -0.073842227 0.7676667
0.1078897 -0.072819218 0.76716673
0.11208288 -0.071948767 0.76620001
0.11735176 -0.071430802 0.76533335
0.12231767 -0.072328582 0.76572734
0.12750743 -0.07215029 0.76680005
0.13172954 -0.072803184 0.76700008
0.13720605 -0.073842227 0.7676667
0.1426286 -0.073874287 0.76800001
0.11373716 -0.069120005 0.76800001
0.11768334 -0.068709061 0.76750004
0.12214857 -0.069485717 0.76800001
0.1250743 -0.069485717 0.76800001
0.087453656 -0.10631748 0.77166671
0.083917461 -0.10202287 0.77066672
0.087356582 -0.10350744 0.77080005
0.082866669 -0.099000007 0.77000004
0.077733338 -0.081400007 0.77000004
0.083707623 -0.082605712 0.77100003
0.086431243 -0.081734858 0.77039999
0.1527812 -0.080796435 0.77125001
0.1553362 -0.080244765 0.77300006
0.082859538 -0.077862762 0.77130002
0.08776889 -0.078133553 0.77155554
0.091785453 -0.076469533 0.77100009
0.097533345 -0.075533345 0.7700001
0.14859667 -0.076682389 0.7705
0.15164974 -0.077578209 0.77088886
0.1553362 -0.078772388 0.77300006
0.093803339 -0.073939048 0.77250004
0.097743817 -0.072756082 0.77166671
0.10245123 -0.072131641 0.77022225
0.10682224 -0.071622238 0.7700001
0.13382731 -0.071683817 0.77066672
0.13734113 -0.072463974 0.77116668
0.14232922 -0.072266355 0.77166671
0.14680223 -0.073032379 0.77200007
0.15072381 -0.07425905 0.77200001
0.098649532 -0.069938101 0.77300006
0.10238048 -0.068927854 0.77200001
0.10772973 -0.068340205 0.77160001
0.11211539 -0.067855239 0.77085716
0.11760072 -0.06614881 0.77175009
0.1228893 -0.067045234 0.77150005
0.12746541 -0.068257786 0.77066666
0.13193826 -0.06891159 0.77250004
0.084880956 -0.076023817 0.77500004
0.087095246 -0.076023817 0.77500004
0.083620004 -0.074000001 0.77700001
0.087481596 -0.072678551 0.77713341
0.09225639 -0.071999811 0.7762
0.095788263 -0.070671439 0.77566671
0.13848287 -0.070533343 0.7755
0.14263716 -0.070578583 0.77600002
0.14830872 -0.071461909 0.77585721
0.15134859 -0.070480958 0.77900004
0.089275882 -0.068502545 0.77900004
0.092657469 -0.068196833 0.77833337
0.097653531 -0.067617148 0.7768001
0.10256732 -0.066323817 0.77666676
0.10686191 -0.066186666 0.77650005
0.11226144 -0.065732867 0.77550006
0.12178572 -0.06569048 0.77500004
0.12769048 -0.06569048 0.77500004
0.13278288 -0.066760011 0.77600002
0.13721715 -0.067959055 0.77775002
0.14232382 -0.0681962 0.77833337
0.14763907 -0.068997145 0.77900004
0.15134859 -0.068255246 0.77900004
0.10322328 -0.063414834 0.77814299
0.10747262 -0.063185237 0.7782501
0.11267303 -0.063006669 0.77833343
0.11781143 -0.063720956 0.77800006
0.12225763 -0.063164525 0.778
0.12690039 -0.064116381 0.77739996
0.13268858 -0.064490482 0.77833337
0.13576858 -0.064545721 0.77900004
0.083589844 -0.07118731 0.78133339
0.085428581 -0.07057143 0.78000003
0.083520964 -0.069351435 0.78300005
0.087099373 -0.067991436 0.78166676
0.092288099 -0.066241428 0.78149998
0.095828578 -0.066114292 0.78000003
0.13817143 -0.066114292 0.78000003
0.14262858 -0.066485718 0.78000003
0.14756382 -0.066823684 0.78085721
0.092966199 -0.063903339 0.78250003
0.097508788 -0.063266255 0.78155565
0.10215239 -0.061774287 0.78150004
0.10778333 -0.060581431 0.78049999
0.11217143 -0.060171437 0.78000009
0.1177758 -0.060852248 0.78057152
0.12257144 -0.060542863 0.78000003
0.12733644 -0.06152929 0.78075004
0.13227221 -0.06190649 0.78145462
0.13769375 -0.0626541 0.78320003
0.1425329 -0.063429847 0.78355557
0.14756675 -0.063165024 0.78363639
0.10378668 -0.058986671 0.78400004
0.10683938 -0.058388576 0.78266668
0.11283144 -0.058462858 0.78200006
0.11728457 -0.058567625 0.78240007
0.12221763 -0.05850048 0.78250003
0.12768 -0.058986675 0.7840001
0.13216001 -0.058986675 0.7840001
0.13514668 -0.058986671 0.78400004
0.14858668 -0.058986671 0.78400004
0.078524292 -0.068004295 0.78900003
0.082322717 -0.067207493 0.78785717
0.087526284 -0.065908767 0.78820008
0.083220728 -0.062556438 0.78900003
0.087894477 -0.063254103 0.78880006
0.092026941 -0.061814431 0.78742862
0.097374775 -0.060672861 0.78650004
0.10105715 -0.060634289 0.78600001
0.1392343 -0.060634289 0.78600001
0.14297715 -0.060634293 0.78600001
0.14597143 -0.06138286 0.78600001
0.093928576 -0.059362862 0.78900003
0.097873434 -0.058093239 0.78810006
0.10256214 -0.057560954 0.78750002
0.10759167 -0.056606434 0.78725004
0.11216845 -0.056886535 0.78742862
0.11794402 -0.056798857 0.78680009
0.12231658 -0.056741714 0.78600001
0.12741905 -0.056962859 0.78700006
0.13266574 -0.056962859 0.78700006
0.13745941 -0.057569884 0.78762507
0.14281099 -0.057928752 0.788091
0.1469689 -0.057736512 0.78733343
0.099940009 -0.054854289 0.78900003
0.10294573 -0.054854289 0.78900003
0.10709962 -0.054225337 0.78860009
0.11271429 -0.054854289 0.78900003
0.11814599 -0.053760961 0.78871435
0.12183453 -0.05435691 0.78725004
0.12719545 -0.054512005 0.78840011
0.13296072 -0.054461196 0.78875005
0.14602765 -0.054353338 0.78900003
0.087537341 -0.061321337 0.79100001
0.083188266 -0.059060007 0.79166669
0.08785937 -0.058656827 0.7930001
0.0924282 -0.05729543 0.79159999
0.096426673 -0.056500003 0.79100001
0.14087334 -0.056500003 0.79100001
0.093967624 -0.053587142 0.79250002
0.097316094 -0.053560536 0.79211122
0.10258224 -0.052044451 0.79200006
0.10811462 -0.051793337 0.79200006
0.1123724 -0.052037153 0.79188889
0.11667797 -0.05160423 0.79185712
0.12309468 -0.05258267 0.79100001
0.12780781 -0.052661527 0.79220003
0.13225113 -0.052799053 0.792
0.13797683 -0.054285087 0.79166669
0.14270288 -0.053725243 0.79175001
0.14539334 -0.052733339 0.79100001
0.084042862 -0.056785718 0.79500002
0.087180965 -0.0560981 0.796
0.090100005 -0.055271432 0.79500002
0.088104293 -0.053926192 0.79750001
0.09213572 -0.052135475 0.79625005
0.097671434 -0.050728574 0.79500002
0.10827143 -0.050728574 0.79500002
0.12190001 -0.050728574 0.79500002
0.12751999 -0.050856195 0.79700005
0.1328889 -0.050877463 0.79733342
0.13730145 -0.051581435 0.79650009
0.14160344 -0.05144915 0.79680008
0.14516 -0.050920002 0.79800004
0.097605728 -0.048748571 0.79800004
0.10272549 -0.048039291 0.79750001
0.10735563 -0.04798286 0.79720002
0.11236706 -0.047831237 0.79720002
0.11795388 -0.048287764 0.79757142
0.12230889 -0.047859363 0.79766667
0.12762669 -0.047859371 0.79766667
0.13262001 -0.04902 0.79800004
0.14364001 -0.048640002 0.79800004
0.14516 -0.049400002 0.79800004
0.10412001 -0.044840004 0.79800004
0.10640001 -0.044840004 0.79800004
0.084994294 -0.055897146 0.80400002
0.084483817 -0.053344768 0.80400008
0.087924957 -0.05275467 0.8028
0.090666674 -0.051047623 0.80000001
0.093300007 -0.048943814 0.80300003
0.097300962 -0.046307217 0.80085719
0.1006962 -0.045770481 0.801
0.11657144 -0.046476196 0.80000007
0.13330096 -0.046551749 0.80133337
0.13771348 -0.047101494 0.80142862
0.1416558 -0.047580685 0.80028576
0.098011434 -0.043645717 0.80400002
0.10191185 -0.043707214 0.80114293
0.10816222 -0.043262541 0.80166668
0.11228001 -0.043534603 0.80199999
0.1174734 -0.042923305 0.80200011
0.12256557 -0.042761117 0.80183339
0.12730129 -0.042939749 0.80127287
0.13201661 -0.043130074 0.80257148
0.1377705 -0.043117143 0.80366671
0.14118621 -0.042087145 0.80350006
0.082237147 -0.050724767 0.8070001
0.086740956 -0.051430479 0.80600011
0.083365083 -0.047966987 0.80800003
0.087416634 -0.048563991 0.80709094
0.092050679 -0.046716955 0.80680007
0.095952384 -0.045289528 0.80600005
0.093586355 -0.042818736 0.80766672
0.0973709 -0.041824218 0.80685723
0.10245182 -0.0413181 0.8064
0.10699843 -0.04121238 0.80633342
0.11284001 -0.040683813 0.80600011
0.12742478 -0.040683813 0.80600005
0.13279811 -0.040683813 0.80600011
0.13702001 -0.041067623 0.80600005
0.14047429 -0.040683813 0.80600005
0.097729534 -0.039245717 0.80800003
0.10234667 -0.039245717 0.80800003
0.10696381 -0.038476195 0.80800003
0.11206244 -0.038208891 0.80777782
0.11782025 -0.037862621 0.80725008
0.12220287 -0.038427625 0.8070001
0.12684496 -0.03859124 0.80720007
0.1323581 -0.039245717 0.80800003
0.13620572 -0.039245717 0.80800003
0.083125085 -0.046066038 0.81066674
0.087171435 -0.045514293 0.81000012
0.083845727 -0.043599367 0.81266677
0.087660246 -0.042764526 0.8127501
0.091360644 -0.041947942 0.81066674
0.089152388 -0.038761906 0.81400001
0.092591323 -0.038256086 0.81244451
0.097417153 -0.037335876 0.81111115
0.1026416 -0.037043493 0.81033337
0.10722858 -0.036257144 0.81000012
0.1134 -0.036257144 0.81000012
0.11648572 -0.036257144 0.81000006
0.12265715 -0.036257144 0.81000012
0.12752144 -0.036710005 0.81150001
0.13207716 -0.037073337 0.81100005
0.13782516 -0.037545528 0.81120008
0.14128762 -0.037829842 0.81066674
0.098373339 -0.034857146 0.81333339
0.10202439 -0.034214098 0.81280005
0.10722858 -0.034714289 0.81000012
0.11218002 -0.034039047 0.81233329
0.11721363 -0.034135513 0.8120001
0.12285303 -0.034067623 0.81300008
0.12770605 -0.034828573 0.81266677
0.13256572 -0.034885716 0.81400001
0.13721715 -0.034885716 0.81400001
0.14135176 -0.034368895 0.81400001
0.083773658 -0.041757785 0.81700009
0.086157151 -0.041138098 0.81500006
0.084812388 -0.039682861 0.81700003
0.087709531 -0.03842143 0.81500006
0.091631435 -0.035560321 0.81766671
0.095940009 -0.035100002 0.81900007
0.0980381 -0.033458099 0.81700003
0.10293977 -0.031852145 0.81575
0.10776345 -0.031720575 0.81640005
0.11268573 -0.031084761 0.81599998
0.11720477 -0.03104762 0.81500006
0.12265154 -0.031331535 0.81566674
0.12799573 -0.032046191 0.81575006
0.13321716 -0.032719053 0.81800002
0.13777906 -0.032692384 0.81733346
0.14083524 -0.032680005 0.81700003
0.10374001 -0.028860003 0.81900007
0.10998001 -0.028860003 0.81900007
0.11310001 -0.028860003 0.81900012
0.11717963 -0.028165525 0.81700003
0.12060477 -0.028009526 0.81700003
0.082300007 -0.043109529 0.82300007
0.083867624 -0.039974287 0.82300001
0.088084772 -0.036141146 0.82140011
0.094610482 -0.035185717 0.82100004
0.089020006 -0.033153974 0.82233334
0.092675239 -0.032283071 0.82233334
0.09758164 -0.031633064 0.82157153
0.10086572 -0.030494288 0.82100004
0.13214192 -0.030494288 0.82100004
0.13761525 -0.030494288 0.82100004
0.14230669 -0.030494288 0.82100004
0.094840959 -0.029000955 0.82300001
0.098498747 -0.027955875 0.82300007
0.10235738 -0.02720405 0.82200003
0.10723737 -0.027395032 0.82188892
0.11266239 -0.026600478 0.82150006
0.11845858 -0.026193811 0.82100004
0.12329186 -0.027161229 0.82157153
0.12760574 -0.028181907 0.82200003
0.13235652 -0.028193653 0.82233346
0.13721202 -0.02863105 0.82140011
0.14239208 -0.028478414 0.82300007
0.1065981 -0.024298096 0.82300001
0.11208477 -0.024298096 0.82300001
0.11678763 -0.024298098 0.82300007
0.12149049 -0.024298096 0.82300001
0.07974191 -0.045002859 0.82900006
0.081320956 -0.045002859 0.82900006
0.078825399 -0.042301275 0.82766676
0.081567623 -0.041375238 0.8275001
0.078614019 -0.037107624 0.82900012
0.082764983 -0.037047517 0.8276667
0.086087629 -0.036950953 0.82550007
0.083806671 -0.032669909 0.82860005
0.086854845 -0.032022178 0.82585722
0.092714295 -0.03064286 0.82500005
0.087727383 -0.027795956 0.82800007
0.092101485 -0.027550159 0.82655561
0.096374676 -0.026569715 0.82540005
0.12807143 -0.025928576 0.82500005
0.13289176 -0.025949527 0.82566679
0.1380143 -0.02659486 0.82620013
0.14139526 -0.026494287 0.8263334
0.093163818 -0.024475239 0.82900006
0.097505085 -0.023214711 0.82788891
0.10249154 -0.022671605 0.82609093
0.10801703 -0.022366669 0.82614297
0.11262906 -0.022642143 0.82700002
0.11721334 -0.022025716 0.82600009
0.1223978 -0.022832699 0.82677782
0.12746848 -0.022864234 0.82788897
0.13216369 -0.023322042 0.82814294
0.13737716 -0.024080478 0.82900006
0.14448287 -0.024475239 0.82900006
0.097900957 -0.019738097 0.82900006
0.10184858 -0.019343335 0.82900006
0.1079016 -0.019211747 0.82900012
0.11329667 -0.019343335 0.82900006
0.11763906 -0.019106477 0.82900012
0.12158667 -0.019738097 0.82900006
0.1255343 -0.019738097 0.82900006
0.078677461 -0.032473337 0.83166671
0.081594862 -0.031845149 0.83179998
0.077746674 -0.029353335 0.83300006
0.083665997 -0.027964765 0.83214295
0.08626572 -0.026117144 0.83100003
0.08488667 -0.024593335 0.83300006
0.088250481 -0.023923239 0.8318001
0.092371017 -0.022499187 0.83100003
0.095762864 -0.021368572 0.83100003
0.13296001 -0.021368572 0.83100003
0.1373004 -0.022012001 0.83140004
0.14218687 -0.023617717 0.83220005
0.14518002 -0.023006668 0.83300006
0.092672706 -0.019801591 0.83166671
0.097066194 -0.018620476 0.83200008
0.1021762 -0.017688572 0.83166671
0.10668057 -0.017277142 0.83220005
0.11166764 -0.016630342 0.83157146
0.11740647 -0.016117357 0.83233339
0.12297773 -0.016955428 0.83199996
0.12773287 -0.01802 0.83175004
0.1321065 -0.019189144 0.83260012
0.13566001 -0.019833334 0.83300006
0.078213342 -0.027134288 0.83800006
0.081109919 -0.027566288 0.83660001
0.08258763 -0.023352247 0.83728582
0.087048583 -0.022027938 0.83600008
0.14234763 -0.021471431 0.83500004
0.083700009 -0.019928573 0.83700001
0.08771842 -0.019403812 0.83733338
0.09241192 -0.017525716 0.83649999
0.097557969 -0.015822724 0.83671433
0.10263409 -0.015752954 0.83540004
0.10735716 -0.015109526 0.83500004
0.11371905 -0.015109525 0.83500004
0.12803334 -0.015109526 0.83500004
0.13325866 -0.016272519 0.83642858
0.13799042 -0.01731039 0.8366363
0.14196239 -0.018116666 0.83625001
0.098622866 -0.013176192 0.83850002
0.10295429 -0.012768573 0.838
0.10774287 -0.012768572 0.83800006
0.11248732 -0.012763175 0.83766675
0.11718 -0.011954604 0.83700013
0.12233457 -0.012857825 0.8364287
0.12750383 -0.012925145 0.83780003
0.13176429 -0.012776667 0.83850002
0.13743621 -0.01358381 0.83900005
0.078823179 -0.024313971 0.8416667
0.081344768 -0.021237142 0.84150004
0.084300004 -0.018465716 0.84300005
0.087409526 -0.017640952 0.84200001
0.13632476 -0.012028572 0.84200001
0.14176857 -0.013616191 0.84100002
0.079671435 -0.021728573 0.84500003
