# .PCD v0.7 - Point Cloud Data file format
VERSION 0.7
FIELDS x y z
SIZE 4 4 4
TYPE F F F
COUNT 1 1 1
WIDTH 763
HEIGHT 1
VIEWPOINT 0 0 0 1 0 0 0
POINTS 763
DATA ascii
-0.018166669 -0.22018002 0.76300001
-0.025433335 -0.21654668 0.76300001
-0.022344999 -0.21709171 0.76300001
-0.017440002 -0.21727335 0.76300001
-0.015986668 -0.21436667 0.76300001
-0.035840001 -0.23478858 0.76800001
-0.027306672 -0.22649907 0.76800007
-0.022674289 -0.22659658 0.76800007
-0.017920002 -0.22637716 0.76800001
-0.03207837 -0.22204083 0.76800007
-0.02776508 -0.22284447 0.76716673
-0.022625081 -0.22260284 0.7663334
-0.017445112 -0.22266506 0.76609105
-0.012430668 -0.22156516 0.76780003
-0.0095085725 -0.22016001 0.76800001
-0.032020193 -0.21741335 0.7676
-0.028216265 -0.21747784 0.76569235
-0.024042858 -0.21930002 0.76500005
-0.012544329 -0.21737951 0.76663643
-0.009142858 -0.21760002 0.76800001
-0.026863337 -0.21361977 0.76750004
-0.022622621 -0.21308786 0.76625007
-0.017723676 -0.21278532 0.76628572
-0.013165715 -0.21430859 0.76800001
-0.02121143 -0.20992002 0.76800001
-0.018285716 -0.20992002 0.76800001
-0.033406287 -0.23707755 0.77260005
-0.040490478 -0.23042764 0.77300006
-0.037327792 -0.23191518 0.77127266
-0.032755829 -0.23257488 0.77223074
-0.027221432 -0.23248622 0.77250004
-0.022798669 -0.2316604 0.77220005
-0.017659644 -0.23105204 0.77262497
-0.01398762 -0.23042764 0.77300006
-0.040490478 -0.22895525 0.77300006
-0.037313335 -0.22737241 0.77199996
-0.032466669 -0.2274 0.77000004
-0.027500002 -0.22916669 0.77000004
-0.023222223 -0.22904447 0.7700001
-0.017243335 -0.22784811 0.7705
-0.012504023 -0.22728711 0.77233332
-0.0080948304 -0.22676833 0.77271438
-0.0018404763 -0.22637857 0.77300006
0.0014714287 -0.2266005 0.77250004
-0.036532383 -0.22262733 0.77233338
-0.034526356 -0.2225835 0.7713334
-0.011747619 -0.22395715 0.77100003
-0.007145802 -0.22275379 0.77145457
-0.0022065612 -0.22284169 0.77222222
0.0013234287 -0.22307125 0.77200001
-0.034037463 -0.21817844 0.7713334
-0.0063171433 -0.21746078 0.77139992
-0.00220754 -0.21779409 0.77258343
-0.031429101 -0.21314509 0.77144444
-0.027646352 -0.21162669 0.77066678
-0.023466669 -0.21046668 0.77000004
-0.015400001 -0.21046668 0.77000004
-0.01247926 -0.21263525 0.77077782
-0.0078979768 -0.21384916 0.77162504
-0.030920001 -0.2098143 0.77300006
-0.027004631 -0.20856901 0.77228576
-0.022636479 -0.20769556 0.77170008
-0.017623892 -0.2078239 0.77108335
-0.013978573 -0.20894238 0.77250004
-0.027043335 -0.24118048 0.778
-0.022999048 -0.24111906 0.77900004
-0.030589147 -0.23776364 0.77580005
-0.02737958 -0.23754045 0.77700001
-0.022448054 -0.23790574 0.77863652
-0.017063811 -0.23666763 0.77900004
-0.012612383 -0.23567843 0.77900004
-0.0074190479 -0.23518382 0.77900004
-0.0022257145 -0.23518382 0.77900004
0.00074190483 -0.23518382 0.77900004
-0.022200003 -0.23458001 0.77700001
-0.017760003 -0.23458001 0.77700001
-0.012568573 -0.23265401 0.77633333
-0.0073973816 -0.2322855 0.77675003
-0.0024050002 -0.23180503 0.77700001
0.0014800001 -0.23236002 0.77700001
-0.006347619 -0.22895716 0.77500004
-0.002214286 -0.22856352 0.77500004
0.0014761905 -0.22954763 0.77500004
-0.033242863 -0.2120143 0.77566671
-0.011573017 -0.21103017 0.77566671
-0.0072546676 -0.21219222 0.77740002
-0.0030648981 -0.21335635 0.77671427
-0.032316297 -0.20843291 0.77700001
-0.027850479 -0.20652762 0.77633333
-0.023619048 -0.20592858 0.77500004
-0.017714286 -0.20592858 0.77500004
-0.012578913 -0.20793946 0.77700007
-0.0079136509 -0.20946446 0.77900004
-0.0037095239 -0.20995906 0.77900004
-0.026415557 -0.20466129 0.77766675
-0.022755003 -0.20368312 0.77700001
-0.01767122 -0.20393345 0.7767778
-0.014078096 -0.20450193 0.778
-0.01568 -0.24565335 0.78400004
-0.014186667 -0.24565335 0.78400004
-0.022076193 -0.24283431 0.78133339
-0.016928708 -0.24265173 0.78257155
-0.014168572 -0.2416124 0.78300005
-0.0067200004 -0.24117336 0.7840001
-0.020057144 -0.23994288 0.78000003
-0.017382858 -0.23905146 0.78000003
-0.012375239 -0.23871735 0.78280002
-0.0074502388 -0.23840122 0.78224999
-0.0022285716 -0.23771429 0.78000009
-0.035840005 -0.20757335 0.78400004
-0.032025401 -0.20654605 0.78200006
-0.011647619 -0.20644256 0.78066671
-0.0074525396 -0.20717412 0.78250003
-0.002833524 -0.20750859 0.78319997
-0.030613335 -0.20384002 0.78400004
-0.027543241 -0.20247088 0.78160012
-0.022313718 -0.20127372 0.78100008
-0.017107144 -0.20138526 0.78100008
-0.012858811 -0.20314121 0.78275001
-0.0097066676 -0.20384002 0.78400004
-0.026631113 -0.19886224 0.7840001
-0.022151114 -0.19836445 0.78399998
-0.017163176 -0.19775367 0.78355557
-0.014186668 -0.19786668 0.7840001
-0.017965715 -0.24628001 0.78600001
-0.012480955 -0.24338892 0.78633344
-0.0086085722 -0.24291144 0.78600001
-0.036743499 -0.20620637 0.78733337
-0.032937147 -0.20585716 0.78600001
-0.0062511116 -0.20579271 0.78766674
-0.0026278575 -0.20607072 0.78825003
-0.036566127 -0.20384397 0.78814292
-0.032384418 -0.20228174 0.78745461
-0.029231431 -0.20087144 0.78700006
-0.01161 -0.20149286 0.78650004
-0.0086266678 -0.20237644 0.78775012
-0.030808574 -0.19912858 0.78900003
-0.02795643 -0.19718692 0.78800011
-0.022777963 -0.19601879 0.78600001
-0.017217144 -0.19537716 0.78600001
-0.012378097 -0.19749931 0.78775007
-0.0093897618 -0.19793835 0.78875005
-0.026789844 -0.19403684 0.78866673
-0.022155477 -0.1928893 0.7885834
-0.017272912 -0.19300772 0.78855562
-0.013896907 -0.1934312 0.78875005
-0.0052733338 -0.20566002 0.79100001
-0.0015066668 -0.20566002 0.79100001
0.00075333338 -0.20566002 0.79100001
-0.037196197 -0.20156001 0.79166669
-0.0057822233 -0.20214763 0.79200006
-0.0022644445 -0.20231777 0.79266685
0.00075523823 -0.20315906 0.7930001
-0.035451431 -0.19913049 0.79200006
-0.032420639 -0.19854414 0.79166669
-0.029380001 -0.19511335 0.79100001
-0.0113 -0.19511335 0.79100001
-0.0070625981 -0.19702747 0.79209095
-0.027909525 -0.19309716 0.792
-0.023745716 -0.19109049 0.79149997
-0.017326668 -0.19059335 0.79100007
-0.01238898 -0.19209187 0.79185718
-0.0088069849 -0.19300763 0.79266667
-0.02157848 -0.1887701 0.79220003
-0.017348573 -0.18857048 0.792
-0.014349525 -0.18880954 0.79300004
-0.038614288 -0.20064287 0.79500002
-0.040280003 -0.19836001 0.79800004
-0.037203491 -0.19765918 0.79722226
-0.032814167 -0.19631037 0.79662502
-0.0022748148 -0.19805579 0.79677778
-0.031913497 -0.19223955 0.79783338
-0.028251838 -0.19126166 0.79557151
-0.024985716 -0.19004287 0.79500002
-0.012114286 -0.19004287 0.79500002
-0.0068220007 -0.1917723 0.79590005
-0.0037904764 -0.19407144 0.796
-0.031160003 -0.18696001 0.79800004
-0.027539309 -0.18738918 0.79718184
-0.022539288 -0.18694167 0.79550004
-0.017414287 -0.18625717 0.79500002
-0.012905308 -0.1875181 0.79714292
-0.0087400004 -0.18886001 0.79800004
-0.026940661 -0.18273818 0.79769242
-0.022018811 -0.18222755 0.79725003
-0.017469049 -0.18228494 0.79750001
-0.014128762 -0.18276381 0.79760003
-0.025080001 -0.17860001 0.79800004
-0.022040002 -0.17784002 0.79800004
-0.017480003 -0.17707999 0.79799998
-0.014440002 -0.17708001 0.79800004
-0.017100001 -0.17366001 0.79800004
-0.014440001 -0.17328 0.79800004
-0.040380955 -0.19657144 0.80000001
-0.038095243 -0.19580954 0.80000001
-0.0015295239 -0.1957781 0.80299997
-0.036877144 -0.19317144 0.80250001
-0.034307145 -0.19211857 0.80049998
-0.0020715648 -0.1921532 0.80200011
-0.035988573 -0.18836573 0.80400002
-0.032803811 -0.18766098 0.80100006
-0.011428572 -0.18590477 0.80000001
-0.0072403178 -0.18687111 0.80033344
-0.0025940954 -0.18766269 0.80100006
-0.03200686 -0.18300574 0.80400002
-0.02930413 -0.18168256 0.80266666
-0.012200001 -0.18224637 0.80066675
-0.0078434646 -0.18264659 0.80181825
-0.0038285716 -0.18453716 0.80400002
-0.031394288 -0.17994288 0.80400002
-0.027338024 -0.17736295 0.80246156
-0.022122858 -0.17583716 0.801
-0.012215557 -0.17789429 0.80166674
-0.0090655796 -0.17771974 0.80285716
-0.026800003 -0.17305145 0.80400002
-0.022186324 -0.17268504 0.80327278
-0.017730715 -0.17139739 0.80075008
-0.012681715 -0.17235602 0.80220002
-0.0099419057 -0.17436478 0.80300003
-0.021440001 -0.16922286 0.80400002
-0.017155103 -0.16772981 0.80314285
-0.014156668 -0.16758621 0.80350006
-0.040683813 -0.19574288 0.80600005
-0.040734291 -0.19367906 0.80700004
-0.038789049 -0.19240716 0.80650002
-0.037380196 -0.18751583 0.80760002
-0.034542859 -0.18653144 0.80600005
-0.00076761912 -0.18653144 0.80600005
0.00076761912 -0.18653144 0.80600005
-0.036137782 -0.18376319 0.80733341
-0.034059685 -0.18258795 0.80666673
-0.0058850795 -0.18090224 0.80600011
-0.0021634635 -0.18252468 0.80618191
0.0014277552 -0.18262234 0.80714297
-0.032280959 -0.17754 0.8070001
-0.029937144 -0.17655239 0.80600005
-0.0061453967 -0.17746606 0.80666673
-0.0023077251 -0.1776614 0.80755562
0.0015390477 -0.17776 0.80800003
-0.031528167 -0.17258015 0.80742866
-0.028094862 -0.1721002 0.80600005
-0.0072968258 -0.17247272 0.80666673
-0.0033346033 -0.17288636 0.80800003
0.0030780954 -0.17468192 0.80800003
-0.026386987 -0.16882825 0.8070001
-0.022431811 -0.16700363 0.80660009
-0.018269334 -0.16595925 0.80600005
-0.011988762 -0.16693239 0.8070001
-0.0078952387 -0.16791534 0.80709094
-0.02075143 -0.16293621 0.80700004
-0.01766053 -0.16201186 0.80622232
-0.012303334 -0.16226906 0.8075
-0.0078491429 -0.16267735 0.80800003
-0.017314287 -0.15890668 0.80800003
-0.014620953 -0.15852192 0.80800003
-0.042428575 -0.19517145 0.81000006
-0.042489525 -0.19213583 0.81114298
-0.039342858 -0.19054288 0.81000006
-0.04108762 -0.18993334 0.81400001
-0.039504766 -0.18822733 0.81333339
-0.037347306 -0.18183938 0.81133336
-0.037002672 -0.1775779 0.81280005
-0.034714289 -0.17742857 0.81000006
-0.00077142863 -0.1751143 0.81000006
0.0012857144 -0.17717144 0.81000012
-0.033742219 -0.17179684 0.81133336
-0.0013893334 -0.17188916 0.81080008
0.0016986668 -0.172984 0.81160003
-0.031869367 -0.167597 0.81283349
-0.027537145 -0.16702223 0.81066668
-0.0054000001 -0.16662858 0.81000006
-0.0021783554 -0.16732435 0.81236374
0.0011628572 -0.1686143 0.81400001
-0.030751115 -0.16305843 0.81400001
-0.026956713 -0.16279154 0.81290925
-0.022904973 -0.16204615 0.81066668
-0.0057112384 -0.1619246 0.81040001
-0.0026649735 -0.16214648 0.81288898
-0.026099686 -0.158407 0.81400001
-0.022108361 -0.15767282 0.81288898
-0.017963096 -0.15664738 0.81125009
-0.012024763 -0.15731537 0.81085736
-0.0070948927 -0.15744089 0.81145459
-0.0032521908 -0.15752801 0.81320012
-0.017375512 -0.15283512 0.81342864
-0.012861714 -0.15280156 0.81360006
-0.0069771437 -0.15427241 0.81400001
-0.014729525 -0.14962097 0.81400001
-0.046621528 -0.19225316 0.81860012
-0.043761592 -0.19135717 0.81566668
-0.046540003 -0.18902002 0.81900012
-0.042819791 -0.18762171 0.8174445
-0.039585717 -0.18550953 0.81500006
-0.042848762 -0.18276381 0.81800002
-0.039585717 -0.18240479 0.81500006
-0.041611619 -0.17782079 0.81820011
-0.039132386 -0.17674033 0.81633341
-0.037813235 -0.17261641 0.81766677
0.0031047622 -0.17231429 0.81500006
0.0054333336 -0.17231429 0.81500006
-0.037284002 -0.16801201 0.81900007
-0.034540478 -0.16649286 0.81500006
0.0029107146 -0.16707501 0.81500006
0.0068504773 -0.16759333 0.81572723
-0.035689715 -0.16317201 0.81820005
-0.032381594 -0.16190416 0.81599998
-0.028719049 -0.16067144 0.81500006
-0.00077619054 -0.16222382 0.81500006
0.002331323 -0.16235651 0.81566668
0.006808334 -0.16281646 0.81699997
-0.031608153 -0.15803695 0.81833345
-0.027881773 -0.15695255 0.8164286
-0.024061907 -0.15601429 0.81500006
-0.0011642858 -0.15717858 0.81500006
0.002479048 -0.15749049 0.81754559
0.0059720641 -0.15788542 0.81800008
-0.026690952 -0.15312834 0.81825006
-0.022561114 -0.15247288 0.81683344
-0.019420637 -0.15147971 0.81566668
-0.010090477 -0.15213335 0.81500006
-0.0067658513 -0.1518532 0.8152858
-0.0026443813 -0.152816 0.81700003
0.00077809527 -0.15484096 0.81700003
-0.021060001 -0.14898001 0.81900007
-0.017241772 -0.14849512 0.81757152
-0.012662771 -0.14833049 0.81700015
-0.0076648989 -0.14828724 0.8164286
-0.0031200002 -0.14898001 0.81900007
-0.049260002 -0.19078478 0.82100004
-0.050823811 -0.18765715 0.82100004
-0.047906671 -0.18673618 0.82125002
-0.047162864 -0.18316515 0.82260001
-0.044568576 -0.18062001 0.82100004
-0.043964766 -0.17726535 0.82139999
-0.042379461 -0.17253348 0.82185721
-0.039877146 -0.17123716 0.82100004
-0.04181505 -0.16772744 0.8222
-0.039603245 -0.16733277 0.82180005
-0.037997779 -0.16215949 0.82166672
-0.035765402 -0.15846193 0.82233334
-0.033100639 -0.15612033 0.82100004
-0.031150287 -0.15293202 0.82180005
-0.028409209 -0.15142891 0.82100004
-0.00078190479 -0.15168953 0.82100004
0.0023484658 -0.1525944 0.82166672
0.0054822229 -0.1527178 0.82233334
-0.026480192 -0.14838077 0.82260007
-0.022693653 -0.14737706 0.82166672
-0.018765716 -0.14699811 0.82100004
-0.011477462 -0.14607303 0.82166672
-0.0062552383 -0.14699811 0.82100004
-0.002610794 -0.14749685 0.82233334
0.0015676192 -0.14970763 0.82300001
-0.017779186 -0.14368422 0.82185721
-0.013758233 -0.14306274 0.8221429
-0.0070371437 -0.1446524 0.82100004
-0.048531115 -0.18284224 0.8263334
-0.047178376 -0.17778572 0.82757151
-0.044785716 -0.17521429 0.82500005
-0.048084766 -0.17262763 0.82766676
-0.044785719 -0.17207146 0.82500005
-0.048113182 -0.16720939 0.82816672
-0.044200577 -0.16720439 0.82580006
-0.047371432 -0.16343144 0.82900006
-0.042553145 -0.16248401 0.82740003
-0.040241431 -0.15780811 0.82850003
-0.03761024 -0.15712905 0.82700008
-0.036658809 -0.15293501 0.82775003
-0.032979731 -0.15206137 0.82728583
-0.02907143 -0.15007144 0.82500005
0.0039380956 -0.15043525 0.82700002
0.005526667 -0.15079905 0.82900006
-0.031562384 -0.14794572 0.82850003
-0.028080638 -0.14669906 0.82666677
-0.02357143 -0.14535715 0.82500005
-0.001572381 -0.14632 0.82600003
0.0020523809 -0.14851639 0.82860005
-0.027106989 -0.14343017 0.82900012
-0.022836087 -0.14251991 0.82677788
-0.018395239 -0.14133964 0.82539999
-0.011573472 -0.14191145 0.82585728
-0.0070953434 -0.14271058 0.82788891
-0.0039476193 -0.14448287 0.82900006
-0.022254288 -0.13873087 0.82860005
-0.017893115 -0.13701518 0.82792306
-0.013402645 -0.13798107 0.82788897
-0.013421905 -0.13342953 0.82900006
-0.048277147 -0.18123716 0.83100003
-0.049980003 -0.17770669 0.83300006
-0.047462333 -0.16228311 0.83211118
-0.042578865 -0.15781087 0.83100003
-0.040460002 -0.15470001 0.83300006
-0.037286669 -0.15152667 0.83300006
0.0079142861 -0.15116286 0.83100003
-0.035614289 -0.14958002 0.83100003
-0.032828387 -0.14764668 0.83260012
0.0026028573 -0.14611144 0.83185726
0.0069735246 -0.14785716 0.83200008
-0.030902859 -0.14421239 0.83200002
-0.028044004 -0.14148478 0.8318001
-0.0071228575 -0.14008287 0.83100003
-0.0025740478 -0.14293763 0.83149999
-0.026180001 -0.13883334 0.83300006
-0.023428436 -0.13683116 0.83185726
-0.011093016 -0.13708064 0.83200014
-0.0074531436 -0.13813201 0.83260006
-0.021948893 -0.13354446 0.83300006
-0.017115621 -0.13264345 0.83200008
-0.01295778 -0.13248667 0.83300006
-0.05149167 -0.18191074 0.83500004
-0.052220639 -0.17839842 0.83500004
-0.048567623 -0.16082953 0.83600003
-0.046462148 -0.15832525 0.83750004
-0.04320794 -0.15560161 0.83500004
-0.045545716 -0.1542162 0.83900005
-0.041779187 -0.15242845 0.83671433
-0.038467623 -0.15095018 0.83566666
-0.040751431 -0.14862287 0.83900005
-0.037457887 -0.14743187 0.83677781
-0.034195241 -0.14632383 0.83500004
0.0079714283 -0.14587715 0.83700001
-0.036579244 -0.14328019 0.8386001
-0.032833811 -0.14227574 0.83574998
-0.029423811 -0.14075716 0.83500004
-0.0013260319 -0.1413997 0.83566666
0.0023914289 -0.14268604 0.83700001
0.0071892068 -0.14377113 0.8386668
-0.032478508 -0.13845593 0.83757144
-0.028049763 -0.13745929 0.8355
-0.0067595243 -0.13638332 0.83500004
-0.0022478788 -0.13750365 0.83809102
0.00079904764 -0.13983335 0.83900005
-0.027581144 -0.13407944 0.83700001
-0.023322383 -0.13196358 0.83725005
-0.019109525 -0.13137144 0.83600003
-0.010974287 -0.13248669 0.83500004
-0.0070232907 -0.13245393 0.83645469
-0.0035933335 -0.13336049 0.83850002
-0.021574287 -0.12864667 0.83900005
-0.017227052 -0.12871906 0.83740008
-0.012192518 -0.12888205 0.8375715
-0.0082498416 -0.12907588 0.83833337
-0.048401594 -0.15696858 0.84233332
-0.047368575 -0.15495144 0.84300005
-0.04412223 -0.15161875 0.84233332
-0.041869529 -0.14742421 0.84219998
-0.038384087 -0.1419607 0.84214288
0.0032038097 -0.14016667 0.84100002
0.0064152386 -0.14113429 0.84200001
-0.037184767 -0.13776889 0.84266675
-0.033191431 -0.1361305 0.84180003
0.0024058199 -0.13710637 0.8418889
0.0056200004 -0.13889429 0.84300005
-0.03211429 -0.13407715 0.84300005
-0.028077779 -0.13209842 0.84233344
-0.024829526 -0.13055524 0.84100002
-0.0013380954 -0.13300668 0.84300011
0.0024085715 -0.13407716 0.84300011
-0.026494287 -0.12845716 0.84300005
-0.022764381 -0.12712114 0.84160006
-0.017231431 -0.12622477 0.84150004
-0.011700383 -0.12645011 0.84140009
-0.0076219048 -0.12757857 0.84249997
-0.021677144 -0.12364001 0.84300005
-0.016860001 -0.12404144 0.84300005
-0.013648572 -0.12444287 0.84300005
-0.050880004 -0.15667811 0.84800005
-0.049090479 -0.15531906 0.84500003
-0.050880004 -0.15425524 0.84800005
-0.047602184 -0.15294559 0.84714293
-0.043725397 -0.14727144 0.84500003
-0.04144524 -0.14284524 0.84500003
-0.041042861 -0.13922381 0.84500003
-0.038896829 -0.13654128 0.84500003
0.0072428584 -0.13761429 0.84500015
-0.036714528 -0.13354167 0.84725004
-0.033215906 -0.13172983 0.84650004
-0.029776193 -0.1311762 0.84500003
-0.0032233335 -0.13140905 0.84650004
0.0024142859 -0.13278572 0.84500003
0.006277144 -0.13310763 0.84500009
-0.031497143 -0.12841144 0.84800005
-0.028671023 -0.12792028 0.84628576
-0.0072557144 -0.1257643 0.84650004
-0.02566343 -0.12283106 0.84740013
-0.022065908 -0.12256992 0.84560013
-0.016900001 -0.12216287 0.84500009
-0.01231973 -0.12285362 0.8462857
-0.0088523813 -0.1247381 0.84500003
-0.021485081 -0.11816986 0.84600008
-0.017131904 -0.11871049 0.84650004
-0.013680954 -0.11990953 0.84500003
-0.052619051 -0.15704763 0.85000002
-0.051240005 -0.15046668 0.85400003
-0.047469527 -0.15051906 0.85200006
-0.051240005 -0.14884001 0.85400003
-0.047686435 -0.14711359 0.8522501
-0.044628575 -0.14605716 0.85200006
-0.046766669 -0.14192668 0.85400003
-0.043852072 -0.1421105 0.8526668
-0.046360005 -0.13908 0.85400003
-0.042466037 -0.13767239 0.85200012
-0.039760001 -0.13550858 0.85200006
-0.041480001 -0.13338667 0.85400003
-0.038602453 -0.1320305 0.85200006
-0.0020257144 -0.13089144 0.85100007
0.0024314288 -0.13129622 0.85100007
-0.037233528 -0.1279581 0.85360003
-0.033442143 -0.12707832 0.85125005
-0.02914286 -0.1254762 0.85000002
-0.0056711114 -0.12719494 0.8506667
-0.0029790481 -0.12813525 0.85333341
0.0024400004 -0.12850669 0.85400003
-0.036600001 -0.12281334 0.85400003
-0.032285199 -0.12285594 0.8532728
-0.027724955 -0.12208533 0.85120004
-0.010532064 -0.12233271 0.8506667
-0.0073058209 -0.12258752 0.85244447
-0.030906668 -0.11956001 0.85400003
-0.026614049 -0.11803214 0.85325009
-0.022300478 -0.11637096 0.85150003
-0.016604286 -0.11623476 0.85049999
-0.012375955 -0.11789405 0.8522501
-0.0089466674 -0.11956001 0.85400003
-0.021929145 -0.1138682 0.85280007
-0.017040001 -0.11441144 0.85200012
-0.013013334 -0.11468001 0.85400003
-0.049845718 -0.14626858 0.85800004
-0.048117146 -0.13810001 0.85633343
-0.044294607 -0.13668826 0.85600013
-0.042491432 -0.1331943 0.85800004
-0.040040001 -0.12584001 0.85800004
-0.039153814 -0.12725 0.85650003
-0.0012233334 -0.12643477 0.85650009
0.0021211428 -0.12582628 0.85680002
-0.035912383 -0.12201905 0.85699999
-0.0034289528 -0.12327202 0.85720009
0.0040761908 -0.12473144 0.85600007
-0.035137147 -0.11848572 0.85800004
-0.031603269 -0.11766641 0.85714293
-0.02856667 -0.1158981 0.85700005
-0.010610477 -0.1158981 0.85700005
-0.0075473809 -0.11790406 0.85675001
-0.026087619 -0.11494858 0.85600007
-0.021616668 -0.11175191 0.85650003
-0.017137356 -0.11180232 0.85688889
-0.013335874 -0.11294985 0.85733336
-0.052510954 -0.1460443 0.86150002
-0.052352764 -0.14163049 0.86160004
-0.049306672 -0.14366098 0.86000007
-0.045920953 -0.13530001 0.86100006
-0.045100003 -0.13283905 0.86100006
-0.04302524 -0.13153286 0.8605001
-0.041868575 -0.12806858 0.86200005
-0.040226668 -0.12396382 0.86200005
-0.038085718 -0.12162858 0.86000001
-0.0019117461 -0.12185906 0.86066675
0.0016406351 -0.12222604 0.86133337
-0.036626987 -0.11725938 0.86100006
-0.033060957 -0.11612128 0.86066669
-0.0062838099 -0.11612128 0.86066669
-0.0035574608 -0.11794351 0.86200011
-0.030899048 -0.11347684 0.86133337
-0.026863571 -0.11257691 0.86125004
-0.022660321 -0.11111747 0.86000001
-0.011968764 -0.11198553 0.86080009
-0.0082095247 -0.11411239 0.86200005
-0.025449526 -0.10918667 0.86200005
-0.02191701 -0.10794151 0.86142874
-0.01743024 -0.10765501 0.86124998
-0.013956191 -0.10836572 0.86200005
-0.018060952 -0.10426096 0.86200005
-0.053547621 -0.14416668 0.86500007
-0.052423812 -0.13874649 0.8682
-0.048717145 -0.13706666 0.86700004
-0.046680003 -0.13260192 0.86750001
-0.045880478 -0.12854619 0.86800003
-0.043275241 -0.12735143 0.86550003
-0.04230741 -0.12251164 0.86722231
-0.040506668 -0.11903906 0.86800003
-0.038286671 -0.11651271 0.86766672
-0.0019225398 -0.11757493 0.86533344
0.0016514286 -0.11807462 0.8670001
-0.035546668 -0.11407906 0.86800003
-0.032697555 -0.11225267 0.86757153
-0.028833335 -0.1112143 0.86500007
-0.010709524 -0.1112143 0.86500007
-0.0074314293 -0.11201937 0.86700004
-0.030586667 -0.10911906 0.86800003
-0.027602434 -0.10756054 0.86655569
-0.02306667 -0.10627144 0.86500007
-0.015652383 -0.10627144 0.86500007
-0.012148709 -0.10769566 0.8670001
-0.0091038104 -0.1084181 0.86900002
-0.026453335 -0.10415906 0.86800003
-0.022304954 -0.10292895 0.86740011
-0.017190857 -0.10198496 0.86780006
-0.014053334 -0.10415906 0.86800003
-0.051935241 -0.13669144 0.87250006
-0.048941907 -0.13521239 0.87100005
-0.050717145 -0.13219716 0.87300003
-0.048941907 -0.13189429 0.87100005
-0.050717145 -0.12887144 0.87300003
-0.047327053 -0.12703373 0.87180007
-0.046118099 -0.12256477 0.87250006
-0.043964766 -0.12028096 0.87100005
-0.042355239 -0.11792763 0.8720001
-0.039077144 -0.11556858 0.87300003
-0.0024885717 -0.11530381 0.87100005
0.0024942858 -0.11556858 0.87300003
-0.036978096 -0.11259429 0.87250006
-0.034010477 -0.11032668 0.87100005
-0.0058200005 -0.11058 0.87300003
-0.0035996828 -0.11326572 0.87233341
-0.032112703 -0.10713144 0.8720001
-0.01078381 -0.10617906 0.87100005
-0.0077536507 -0.10717176 0.87233341
-0.0041571432 -0.10891715 0.87300003
-0.030762859 -0.10392858 0.87300003
-0.027639322 -0.10165674 0.87185729
-0.022397146 -0.10037239 0.87100005
-0.012251905 -0.10197001 0.87225008
-0.0091457153 -0.10392858 0.87300003
-0.02630889 -0.098310165 0.87233341
-0.02220905 -0.097344294 0.87175012
-0.017424868 -0.097078636 0.87122238
-0.013277145 -0.097092077 0.87133348
-0.020785715 -0.093951434 0.87300003
-0.01724262 -0.092442617 0.87250006
-0.014134287 -0.092288576 0.87300003
-0.053426191 -0.1360662 0.87650001
-0.053240955 -0.13268171 0.87620002
-0.051941335 -0.12742895 0.87680006
-0.049166668 -0.12666668 0.87500006
-0.051007621 -0.12459239 0.87800002
-0.048601147 -0.12241868 0.8768
-0.046495557 -0.1188816 0.87700003
-0.042548578 -0.11652128 0.87600005
0.0041809524 -0.11790287 0.87800002
0.0058533335 -0.11790287 0.87800002
-0.04161429 -0.11314192 0.87740004
-0.038366906 -0.11176167 0.87575001
-0.0019482542 -0.11219969 0.87700003
0.0020897619 -0.11404215 0.87725002
-0.036600571 -0.1081282 0.87740004
-0.034166668 -0.10666667 0.87500006
-0.0058333338 -0.10666667 0.87500006
-0.0033447621 -0.10786858 0.87800002
-0.032565311 -0.10270084 0.87671435
-0.0075130621 -0.10270084 0.87671435
-0.0041809524 -0.10452382 0.87800002
-0.03149651 -0.098949216 0.87800002
-0.027889907 -0.097364955 0.8768
-0.024166668 -0.095833339 0.87500006
-0.010833334 -0.097500011 0.87500012
-0.0083514294 -0.097721919 0.87700003
-0.022534696 -0.092397839 0.87628573
-0.019166667 -0.090833336 0.87500006
-0.011693334 -0.092709534 0.87700003
-0.0091980956 -0.09281715 0.87800002
-0.016445082 -0.088914923 0.87800002
-0.014215239 -0.08863619 0.87800002
-0.054476194 -0.13325715 0.88000005
-0.054476194 -0.12906668 0.88000005
-0.053009529 -0.12299048 0.88000005
-0.052680004 -0.11891785 0.88200009
-0.048254184 -0.11694457 0.88200009
-0.04441905 -0.11649524 0.88000005
-0.046699528 -0.11233 0.88350004
-0.043910161 -0.11187144 0.88100004
0.002514286 -0.11188572 0.88000005
-0.042655718 -0.10757953 0.88250005
-0.038971428 -0.10769524 0.88000005
-0.001257143 -0.10769524 0.88000005
0.0023057144 -0.10838429 0.88050008
-0.041783493 -0.1040362 0.88333338
-0.037792575 -0.10295868 0.8818
-0.034361906 -0.10140953 0.88000005
-0.0058666673 -0.10140953 0.88000005
-0.0023054765 -0.10296405 0.88075006
0.0021004763 -0.10268953 0.88200003
-0.036735877 -0.098988585 0.88333338
-0.033282857 -0.09760794 0.88100004
-0.029333334 -0.096380956 0.88000005
-0.0058666673 -0.098057151 0.88000005
-0.0025161908 -0.09818054 0.88111115
0.00126 -0.098280005 0.88200003
-0.031795051 -0.0937021 0.88320011
-0.027736984 -0.092449687 0.88250005
-0.024304764 -0.093028575 0.88000005
-0.0067069842 -0.093063824 0.88033342
-0.0031931431 -0.093618296 0.88240004
-0.026099049 -0.088400006 0.88400006
-0.022476906 -0.088433102 0.88225007
-0.018255001 -0.086863577 0.88125002
-0.012100137 -0.087816611 0.88057148
-0.0081130173 -0.08869271 0.88133335
-0.016545398 -0.083845727 0.88333338
-0.012948192 -0.084243439 0.88280004
-0.0092400005 -0.084840007 0.88200003
-0.05355791 -0.11640819 0.88700002
-0.049210101 -0.112116 0.88780004
-0.047660641 -0.10800985 0.88833332
-0.044772383 -0.10559525 0.88700002
-0.046566669 -0.10329334 0.88900006
-0.043366946 -0.10183117 0.8878572
-0.039703812 -0.10052668 0.88700002
-0.042051118 -0.098495565 0.88900012
-0.038043499 -0.096938424 0.8876667
-0.034635242 -0.095458105 0.88700002
-0.00084666675 -0.095673338 0.88900006
-0.037253335 -0.093980007 0.88900006
-0.033547305 -0.091618419 0.88800001
-0.0042333337 -0.092286676 0.88900006
0.00084666675 -0.093980007 0.88900006
-0.03132667 -0.088900007 0.88900006
-0.027904086 -0.08709348 0.8878572
-0.023244765 -0.085791439 0.88750005
-0.006773334 -0.088053338 0.88900006
-0.026246669 -0.082973339 0.88900006
-0.022630002 -0.082268104 0.88825005
-0.017998505 -0.08153674 0.8878572
-0.013032191 -0.081751056 0.88859999
-0.055280954 -0.11311144 0.89300007
-0.052700482 -0.11304811 0.8925001
-0.050687622 -0.10788763 0.89200008
-0.048368573 -0.10607143 0.89100003
-0.047911432 -0.10290954 0.89300007
-0.043372385 -0.097802863 0.89300007
-0.039882861 -0.095888577 0.89100003
0.001697143 -0.096737146 0.89100003
-0.040017147 -0.094508581 0.89400005
-0.03740143 -0.091800004 0.89250004
-0.0021221431 -0.092147864 0.89175004
-0.03661143 -0.089400008 0.89400005
-0.032844003 -0.087978862 0.89340001
-0.029700002 -0.08570572 0.89100003
-0.0067885718 -0.086554289 0.89100003
-0.0034057144 -0.088548578 0.89400005
-0.011031429 -0.08146286 0.89100003
-0.053760003 -0.11008 0.89600003
-0.052111432 -0.10763906 0.89700007
-0.050402857 -0.10422191 0.89700007
-0.048640002 -0.10154667 0.89600003
-0.046131432 -0.09824191 0.89700001
-0.043520004 -0.096426673 0.89600003
-0.045327626 -0.093220964 0.89800012
-0.04207477 -0.092903338 0.89700007
-0.00085333339 -0.091306672 0.89600003
0.00085523818 -0.093220957 0.89800006
-0.0059733335 -0.08618667 0.89600003
-0.0018784764 -0.087328389 0.89720011
-0.053527944 -0.10734128 0.90166676
-0.051275879 -0.10226446 0.90233344
-0.04891143 -0.10039715 0.90100002
-0.05707429 -0.11155429 0.90800005
-0.056595482 -0.1084369 0.90725005
-0.054300003 -0.10601429 0.90500003
-0.058832388 -0.12205525 0.92200011
-0.061442859 -0.14514762 0.93500006
-0.05966191 -0.14514762 0.93500006
-0.061987627 -0.14181191 0.93650001
-0.059704449 -0.14168541 0.93566674
