# .PCD v0.7 - Point Cloud Data file format
VERSION 0.7
FIELDS x y z
SIZE 4 4 4
TYPE F F F
COUNT 1 1 1
WIDTH 760
HEIGHT 1
VIEWPOINT 0 0 0 1 0 0 0
POINTS 760
DATA ascii
-0.0075200005 -0.20662096 0.75200003
-0.015060001 -0.20438573 0.75300002
-0.0078780958 -0.2041143 0.75200003
-0.025266668 -0.21224001 0.75800002
-0.022534696 -0.21206942 0.75628579
-0.017356278 -0.21239804 0.75645459
-0.012266351 -0.212147 0.75766671
-0.0072149206 -0.21142511 0.75766671
-0.0021657147 -0.21055558 0.75800008
0.0028876192 -0.21007431 0.75800002
0.0057752384 -0.21007431 0.75800002
-0.025266668 -0.20790859 0.75800002
-0.02232524 -0.20740527 0.75616682
-0.017432822 -0.20768924 0.75538468
-0.012237991 -0.20804965 0.75588894
-0.0072986409 -0.20796259 0.75557154
-0.0019530614 -0.20755117 0.75557154
0.0021621163 -0.20724191 0.75644445
0.0056308578 -0.20718668 0.75800002
-0.023100954 -0.20429906 0.75800002
-0.016851146 -0.20335364 0.75610006
-0.012108919 -0.20323451 0.7560001
-0.0070293779 -0.20239629 0.75546163
-0.0021578574 -0.20283787 0.7552501
0.0020186668 -0.20271468 0.75640005
0.0069302856 -0.20314403 0.75799996
-0.0072190478 -0.19996764 0.75800002
-0.0018042858 -0.19947478 0.75750005
0.00072000007 -0.19944002 0.75600004
-0.022526668 -0.22018002 0.76300001
-0.019620001 -0.22018002 0.76300001
-0.025383335 -0.21757287 0.7615
-0.022486985 -0.21762031 0.76166672
-0.017405717 -0.21757288 0.76150006
-0.012331747 -0.21689367 0.76166672
-0.0072603184 -0.21635813 0.76233339
-0.0025428573 -0.21604192 0.76250005
0.00072666671 -0.21582001 0.76300001
0.0072666672 -0.21582001 0.76300001
0.013080001 -0.21582001 0.76300001
-0.025333336 -0.21280001 0.76000005
-0.021714287 -0.21497144 0.76000005
-0.01664762 -0.21497144 0.76000005
-0.012304763 -0.21497145 0.76000011
-0.0072397627 -0.21395595 0.76025003
-0.0024636192 -0.21316953 0.7608
0.0021757144 -0.21322143 0.76150006
0.0075335242 -0.21253429 0.76060009
0.012319682 -0.21235608 0.76100004
-0.025333336 -0.20628573 0.76000005
0.0083755115 -0.20773335 0.76000011
0.012313968 -0.20788477 0.76055562
-0.025333336 -0.2041143 0.76000005
-0.022269255 -0.20331851 0.76128572
-0.017709391 -0.20183185 0.76114297
-0.012671191 -0.20092312 0.76025003
0.0028952383 -0.20049526 0.76000005
0.0079635726 -0.20128502 0.76025009
0.010857143 -0.20483811 0.76000005
-0.016414668 -0.19914725 0.76260006
-0.01204324 -0.19893773 0.76179999
-0.0071047633 -0.19820037 0.76120013
-0.0023566668 -0.19780692 0.76150006
0.0018853334 -0.19878136 0.76120007
0.0050866669 -0.19983335 0.76300001
-0.025600001 -0.22674286 0.76800001
-0.022674289 -0.22674289 0.76800007
-0.018102858 -0.2269257 0.76800007
0.0056076194 -0.22844955 0.76800001
-0.025566667 -0.22279716 0.76700008
-0.022615716 -0.22268836 0.76599997
-0.017307276 -0.22261223 0.76590919
-0.012426192 -0.22221003 0.76750004
-0.0073116673 -0.22155073 0.76775002
-0.0021942859 -0.22162287 0.76800001
0.0024868574 -0.22103773 0.76800007
0.0073955567 -0.2217854 0.76800007
0.011702858 -0.22235429 0.76800001
-0.012385715 -0.21930002 0.76500005
-0.0068485723 -0.21900859 0.76500005
-0.0018942859 -0.21871717 0.76500005
0.0021890476 -0.21793288 0.76616681
0.0073010717 -0.21830656 0.76662511
0.011926351 -0.21856162 0.76666665
-0.022650637 -0.20165479 0.76716673
-0.019697145 -0.20134762 0.76600003
0.0070514288 -0.20159051 0.76600003
-0.025600001 -0.19894859 0.76800001
-0.022674289 -0.19968002 0.76800001
-0.016995478 -0.19772238 0.76750004
-0.012410265 -0.19686869 0.76655561
-0.0074415244 -0.19594899 0.76599997
-0.0018228573 -0.1960043 0.7665
0.0019461906 -0.19734144 0.7665
0.0051133335 -0.19942002 0.76700002
-0.015360001 -0.19382858 0.76800001
-0.0077531426 -0.19324343 0.76800007
-0.0031619049 -0.19332002 0.76600003
-0.016133334 -0.23100002 0.77000004
-0.012515239 -0.23116383 0.77300012
-0.008096762 -0.23095699 0.77280009
-0.0018404763 -0.23079574 0.77300006
0.0014723811 -0.23116383 0.77300006
-0.027133334 -0.22513334 0.77000004
-0.022 -0.22953334 0.77000004
-0.0165 -0.22916669 0.77000004
-0.012484235 -0.22692826 0.77111113
-0.0073511912 -0.22716519 0.77191675
-0.0022044447 -0.22705862 0.77155554
0.0023490477 -0.22727612 0.77130002
0.0073333341 -0.22630671 0.77000004
0.01148889 -0.22562224 0.7700001
-0.027133334 -0.22366668 0.77000004
-0.0073333336 -0.22366668 0.77000004
-0.0022000002 -0.2236667 0.7700001
0.0022000005 -0.2236667 0.7700001
0.0066000004 -0.22366668 0.77000004
-0.022733334 -0.20020001 0.77000004
0.0083600013 -0.20078669 0.77000004
-0.02257536 -0.19767299 0.77087504
-0.018980272 -0.19660941 0.77071434
-0.013933334 -0.19580001 0.77000004
0.0029357146 -0.19666049 0.7705
0.0069843661 -0.19763391 0.77191675
-0.017208098 -0.19295114 0.77210003
-0.012482858 -0.19238096 0.77100003
-0.0073364289 -0.19201167 0.77025002
-0.0019074286 -0.19252536 0.77039999
0.002071169 -0.19264989 0.77127278
-0.015460001 -0.18846478 0.77300006
-0.012217906 -0.18856306 0.77280003
-0.0072025405 -0.18797475 0.77160013
-0.0025307939 -0.18792042 0.77177781
0.00073619053 -0.18920097 0.77300006
-0.0061507942 -0.23200795 0.77500004
-0.0029571429 -0.23280001 0.77600002
0.00073809526 -0.23102382 0.77500004
-0.025966669 -0.19512096 0.77900004
-0.023280479 -0.19621669 0.77600002
0.0073809531 -0.19559525 0.77500004
-0.025966669 -0.19363716 0.77900004
-0.022816382 -0.19304097 0.77780008
-0.019063432 -0.19136326 0.77580005
0.0037000002 -0.19092003 0.77700001
0.0072672381 -0.19264673 0.77860016
-0.020526033 -0.18770193 0.77900004
-0.017537924 -0.18753707 0.77609092
-0.012772382 -0.18652123 0.77585721
-0.0074000005 -0.18574001 0.77700001
-0.0018457144 -0.18575048 0.77550006
0.0022217147 -0.18756229 0.77720004
0.0056879371 -0.18869112 0.77900004
-0.016861906 -0.18325812 0.7782501
-0.012814558 -0.18353894 0.77842861
-0.0074095242 -0.18375525 0.77800012
-0.0022228574 -0.18375525 0.77800006
0.0022257145 -0.18473431 0.77900004
0.0051933336 -0.1847343 0.77900004
-0.023771431 -0.1909143 0.78000003
-0.026133334 -0.18592001 0.78400004
-0.023368573 -0.18753429 0.78140014
0.0077295243 -0.18729487 0.7804001
-0.020860717 -0.18326786 0.78225005
-0.017457144 -0.18088572 0.78000003
-0.012349335 -0.18138707 0.78120005
-0.0074411915 -0.18154691 0.78125
-0.0022326987 -0.18164414 0.78166676
0.0022353441 -0.18251599 0.78222221
0.0059666671 -0.18419144 0.78300005
-0.020160001 -0.17920001 0.78400004
-0.017006062 -0.17757887 0.78254545
-0.01283181 -0.17801809 0.7834
-0.0075144134 -0.17779483 0.78373349
-0.0022390478 -0.17763017 0.78366673
0.0012444445 -0.1794489 0.7840001
-0.01568 -0.17397335 0.78400004
-0.014186667 -0.17397335 0.78400004
-0.005226667 -0.17397335 0.78400004
-0.0029866667 -0.17397335 0.78400004
-0.027431853 -0.18250532 0.787889
-0.023704764 -0.18240193 0.78600007
0.0037428574 -0.18040572 0.78600001
0.0077114976 -0.18257819 0.78707159
0.011261906 -0.18244223 0.78833342
-0.026283335 -0.1787262 0.78850007
-0.022692896 -0.17731902 0.78815395
-0.018714286 -0.1759143 0.78600001
-0.011977144 -0.1759143 0.78600001
-0.0067371433 -0.1759143 0.78600001
0.0024340476 -0.17728025 0.78625011
0.0067577786 -0.1779381 0.78833342
-0.021412501 -0.17280085 0.78887504
-0.017397923 -0.17240331 0.78800005
-0.012750901 -0.17276043 0.78755563
-0.0077454774 -0.17278151 0.78708339
-0.0020628572 -0.17249787 0.78750008
0.0019497145 -0.17408305 0.78720003
0.0052533336 -0.17486097 0.78800005
-0.01653143 -0.16907144 0.78900003
-0.014277143 -0.16907144 0.78900003
-0.028626669 -0.18004668 0.79100001
0.012053334 -0.18004668 0.79100001
-0.02761505 -0.17760478 0.79220003
-0.024860002 -0.17552668 0.79100001
0.0090482542 -0.17718193 0.79166669
0.01208381 -0.17748097 0.79300004
-0.026366668 -0.17326668 0.79100001
-0.023956001 -0.17191069 0.79100001
-0.012053334 -0.17100668 0.79100001
-0.0072822226 -0.17100668 0.79100007
-0.0022600002 -0.17100668 0.79100001
0.0024774154 -0.17220643 0.79157144
0.0063612252 -0.1730396 0.79242867
-0.02242641 -0.16836131 0.79209095
-0.017335979 -0.16708162 0.79144448
-0.012817461 -0.16763102 0.79166669
-0.007751429 -0.16839959 0.79227275
-0.0025647623 -0.16915298 0.79220003
0.0015104762 -0.16992858 0.79300004
-0.031120954 -0.17685811 0.79700011
-0.029023811 -0.17691907 0.79500002
0.012909286 -0.17691214 0.79725003
-0.031906985 -0.17244762 0.79766673
-0.028339047 -0.17245468 0.79560006
0.0037857145 -0.17035715 0.79500002
0.0085084653 -0.17211038 0.79611117
0.012341072 -0.17276323 0.79737502
-0.031160003 -0.16872001 0.79800004
-0.027788764 -0.16763888 0.79720002
-0.022729049 -0.16629715 0.79550004
-0.018928573 -0.1658143 0.79500002
-0.012114286 -0.1658143 0.79500002
-0.0071198097 -0.16620059 0.79540008
-0.0020586397 -0.16719498 0.79642856
0.0022761908 -0.16767748 0.79666662
0.0075987298 -0.16792463 0.79783338
0.011400001 -0.16948001 0.79800004
-0.02641 -0.16359003 0.79799998
-0.022021746 -0.16250335 0.79733336
-0.017465398 -0.16250272 0.79733336
-0.013293453 -0.16332273 0.79762501
-0.0071440004 -0.16461603 0.79800004
-0.0020266669 -0.16390669 0.79800004
0.0017733335 -0.16390669 0.79800004
-0.025840001 -0.15884002 0.79800004
-0.022040004 -0.15732001 0.79799998
-0.017860001 -0.15846002 0.79800004
-0.014440001 -0.15884002 0.79800004
-0.033405717 -0.17708878 0.80080003
0.014548573 -0.17534858 0.80400002
0.016080001 -0.17534858 0.80400002
-0.034457143 -0.17228574 0.80400008
0.014494287 -0.17087907 0.801
0.016421905 -0.17147622 0.80200005
-0.035988573 -0.16692573 0.80400002
-0.033006564 -0.16739684 0.80177784
-0.029714288 -0.16533335 0.80000001
0.007619048 -0.16533335 0.80000001
0.012966476 -0.16732918 0.80080003
0.017604763 -0.16685621 0.80366671
-0.036644902 -0.16200328 0.80400002
-0.033013511 -0.16228175 0.80272728
-0.028201092 -0.16169009 0.80028576
-0.012190476 -0.16152383 0.80000001
-0.0078268405 -0.16214721 0.80000013
-0.0025396827 -0.16177779 0.80000007
0.0027936511 -0.16177779 0.80000007
0.0076211113 -0.16231924 0.80016679
0.012997145 -0.16206002 0.80266666
-0.036754288 -0.15850286 0.80400002
-0.03234167 -0.15749598 0.80374998
-0.027711701 -0.1569871 0.80185723
-0.017536873 -0.15630098 0.80057156
-0.012680954 -0.15738192 0.80220002
-0.0076392861 -0.15734167 0.80200005
-0.0022900002 -0.15724334 0.80150002
0.0021382859 -0.15780002 0.80200005
0.0074374033 -0.15838946 0.80272728
0.012251429 -0.15850286 0.80400002
-0.026800003 -0.15314287 0.80400002
-0.022003239 -0.15325545 0.80220002
-0.017428761 -0.15241545 0.80260003
-0.013167199 -0.15267451 0.80288893
-0.0079853069 -0.15325227 0.80400002
-0.002297143 -0.15390858 0.80400008
-0.020674286 -0.1493143 0.80400002
-0.017611429 -0.14854857 0.80400002
-0.014038096 -0.14829335 0.80400008
0.014620953 -0.18083811 0.80800003
0.016160002 -0.18083811 0.80800003
-0.036650799 -0.17658858 0.80733341
-0.034542859 -0.17732002 0.80600005
0.014620953 -0.17929906 0.80800003
0.016160002 -0.17852953 0.80800003
-0.036892384 -0.17292857 0.8070001
-0.041144289 -0.16649857 0.8075
-0.038125083 -0.16759685 0.80600011
0.017348191 -0.1668804 0.80600005
-0.04152064 -0.16223621 0.80733341
-0.039148577 -0.16196764 0.80600011
0.017665822 -0.16205652 0.80644459
0.020760002 -0.16223431 0.80733341
-0.041297782 -0.15877843 0.80800003
-0.037846532 -0.15697852 0.80628592
-0.034542859 -0.15659429 0.80600005
0.0030704765 -0.15582667 0.80600005
0.0081367623 -0.15613373 0.80600005
0.013282722 -0.15708899 0.80685729
0.017314287 -0.15890668 0.80800003
0.020777144 -0.15929145 0.80800003
-0.036914766 -0.15380906 0.80750006
-0.032279428 -0.15263677 0.8070001
-0.028157782 -0.15179463 0.80633342
-0.023028573 -0.15122096 0.80600005
-0.013049524 -0.15122096 0.80600005
-0.0072156191 -0.15152802 0.80600005
-0.002111905 -0.15150572 0.80650014
0.0023057144 -0.15217526 0.80700004
0.0067653335 -0.15267469 0.80720007
0.011982586 -0.15401469 0.80800003
-0.026131431 -0.14910191 0.80700004
-0.02229164 -0.14784086 0.8071112
-0.017677143 -0.14602764 0.8070001
-0.012489049 -0.14756429 0.8070001
-0.0072701839 -0.14796382 0.80692309
-0.002692143 -0.14770216 0.80775005
0.0015390477 -0.14774859 0.80800003
-0.038828574 -0.17665717 0.81000012
-0.040953021 -0.17231303 0.81133336
-0.039342858 -0.1728 0.81000006
-0.044025719 -0.16220002 0.81100005
-0.042675242 -0.1566 0.81100011
-0.039342858 -0.15505715 0.81000006
0.017953096 -0.15655166 0.81075001
0.021253811 -0.1565024 0.81150001
-0.042510904 -0.15226287 0.81155568
-0.038060416 -0.15168981 0.81085718
-0.033557147 -0.15081429 0.81000006
0.0077142864 -0.15042858 0.81000006
0.012621589 -0.15170521 0.81133348
0.017796826 -0.15242836 0.81244451
0.022466671 -0.15261361 0.8134287
-0.04562667 -0.14616001 0.81200004
-0.04279919 -0.14830396 0.81285727
-0.037940007 -0.14866191 0.81300008
-0.032203052 -0.1481604 0.81280011
-0.02725007 -0.14705689 0.81085718
-0.023142859 -0.14580001 0.81000006
-0.01157143 -0.14580002 0.81000012
-0.0084857149 -0.14580001 0.81000006
-0.0015438097 -0.14598 0.81100005
0.0029348573 -0.14694172 0.81120008
0.0069623282 -0.14774498 0.81222224
0.011819287 -0.14860596 0.81375003
0.016280001 -0.14962097 0.81400001
-0.04562667 -0.14461334 0.81200004
-0.044188574 -0.14496954 0.81400001
-0.030234288 -0.14496954 0.81400001
-0.02666286 -0.14348845 0.81314296
-0.022583032 -0.14259724 0.81254554
-0.017642425 -0.14246947 0.8118183
-0.012376872 -0.1426724 0.81228578
-0.006962541 -0.1423486 0.81233346
-0.0023244447 -0.14258447 0.81366676
0.0023257143 -0.1432468 0.81400007
0.0066670477 -0.14434934 0.81400007
-0.01705524 -0.13876763 0.81400001
-0.014729525 -0.13876763 0.81400001
0.022162858 -0.15046859 0.81650007
-0.041939527 -0.14601287 0.81550002
-0.03762817 -0.14596561 0.81585717
-0.033396669 -0.14601287 0.81550002
0.012766125 -0.14640969 0.81585723
0.018085239 -0.14837381 0.81674999
0.022150615 -0.14748695 0.81814295
-0.04310419 -0.14332516 0.81700003
-0.036647759 -0.14335826 0.81871444
-0.031903177 -0.14239018 0.81700009
-0.02781505 -0.14155981 0.81580001
-0.020957144 -0.14049049 0.81500006
-0.019404763 -0.14049049 0.81500006
-0.012419049 -0.14049049 0.81500006
0.0023285716 -0.14100794 0.81500006
0.0069899051 -0.14211258 0.81540006
0.010090477 -0.14359525 0.81500006
-0.030940002 -0.13910002 0.81900012
-0.027293019 -0.13802214 0.81877786
-0.022577886 -0.13779566 0.8174445
-0.018106533 -0.13718084 0.8164286
-0.012241473 -0.13764095 0.81736374
-0.0070070899 -0.13779524 0.81744456
-0.0025297622 -0.137915 0.81700003
0.0012942859 -0.13853303 0.81566668
-0.025740001 -0.13494001 0.81900007
-0.022620004 -0.13494001 0.81900012
-0.017618477 -0.1342501 0.81860012
-0.014820001 -0.13416001 0.81900007
-0.0070200004 -0.13494001 0.81900007
0.014856191 -0.1462162 0.82100004
0.018005718 -0.14561048 0.82200003
-0.041995876 -0.14216097 0.82166672
-0.038621277 -0.14195716 0.82200003
0.0080936514 -0.14123207 0.82233334
0.012209143 -0.1430701 0.82180005
0.018027622 -0.14343715 0.82300007
0.021928892 -0.1433197 0.82233334
-0.043840006 -0.13934763 0.82200003
-0.035863433 -0.13891144 0.8222
-0.032423392 -0.13708033 0.82144451
-0.028148573 -0.13526954 0.82100004
-0.011728573 -0.13526955 0.82100004
-0.0070371432 -0.13526954 0.82100004
-0.001954762 -0.1356605 0.82100004
0.0026959791 -0.13711736 0.82166666
0.0065266672 -0.13888192 0.82233334
-0.031091115 -0.13350891 0.82300007
-0.027396722 -0.13228372 0.82188892
-0.022700215 -0.13228373 0.82188892
-0.018213471 -0.13174056 0.82128578
-0.012316105 -0.13220322 0.82227278
-0.0070462441 -0.1323195 0.82211119
-0.0025731975 -0.13281865 0.82242864
0.0020379049 -0.1334044 0.82300007
-0.014892382 -0.12932858 0.82300001
-0.040857144 -0.14064287 0.82500005
0.013685144 -0.14140783 0.82580006
0.018106667 -0.14171335 0.82666677
0.022000002 -0.14064287 0.82500005
-0.042113632 -0.13688815 0.82715392
-0.03765538 -0.13678981 0.82614303
0.0076057143 -0.13635397 0.82600009
0.011684763 -0.13740963 0.82790923
0.01743697 -0.13827957 0.82881826
0.022044128 -0.1377759 0.82666677
-0.041809842 -0.13253334 0.82833338
-0.03686643 -0.13307025 0.82800001
-0.032489285 -0.13192382 0.82700002
-0.026843812 -0.13027143 0.82900006
-0.0015714287 -0.13121429 0.82500005
0.0029914291 -0.13140363 0.82620013
0.0065744976 -0.13261959 0.82833338
0.01026381 -0.13342953 0.82900006
-0.03079143 -0.12869239 0.82900006
-0.02801048 -0.12900858 0.82850003
-0.023024676 -0.12803249 0.82845455
-0.017614763 -0.12816668 0.82816684
-0.012039321 -0.12882981 0.82700008
-0.0070885718 -0.12916763 0.82700008
-0.0027552382 -0.12948382 0.82650006
0.0015752382 -0.12995715 0.82700002
0.013454286 -0.1353343 0.83100003
0.017253144 -0.13565087 0.83100003
0.021368572 -0.1353343 0.83100003
-0.037286669 -0.13090001 0.83300006
-0.034113336 -0.13090001 0.83300006
0.0087057147 -0.13137716 0.83100003
0.012077382 -0.13204977 0.83149999
0.01742143 -0.13224715 0.83150005
0.021368572 -0.13375144 0.83100003
-0.032194477 -0.12798268 0.83260006
-0.027700003 -0.12662858 0.83100003
-0.021368572 -0.12583715 0.83100003
-0.017147621 -0.12583715 0.83100003
-0.011882223 -0.12699334 0.83166671
-0.0071297148 -0.126908 0.8318001
-0.0020592383 -0.12817582 0.8318001
0.0023771431 -0.12836477 0.83200014
0.0071400004 -0.12931333 0.83300006
0.010313334 -0.12931333 0.83300006
-0.026708892 -0.12349557 0.83300006
-0.022969842 -0.12356129 0.83166671
-0.017542724 -0.12370247 0.83185726
-0.042216193 -0.13142383 0.83633339
-0.045862857 -0.12721905 0.83749998
-0.04226635 -0.12759238 0.83733332
-0.037421588 -0.12738889 0.83599997
-0.0338181 -0.12651762 0.8355
-0.011133334 -0.12644286 0.83500004
-0.0071571432 -0.12644286 0.83500004
-0.0019885716 -0.12612 0.8355
0.0023899048 -0.12598686 0.83620006
0.0071708998 -0.12667674 0.83655554
0.012113161 -0.12743421 0.83772731
0.016760001 -0.12769336 0.83800006
-0.046040952 -0.12322128 0.83833337
-0.041925717 -0.12337905 0.83850002
-0.037333578 -0.12238025 0.83850008
-0.03251766 -0.12246072 0.83645457
-0.028208995 -0.12212075 0.83566666
-0.023089526 -0.12102 0.83600008
-0.017429948 -0.12130149 0.83611107
-0.011956828 -0.12275684 0.83700001
-0.0071749212 -0.12275684 0.83700007
-0.0025909527 -0.12339239 0.83724999
0.002394422 -0.123226 0.83785719
0.0071914289 -0.12305336 0.83900011
0.01038762 -0.12385239 0.83900005
0.018378094 -0.12305334 0.83900005
-0.03755524 -0.1190581 0.83900005
-0.032361429 -0.11865858 0.83900005
-0.028348573 -0.11858763 0.83850002
-0.022831431 -0.11830534 0.83820003
-0.017476087 -0.11789811 0.83833343
-0.012624954 -0.11809925 0.83900005
-0.0079904767 -0.1190581 0.83900005
-0.042791057 -0.12164211 0.84140009
-0.039246671 -0.12094381 0.84100002
-0.0024028574 -0.12094381 0.84100002
0.0024028574 -0.12094381 0.84100002
0.0072085722 -0.12094381 0.84100002
0.012232857 -0.12252619 0.84224999
0.015637619 -0.12269048 0.84200001
-0.042099528 -0.11908238 0.84200001
-0.037454292 -0.11785892 0.84185719
-0.033159431 -0.11677887 0.84100002
-0.027725523 -0.1168341 0.84140009
-0.022919048 -0.11651372 0.84140009
-0.01682 -0.1161381 0.84100002
-0.011213334 -0.11693905 0.84100002
-0.0072146668 -0.11785201 0.84180003
-0.002607381 -0.11814977 0.84250003
0.0024085715 -0.11962573 0.84300011
0.0072257156 -0.11847879 0.84300005
0.010437144 -0.11882287 0.84300005
0.015254287 -0.11962572 0.84300005
-0.037734289 -0.11480858 0.84300005
-0.032515716 -0.11440715 0.84300005
-0.028088255 -0.11396033 0.84266675
-0.021944765 -0.11427334 0.84300005
-0.016538858 -0.1141663 0.84300005
-0.012042858 -0.1141663 0.84300005
-0.0088314293 -0.11400572 0.84300005
0.017704763 -0.12151906 0.84500003
0.020119049 -0.12151906 0.84500003
-0.042701907 -0.11709589 0.84600008
-0.038360324 -0.11561747 0.84500003
-0.0064495243 -0.11609001 0.84650004
-0.002011905 -0.11548334 0.84500003
0.0024200003 -0.11696478 0.847
0.0072531435 -0.1158882 0.84619999
0.01241105 -0.11733734 0.84620011
0.017074114 -0.11746252 0.84636372
0.020119049 -0.11990953 0.84500003
-0.041188575 -0.11387429 0.84800005
-0.037913337 -0.11374001 0.84700006
-0.033052385 -0.11286525 0.84650004
-0.027426671 -0.11158826 0.84700006
-0.02237143 -0.11185715 0.84650004
-0.017148709 -0.11151471 0.84585726
-0.012083675 -0.11151471 0.84585726
-0.0072538783 -0.11203048 0.84628576
-0.0028230955 -0.11336977 0.84725004
0.0056533339 -0.11387429 0.84800005
0.011306668 -0.11387429 0.84800005
0.016960001 -0.11387429 0.84800005
-0.015883176 -0.10849017 0.84800005
-0.012094858 -0.10822934 0.84680003
-0.0080761909 -0.10902858 0.84800005
-0.046360005 -0.11630668 0.85400003
-0.04376667 -0.1158981 0.85100007
-0.046739526 -0.11257953 0.85350001
-0.043259524 -0.11271667 0.8530001
-0.038107939 -0.1118889 0.85133338
-0.033595242 -0.11130954 0.85000002
-0.027523812 -0.11090477 0.85000002
-0.0056666671 -0.11090477 0.85000002
-0.0021051432 -0.11160459 0.85039997
0.0024330162 -0.11272762 0.85155565
0.0075073815 -0.11261643 0.8522501
0.012406261 -0.11236056 0.85228574
0.01540508 -0.1126978 0.85133332
-0.047117148 -0.10967144 0.85300004
-0.044733338 -0.10980001 0.85400003
-0.037113652 -0.10862985 0.85333341
-0.032700434 -0.10784087 0.85254562
-0.027087623 -0.1080301 0.85160011
-0.021903703 -0.10789058 0.85177791
-0.017580321 -0.10737714 0.85200012
-0.01217762 -0.10676429 0.85250002
-0.006880953 -0.10807143 0.85000002
-0.002762286 -0.10904648 0.85320008
0.0028466668 -0.10939334 0.85400003
0.0073200013 -0.10914934 0.85400003
0.012850667 -0.10882401 0.85400003
0.015453334 -0.10817334 0.85400003
-0.026829526 -0.10406573 0.85366672
-0.021960001 -0.10410668 0.85400003
-0.018706668 -0.10492001 0.85400003
-0.013826667 -0.10492001 0.85400003
0.016266668 -0.10492001 0.85400003
-0.048099052 -0.1133181 0.85600007
-0.042491432 -0.11031429 0.85800004
-0.039131433 -0.11005715 0.85600007
-0.040040001 -0.10868001 0.85800004
-0.036771432 -0.10650097 0.85800004
-0.031845082 -0.10532954 0.85733336
-0.016304763 -0.10516572 0.85600007
-0.011413334 -0.10516572 0.85600007
-0.0073371432 -0.10598096 0.85600007
-0.0022138776 -0.10640056 0.8565715
0.0021230478 -0.1075981 0.85720009
0.0076693334 -0.10689601 0.85680008
0.01176626 -0.10659893 0.85628575
-0.031442385 -0.1033081 0.85750002
-0.026602671 -0.10134705 0.85680008
-0.022019368 -0.10112858 0.85633343
-0.017343812 -0.10222667 0.85699999
-0.01265762 -0.1033081 0.85750008
-0.0073542865 -0.10377716 0.85800004
0.013074286 -0.10377715 0.85800004
0.016304763 -0.10353524 0.85600007
-0.025876192 -0.098329537 0.85800004
-0.022062859 -0.098874293 0.85800004
-0.018794287 -0.098874293 0.85800004
-0.045509528 -0.10782857 0.86100006
-0.042025715 -0.10721429 0.861
-0.037676193 -0.10565715 0.86000001
0.0024571428 -0.10565715 0.86000001
0.0065523814 -0.10565715 0.86000001
-0.040226668 -0.10344 0.86200005
-0.036671568 -0.1029845 0.86114293
-0.032300957 -0.10149182 0.86080009
-0.028666668 -0.10074286 0.86000001
-0.015561906 -0.10074286 0.86000001
-0.011968764 -0.10149182 0.86080009
-0.0073765088 -0.10164001 0.86066675
-0.0024590478 -0.10245906 0.86066669
0.0024607142 -0.10273357 0.86125004
0.0073800008 -0.10331905 0.861
0.01189762 -0.10296905 0.86150002
0.016419049 -0.10261905 0.86200005
-0.03037524 -0.099335246 0.86200005
-0.027607303 -0.097032696 0.86100006
-0.022132065 -0.096721917 0.86066669
-0.017014762 -0.097373821 0.86100006
-0.012515476 -0.097869761 0.86175001
-0.0073833345 -0.097841434 0.86150002
-0.0027912385 -0.098350108 0.86200011
-0.0090304771 -0.094409533 0.86200005
-0.046183541 -0.10216694 0.86814296
-0.042470865 -0.1021259 0.86760008
-0.03789524 -0.10132858 0.86500007
0.0024714288 -0.10132858 0.86500007
0.0074142865 -0.10132858 0.86500013
0.012061906 -0.10094763 0.86740011
0.016552381 -0.10179715 0.86900002
-0.04717429 -0.098486684 0.86900008
-0.042208575 -0.098486684 0.86900008
-0.036852576 -0.097829536 0.86760008
-0.032526858 -0.097409338 0.86680013
-0.010709524 -0.096385717 0.86500007
-0.007414286 -0.096385717 0.86500007
-0.0018131429 -0.09680286 0.86580008
0.0024780089 -0.09767697 0.86718196
0.0072250003 -0.098464057 0.8670001
-0.031437781 -0.092932716 0.86866677
-0.027285874 -0.092602387 0.8681668
-0.022163207 -0.092780367 0.8677274
-0.017349999 -0.092530012 0.86750001
-0.012753546 -0.093119264 0.86700004
-0.0074349209 -0.093614928 0.86733335
-0.0033028573 -0.094957151 0.86700004
-0.025656192 -0.088555247 0.86900002
-0.020690478 -0.088555247 0.86900002
-0.017380003 -0.088555247 0.86900008
-0.014069525 -0.088555247 0.86900002
0.014101906 -0.10037239 0.87100005
0.016590476 -0.10037239 0.87100005
-0.047319051 -0.096297793 0.87166679
-0.042305719 -0.096224777 0.87100017
-0.038987622 -0.09622477 0.87100005
0.0024885717 -0.095395245 0.87100005
0.0078804772 -0.095810011 0.87100005
0.012453228 -0.097127728 0.87166679
0.015785081 -0.097201601 0.87233341
-0.047372706 -0.093084775 0.87266678
-0.042109802 -0.092641227 0.87185729
-0.037338521 -0.09210021 0.87122238
-0.033180952 -0.091247618 0.87100005
-0.024056192 -0.0904181 0.87100005
-0.011336826 -0.090971112 0.87100005
-0.0071365717 -0.091123238 0.87140006
-0.0024911112 -0.092218094 0.87233341
0.002492381 -0.09221682 0.87233341
0.0072409529 -0.09270218 0.87242866
0.012055716 -0.093535721 0.87300003
0.015797144 -0.093951434 0.87300003
-0.037081718 -0.088297717 0.87300009
-0.03214626 -0.087659195 0.87185729
-0.027605239 -0.086966209 0.87175012
-0.022419186 -0.087184638 0.87185729
-0.017420001 -0.086270481 0.87100017
-0.012454559 -0.087185174 0.87185729
-0.007815429 -0.088297717 0.87300009
-0.0024942858 -0.08896286 0.87300003
0.0041571432 -0.08896286 0.87300003
-0.030762859 -0.083974294 0.87300003
-0.027437145 -0.083974294 0.87300003
-0.015797144 -0.083974294 0.87300003
0.018333334 -0.095833339 0.87500006
-0.046748102 -0.090989053 0.87650001
-0.043333337 -0.090833336 0.87500006
0.0083333338 -0.090833336 0.87500006
0.012833336 -0.091500007 0.87500012
0.015833335 -0.091666669 0.87500006
-0.045990478 -0.089472383 0.87800002
-0.042040639 -0.088255569 0.87700003
-0.03795024 -0.086323582 0.87575001
-0.033333335 -0.085833341 0.87500006
-0.024166668 -0.085833341 0.87500006
-0.010833334 -0.085833341 0.87500006
-0.0070833336 -0.086250007 0.87500006
-0.0025032654 -0.087107904 0.87585723
0.0022977381 -0.087477028 0.87687504
0.0072341273 -0.088204615 0.87650001
0.012516191 -0.08926858 0.87600005
0.01588762 -0.089472383 0.87800002
-0.037179768 -0.083965011 0.87725002
-0.032563675 -0.082660012 0.87671435
-0.027328439 -0.082700416 0.87714297
-0.022339167 -0.082883701 0.87687516
-0.017730832 -0.082395598 0.87612504
-0.012756464 -0.083096609 0.87628573
-0.0078447629 -0.083278678 0.87620014
-0.0018390479 -0.083394103 0.87740004
0.0025085718 -0.084455244 0.87800002
-0.01588762 -0.079438098 0.87800002
-0.014215239 -0.079438098 0.87800002
0.017600002 -0.093028575 0.88000005
-0.047013812 -0.088149056 0.88150007
-0.044050477 -0.08642 0.8810001
0.0081015881 -0.086882547 0.88000005
0.012351294 -0.086941786 0.8814286
0.01596 -0.088200003 0.88200003
-0.042388305 -0.083212256 0.88257152
-0.038084574 -0.082039617 0.88080007
-0.034361906 -0.081295244 0.88000005
-0.029333334 -0.081295244 0.88000005
-0.024304764 -0.081295244 0.88000005
-0.011733335 -0.081295244 0.88000005
-0.0071238102 -0.082133338 0.88000005
-0.0033523813 -0.082133338 0.88000005
0.0025174606 -0.082194924 0.88066673
0.0075663505 -0.084062867 0.88266671
-0.037858419 -0.079920642 0.88333338
-0.032408383 -0.07909029 0.88160002
-0.027741592 -0.079018414 0.88266677
-0.022476906 -0.078350239 0.88225007
-0.01785 -0.077907622 0.88200009
-0.012390001 -0.077907622 0.88200003
-0.0075536515 -0.078899696 0.88133335
-0.0028590476 -0.07919886 0.88280004
0.0025231747 -0.079860322 0.88266671
-0.049840957 -0.090389527 0.88700002
-0.048206672 -0.086686194 0.88800007
0.013532382 -0.085417151 0.88800001
0.0072725713 -0.08133924 0.88780004
-0.050234288 -0.092805721 0.89400005
0.016122859 -0.087402865 0.89100003
0.012184287 -0.083015725 0.8925001
