# .PCD v0.7 - Point Cloud Data file format
VERSION 0.7
FIELDS x y z
SIZE 4 4 4
TYPE F F F
COUNT 1 1 1
WIDTH 570
HEIGHT 1
VIEWPOINT 0 0 0 1 0 0 0
POINTS 570
DATA ascii
-0.027794287 -0.22601144 0.76800001
-0.022674289 -0.22601144 0.76800001
-0.019017145 -0.22601144 0.76800001
-0.03145143 -0.22308573 0.76800001
-0.027940575 -0.22250062 0.76800001
-0.022674287 -0.22308572 0.76800007
-0.018117674 -0.2222089 0.7677778
-0.013165715 -0.22089145 0.76800001
-0.026688812 -0.21899122 0.76775002
-0.022661379 -0.21856996 0.76755559
-0.018268997 -0.21818139 0.76733339
-0.013897143 -0.21869716 0.76800001
-0.037528891 -0.23032826 0.77266669
-0.032473609 -0.23109838 0.77242863
-0.02721124 -0.23107183 0.77220005
-0.022807144 -0.23101477 0.77250004
-0.01869924 -0.23131107 0.77300006
-0.0061326991 -0.23081908 0.77266669
-0.0031901589 -0.23091844 0.77300012
-0.037508149 -0.22725375 0.77222222
-0.032733526 -0.22736326 0.77060002
-0.027133334 -0.22843334 0.77000004
-0.022733334 -0.22770002 0.77000004
-0.017106125 -0.22723024 0.7714287
-0.012482224 -0.22689578 0.77100003
-0.0073550008 -0.22726262 0.77225006
-0.0029409525 -0.22718859 0.77200001
-0.036901366 -0.22298303 0.77271438
-0.03360036 -0.22197321 0.77112502
-0.01588889 -0.22317779 0.7700001
-0.011880001 -0.22278669 0.77000004
-0.0073506357 -0.22272909 0.77183336
-0.0030880002 -0.22307125 0.77200001
-0.031387623 -0.21866274 0.77157152
-0.027196193 -0.21683092 0.77177781
-0.023051051 -0.21596992 0.77080005
-0.016669117 -0.21649282 0.77057147
-0.012668215 -0.21774989 0.77112496
-0.0072512934 -0.21932723 0.77242869
-0.0036761907 -0.21910097 0.77200001
-0.022210859 -0.21400857 0.77220005
-0.018166125 -0.21412344 0.77185732
-0.01398762 -0.21423145 0.77300006
-0.040804766 -0.23518382 0.77900004
-0.032602858 -0.23636383 0.778
-0.027111432 -0.23689659 0.77780002
-0.022940002 -0.23606001 0.77700001
-0.017637527 -0.23583107 0.77820003
-0.012909144 -0.23607412 0.77900004
-0.0074190479 -0.23740953 0.77900004
-0.0037095239 -0.23963526 0.77900004
-0.041387621 -0.23206095 0.77600002
-0.037642859 -0.2332381 0.77500004
-0.032476194 -0.2339762 0.77500004
-0.027309528 -0.23397622 0.77500004
-0.022900637 -0.23417747 0.77566671
-0.017287431 -0.23273925 0.77580005
-0.012359866 -0.23250683 0.77642858
-0.0078022233 -0.23316309 0.77611113
-0.0012333335 -0.23260668 0.77700007
-0.040595241 -0.22954763 0.77500004
-0.015500001 -0.22954763 0.77500004
-0.038166031 -0.22161716 0.77566671
-0.032569718 -0.21717107 0.77720004
-0.011685524 -0.21641088 0.77660006
-0.0078942869 -0.21839303 0.77733344
-0.030340003 -0.21312001 0.77700001
-0.027351271 -0.21289001 0.7761668
-0.023080716 -0.21178454 0.7755
-0.017679051 -0.21209468 0.77645463
-0.012957144 -0.21362668 0.77750003
-0.027062859 -0.20945334 0.77850002
-0.022541907 -0.20880368 0.77785718
-0.018522859 -0.20931859 0.778
-0.035531431 -0.2457321 0.78266668
-0.032024764 -0.24577145 0.78200006
-0.027395478 -0.24656551 0.78275001
-0.024121273 -0.24594097 0.78333342
-0.036691193 -0.24231122 0.78225005
-0.032024764 -0.24279241 0.78200006
-0.027556192 -0.24279241 0.78200006
-0.022572124 -0.24246581 0.78290915
-0.017444192 -0.24140076 0.78280002
-0.012312858 -0.24139288 0.78350008
-0.007775784 -0.24252683 0.78285718
-0.037934288 -0.23802003 0.78100008
-0.032685716 -0.23920003 0.78000009
-0.027857143 -0.23957145 0.78000003
-0.022058412 -0.23866098 0.78066671
-0.016735239 -0.23839144 0.78100002
-0.012639366 -0.23866098 0.78066671
-0.0071121096 -0.23875678 0.78028578
-0.0029790481 -0.23683622 0.78200006
-0.038977146 -0.22069654 0.78200006
-0.036866669 -0.21779875 0.78288895
-0.034214288 -0.21644668 0.78100002
-0.0072375769 -0.21638773 0.78127283
-0.03217376 -0.21230075 0.78155565
-0.015600001 -0.21022859 0.78000003
-0.012473811 -0.21206954 0.78200006
-0.0074666673 -0.21354668 0.78399998
-0.03053524 -0.20927811 0.78200006
-0.027378336 -0.20748025 0.78225005
-0.022347145 -0.20634079 0.78216672
-0.017354831 -0.20772602 0.78257149
-0.014186667 -0.20981334 0.78400004
-0.023146668 -0.20384002 0.78400004
-0.02145181 -0.24768117 0.78760004
-0.017260954 -0.24615622 0.78800005
-0.012758096 -0.24540573 0.78800005
-0.017217144 -0.24403431 0.78600001
-0.013100001 -0.24403431 0.78600001
-0.0097314296 -0.24478288 0.78600001
-0.0029942859 -0.24029145 0.78600001
-0.03879543 -0.2167459 0.78640002
-0.036590587 -0.21362659 0.78766674
-0.032980002 -0.2106162 0.78700006
-0.011977144 -0.21034859 0.78600001
-0.0074990485 -0.21149954 0.78750002
-0.031801805 -0.20758595 0.78877783
-0.028720003 -0.20653081 0.78666675
-0.016338859 -0.20641735 0.78700006
-0.012976873 -0.20838532 0.78828579
-0.0075142863 -0.20889716 0.78900003
-0.030808574 -0.20363715 0.78900003
-0.027765796 -0.20260549 0.78791678
-0.022448763 -0.20233962 0.78746676
-0.0181215 -0.20298573 0.78814292
-0.026300002 -0.19912858 0.78900003
-0.022542858 -0.19837716 0.78900003
-0.018785715 -0.19912858 0.78900003
-0.040027622 -0.21222192 0.79300004
-0.037815381 -0.21170028 0.79185718
-0.036536738 -0.2076818 0.79214299
-0.033900004 -0.20716667 0.79100007
-0.012511049 -0.20636669 0.79139996
-0.0079963813 -0.20717888 0.79220003
-0.035969846 -0.20399398 0.79233336
-0.032235719 -0.20246074 0.79175001
-0.016129335 -0.20184365 0.79139996
-0.013212143 -0.20309454 0.79275006
-0.027901907 -0.19757183 0.79179996
-0.022600001 -0.19586667 0.79099995
-0.01778218 -0.1977656 0.79214293
-0.014349525 -0.19862764 0.79300004
-0.026433336 -0.19409621 0.79300004
-0.022657145 -0.19334096 0.7930001
-0.018880954 -0.19409621 0.79300004
-0.041078288 -0.21115105 0.79580003
-0.040997304 -0.20726304 0.79716671
-0.038614288 -0.20670001 0.79500002
-0.0075853979 -0.20637463 0.79666674
-0.0038000003 -0.20748001 0.79800004
-0.040280007 -0.20292002 0.79800004
-0.037389886 -0.20250727 0.79712498
-0.033595242 -0.20131588 0.79566669
-0.01212143 -0.20152715 0.79550004
-0.0080482857 -0.20259023 0.79730004
-0.036848813 -0.19943739 0.79775006
-0.032494634 -0.19751282 0.79681826
-0.029565716 -0.19558764 0.796
-0.016522478 -0.19599298 0.79580003
-0.012768226 -0.19718938 0.79718184
-0.0084970566 -0.19750817 0.79790908
-0.031768002 -0.19228002 0.79800004
-0.027793251 -0.192066 0.79654539
-0.022398232 -0.19097649 0.79528582
-0.017643929 -0.19219801 0.796875
-0.013224001 -0.19319201 0.79800004
-0.0076000006 -0.19380002 0.79800004
-0.027046001 -0.18795288 0.79769993
-0.022219645 -0.18782109 0.79762501
-0.018493336 -0.18873334 0.79800004
-0.025080001 -0.18468001 0.79800004
-0.022800002 -0.18468001 0.79800004
-0.042009525 -0.20546478 0.80200005
-0.0053333337 -0.2064762 0.80000001
-0.003809524 -0.2064762 0.80000001
-0.041466668 -0.20224255 0.80133337
-0.0053333337 -0.20292066 0.80000007
-0.0030495243 -0.20279191 0.80050009
-0.040515557 -0.19798987 0.80266666
-0.037735451 -0.19715135 0.80133343
-0.034285717 -0.19580954 0.80000001
-0.0057142861 -0.1977143 0.80000001
-0.0030526984 -0.19766352 0.80133337
-0.037347883 -0.19257559 0.80327272
-0.034032386 -0.19243924 0.80120003
-0.016000001 -0.19123811 0.80000001
-0.012348573 -0.19133297 0.80039996
-0.007840001 -0.19172329 0.80145466
-0.0030603176 -0.19356382 0.80333328
-0.03649905 -0.18862097 0.80400008
-0.032698877 -0.18764366 0.80181825
-0.028495241 -0.18575239 0.80000001
-0.020622859 -0.18636954 0.80200005
-0.017348301 -0.18778697 0.80200011
-0.013191429 -0.18870288 0.80300003
-0.0091885719 -0.18913144 0.80400002
-0.032160003 -0.18377143 0.80400002
-0.027526196 -0.18273829 0.80283332
-0.022180742 -0.18280171 0.80311108
-0.019126987 -0.18285272 0.8033334
-0.031394288 -0.17611429 0.80400002
-0.027565718 -0.17764571 0.80399996
-0.022205716 -0.17743689 0.80400002
-0.019142859 -0.17917717 0.80400002
-0.031394288 -0.17228574 0.80400008
-0.027565716 -0.17228572 0.80400002
-0.022205716 -0.17228574 0.80399996
-0.022205716 -0.16845718 0.80400002
-0.040683813 -0.19574288 0.80600005
-0.040683813 -0.1926724 0.80600011
-0.0053733336 -0.19113715 0.80600005
-0.0030704765 -0.19113715 0.80600005
-0.037101593 -0.18704319 0.80600011
-0.01688762 -0.18653144 0.80600005
-0.013049526 -0.18653145 0.80600011
-0.0072701834 -0.18733497 0.80692309
-0.0030742858 -0.18752955 0.8070001
-0.036869049 -0.18280573 0.80650014
-0.033391431 -0.18192573 0.80600011
-0.022260955 -0.18039049 0.80600005
-0.016898096 -0.18280526 0.80650008
-0.012450922 -0.18277983 0.80706662
-0.0084565086 -0.18427621 0.80733341
-0.0015390477 -0.1839162 0.80800003
-0.036892384 -0.17754 0.8070001
-0.033446264 -0.17753936 0.80600011
-0.017494764 -0.17745811 0.80750006
-0.013466667 -0.17891429 0.80800003
-0.036167622 -0.17391239 0.80800003
-0.033689525 -0.17239648 0.80657154
-0.017530859 -0.17270647 0.80740005
-0.014620953 -0.17468192 0.80800003
-0.030741906 -0.16908477 0.80700004
-0.027011273 -0.16782749 0.80650008
-0.022260955 -0.16580573 0.80600011
-0.018181166 -0.16756405 0.80666679
-0.025730953 -0.16168526 0.80650008
-0.022260953 -0.16196765 0.80600011
-0.019206351 -0.16210034 0.80666673
-0.026163811 -0.15929145 0.80800003
-0.022624001 -0.15867583 0.80800003
-0.019238096 -0.15929145 0.80800003
-0.039342858 -0.18591429 0.81000006
-0.041377526 -0.18302022 0.8136
-0.039415717 -0.18239288 0.81150001
-0.010053334 -0.18018667 0.81200004
-0.0068070488 -0.18208516 0.81220007
-0.0024729525 -0.18190686 0.81140012
-0.04108762 -0.17908001 0.81400001
-0.039054289 -0.17670669 0.81200004
-0.011909906 -0.17713697 0.81220007
-0.0072872387 -0.17845981 0.81400007
-0.0023257143 -0.17908001 0.81400001
0.00077523815 -0.17908001 0.81400001
-0.037934974 -0.17219295 0.81285727
-0.034714289 -0.17048572 0.81000006
-0.01313418 -0.1723126 0.81133342
-0.03778455 -0.16791663 0.81333339
-0.032633424 -0.16737178 0.8105455
-0.028542859 -0.16585715 0.81000006
-0.0162 -0.16662858 0.81000006
-0.012776668 -0.1676662 0.8131668
-0.04108762 -0.1604743 0.81400001
-0.037360482 -0.16201858 0.81300008
-0.032460954 -0.16229907 0.81150013
-0.028040318 -0.16258001 0.81033343
-0.016991906 -0.16219763 0.81100005
-0.013833199 -0.16279538 0.81342864
-0.037211433 -0.15737334 0.81400007
-0.032501113 -0.15708271 0.81250018
-0.027052276 -0.15689991 0.81155568
-0.02219837 -0.156489 0.81171441
-0.017804446 -0.15715769 0.81288898
-0.014729525 -0.15892382 0.81400001
-0.036953017 -0.15375558 0.81400001
-0.031774156 -0.15333226 0.81371433
-0.027100002 -0.15330762 0.81300008
-0.022454288 -0.15330762 0.81300008
-0.018605717 -0.15349716 0.81400001
-0.043466672 -0.18162858 0.81500006
-0.042946931 -0.1772304 0.81718189
-0.0065976195 -0.17658335 0.81500006
-0.0021364286 -0.17660455 0.81599998
0.0007774604 -0.17648225 0.81633341
-0.046020001 -0.17238002 0.81900007
-0.042977624 -0.17210096 0.81674999
-0.039585717 -0.17464288 0.81500006
-0.010090477 -0.1730905 0.81500006
-0.0069871969 -0.17313726 0.81522226
-0.0029985039 -0.17250411 0.8164286
-0.046020001 -0.16926001 0.81900007
-0.042631429 -0.16756003 0.81680012
-0.039585717 -0.16610476 0.81500006
-0.010090477 -0.16688097 0.81500006
-0.0069868262 -0.16769162 0.81516683
-0.0031098414 -0.16715398 0.81633329
-0.043005239 -0.16286573 0.81725007
-0.039585717 -0.16300002 0.81500006
-0.011125397 -0.16170636 0.81500006
-0.0069982014 -0.16253303 0.81655556
-0.0031123811 -0.16262192 0.81700003
-0.042382859 -0.15902382 0.81650007
-0.039585717 -0.15756668 0.81500006
-0.01204127 -0.15733841 0.81583351
-0.0070106499 -0.1575608 0.81790918
-0.0032257149 -0.15717241 0.81757146
-0.036861524 -0.15134077 0.81660002
-0.033648573 -0.15167716 0.81533337
-0.026794288 -0.15106097 0.81550002
-0.02284286 -0.15088326 0.81580001
-0.017495716 -0.15163429 0.81650001
-0.012996999 -0.15267965 0.81761557
-0.0023400001 -0.15366001 0.81900007
-0.031123811 -0.1493924 0.81700003
-0.02801143 -0.1493924 0.81700003
-0.020957144 -0.14980477 0.81500006
-0.046132386 -0.17671049 0.82100004
-0.046132386 -0.17280096 0.82100004
-0.0013031748 -0.1722797 0.82100004
-0.046914287 -0.16810954 0.82100004
-0.046132386 -0.16341811 0.82100004
-0.0070371432 -0.15559906 0.82100004
-0.010164763 -0.15168953 0.82100004
-0.007238572 -0.15280573 0.82175004
-0.0039142859 -0.15343906 0.82200003
-0.035735562 -0.14894256 0.82166672
-0.032083496 -0.14763811 0.82166672
-0.02705577 -0.14693449 0.82211113
-0.022702862 -0.14717525 0.82200003
-0.018016668 -0.14726524 0.82249999
-0.013469334 -0.14768097 0.8222
-0.008099366 -0.14866255 0.82300007
-0.038500004 -0.15007144 0.82500005
-0.0055000004 -0.15085715 0.82500005
-0.0039285715 -0.15085715 0.82500005
-0.037031431 -0.14733458 0.82728583
-0.03262762 -0.14583811 0.82550007
-0.02907143 -0.14535715 0.82500005
-0.01102127 -0.14722413 0.82666671
-0.0068852389 -0.14715166 0.82625008
-0.0039349212 -0.14716733 0.8263334
-0.036318097 -0.14448287 0.82900006
-0.03208667 -0.14271143 0.82675004
-0.027529208 -0.14236625 0.82588893
-0.022852806 -0.14263441 0.82744449
-0.018147619 -0.14321144 0.82850003
-0.011842857 -0.14448288 0.82900012
-0.0070968261 -0.1442505 0.82766676
-0.0039285715 -0.14378573 0.82500005
-0.03079143 -0.13974573 0.82900006
-0.0274281 -0.13832191 0.82875001
-0.023516003 -0.13873087 0.82860005
-0.018948574 -0.13974573 0.82900006
-0.040411431 -0.14579716 0.83200002
-0.038780004 -0.14641429 0.83100003
-0.037009388 -0.14271633 0.83185714
-0.033503816 -0.14061049 0.83100003
-0.015834605 -0.14172193 0.83133334
-0.011880954 -0.1417781 0.83166671
-0.0080767637 -0.14204971 0.83140004
-0.035700001 -0.13883334 0.83300006
-0.032278232 -0.13760477 0.83242863
-0.028778732 -0.1359705 0.83166671
-0.022160001 -0.13770857 0.83100003
-0.017966986 -0.13819334 0.83233345
-0.041253146 -0.14223258 0.83620006
-0.038436513 -0.14128733 0.83500004
-0.041267939 -0.13791333 0.8386668
-0.037801802 -0.13729981 0.8365556
-0.033400003 -0.13598572 0.83500004
-0.02624286 -0.13598572 0.83500004
-0.023117146 -0.13631144 0.83700007
-0.017134048 -0.13626881 0.83674997
-0.012310583 -0.13772647 0.83700007
-0.008779048 -0.13886762 0.83800006
-0.037148386 -0.13375983 0.83700001
-0.032454289 -0.13320048 0.83625007
-0.028090477 -0.13328049 0.83675003
-0.023144765 -0.13407907 0.83800006
-0.019952383 -0.13407905 0.83800006
-0.043303818 -0.13632382 0.84200001
-0.015218096 -0.13536096 0.84100002
-0.010946351 -0.13589492 0.84100002
-0.0088104764 -0.13696286 0.84100002
-0.042100482 -0.13351667 0.84200001
-0.037705082 -0.13156381 0.84233332
-0.033259999 -0.13103333 0.84150004
-0.027648574 -0.13103333 0.84150004
-0.022480002 -0.13166858 0.84299999
-0.016839366 -0.13311589 0.84200001
-0.012340382 -0.13318114 0.84140009
-0.050520003 -0.12670001 0.84200001
-0.048916195 -0.12670001 0.84200001
-0.03211429 -0.12845716 0.84300005
-0.028902858 -0.12845716 0.84300005
-0.05134286 -0.12274065 0.84233344
-0.047597464 -0.12247302 0.84233332
-0.042694833 -0.13130765 0.84585726
-0.039573334 -0.13002667 0.84800005
-0.016611811 -0.13080953 0.84680003
-0.01156254 -0.13121748 0.84700006
-0.0088733342 -0.13148668 0.84700006
-0.046676196 -0.1271524 0.84500003
-0.044261906 -0.12634763 0.84500003
-0.036979187 -0.12775362 0.84671432
-0.033719324 -0.1267041 0.84585726
-0.027043134 -0.12693486 0.8458572
-0.022328401 -0.12818503 0.84554565
-0.018553335 -0.12825811 0.84700006
-0.046676196 -0.1247381 0.84500003
-0.044261906 -0.12393335 0.84500003
-0.031441428 -0.12415192 0.84650004
-0.028548574 -0.12403468 0.84680003
-0.020923812 -0.1247381 0.84500003
-0.044523813 -0.13033335 0.85000002
-0.013761906 -0.13033335 0.85000002
-0.042456057 -0.12736873 0.85028571
-0.039285239 -0.1267643 0.85049999
-0.025095239 -0.1254762 0.85000002
-0.023476193 -0.1254762 0.85000002
-0.016537417 -0.12686396 0.85000002
-0.01215471 -0.12722816 0.85088903
-0.0085147619 -0.12691382 0.85150003
-0.046251431 -0.12090287 0.85200006
-0.042839762 -0.12242977 0.85275006
-0.038138412 -0.12252445 0.85200006
-0.03345143 -0.12225001 0.85150009
-0.027267093 -0.12176192 0.85044444
-0.021902012 -0.12249248 0.85177785
-0.017065002 -0.1229074 0.85325009
-0.012192857 -0.12294382 0.85350007
-0.0073114289 -0.12348096 0.8530001
-0.046305716 -0.11860667 0.85300004
-0.043089211 -0.11870001 0.85366672
-0.038226668 -0.11874668 0.85400003
-0.032406535 -0.11882287 0.85371435
-0.026828891 -0.11870001 0.85366672
-0.022285337 -0.11890935 0.85400003
-0.017120002 -0.12147048 0.85600007
-0.012792381 -0.12057017 0.85733336
-0.0081619052 -0.12079525 0.85699999
-0.040808573 -0.1158981 0.85700005
-0.037530161 -0.11612509 0.85666674
-0.032102544 -0.11644223 0.85700005
-0.027374288 -0.11644286 0.85800004
-0.022062859 -0.1173962 0.85800004
-0.017538574 -0.11950144 0.85650003
-0.010598096 -0.11984001 0.85600007
-0.035055239 -0.11494858 0.85600007
-0.031794287 -0.11494858 0.85600007
-0.045047622 -0.11630477 0.86000001
-0.042863496 -0.11603176 0.86000001
-0.026209526 -0.11548572 0.86000001
-0.021704763 -0.11589524 0.86000001
-0.017222859 -0.11727837 0.86114293
-0.012300001 -0.11807906 0.86100006
-0.0090095242 -0.11876191 0.86000001
-0.045152385 -0.11411239 0.86200005
-0.041868579 -0.1141124 0.86200011
-0.036886986 -0.11393589 0.86066675
-0.032017149 -0.1141124 0.86200011
-0.027091432 -0.1141124 0.86200011
-0.022165716 -0.1141124 0.86200011
-0.018881906 -0.11411239 0.86200005
-0.015652383 -0.11615715 0.86500007
-0.011957619 -0.11587763 0.86600006
-0.0086604776 -0.11670144 0.86600006
-0.045449208 -0.11155587 0.86766672
-0.042122651 -0.11149789 0.86722231
-0.037353337 -0.11164335 0.86675012
-0.031976905 -0.1116112 0.86650008
-0.027248571 -0.1114689 0.8670001
-0.022516059 -0.11186763 0.86642867
-0.017108709 -0.1131596 0.86728579
-0.012675239 -0.11352795 0.86800003
-0.0085520642 -0.11228033 0.86900008
-0.041380957 -0.1084181 0.86900002
-0.036564384 -0.10836744 0.86860001
-0.032502454 -0.10790899 0.86871439
-0.026980383 -0.10775601 0.86900008
-0.022126429 -0.10814787 0.86849999
-0.019020636 -0.10833366 0.86833334
-0.04728286 -0.11032668 0.87100005
-0.016866986 -0.11087969 0.87100005
-0.012442858 -0.1109903 0.87100011
-0.008295238 -0.11032668 0.87100005
-0.046453338 -0.10700858 0.87100017
-0.04254273 -0.10653457 0.87100017
-0.037660386 -0.10601316 0.87100011
-0.032351434 -0.10534953 0.87100005
-0.027789049 -0.1057643 0.87100005
-0.022397146 -0.10534953 0.87100005
-0.016956327 -0.10684124 0.8715716
-0.012791811 -0.10815219 0.87220001
-0.0083142864 -0.10891715 0.87300003
-0.046560004 -0.10392858 0.87300003
-0.04240286 -0.10392859 0.87300003
-0.037152793 -0.1026728 0.87242866
-0.032397863 -0.10238429 0.87225008
-0.027416194 -0.10218636 0.87233341
-0.022425719 -0.10216074 0.8721112
-0.018277463 -0.10218635 0.87233347
-0.026605716 -0.098940007 0.87300003
-0.01209262 -0.10634071 0.87575006
-0.0083476193 -0.10684811 0.87650001
-0.046826668 -0.10285144 0.87800002
-0.042548578 -0.10178192 0.87600011
-0.038333334 -0.10083334 0.87500006
-0.032500003 -0.10083334 0.87500006
-0.015869526 -0.10273239 0.87700003
-0.0125327 -0.10277208 0.87733346
-0.0085177151 -0.10304306 0.8768
-0.041809529 -0.099506676 0.87800002
-0.037372112 -0.098263547 0.87757158
-0.032574285 -0.097720958 0.87700009
-0.027778508 -0.097164638 0.87628585
-0.022525717 -0.097609535 0.87600005
-0.01774512 -0.097916551 0.87687504
-0.013379049 -0.099506676 0.87800002
-0.03261143 -0.09407144 0.87800002
-0.02738524 -0.093026206 0.87800014
-0.022911621 -0.093820572 0.87800008
-0.018396191 -0.09448953 0.87800002
-0.046933338 -0.10140953 0.88000005
-0.046252385 -0.099231437 0.88300002
-0.042775877 -0.09785144 0.88066667
-0.038552381 -0.096380956 0.88000005
-0.01596 -0.096600004 0.88200003
-0.01259725 -0.09713313 0.88177782
-0.0092330165 -0.098204456 0.88133335
-0.041751117 -0.094430491 0.88266677
-0.037455812 -0.092712209 0.8818
-0.032685716 -0.092022859 0.88000005
-0.029333334 -0.091352388 0.88000005
-0.022209525 -0.091771431 0.88000005
-0.017386397 -0.092700146 0.88142872
-0.036201905 -0.088400006 0.88400006
-0.03255 -0.088407628 0.88200009
-0.027556192 -0.08754997 0.88163638
-0.022662437 -0.088131227 0.88133341
-0.01845905 -0.088938102 0.88100004
-0.046566669 -0.097366676 0.88900006
-0.044772383 -0.096302867 0.88700002
-0.011006667 -0.095673338 0.88900006
-0.042866033 -0.092216834 0.88833344
-0.039703812 -0.091234289 0.88700002
-0.016050477 -0.090389527 0.88700002
-0.013818096 -0.093345091 0.88833344
-0.041486669 -0.088900007 0.88900006
-0.038076058 -0.087150075 0.88842857
-0.033368099 -0.085743338 0.88700002
-0.029566668 -0.085320957 0.88700002
-0.022841588 -0.085449219 0.88833332
-0.019429525 -0.08701048 0.88700002
-0.02791905 -0.083757155 0.88833332
-0.024553334 -0.083820008 0.88900006
-0.047911432 -0.097806677 0.89300007
-0.045977145 -0.092805721 0.89400005
-0.04497429 -0.092494294 0.89100003
-0.012744764 -0.092596196 0.89200008
-0.017841905 -0.087499052 0.89200008
-0.050702542 -0.10226318 0.90233344
-0.04891143 -0.10211334 0.90100002
-0.052854288 -0.11670001 0.91580009
-0.049780004 -0.11790001 0.91700006
-0.051695243 -0.12354287 0.92000002
-0.049942862 -0.12354287 0.92000002
