# .PCD v0.7 - Point Cloud Data file format
VERSION 0.7
FIELDS x y z
SIZE 4 4 4
TYPE F F F
COUNT 1 1 1
WIDTH 1428
HEIGHT 1
VIEWPOINT 0 0 0 1 0 0 0
POINTS 1428
DATA ascii
-0.091184646 0.17896643 0.75800002
-0.084737189 0.17890415 0.75739998
-0.061677545 0.17976005 0.75800002
-0.054898888 0.17976007 0.75799996
-0.043154053 0.17930137 0.75678581
-0.034373041 0.17853363 0.75735015
-0.024974378 0.1781359 0.75648153
-0.014628647 0.17889768 0.75562501
-0.0050835209 0.17795941 0.75605261
0.0048854989 0.17736289 0.75560474
0.014926275 0.17736591 0.75452286
0.024709508 0.17699085 0.75562221
0.035021689 0.1777999 0.75535136
0.045266204 0.17747012 0.75494874
0.055277128 0.17679352 0.75397444
0.064863667 0.17626326 0.75460422
0.074796587 0.17636065 0.75434804
0.085009888 0.17695622 0.75447917
0.095014572 0.17600247 0.75365967
0.10543124 0.17450306 0.7548545
0.11472798 0.17508988 0.75466084
0.12496579 0.17539248 0.75454348
0.13459247 0.17354541 0.75424379
0.14538085 0.1739383 0.7540682
0.15480123 0.17513567 0.75548005
0.1650387 0.17476349 0.75542229
0.17459625 0.17498274 0.75476593
0.18572396 0.17444615 0.75462174
0.19503848 0.1746624 0.75555003
0.20428832 0.17340916 0.75517786
0.29879606 0.17636722 0.75200003
0.30576915 0.17362514 0.75354296
0.31488451 0.17338473 0.75377512
0.32556611 0.17404193 0.75354183
0.33478081 0.17288272 0.75442499
0.34483927 0.17240572 0.75531423
0.35530263 0.1730644 0.75494999
0.36479554 0.17201822 0.75322521
0.37448913 0.17202385 0.75182164
0.38569421 0.17255613 0.7530514
0.39486083 0.17244035 0.75272214
0.40502068 0.17166056 0.7545653
0.41390988 0.17094903 0.75272733
0.42488858 0.17101485 0.75123078
0.43367392 0.17030182 0.75128573
-0.33442774 0.18883634 0.75736368
-0.31412029 0.18864352 0.75755554
-0.30809677 0.1896455 0.7573334
-0.29474753 0.18877155 0.75769997
-0.28604379 0.18854755 0.75530773
-0.27395278 0.18691607 0.75551438
-0.26489103 0.18523061 0.75445455
-0.25510466 0.18585275 0.75500011
-0.2448632 0.18556608 0.75467646
-0.23434085 0.18472658 0.75412828
-0.22523782 0.18556558 0.75444692
-0.21441135 0.18593216 0.75485742
-0.20534077 0.186564 0.75563431
-0.19483081 0.18605559 0.75535303
-0.18487994 0.18679921 0.75529999
-0.17487769 0.18696079 0.75513077
-0.16521889 0.18626012 0.75386488
-0.15518528 0.18549496 0.75537205
-0.14486833 0.18507002 0.75416118
-0.13538153 0.18566585 0.75389081
-0.12458137 0.18485123 0.75352794
-0.11453673 0.18369934 0.75345665
-0.10495584 0.18363741 0.7540375
-0.095010556 0.18320061 0.75337261
-0.085177496 0.18295765 0.75286961
-0.075619996 0.18375807 0.75316274
-0.065340593 0.18300873 0.75427032
-0.055079617 0.18247077 0.75177509
-0.045068998 0.18235262 0.75234294
-0.034792479 0.18221614 0.75235295
-0.024616772 0.18186538 0.7525357
-0.015139027 0.18162543 0.75073922
-0.0044389837 0.18200785 0.75103992
0.0029469354 0.18179204 0.75071436
0.017617626 0.18100385 0.75000012
0.023195939 0.18091622 0.75057149
0.036090564 0.18027584 0.75133342
0.045761209 0.18021861 0.75000012
0.067986757 0.18021859 0.75000006
0.073707536 0.18021859 0.75000006
-0.38017106 0.19616707 0.75700003
-0.37485126 0.19803226 0.7550624
-0.365412 0.19784117 0.75466663
-0.35482103 0.19742991 0.75391895
-0.34459206 0.19619755 0.75392121
-0.33516338 0.19411734 0.75344002
-0.32510832 0.191746 0.75484002
-0.31432363 0.19222483 0.753353
-0.30488545 0.1921178 0.75267738
-0.29492071 0.19240302 0.75335133
-0.28546369 0.19267592 0.75196779
-0.2795997 0.19199733 0.75000006
-0.18752789 0.19068076 0.75100005
-0.17014515 0.19068076 0.75100005
-0.37361941 0.20060012 0.75183338
-0.36548549 0.20118003 0.75117642
0.37836638 0.15982471 0.76900005
0.38322073 0.15982471 0.76900005
0.41881949 0.15982471 0.76900005
0.42124668 0.15982471 0.76900005
0.43882138 0.15927784 0.76766676
0.0073968293 0.16915531 0.7675001
0.01520313 0.16898926 0.76674992
0.024730828 0.16956462 0.76662505
0.033577479 0.16933903 0.76600009
0.040934071 0.16926603 0.76800001
0.057902288 0.16926603 0.76800001
0.063962363 0.16926603 0.76800001
0.075881384 0.16903019 0.76789474
0.084897131 0.16862062 0.76785725
0.094645761 0.16775268 0.7669034
0.10510504 0.16759722 0.76618189
0.11511217 0.16861695 0.76582772
0.12509465 0.16842437 0.7665484
0.13497588 0.16811168 0.76562506
0.14489381 0.168036 0.76694131
0.15503412 0.16823044 0.76653862
0.16490731 0.16857803 0.76654547
0.17554554 0.16825268 0.76626092
0.1850214 0.1680508 0.76708591
0.19550897 0.16851588 0.76682162
0.20415002 0.16769025 0.76449984
0.30769449 0.16898797 0.76314294
0.31526059 0.16721854 0.76427072
0.32510173 0.16699119 0.76375556
0.33491549 0.16729908 0.76282501
0.34490025 0.16690873 0.76277107
0.35457343 0.16710509 0.76129413
0.36505359 0.16594033 0.76290625
0.3752282 0.16448273 0.76458544
0.3851757 0.1647916 0.76449996
0.39516708 0.16488045 0.76474518
0.40499479 0.16494109 0.76473463
0.41475111 0.16316754 0.76414877
0.42459905 0.16276664 0.76371872
0.43483099 0.16250934 0.76457769
0.44352478 0.16203108 0.76505268
-0.28297913 0.17778879 0.76700002
-0.27574533 0.17867231 0.76603848
-0.264633 0.17876388 0.76770014
-0.25491303 0.17797717 0.76688004
-0.24577713 0.17875113 0.76668203
-0.23468164 0.17940564 0.76666677
-0.22484453 0.17846239 0.76829422
-0.21555343 0.17890002 0.76842862
-0.20486413 0.17914391 0.76830006
-0.19580601 0.17964238 0.76825011
-0.18446575 0.17859568 0.76764709
-0.17568442 0.17797413 0.76818514
-0.16488688 0.17815103 0.76713032
-0.15500008 0.17820343 0.76674187
-0.14544035 0.1776942 0.76762509
-0.13466528 0.17851643 0.76677275
-0.12460576 0.17786036 0.76632154
-0.11449651 0.17729171 0.76534152
-0.10521066 0.17694722 0.76436752
-0.094945714 0.17691843 0.76556832
-0.084890239 0.17680748 0.76576477
-0.074589677 0.17695297 0.76527512
-0.065274142 0.17597702 0.76446962
-0.05476829 0.17542051 0.76376373
-0.045042597 0.17464061 0.76317233
-0.035325646 0.17406143 0.7642222
-0.024702158 0.17407359 0.76386851
-0.015430709 0.17391931 0.76332128
-0.0054761921 0.17318366 0.76430005
0.0046827211 0.17227344 0.76322848
0.015209964 0.17258194 0.76233333
0.025518902 0.17192441 0.76238465
0.035321895 0.17299508 0.76264101
0.04491229 0.17282636 0.76457155
0.054638375 0.17251433 0.76460522
0.065123901 0.17147595 0.76317245
0.075082742 0.17209478 0.76304364
0.084778324 0.17204119 0.76261282
0.095355392 0.17179455 0.76234615
0.10415842 0.17041896 0.76185721
0.11812603 0.17163756 0.76140004
0.1251018 0.17182599 0.76174992
0.13470311 0.17099452 0.76137507
0.14469671 0.17058873 0.76170009
0.15663934 0.17098013 0.76163644
0.16520302 0.17097643 0.76153338
0.17540088 0.17108425 0.76200002
0.18356551 0.171757 0.76205879
0.19548218 0.17158592 0.76283336
0.20175655 0.17096645 0.76125002
0.3074778 0.17050213 0.76275003
0.32341352 0.1709343 0.76040012
0.35426816 0.17068575 0.76000005
-0.36199331 0.18871979 0.76700008
-0.35356119 0.18868108 0.76573676
-0.34489456 0.18819404 0.76531827
-0.3340582 0.18691307 0.76375753
-0.3247695 0.18599793 0.76533335
-0.31482863 0.18642303 0.76391178
-0.30540863 0.18633139 0.76441503
-0.29473069 0.18603973 0.76548165
-0.2856392 0.18494673 0.76575989
-0.27599189 0.18259208 0.76214278
-0.26449245 0.18110833 0.76294446
-0.25505379 0.18201381 0.76246428
-0.2452368 0.18159771 0.76224989
-0.23596936 0.18190402 0.76200002
-0.22421004 0.18181564 0.76367861
-0.21533699 0.18157069 0.76412892
-0.20531379 0.18194669 0.7633636
-0.19503593 0.18187489 0.76400006
-0.1851812 0.18201725 0.76303685
-0.17552754 0.18210329 0.76306671
-0.16507785 0.18205547 0.76214707
-0.15518615 0.18145281 0.76133353
-0.14493297 0.18038362 0.7632308
-0.13499258 0.18121879 0.76130009
-0.12549262 0.18152739 0.76118195
-0.11798355 0.18064806 0.76175004
-0.094623618 0.18103009 0.76000005
-0.080547638 0.18014695 0.76300001
-0.075401559 0.18073624 0.7610001
-0.066449434 0.18046294 0.7601251
-0.38267455 0.19359455 0.76580948
-0.37527195 0.19351244 0.76455015
-0.36464158 0.1937377 0.76256824
-0.35525197 0.19229575 0.76152951
-0.34605566 0.1918221 0.76141185
-0.33137342 0.19028242 0.76200002
-0.32570368 0.19065683 0.76118195
-0.28657943 0.19097662 0.76800001
0.12675703 0.15945622 0.77900004
0.13003537 0.15945622 0.77900004
0.14584163 0.15945624 0.77900004
0.15238354 0.15938538 0.77733344
0.18631342 0.15945622 0.77900004
0.19289534 0.15925154 0.77800006
0.20762891 0.15925154 0.77800006
0.212062 0.15920037 0.77775002
0.31703913 0.15857135 0.77733338
0.32385778 0.1593859 0.77733338
0.33594164 0.15908398 0.77754551
0.34516919 0.15822372 0.77678269
0.35500768 0.15759867 0.77670366
0.36506426 0.15759225 0.7756775
0.37464005 0.15674311 0.77602333
0.38518584 0.15740344 0.77657574
0.39524743 0.15784149 0.77634382
0.4047305 0.15675497 0.77586114
0.41514724 0.15724732 0.77605712
0.42521334 0.15648037 0.77555317
0.4347685 0.15665036 0.77504051
0.44521543 0.15691085 0.77463162
0.45104393 0.15445757 0.77700013
-0.13124302 0.16984089 0.77800006
-0.12851459 0.1698409 0.77800006
-0.11295687 0.16869977 0.77733338
-0.10664671 0.16931306 0.77771437
-0.094733573 0.16875651 0.77655548
-0.085974656 0.16951239 0.77649999
-0.073976822 0.16878274 0.77688891
-0.065342888 0.16858943 0.77715397
-0.055057578 0.16827928 0.77671444
-0.044667378 0.16838248 0.77576923
-0.03509365 0.16822183 0.77570385
-0.025472037 0.16767317 0.77699989
-0.014937019 0.16737381 0.77527034
-0.004316668 0.16695672 0.77502328
0.0046848278 0.16663666 0.77562165
0.014868672 0.16570799 0.77541029
0.024736904 0.16604614 0.77440411
0.035500739 0.16567783 0.77575493
0.045304969 0.16588452 0.77466667
0.055043455 0.16599169 0.77463782
0.064930283 0.16535102 0.77405351
0.074755751 0.16454168 0.77370608
0.085317925 0.16364691 0.77413654
0.0947567 0.16333577 0.77488565
0.10456167 0.16331562 0.7752288
0.11546078 0.16401796 0.77495342
0.1251549 0.16330494 0.7750001
0.13509017 0.16348417 0.77578044
0.14516209 0.16269703 0.77451164
0.15522771 0.1633814 0.77356827
0.16489539 0.16369282 0.77404445
0.174758 0.16367085 0.77449983
0.18496753 0.16290455 0.77448589
0.19488156 0.16363367 0.77482969
0.20490324 0.16321194 0.77425015
0.21128289 0.16205691 0.77430004
0.31582302 0.16280228 0.77268434
0.32585928 0.16174957 0.77413338
0.33523226 0.16245727 0.77328956
0.34516087 0.16205941 0.77267873
0.35513923 0.16259441 0.77288568
0.36435205 0.16261266 0.77209383
0.37275553 0.16127843 0.77162498
0.38434124 0.16123344 0.77124995
0.3943803 0.16109402 0.77149999
0.40597129 0.16081038 0.77179998
0.41314685 0.16077518 0.77145457
0.42964274 0.16104762 0.77100003
-0.35024044 0.17862311 0.77900004
-0.34542358 0.17886767 0.77800024
-0.33413622 0.17857733 0.77791685
-0.32522607 0.17781672 0.77714312
-0.31581843 0.17967263 0.77860004
-0.3042402 0.17872815 0.77768767
-0.29419279 0.17784794 0.77762514
-0.28497463 0.17460772 0.77499998
-0.27533987 0.17462549 0.77361917
-0.26564038 0.17460735 0.77352512
-0.25474247 0.17408542 0.77466667
-0.24453963 0.17501301 0.77461696
-0.23488495 0.17525637 0.77428573
-0.22512722 0.17538004 0.77465796
-0.21492933 0.17564252 0.7741915
-0.20460659 0.17560874 0.7739768
-0.19466092 0.17619468 0.77417076
-0.18540864 0.17557186 0.77466667
-0.17519121 0.1739068 0.77466691
-0.16458108 0.17454809 0.77461118
-0.15522803 0.17383009 0.7745589
-0.14495601 0.1738489 0.77386665
-0.1350071 0.17428747 0.77491492
-0.12503622 0.17347665 0.7749213
-0.11530717 0.17275329 0.77425009
-0.1047986 0.17241058 0.77411109
-0.095374666 0.17240377 0.77343339
-0.084219009 0.17254223 0.77346873
-0.075445727 0.17239346 0.77323991
-0.065112434 0.17192934 0.77317649
-0.056617532 0.17147431 0.7731334
-0.045465846 0.1705669 0.77285725
-0.033242624 0.17090976 0.77180004
-0.025568329 0.1711992 0.77213341
-0.0148902 0.17022072 0.77160007
-0.0068979999 0.17039125 0.77066672
-0.39119422 0.18481046 0.7768572
-0.38473403 0.18728229 0.77404767
-0.37504408 0.18684648 0.77431262
-0.36490247 0.18483926 0.77520394
-0.35542721 0.18426694 0.77473927
-0.34510121 0.18351668 0.7732501
-0.33565912 0.18254533 0.77441043
-0.32392347 0.18140683 0.77357149
-0.31578335 0.18266675 0.77380651
-0.3044447 0.18215962 0.7736541
-0.29593575 0.18229088 0.77268976
-0.38550422 0.19136205 0.77020007
-0.37208912 0.19079106 0.77050006
-0.36811525 0.19069795 0.77066672
0.3933109 0.14974797 0.78800005
0.40761206 0.14974797 0.78800005
0.42543301 0.14914712 0.78681827
0.43394297 0.14924502 0.78654557
0.44549915 0.14801337 0.78659248
0.45431137 0.14765355 0.78628558
-0.064199984 0.15985101 0.78900003
-0.043447375 0.15935539 0.78900003
-0.036569372 0.15937898 0.78900009
-0.024612151 0.15902755 0.78833336
-0.015779413 0.15890145 0.78807694
-0.0054009305 0.15902494 0.78900003
0.0046876795 0.15890262 0.78737509
0.015275714 0.15801395 0.78665
0.025136594 0.15779068 0.78622735
0.034430765 0.15876283 0.78411543
0.04465143 0.15791306 0.78604168
0.055028461 0.15750623 0.78658336
0.065119661 0.15774187 0.78541189
0.074664079 0.15756389 0.78608823
0.084842212 0.15803631 0.78551728
0.095320046 0.15821035 0.78640008
0.1046912 0.15794948 0.78484637
0.11510459 0.15699366 0.78515893
0.12471901 0.15742533 0.7840001
0.13530055 0.15813562 0.78460723
0.14546798 0.15615775 0.78494602
0.15492405 0.15587908 0.78557163
0.1646817 0.15747739 0.78565723
0.17546274 0.1571601 0.78483784
0.18508472 0.1569844 0.78418934
0.19477677 0.15684044 0.78345823
0.20521505 0.15640786 0.78393334
0.21304062 0.15487199 0.7847501
0.31976253 0.15555809 0.78266668
0.32527688 0.1554766 0.78411382
0.33504897 0.15526929 0.78438646
0.34491917 0.15444867 0.78500009
0.353892 0.15407714 0.7853601
0.36552888 0.15470886 0.78458351
0.37431675 0.15277667 0.78450018
0.38527608 0.15316175 0.78451616
0.39537087 0.1529948 0.78386503
0.40434951 0.15221271 0.78340745
0.41578797 0.15287086 0.78446895
0.42416209 0.1517165 0.78335994
0.43562713 0.15152493 0.78270012
0.44466051 0.15207309 0.78239316
0.45230946 0.15122652 0.78200006
-0.32651293 0.169764 0.78900003
-0.30202484 0.169764 0.78900003
-0.29392776 0.16790426 0.78603995
-0.28497532 0.16854121 0.78624135
-0.27539849 0.16889139 0.78714293
-0.26519847 0.16862467 0.7875455
-0.25466254 0.16798657 0.78668976
-0.24589282 0.16771743 0.7867586
-0.23498932 0.16745552 0.78593946
-0.22603005 0.16790609 0.78663635
-0.21462277 0.16850995 0.78720003
-0.206176 0.16914631 0.78690004
-0.19494306 0.16855881 0.78800005
-0.18468648 0.16872381 0.78800005
-0.17361909 0.1685172 0.78683335
-0.16480958 0.16836131 0.78480005
-0.15497257 0.16822091 0.78470844
-0.14484119 0.1671889 0.78562081
-0.13503478 0.1669862 0.78531259
-0.1249803 0.16731226 0.78426343
-0.1147266 0.16645594 0.78486669
-0.10504025 0.16560297 0.78457463
-0.095101729 0.16470087 0.78460854
-0.085229076 0.16481437 0.78442383
-0.075094819 0.16466582 0.78497732
-0.06503097 0.16372909 0.78436571
-0.055141095 0.16379361 0.78458971
-0.044908509 0.16361725 0.78380966
-0.035421185 0.16334997 0.78412503
-0.025115892 0.16287683 0.78292513
-0.014765283 0.1623895 0.78334218
-0.0048296601 0.16187507 0.7835173
0.0051326263 0.16176417 0.78300005
0.014445309 0.16120119 0.78261566
0.024962114 0.16139314 0.78238106
0.034404416 0.16229871 0.78025007
0.045292009 0.16071507 0.78207701
0.055255529 0.16070642 0.78200006
0.065503806 0.1608009 0.78157157
0.074770637 0.16104205 0.78175002
0.083707035 0.16075191 0.78133345
0.095548026 0.16064197 0.78320009
0.10845755 0.16150104 0.78100002
0.11488371 0.16097561 0.78185725
0.13362116 0.16047917 0.78200006
0.1652226 0.16075191 0.78133339
0.17583594 0.16068332 0.78100002
-0.39262447 0.17903517 0.78800005
-0.38350037 0.1787184 0.788091
-0.37495705 0.1781331 0.786421
-0.3649565 0.17664064 0.78693622
-0.35513598 0.17693356 0.78515786
-0.3439613 0.17584111 0.78400004
-0.33568665 0.17517838 0.78429031
-0.32420743 0.17471284 0.78574991
-0.31513518 0.17597872 0.78447068
-0.30450282 0.17479073 0.78524327
-0.29602537 0.17408307 0.7829445
-0.28494674 0.17150436 0.78125012
-0.27417696 0.17100723 0.78312504
-0.26462182 0.17153502 0.78221059
-0.2549628 0.17109498 0.78214294
-0.24418344 0.17134506 0.78335291
-0.23425373 0.1714412 0.78233343
-0.22500253 0.17132144 0.78229165
-0.215453 0.17120293 0.78270584
-0.20469366 0.1717241 0.78379315
-0.19500192 0.17167653 0.78448164
-0.18547928 0.17124557 0.78403711
-0.17425799 0.17118247 0.78217655
-0.16611169 0.17164998 0.78030008
-0.15415068 0.17084697 0.7814616
-0.14515154 0.17094266 0.78138888
-0.13708876 0.17039199 0.78177786
-0.12376473 0.17036484 0.78040004
-0.11817669 0.17027752 0.78000009
-0.10285816 0.17027751 0.78000003
-0.39344621 0.1817335 0.78600001
-0.38518769 0.1823449 0.78305888
-0.37528816 0.18161052 0.7821365
-0.36573502 0.18021354 0.78000009
-0.35561386 0.18089408 0.78000003
0.032498859 0.14932871 0.79900002
0.065283239 0.14849216 0.79900002
0.07705199 0.14849216 0.79900002
0.096722625 0.14932871 0.79900002
0.10546613 0.14871058 0.79772729
0.11456809 0.14897668 0.79811108
0.12532051 0.14837848 0.79742873
0.13429849 0.14925227 0.79700005
0.14492446 0.14960551 0.7978
0.15501875 0.14906178 0.7968334
0.16459012 0.14967446 0.79749995
0.17266689 0.1491418 0.79800004
0.18274178 0.1491418 0.79800004
0.19382414 0.1491418 0.79800004
0.206119 0.1493614 0.79750001
0.2127647 0.14910054 0.79600006
0.32499391 0.14802918 0.7956875
0.33597443 0.14832421 0.79742301
0.34516814 0.14762895 0.79544753
0.35465318 0.14682727 0.79502636
0.36490971 0.14760019 0.79522228
0.37459245 0.14723091 0.79493338
0.38533655 0.14695418 0.79476911
0.395262 0.14666286 0.79417151
0.40474057 0.1471311 0.79418528
0.41570058 0.1474933 0.79302758
0.42555183 0.14644265 0.79407161
0.43525153 0.14589269 0.79446167
0.44456005 0.14463654 0.7939375
0.45482522 0.14372356 0.79440004
0.46099874 0.14264883 0.79500002
-0.22263089 0.15936734 0.79900002
-0.21960162 0.15965772 0.79766673
-0.15423471 0.1592676 0.79850006
-0.1415756 0.15980288 0.79700005
-0.13437036 0.15916839 0.79652953
-0.12488915 0.1586438 0.79593343
-0.11455097 0.15867913 0.79712516
-0.10482867 0.15897208 0.79633349
-0.094865046 0.15837872 0.79529637
-0.084842503 0.15835801 0.79496562
-0.075165205 0.15842643 0.79539132
-0.064875208 0.1579078 0.79404002
-0.054704066 0.15723021 0.79575682
-0.045338333 0.1565569 0.79396677
-0.034697428 0.15683068 0.79355574
-0.025189934 0.15584263 0.79434294
-0.014356294 0.15585297 0.79432267
-0.0050873235 0.15580124 0.79557139
0.0051886379 0.15541309 0.79495478
0.015089604 0.15412527 0.7942
0.025466641 0.15366109 0.79418206
0.035052132 0.15403497 0.79521298
0.044995103 0.15416367 0.7956562
0.054817472 0.15323764 0.79544759
0.064779013 0.15271696 0.79512519
0.075265542 0.15282123 0.79532355
0.084971473 0.15309677 0.79466677
0.09499488 0.15345323 0.79313672
0.10512245 0.15251063 0.79208583
0.11501117 0.1517731 0.79310364
0.12483364 0.15212514 0.79264528
0.13470173 0.15351772 0.79223686
0.14438771 0.15230432 0.79273081
0.15527807 0.15129778 0.79266679
0.16511953 0.15265934 0.79361296
0.17481323 0.15276596 0.79487509
0.18481542 0.1520631 0.79393333
0.19529203 0.15195987 0.79414833
0.2047509 0.15205069 0.79460883
0.21175829 0.15053438 0.79214293
0.32607609 0.1511524 0.79200006
0.33452109 0.15121523 0.79253334
0.34501696 0.15113899 0.79000002
0.35604903 0.15169331 0.79040003
0.36478209 0.15192878 0.79095662
0.37489173 0.15103661 0.79042858
0.38441703 0.15057294 0.7906
0.39623794 0.15025476 0.7906667
0.40396887 0.1501914 0.79033339
0.41217902 0.15074839 0.79000002
-0.36270094 0.16891544 0.79800004
-0.35542461 0.16919394 0.79800004
-0.34358138 0.16906671 0.79740006
-0.33488399 0.16915993 0.79425001
-0.32580206 0.1692479 0.79553854
-0.31445122 0.1691203 0.79700005
-0.30355731 0.16654186 0.79583353
-0.29464599 0.16371058 0.79587108
-0.28499383 0.16435169 0.79459465
-0.2752215 0.16499254 0.79507315
-0.26508287 0.16444667 0.7946111
-0.25529483 0.16309367 0.79448599
-0.24561793 0.16395181 0.79455173
-0.23517305 0.16427165 0.79370582
-0.22427836 0.16382851 0.79392868
-0.21504457 0.16442208 0.79405022
-0.20507954 0.16611911 0.79492503
-0.1945256 0.16555147 0.79432452
-0.18483594 0.16504937 0.79453367
-0.17503533 0.16414562 0.79499996
-0.16469564 0.16401014 0.79560524
-0.154964 0.16333483 0.79440492
-0.14501856 0.1629741 0.79351538
-0.13480842 0.16293256 0.79334474
-0.12511091 0.16246228 0.79210728
-0.11578389 0.16256697 0.79238713
-0.10569057 0.16095021 0.79223078
-0.096610799 0.16108437 0.79100001
-0.08204715 0.16129142 0.79100001
-0.075181432 0.1611764 0.79099995
-0.063738562 0.16025619 0.79100001
-0.054738075 0.16066852 0.79140002
-0.031490486 0.16025619 0.79100001
-0.40181789 0.17684358 0.79710001
-0.39468184 0.17684048 0.79437506
-0.38525048 0.17575301 0.79475027
-0.37510604 0.17366071 0.79497081
-0.36445498 0.17236282 0.79538101
-0.35510668 0.17222749 0.79443991
-0.34579226 0.17184114 0.79451859
-0.33457607 0.17247313 0.79226321
-0.32613826 0.17176169 0.79250014
-0.31506661 0.1720722 0.79384226
-0.30799675 0.17116593 0.79166663
0.21669592 0.1391671 0.80800009
0.33720213 0.13899381 0.80700004
0.36950219 0.1391671 0.80800003
0.37120238 0.1391671 0.80800003
0.38921484 0.13865983 0.8083334
0.39403349 0.13865983 0.8083334
0.40596762 0.13844474 0.80661923
0.41545427 0.13843697 0.80600011
0.42532057 0.13784756 0.80604017
0.4350262 0.13754643 0.80520695
0.44525924 0.13773841 0.80524999
0.45492408 0.13730182 0.80506968
0.46394441 0.13712136 0.80596298
-0.070508659 0.1495036 0.80900002
-0.054481193 0.14939801 0.80842865
-0.043565735 0.14962243 0.80850005
-0.034976717 0.14961708 0.80715388
-0.024568329 0.14867945 0.80505568
-0.015655031 0.14788534 0.80623084
-0.0049496139 0.14747748 0.80546898
0.0054925089 0.14731549 0.80532163
0.015108651 0.14730509 0.80607688
0.025200374 0.14721642 0.80503231
0.03407149 0.14742786 0.80480778
0.045364197 0.1473739 0.80577779
0.055625156 0.14804035 0.8047086
0.065226488 0.14755377 0.80411994
0.075143009 0.14643365 0.80386508
0.085259937 0.14672144 0.80465811
0.094622999 0.14568719 0.80586553
0.10449407 0.1459685 0.80603123
0.11500168 0.14555663 0.80546153
0.12501866 0.14460464 0.80460519
0.13543449 0.14457919 0.80380845
0.1450081 0.14530359 0.80404347
0.15496509 0.14503087 0.80384988
0.16484812 0.14550294 0.8048479
0.17501694 0.14606072 0.80341667
0.18492346 0.14655031 0.80429262
0.19513839 0.14561144 0.80500001
0.20495121 0.14539006 0.80429536
0.215021 0.14409757 0.80599993
0.2212356 0.14210305 0.8046667
0.32883692 0.14346178 0.80460006
0.33557698 0.14345138 0.80307412
0.34515992 0.14227259 0.80414301
0.35465917 0.14235997 0.80575007
0.3649562 0.14270571 0.80443764
0.37472078 0.14270978 0.8044827
0.3846651 0.14247705 0.80365723
0.39560515 0.14212753 0.80474061
0.40503418 0.14251226 0.8030358
0.41463757 0.14323615 0.80158347
0.4253619 0.14233664 0.80140018
0.43451053 0.14171977 0.80038893
0.44483361 0.14193316 0.80018187
0.454045 0.14139313 0.80025005
0.46284708 0.14113961 0.80000001
-0.35313645 0.15929143 0.80900002
-0.34840789 0.15924436 0.80900002
-0.30304986 0.1576729 0.80594122
-0.29478332 0.15703014 0.80468595
-0.28515801 0.15795667 0.8054074
-0.27497798 0.15775445 0.80573076
-0.26465747 0.15775725 0.80537945
-0.25489631 0.15765467 0.80468583
-0.24569082 0.15795052 0.806261
-0.23415975 0.15620464 0.8058486
-0.22562446 0.15748431 0.80580008
-0.21578647 0.15833299 0.80703986
-0.20479372 0.15897149 0.8063333
-0.19520399 0.15785551 0.80563998
-0.18438563 0.15826856 0.80508697
-0.17465597 0.15741509 0.80454063
-0.16488865 0.15636845 0.80541676
-0.15537509 0.15649126 0.80540556
-0.14483194 0.15619704 0.80425018
-0.13514835 0.15556265 0.80455881
-0.12470763 0.15465331 0.80460864
-0.11534233 0.15423888 0.803949
-0.10507169 0.15449499 0.80378252
-0.095178865 0.15398559 0.80506271
-0.085829958 0.15415323 0.80503041
-0.074647173 0.1542277 0.80343592
-0.065234534 0.15340348 0.80451357
-0.055319242 0.15230542 0.80356258
-0.044440538 0.15248694 0.80346698
-0.035104781 0.15299259 0.80338472
-0.024776919 0.15200098 0.80133331
-0.015124172 0.15195598 0.80257154
-0.0047042086 0.15116191 0.80194139
0.0051241471 0.15120576 0.80217659
0.015816277 0.15078588 0.80230772
0.022658858 0.15102611 0.80180007
0.038105462 0.15030871 0.80200005
0.04448561 0.15049209 0.80193329
0.053227078 0.15054114 0.80100006
0.074084632 0.15054114 0.80100006
0.082863063 0.15054116 0.80100006
0.20592505 0.15035321 0.80000001
-0.4056049 0.16898513 0.80900002
-0.39349234 0.16776364 0.8085556
-0.38472933 0.16665429 0.80510348
-0.37529099 0.16652058 0.80416322
-0.36473832 0.16551247 0.80438155
-0.35490271 0.16505909 0.80398297
-0.34539413 0.16489027 0.80496144
-0.33526421 0.16553119 0.80486965
-0.32492155 0.16619064 0.80422509
-0.31488958 0.16449991 0.8043673
-0.30642134 0.16365179 0.8028
-0.29525223 0.16102579 0.80077785
-0.28462195 0.16114655 0.80176944
-0.27538532 0.16088457 0.80207694
-0.26581684 0.16086249 0.80190903
-0.25057688 0.16144355 0.80100006
-0.24357922 0.16145113 0.80218202
-0.23474145 0.16169527 0.80208337
-0.22908726 0.16060489 0.80100006
-0.21460581 0.16178048 0.80357152
-0.20515384 0.16208908 0.80289495
-0.19560243 0.16138653 0.80211127
-0.1861217 0.16101743 0.80166674
-0.17642783 0.16080436 0.80200005
-0.16525052 0.16144355 0.80100006
-0.15108976 0.16016518 0.80300003
-0.14794837 0.16038504 0.80200005
-0.4032149 0.17274553 0.80500019
-0.3950958 0.17229946 0.80418187
-0.38547191 0.17185506 0.80095249
-0.37567395 0.17129318 0.80000001
-0.36753774 0.17129318 0.80000007
-0.35757789 0.17129318 0.80000001
0.43571755 0.12970281 0.81766671
0.46874291 0.12975568 0.81800002
0.47283083 0.12889923 0.81800002
0.036283821 0.13917658 0.81800002
0.04560715 0.13917658 0.81800002
0.055043105 0.13895591 0.81814283
0.064560048 0.13856363 0.81800014
0.075185165 0.13916114 0.81833339
0.085616469 0.13862485 0.81700021
0.09492109 0.13805865 0.81691319
0.10511281 0.13793117 0.81663656
0.11460103 0.137924 0.81786972
0.12474712 0.13790935 0.81710017
0.13565071 0.13847131 0.81611127
0.14551169 0.13846892 0.81700009
0.15524085 0.13837193 0.81656533
0.16428369 0.1386407 0.81737512
0.17533162 0.13896845 0.81714308
0.185047 0.13878964 0.81606686
0.19501805 0.1382834 0.81560892
0.2053161 0.13852939 0.81671447
0.21487267 0.13689065 0.81607163
0.33589929 0.13691887 0.81442869
0.3456454 0.13713659 0.81446427
0.35495859 0.13657698 0.81430304
0.36442831 0.13706891 0.81405002
0.37573943 0.13716511 0.8151843
0.38515353 0.13592042 0.8138299
0.39542589 0.13530503 0.8142224
0.40420192 0.13515541 0.81490916
0.41508976 0.13423505 0.81481844
0.42500368 0.13408303 0.81483352
0.43494976 0.13315395 0.81496567
0.44483367 0.13359198 0.81475008
0.45483053 0.13245469 0.81522727
0.46507955 0.13234572 0.81439298
0.47210222 0.13275561 0.81500012
-0.27243954 0.14994286 0.81600004
-0.26837391 0.14859748 0.81800002
-0.24449185 0.14945392 0.81800002
-0.1643285 0.14919688 0.81800002
-0.155606 0.14893799 0.81785738
-0.14379343 0.14871915 0.81820011
-0.13482131 0.14764135 0.81651998
-0.12477408 0.14807078 0.81532001
-0.11494451 0.14789419 0.81650013
-0.10477629 0.14773127 0.8155185
-0.094801366 0.14756928 0.81618756
-0.08492212 0.14765365 0.81635731
-0.074887089 0.14752869 0.81551445
-0.065039329 0.14718166 0.81482536
-0.054683115 0.14624766 0.81532371
-0.045017999 0.14613743 0.81429428
-0.034987617 0.14573531 0.81456411
-0.025129788 0.14452212 0.81411421
-0.015031044 0.14386757 0.81370366
-0.004582129 0.1435073 0.81577796
0.0052429405 0.14292151 0.81392872
0.01509943 0.14232604 0.81394613
0.024594072 0.14216955 0.81387502
0.035330139 0.14295036 0.81388593
0.044784091 0.14295141 0.81362504
0.054945387 0.14303733 0.81381392
0.065069973 0.14318898 0.813353
0.074869111 0.14210063 0.81475997
0.084981039 0.14201877 0.81295007
0.094755277 0.14079863 0.8114444
0.10494741 0.14149509 0.81189996
0.11437545 0.1414451 0.81300008
0.12443721 0.14091767 0.81199998
0.1330706 0.14070651 0.81255561
0.14605764 0.14082068 0.81266665
0.15429823 0.14118102 0.81180012
0.16626997 0.14154635 0.81346154
0.17489065 0.14129853 0.81315386
0.18516955 0.141775 0.81233335
0.1933914 0.14108481 0.81255561
0.2042558 0.14106515 0.81205881
0.21157649 0.1408467 0.81200016
0.33206788 0.14035964 0.81000006
0.35805994 0.14078367 0.81000006
0.38149539 0.14120771 0.81000006
-0.38289583 0.15859449 0.81766677
-0.37495038 0.15804473 0.8166154
-0.36553031 0.15877944 0.81587499
-0.35487148 0.15807913 0.81392306
-0.34436417 0.15803908 0.8168335
-0.33528921 0.15838306 0.81790018
-0.32474974 0.1582102 0.81706256
-0.31437588 0.15650299 0.81607407
-0.30549538 0.15420485 0.81373078
-0.29424602 0.15330692 0.81469256
-0.28481317 0.15341203 0.81462854
-0.27458754 0.15272485 0.81302691
-0.26569614 0.15308109 0.81400001
-0.25494343 0.15312667 0.81433332
-0.24492052 0.15356553 0.81411135
-0.23713548 0.15341143 0.81628579
-0.22407584 0.15351759 0.81269228
-0.21444964 0.15346374 0.81452197
-0.20547797 0.15524444 0.81422216
-0.1942281 0.15368934 0.81563902
-0.18532217 0.15347004 0.81459999
-0.17537867 0.15220931 0.81542432
-0.16510227 0.15167041 0.81306678
-0.15505949 0.15178297 0.81273907
-0.14513965 0.15167125 0.81328583
-0.1356927 0.15124388 0.81236833
-0.12637229 0.15065382 0.81128579
-0.1142448 0.15078428 0.81133336
-0.10487393 0.15072234 0.81100005
-0.094937198 0.15105832 0.81166667
-0.084000327 0.1508866 0.81188893
-0.077991419 0.15143445 0.81157148
-0.41169363 0.16564149 0.81550014
-0.40467092 0.16585751 0.81480008
-0.39579388 0.16424718 0.81494302
-0.38532609 0.16218489 0.81395239
-0.37512827 0.16176765 0.81237495
-0.36822268 0.16133073 0.81140006
-0.34403983 0.16037355 0.81149995
-0.33514094 0.16133705 0.81264704
-0.32530826 0.16146097 0.81214291
-0.31439263 0.1605933 0.81099999
-0.30916646 0.16091171 0.81100005
-0.41019684 0.17089014 0.81000006
-0.40518242 0.17093234 0.81020004
-0.39893854 0.17141965 0.81050003
0.097271338 0.12960811 0.82800007
0.13908587 0.12874119 0.82800007
0.14409491 0.12874119 0.82800007
0.17675795 0.12976463 0.82900006
0.18809639 0.12976463 0.82900006
0.19542277 0.12976463 0.82900012
0.20414467 0.12976463 0.82900012
0.21582989 0.12908232 0.82833338
0.22117373 0.12840003 0.8276667
0.34435171 0.12828057 0.82653344
0.35534832 0.12876128 0.82766676
0.36520103 0.12947394 0.82714301
0.37512898 0.12889965 0.82625014
0.38452476 0.12915036 0.82612514
0.39537501 0.12837312 0.8254168
0.40487248 0.12817095 0.82556516
0.4145076 0.12739423 0.82533336
0.42565012 0.12829654 0.82647628
0.43498951 0.12753163 0.82424003
0.44490507 0.1268858 0.82460016
0.45500609 0.12687118 0.82453853
0.46503633 0.12598673 0.82546508
0.47421333 0.12553088 0.82488239
0.48115158 0.12368889 0.82900006
-0.10608891 0.13898923 0.82760012
-0.095181465 0.13868564 0.82809097
-0.085267939 0.1390387 0.82806695
-0.075125866 0.13891347 0.8276667
-0.064623877 0.1386853 0.82700014
-0.054710586 0.13850304 0.82677776
-0.044585254 0.13795297 0.82722223
-0.034719512 0.13836271 0.825625
-0.024822691 0.13744526 0.82555163
-0.015054102 0.13715492 0.82648575
-0.0050943377 0.13666891 0.82516652
0.0049060411 0.13650061 0.82419997
0.014872923 0.13557887 0.82383347
0.024974175 0.13577974 0.82377779
0.034296818 0.13641782 0.82397562
0.044905741 0.13671833 0.82341152
0.054940317 0.13521056 0.8230809
0.064287581 0.13497515 0.82341933
0.074907757 0.13551535 0.8241176
0.084696941 0.1350477 0.824
0.094700776 0.13358375 0.82394123
0.10465756 0.13341053 0.8235482
0.11519767 0.13329522 0.82387882
0.12481635 0.13327825 0.82347053
0.13495646 0.13382912 0.82420504
0.14497563 0.1334496 0.82390898
0.15487887 0.13339753 0.82331431
0.1652666 0.13419797 0.82390004
0.17459035 0.1346622 0.82356763
0.1853918 0.13502087 0.82484853
0.1949279 0.1336077 0.82471073
0.20520523 0.13370863 0.824
0.21477866 0.13252303 0.82441378
0.22068137 0.13093829 0.82366675
0.33912915 0.13226937 0.82300007
0.34587523 0.13205603 0.82242858
0.35568941 0.13226181 0.82295007
0.36526579 0.13174964 0.82212001
0.37460202 0.13230981 0.8209523
0.38358265 0.13166246 0.82100004
0.39416566 0.13148181 0.82138461
0.40520704 0.13137978 0.8203637
0.41390628 0.13129003 0.82127279
0.42547947 0.13102336 0.82283342
0.43084049 0.13017869 0.82066673
0.44608825 0.13070074 0.82125008
0.45397738 0.13042244 0.82072729
0.46307394 0.13017869 0.82066673
-0.36487091 0.1488598 0.82900006
-0.35789341 0.1488598 0.82900006
-0.3239148 0.14888892 0.82820004
-0.31467691 0.14679538 0.82537043
-0.30532083 0.1472526 0.82600015
-0.29429665 0.1467199 0.82462502
-0.28499389 0.14704865 0.82440561
-0.27506161 0.14762008 0.82444459
-0.26487669 0.14764005 0.82544446
-0.25503504 0.14747033 0.8251034
-0.24453555 0.14812058 0.82366687
-0.23496141 0.14720657 0.82677776
-0.22507326 0.14721167 0.82429641
-0.2155885 0.14767173 0.82336682
-0.20438927 0.14736587 0.82580006
-0.19484717 0.14652634 0.82513511
-0.18491112 0.14692196 0.82417637
-0.17464459 0.14621226 0.82415372
-0.16603614 0.14619313 0.8247931
-0.15422283 0.14580949 0.82503349
-0.14525285 0.14480014 0.82386839
-0.13516656 0.14455469 0.82426322
-0.12475794 0.14322789 0.82440627
-0.11543979 0.14283508 0.8238439
-0.10514798 0.14286573 0.82387495
-0.09525305 0.14250816 0.82439393
-0.084861048 0.14290884 0.82362974
-0.075044289 0.14257103 0.82259274
-0.064466007 0.14166628 0.82109523
-0.05532261 0.14194128 0.8209998
-0.044718083 0.14118959 0.82150012
-0.035341121 0.14138672 0.82089478
-0.023798201 0.14031705 0.82077783
-0.014691245 0.14126202 0.82099998
-0.0056622708 0.14077599 0.82011122
0.0050065289 0.14037539 0.82000011
-0.42018348 0.15995015 0.82800007
-0.41405427 0.1594201 0.8275001
-0.40410033 0.15867102 0.82547837
-0.39460242 0.15748169 0.82544005
-0.38498726 0.15597257 0.82455564
-0.37357053 0.15445593 0.82500011
-0.36514989 0.15462522 0.82461911
-0.35442153 0.153725 0.82472372
-0.34512302 0.15409112 0.82451594
-0.33471689 0.15427442 0.82550001
-0.32501176 0.15413539 0.82379305
-0.31616119 0.1522595 0.82222724
-0.30477116 0.15061882 0.8214376
-0.29605222 0.15103447 0.82116669
-0.28067681 0.15067787 0.82000005
-0.26352331 0.15084 0.82166672
-0.25562379 0.15054549 0.82162505
-0.23503262 0.15139176 0.82223535
-0.22680262 0.15099421 0.82172745
-0.21563479 0.15018475 0.82200003
-0.20400725 0.15138805 0.82075012
-0.19723114 0.15129089 0.8210001
-0.41452482 0.16189131 0.82388246
-0.40654084 0.16169697 0.82190001
-0.39523017 0.1606575 0.82275003
0.40614444 0.11976741 0.83800006
0.41598421 0.11897975 0.83740008
0.42143545 0.11895116 0.83720011
0.4371067 0.11944461 0.83820009
0.44561768 0.11866906 0.83821428
0.45503816 0.11804012 0.83820009
0.46443734 0.11839534 0.83608353
0.4751668 0.11816747 0.83534789
0.4832826 0.11774498 0.83657146
-0.012657749 0.12869464 0.83900005
-0.0025060649 0.12891042 0.83850002
0.0045653805 0.12826914 0.83623546
0.015021828 0.12843528 0.83693349
0.025254177 0.12808295 0.83542877
0.034843456 0.1281601 0.8361001
0.04485153 0.12881592 0.8360002
0.055027217 0.12866382 0.83610541
0.065308563 0.12839171 0.83590001
0.074725099 0.12847257 0.8356666
0.085330524 0.12809479 0.83619058
0.094806775 0.12859105 0.83365226
0.10543471 0.1281414 0.83541167
0.11578029 0.12824853 0.83365226
0.12521014 0.12785605 0.83399993
0.13472506 0.12741259 0.83414298
0.14547606 0.12773493 0.83336848
0.15493031 0.12703758 0.83475012
0.16485591 0.12742899 0.83475
0.17473008 0.12776025 0.8347857
0.18519486 0.12731542 0.83574086
0.19527943 0.12672007 0.83658618
0.20416801 0.12671803 0.83595997
0.21490677 0.12780248 0.83571988
0.22227271 0.12718055 0.83700001
0.34778821 0.12507066 0.83244443
0.35578358 0.12543333 0.83409095
0.36547899 0.12564538 0.83399993
0.37529483 0.1243247 0.83410794
0.38457328 0.12413385 0.83390254
0.39482516 0.12397274 0.83443236
0.40548423 0.12368648 0.83427602
0.41469753 0.12291188 0.8330304
0.42544481 0.1235226 0.8331725
0.43472543 0.12320749 0.83412898
0.44456136 0.12258464 0.83469242
0.45488068 0.12225626 0.83415157
0.46397197 0.12175559 0.83176923
0.47514516 0.12142548 0.8313334
0.48155147 0.12131913 0.8318001
-0.32316518 0.13776717 0.83875012
-0.31641123 0.1381513 0.83740002
-0.30946103 0.13873798 0.83600003
-0.28048381 0.13941732 0.83833337
-0.27768964 0.13978027 0.83700007
-0.26409331 0.13922319 0.83716667
-0.25582513 0.13986376 0.83750004
-0.24416044 0.1389353 0.83777791
-0.2377612 0.13914752 0.83771437
-0.22335869 0.13906989 0.83800006
-0.21454212 0.13906989 0.83800006
-0.20238069 0.13927317 0.83771443
-0.19546926 0.13964443 0.8375001
-0.1846845 0.13925615 0.83672732
-0.17511967 0.139127 0.83690923
-0.16524395 0.13801058 0.83578956
-0.15493599 0.13880037 0.83560008
-0.14478877 0.13840386 0.83466661
-0.13477118 0.1374056 0.83613652
-0.12488826 0.13732526 0.83503038
-0.11517105 0.13704577 0.83548582
-0.10506381 0.13605313 0.83531022
-0.095079809 0.13508861 0.83463633
-0.08481703 0.13469279 0.83452612
-0.075351857 0.13494009 0.8343749
-0.065066651 0.13490288 0.83519357
-0.054893989 0.13405913 0.83415806
-0.045030221 0.1332612 0.83511442
-0.034601476 0.13374737 0.83372355
-0.025418008 0.13249154 0.83456522
-0.015246336 0.13191468 0.83578575
-0.0054208725 0.13185832 0.83450001
0.0046679685 0.13204962 0.83300012
0.014615138 0.13138559 0.83378583
0.024756011 0.13082787 0.83142859
0.035119805 0.13168205 0.83176464
0.044650745 0.13237031 0.83119994
0.053610653 0.13170172 0.83127266
0.06605982 0.13163601 0.83142859
0.074796058 0.13131508 0.83186656
0.084961988 0.13170135 0.832111
0.10553496 0.13070922 0.83133328
0.11073816 0.1309467 0.83100003
0.1261294 0.13060486 0.83066672
0.13418239 0.13079017 0.83000004
0.15448521 0.13079017 0.83000004
0.1631978 0.13051221 0.83100003
0.17810518 0.13102658 0.83039999
0.18424037 0.13138211 0.83100009
0.19313674 0.13089453 0.83066672
0.20822175 0.13007769 0.83100003
-0.41026995 0.14959851 0.83800006
-0.40467131 0.14953899 0.83766675
-0.39467379 0.14918703 0.83733338
-0.38508973 0.14834154 0.83629173
-0.37421319 0.14744243 0.83493352
-0.36459732 0.14682655 0.8350625
-0.35530451 0.14692241 0.83486187
-0.34552348 0.14783679 0.83585715
-0.33475888 0.14704603 0.83687097
-0.32533947 0.14455155 0.83654308
-0.31464782 0.1424354 0.83347988
-0.30548146 0.14268485 0.83400011
-0.29551837 0.14203615 0.83523077
-0.28496662 0.1424128 0.83493102
-0.27453938 0.14287664 0.83433342
-0.26531664 0.14328392 0.83437943
-0.25466284 0.14319596 0.83432144
-0.24513441 0.14350826 0.83418757
-0.2350738 0.1424775 0.83381474
-0.22439343 0.14290656 0.83481479
-0.21449651 0.14318471 0.83358818
-0.20584452 0.14222701 0.83300012
-0.19469725 0.14205922 0.83211106
-0.18484101 0.14245696 0.83217382
-0.17500585 0.14172983 0.83237499
-0.16450323 0.14263915 0.83191311
-0.15689175 0.14190748 0.83149993
-0.14448532 0.14099437 0.83125001
-0.13543878 0.14150338 0.83219999
-0.12905805 0.14162138 0.83066672
-0.11163474 0.14034927 0.83000004
-0.42184409 0.15458815 0.83300006
-0.41538408 0.15470482 0.83369541
-0.4048456 0.15348683 0.83294445
-0.39525467 0.1527292 0.8336553
-0.38528141 0.15269494 0.83163637
-0.37613103 0.15217023 0.83030772
-0.36468729 0.15090154 0.83000004
-0.34449625 0.15123987 0.83175009
-0.33540073 0.15046188 0.83100003
-0.32803169 0.15120764 0.83100003
0.067205094 0.11942091 0.84800005
0.1184962 0.11867283 0.84900004
0.124366 0.11867283 0.8490001
0.13587324 0.11897096 0.84875005
0.14486516 0.11871627 0.84812504
0.15511864 0.11956173 0.8490001
0.16338101 0.11956172 0.84900004
0.17715977 0.11917154 0.84833336
0.18415277 0.11867771 0.84833336
0.19570228 0.11910724 0.84683341
0.20437832 0.11891072 0.84788889
0.21217421 0.11988313 0.84500003
0.22345072 0.11956172 0.84900004
0.34949666 0.11736772 0.84600002
0.35287231 0.1191463 0.84450006
0.36552635 0.11833028 0.84530002
0.3754341 0.1183549 0.84523809
0.38451415 0.11750097 0.84392613
0.39522859 0.11758263 0.84527999
0.40534154 0.1165914 0.84462881
0.41453782 0.11548369 0.84377795
0.42567411 0.11558392 0.84432137
0.43467486 0.11662409 0.84424001
0.4451502 0.11588683 0.84414285
0.45465574 0.11484027 0.84357142
0.46511915 0.11453318 0.84499997
0.47475836 0.11452395 0.84515387
0.485834 0.11452033 0.84500009
0.49101841 0.11293787 0.84600008
-0.15349236 0.12933965 0.84900004
-0.14251436 0.12953369 0.84833336
-0.13494694 0.12948257 0.84800005
-0.12441596 0.12906142 0.84766674
-0.11515387 0.12812223 0.84733361
-0.10496218 0.12817608 0.84747624
-0.095366418 0.12804745 0.84635997
-0.084109634 0.12843874 0.84647369
-0.075021908 0.12741376 0.84690487
-0.064738676 0.12780699 0.84575021
-0.055143084 0.12744558 0.84477764
-0.044722427 0.12800638 0.84515995
-0.035234436 0.12751883 0.84610343
-0.024677807 0.12694713 0.84531254
-0.014438069 0.12581094 0.84389478
-0.0046905186 0.1249695 0.84339476
0.0052014985 0.124222 0.84492308
0.014530831 0.12507907 0.84342855
0.02489662 0.12379354 0.84400016
0.034334715 0.12398534 0.84414297
0.04505251 0.12532042 0.84447628
0.055863071 0.12442942 0.84393549
0.064937539 0.12367035 0.84264725
0.075363189 0.12354625 0.84478951
0.085091874 0.12362666 0.84437513
0.095062666 0.12347995 0.84494442
0.10451076 0.12372142 0.84353864
0.11490582 0.12364698 0.84393764
0.12498986 0.12278403 0.84510839
0.13486166 0.12243889 0.8433103
0.14497156 0.12334792 0.84287882
0.15511121 0.12265878 0.84391999
0.1655867 0.12231266 0.84372008
0.17516473 0.12253426 0.84414309
0.18488283 0.12255483 0.8439334
0.19461815 0.1221766 0.84336352
0.20586391 0.12234402 0.8436957
0.21513288 0.12288123 0.84445471
0.22260265 0.12280941 0.84385735
0.35495543 0.12220274 0.84066677
0.36512738 0.12195618 0.84100014
0.3744162 0.1209807 0.8403334
0.38943851 0.12093272 0.84000003
0.39527994 0.12046787 0.84114295
0.40357867 0.12005325 0.84000009
0.41153255 0.12005325 0.84000003
0.42744026 0.12005325 0.84000003
0.43274283 0.12022914 0.84000009
-0.38689336 0.13911758 0.8490001
-0.37056547 0.13967668 0.84700006
-0.36544603 0.13930264 0.84675014
-0.3513428 0.13822867 0.84900004
-0.34583604 0.13880788 0.84820002
-0.33295292 0.13747929 0.84660012
-0.32562494 0.13561265 0.84381825
-0.31462562 0.13567236 0.84635711
-0.30521902 0.13682632 0.84477502
-0.29474303 0.1371309 0.84427291
-0.28498983 0.13632211 0.84462839
-0.27487329 0.13673151 0.84390616
-0.26472989 0.13668007 0.84420693
-0.25521582 0.13685133 0.84533346
-0.24497436 0.13586338 0.84384006
-0.23440075 0.13604403 0.84460014
-0.22562908 0.13578793 0.84410012
-0.21483013 0.13754335 0.84391683
-0.20531309 0.13597187 0.8451333
-0.19482385 0.13625759 0.84372228
-0.18519509 0.13624516 0.84434509
-0.17516534 0.13576983 0.84310347
-0.16465652 0.1347298 0.84382612
-0.15490268 0.13447629 0.84452951
-0.14540331 0.1331438 0.84481263
-0.13487189 0.13308005 0.84293568
-0.12494891 0.13277447 0.84205008
-0.11501527 0.13215365 0.84230012
-0.10459684 0.13187721 0.84310532
-0.094485141 0.13099761 0.84188884
-0.086603828 0.13077171 0.84219998
-0.074282929 0.13123828 0.84179991
-0.06623356 0.13119619 0.8416155
-0.055350155 0.13057193 0.8416667
-0.022420868 0.13076249 0.84100002
-0.431225 0.14872013 0.84800005
-0.42484236 0.14858882 0.84683323
-0.41484731 0.14703147 0.84361297
-0.4052383 0.1462525 0.84447229
-0.39506489 0.14457521 0.8447299
-0.38538745 0.14358623 0.84531575
-0.37475491 0.1428638 0.84490007
-0.36400753 0.14199436 0.8435455
-0.35498491 0.14279653 0.84631038
-0.34487274 0.14288889 0.84429431
-0.33582219 0.14204223 0.8433637
-0.32945108 0.1413288 0.84100002
-0.2701686 0.14044827 0.84100002
-0.26132044 0.14044827 0.84100002
-0.25459123 0.14070028 0.84040004
-0.24775331 0.14028126 0.84000003
-0.23184562 0.14116074 0.84000003
-0.22713223 0.14116076 0.84000003
-0.42355889 0.15127106 0.84314293
-0.41920298 0.1517145 0.84000003
0.35723126 0.10979273 0.85600007
0.3765572 0.10927816 0.85900009
0.38198224 0.10921454 0.85850006
0.39665523 0.10915093 0.85800004
0.40407559 0.10953601 0.85680008
0.41512021 0.10926154 0.85585719
0.42551336 0.10870944 0.85688889
0.43525335 0.10854472 0.85653329
0.444976 0.10866714 0.85655552
0.45472303 0.10809357 0.85674995
0.46482986 0.10891142 0.85699999
0.47561359 0.10793826 0.85635287
0.48563027 0.10687157 0.85625005
0.49302679 0.1069093 0.85519999
-0.040975764 0.11917125 0.85900003
-0.034075893 0.11902415 0.85875005
-0.0238772 0.11803344 0.85800016
-0.014599345 0.11813315 0.85800004
-0.0041925344 0.11857613 0.85860014
0.0059636948 0.11787992 0.85673922
0.014979266 0.11769752 0.85675001
0.024607444 0.11746493 0.85549998
0.034895252 0.11666792 0.85658813
0.044839367 0.11706293 0.85699999
0.055091802 0.11730916 0.85529995
0.06486591 0.11734474 0.85592604
0.074749358 0.11718079 0.85391432
0.085110627 0.11709639 0.85460001
0.095518216 0.11662918 0.85452801
0.10488395 0.1166357 0.85429031
0.11484641 0.1164108 0.85449982
0.12509465 0.11553269 0.85429633
0.13487846 0.11580415 0.85457152
0.14489983 0.11520375 0.85500002
0.154732 0.11590088 0.85460001
0.16500913 0.11643831 0.85516155
0.17448239 0.11661779 0.85459995
0.18512861 0.11620258 0.85494745
0.19463187 0.11633699 0.8549999
0.2055694 0.11607799 0.85485721
0.21494077 0.11657003 0.85464519
0.22485286 0.1156529 0.85500014
0.23078433 0.11364256 0.85800004
0.35588518 0.11440108 0.85264689
0.36432496 0.11358777 0.85518181
0.37500405 0.11376897 0.85450006
0.38448074 0.11276468 0.85491985
0.39494741 0.1127153 0.85430318
0.40487382 0.11217692 0.85338104
0.41454646 0.11144413 0.85220003
0.42553982 0.11166363 0.85433334
0.43596253 0.11236191 0.85270596
0.4449535 0.11246078 0.85274994
0.45479298 0.11179324 0.85221058
0.46491903 0.11112554 0.85200006
0.47497258 0.1111289 0.85160017
0.48535085 0.11127787 0.85160017
0.49145639 0.11048739 0.85100007
-0.33305264 0.12820759 0.85842872
-0.32618067 0.1285767 0.85800004
-0.31411669 0.12880251 0.85726678
-0.30546927 0.12846312 0.85721058
-0.29528728 0.12861344 0.85685724
-0.28697467 0.12913632 0.85650003
-0.27414355 0.12936413 0.85900009
-0.26510602 0.12906434 0.85900009
-0.25417414 0.12825693 0.85776925
-0.24431974 0.12906434 0.85900003
-0.23414648 0.12913597 0.85650003
-0.22327526 0.12919281 0.85900009
-0.21521594 0.12884942 0.85800016
-0.20381644 0.12906311 0.85780001
-0.1958444 0.12914459 0.85790914
-0.18478745 0.12883258 0.85792315
-0.17423423 0.12772125 0.85633343
-0.16564994 0.12702073 0.85628581
-0.15477528 0.12772021 0.85433334
-0.14480792 0.12714379 0.85473078
-0.13458763 0.12585092 0.85431999
-0.12507364 0.12520809 0.85466683
-0.11438334 0.12404855 0.85465211
-0.10543951 0.12393154 0.85409099
-0.094710782 0.12371544 0.85429639
-0.084903657 0.12440899 0.8543846
-0.075478062 0.12384441 0.85436839
-0.065149106 0.12394916 0.85599989
-0.054509051 0.1229555 0.85480767
-0.045743786 0.12258025 0.85518736
-0.035518482 0.12243405 0.85251844
-0.02575957 0.12204628 0.85266674
-0.015622119 0.12124872 0.85352939
-0.0047986344 0.12066145 0.85364282
0.0053384579 0.12079028 0.85140002
0.015079964 0.12174256 0.85183334
0.021382591 0.12103747 0.85000002
0.037059728 0.12155633 0.85109091
0.04527247 0.12162329 0.85100019
0.05289162 0.12129547 0.8512001
0.083758771 0.1205925 0.85000002
0.093595877 0.1205925 0.85000002
0.10879867 0.1205925 0.85000002
0.11349365 0.1205925 0.85000002
-0.42186701 0.13969399 0.85800004
-0.41193733 0.13879567 0.85800004
-0.40372354 0.13739862 0.85571426
-0.39487129 0.13673672 0.8544687
-0.38478228 0.13739336 0.85488003
-0.37510371 0.1380637 0.85460007
-0.36429501 0.13717072 0.85378939
-0.35603583 0.1370998 0.85491675
-0.3453458 0.13768362 0.85628569
-0.33569947 0.13337822 0.85594434
-0.32543159 0.13218747 0.85479999
-0.31550416 0.1320952 0.85223079
-0.30389902 0.13196407 0.85160011
-0.29499164 0.132185 0.85257912
-0.28439039 0.13181525 0.85327274
-0.27458197 0.13250095 0.8552174
-0.26452896 0.13257991 0.8536399
-0.25469032 0.13241529 0.85344821
-0.24505338 0.13202989 0.85466671
-0.23590215 0.13104145 0.85307151
-0.22380628 0.13269126 0.85487509
-0.21572666 0.1333022 0.85341388
-0.20473173 0.13203362 0.85366684
-0.19461247 0.13154079 0.85305572
-0.18468998 0.13162859 0.85233337
-0.17494439 0.13182727 0.85123533
-0.16522646 0.13128974 0.85193753
-0.15539785 0.1312719 0.85000002
-0.43311161 0.14610927 0.85614306
-0.42496863 0.14409032 0.85408008
-0.41497496 0.14191496 0.85345459
-0.40591457 0.14197254 0.85281247
-0.39872786 0.14122729 0.85100001
-0.3821646 0.14086424 0.85150003
-0.37813517 0.14122729 0.85100001
-0.35627717 0.14111505 0.85140002
0.46733958 0.099632189 0.86900002
0.47458848 0.099502221 0.86900008
0.49100214 0.099517539 0.86800003
0.027370367 0.10791587 0.86733341
0.03115996 0.10848038 0.86700004
0.047649555 0.10863677 0.86825001
0.055825759 0.10945848 0.86900008
0.06419643 0.10943828 0.86900002
0.075182214 0.10938051 0.86900008
0.08532618 0.10954583 0.86825001
0.096414082 0.10973172 0.86733329
0.10574327 0.10902002 0.8665002
0.11466507 0.10755858 0.86805272
