# .PCD v0.7 - Point Cloud Data file format
VERSION 0.7
FIELDS x y z
SIZE 4 4 4
TYPE F F F
COUNT 1 1 1
WIDTH 305
HEIGHT 1
VIEWPOINT 0 0 0 1 0 0 0
POINTS 305
DATA ascii
0.20686482 0.048095349 0.55699998
0.21518525 0.048340842 0.55634141
0.22402333 0.048697811 0.55378795
0.23571153 0.047779258 0.55446672
0.2409129 0.046063285 0.55760002
0.20836042 0.051610626 0.55792314
0.21565165 0.054193955 0.55715817
0.22515436 0.054882359 0.55701947
0.23333216 0.053365033 0.55766672
0.21992019 0.039480533 0.56700003
0.22091776 0.039445721 0.56650007
0.23266879 0.039024051 0.56900001
0.24576642 0.039165948 0.56434786
0.25199777 0.038272779 0.56607699
0.19720161 0.048499938 0.56695002
0.20692348 0.043638468 0.56534886
0.21499453 0.042926099 0.56397152
0.22169386 0.043188915 0.56342864
0.23844448 0.041881852 0.56275004
0.24503306 0.043408249 0.56198186
0.25154033 0.041789033 0.5634445
0.19842471 0.054043937 0.56759465
0.20471983 0.055440448 0.56350881
0.21310215 0.058196273 0.56117147
0.22574817 0.059514306 0.56
0.23623115 0.05705962 0.56123811
0.24372348 0.055507798 0.5650726
0.20590962 0.064369053 0.56739789
0.2149965 0.06526161 0.56470639
0.22496253 0.065266863 0.56382203
0.23464884 0.06513489 0.56549424
0.24373493 0.062922403 0.56786495
0.20952126 0.070399836 0.56900001
0.21567029 0.072752878 0.56806141
0.22513787 0.073831782 0.56788433
0.23371276 0.071770765 0.56843483
0.18911895 0.034598257 0.57800001
0.19453432 0.034485385 0.57811773
0.20613326 0.036736559 0.57485467
0.21471398 0.037053023 0.57363337
0.22174548 0.036220688 0.57420009
0.23737215 0.03736807 0.57258344
0.24481274 0.036297187 0.57389283
0.25277597 0.033948176 0.57420009
0.18901922 0.045874298 0.57720006
0.19232148 0.046696182 0.57481825
0.21618298 0.040859085 0.57085723
0.19415092 0.054956958 0.57385546
0.1975041 0.064471066 0.57517189
0.20192462 0.066793822 0.5714848
0.24567915 0.067055993 0.57185352
0.19876648 0.072563149 0.57800001
0.20491989 0.074742079 0.57450008
0.21455689 0.077385865 0.57141256
0.22464399 0.078974016 0.57058626
0.23544891 0.076113679 0.57167202
0.24432181 0.074844226 0.57522744
0.20694003 0.082984328 0.57759529
0.21517877 0.084604591 0.57517225
0.22489969 0.085280284 0.57424426
0.23461944 0.084699638 0.57603884
0.24361779 0.083045483 0.57768571
0.21816321 0.090357959 0.57880002
0.22495198 0.09123902 0.57800001
0.23195413 0.090983719 0.57866669
0.19446869 0.02716097 0.58691484
0.20478068 0.028104575 0.58681834
0.21074367 0.028629016 0.58800006
0.23611672 0.027982136 0.58824152
0.24445528 0.028051356 0.58655894
0.25530446 0.02686788 0.58697563
0.188683 0.031280115 0.58149999
0.19543663 0.03181364 0.58125007
0.20456846 0.032068733 0.58251351
0.21080422 0.031911582 0.58050001
0.2378 0.032551903 0.58289474
0.24462894 0.031891238 0.58210868
0.25213686 0.030800398 0.58122224
0.19166724 0.058686163 0.58283341
0.19337347 0.065249301 0.58419722
0.1962731 0.075244993 0.58432448
0.20100558 0.078846313 0.58060008
0.24815068 0.078643084 0.58000004
0.19796205 0.083921127 0.58625525
0.20334946 0.085944816 0.58219463
0.21173915 0.088713884 0.58055556
0.23814312 0.089087956 0.58000004
0.24362426 0.087325796 0.58187509
0.19949599 0.091488354 0.58840007
0.20525187 0.094682105 0.5854609
0.2147781 0.094946161 0.58179873
0.22511075 0.096245699 0.58129877
0.23477353 0.095610589 0.58252639
0.24383932 0.094310522 0.5863061
0.20787212 0.10259075 0.58817393
0.21517305 0.10468832 0.58686471
0.22478938 0.10500617 0.58608347
0.23439096 0.10452705 0.58750015
0.24079742 0.10136145 0.58850002
0.21844977 0.11060944 0.58900005
0.22522207 0.11056539 0.58900011
0.230932 0.11008086 0.58900005
0.19877693 0.018954476 0.59740001
0.20476474 0.019461498 0.59863639
0.2115161 0.019428302 0.59850001
0.24587724 0.018526331 0.59804165
0.25118712 0.018504255 0.59500003
0.19666034 0.023037303 0.59270841
0.20529452 0.023238886 0.59498119
0.2146495 0.023544883 0.59663475
0.22540656 0.02417995 0.59470326
0.23468082 0.023917485 0.59459662
0.24525899 0.022894477 0.5948593
0.25276351 0.02339647 0.59228206
0.18924354 0.067359187 0.5951001
0.19081782 0.067442648 0.59171432
0.18920581 0.071704268 0.59550005
0.19235837 0.075437069 0.59470898
0.18947792 0.081219323 0.59900004
0.19435231 0.085061356 0.59424615
0.19702017 0.094685808 0.59510833
0.20103523 0.098309629 0.59083343
0.24739166 0.097695723 0.59084213
0.25097051 0.094795801 0.59200001
0.19834071 0.10459413 0.59771436
0.20417731 0.10572944 0.59279996
0.21083975 0.10965003 0.59000003
0.2381424 0.10796233 0.59090012
0.24525769 0.1053765 0.59429312
0.25039923 0.10449202 0.597
0.19929405 0.11092353 0.59820002
0.2057483 0.11460944 0.59616899
0.21452567 0.11518894 0.59253669
0.22484678 0.11596257 0.59225893
0.23465568 0.11479189 0.59310526
0.24381414 0.11413278 0.59690398
0.2083309 0.12200515 0.59815389
0.21471038 0.12353628 0.59734434
0.22466555 0.12445415 0.59703088
0.23403622 0.12308361 0.59748894
0.24136953 0.12052277 0.59875
0.20566013 0.01660772 0.60195112
0.21546631 0.01571385 0.60511488
0.2257161 0.016764186 0.60431266
0.23513775 0.016097562 0.6044929
0.24147914 0.016551983 0.60194117
0.21790925 0.020750672 0.60049999
0.22516648 0.020430898 0.60033333
0.23405716 0.020508261 0.60055554
0.19231927 0.08512412 0.60000002
0.19380635 0.095269725 0.60168189
0.19515699 0.10606514 0.60262001
0.19696273 0.1149139 0.60510945
0.20194352 0.11758676 0.60109532
0.24631214 0.11943418 0.60275006
0.19842377 0.12292001 0.60700005
0.20441926 0.12550235 0.60342574
0.21503243 0.12848914 0.60033339
0.22623371 0.12910044 0.600375
0.23603302 0.12734477 0.6007098
0.24514073 0.12577334 0.60538471
0.2511299 0.12553287 0.60845464
0.20653065 0.13409148 0.60633898
0.21481939 0.13500699 0.60373908
0.22448231 0.13488352 0.60267925
0.23496522 0.13511093 0.60456789
0.24332759 0.13356413 0.60771883
0.21606687 0.14304785 0.6077857
0.22498666 0.14274882 0.60764438
0.23436052 0.14212222 0.60690629
0.19338268 0.1176139 0.61416
0.19493796 0.12493715 0.61545986
0.24879226 0.12741771 0.61000001
0.25007582 0.12741771 0.61000001
0.19763422 0.13397859 0.61559093
0.20235682 0.13625091 0.61180013
0.2471278 0.13635072 0.61189288
0.25031596 0.13439973 0.61216676
0.19873582 0.14143644 0.61880004
0.20488061 0.14459042 0.61501008
0.21357097 0.14677761 0.61082631
0.22545125 0.14748414 0.61020011
0.23436369 0.14734766 0.61194116
0.24498409 0.14506598 0.61684775
0.25042909 0.14267777 0.61800003
0.20732372 0.15282361 0.6178388
0.21468739 0.15489084 0.61499995
0.22469446 0.15460372 0.61374688
0.23469032 0.15469091 0.61590606
0.2420561 0.15316898 0.61842114
0.21706419 0.16281612 0.61846673
0.22456363 0.16284758 0.61810642
0.2321181 0.16159387 0.61858332
0.18891223 0.12449915 0.62144452
0.19144532 0.12796856 0.62085724
0.18923575 0.13119745 0.62600005
0.19399875 0.13511105 0.62267393
0.19700031 0.14490367 0.6249637
0.20076343 0.14822373 0.62125003
0.24798934 0.14818044 0.62014288
0.25041449 0.1488111 0.62200004
0.19841304 0.15343611 0.62791997
0.20358106 0.15584438 0.62295663
0.21047132 0.15936695 0.62
0.23951852 0.15901987 0.62033337
0.24574754 0.15564986 0.62221062
0.25142559 0.15685847 0.62753856
0.19962941 0.16036321 0.62900001
0.20570518 0.16435137 0.62524372
0.21359649 0.16598886 0.62154382
0.22619866 0.16780198 0.62106448
0.23549445 0.16559246 0.62214816
0.24425557 0.16505401 0.62634015
0.20832285 0.17237996 0.62838894
0.21497869 0.17453946 0.62600005
0.22437213 0.17488277 0.62524641
0.23468569 0.17376839 0.6274001
0.24308555 0.17155878 0.62900001
0.21844256 0.18077867 0.62900001
0.22316355 0.18197231 0.62900001
0.19434042 0.14708135 0.63293755
0.1955086 0.15550959 0.63392729
0.19773711 0.16426757 0.63502008
0.20164128 0.16773841 0.63163644
0.24833269 0.16919309 0.63000005
0.19924481 0.17222565 0.63880008
0.20437159 0.17533669 0.63345337
0.21231943 0.17974684 0.63000005
0.22977372 0.17908724 0.63000005
0.23653738 0.17789115 0.63043481
0.24530749 0.17583412 0.63248003
0.25166574 0.17673099 0.63788891
0.20661025 0.18420872 0.63595086
0.21463628 0.18531488 0.63214457
0.22540917 0.18599445 0.6315192
0.23461863 0.18495761 0.63343269
0.24421112 0.18512814 0.63737053
0.25069448 0.18226747 0.6388334
0.20844108 0.1912894 0.63824999
0.215648 0.19371162 0.63722932
0.22496374 0.19521978 0.63716215
0.23452108 0.19330378 0.63760018
0.24155012 0.19163842 0.63885719
0.2252128 0.20127058 0.63900006
0.19232009 0.15872939 0.64300001
0.19324468 0.16534816 0.64444834
0.19635749 0.17480403 0.64398354
0.20069546 0.17838328 0.64050007
0.19813065 0.18457289 0.64602506
0.20204481 0.18583824 0.64131594
0.24819876 0.1880812 0.64012504
0.25205609 0.18463004 0.64030004
0.1994611 0.19093738 0.64725006
0.20490427 0.19526216 0.64488292
0.21319075 0.19767638 0.64092863
0.23559751 0.19794391 0.64108008
0.24550988 0.19538391 0.64365858
0.25067639 0.19611897 0.64700001
0.20657223 0.20392473 0.64758003
0.21484265 0.20524339 0.64429408
0.22462623 0.20540959 0.64238614
0.23503254 0.20495957 0.64458472
0.24238308 0.20459327 0.64714819
0.20939097 0.21030937 0.64900005
0.21594489 0.21408226 0.6479286
0.22530025 0.21466841 0.64736742
0.234218 0.21315731 0.64817655
0.24148308 0.21047926 0.64900005
0.22714405 0.22050191 0.64900005
0.19372275 0.17743385 0.65284622
0.19517308 0.18556787 0.65330297
0.19716462 0.19455987 0.65450013
0.20090592 0.19900838 0.6516
0.19871737 0.20344101 0.65741181
0.20220576 0.205796 0.65369225
0.24784932 0.20514992 0.65212518
0.25146118 0.20517886 0.65326327
0.19944403 0.21010002 0.65900004
0.20569021 0.21441051 0.65549272
0.21168046 0.21676053 0.65204769
0.22441944 0.21981822 0.65100002
0.23645104 0.21789157 0.65184003
0.24516599 0.2147588 0.65495014
0.25131324 0.2123531 0.65662509
0.20796415 0.22492695 0.65807927
0.21509792 0.22496936 0.65475929
0.22500353 0.22460452 0.65330637
0.23522243 0.22506163 0.65515262
0.24334556 0.22564998 0.6583873
0.20568401 0.23010923 0.65900004
0.19318439 0.18971312 0.66250002
0.19349068 0.19436365 0.66153842
0.19647601 0.20589918 0.6640445
0.19828312 0.21424639 0.665075
0.20173599 0.21780694 0.66100007
0.24835354 0.21871108 0.66000003
0.25486931 0.21814349 0.66650009
0.20316827 0.22497649 0.66268748
0.24727669 0.22579427 0.66103697
0.19680741 0.23024411 0.6606251
0.20244525 0.23041739 0.66087508
0.19385014 0.20803036 0.6746667
0.1945245 0.21595123 0.67515105
0.19313672 0.22200118 0.67381585
0.19175047 0.20981573 0.68433332
