# .PCD v0.7 - Point Cloud Data file format
VERSION 0.7
FIELDS x y z
SIZE 4 4 4
TYPE F F F
COUNT 1 1 1
WIDTH 431
HEIGHT 1
VIEWPOINT 0 0 0 1 0 0 0
POINTS 431
DATA ascii
0.19794554 0.01430362 0.57320005
0.20011921 0.018226372 0.57624131
0.20553201 0.019698823 0.57729417
0.21581647 0.02070789 0.57871431
0.21982285 0.020734604 0.57800007
0.20182288 0.022608573 0.57900006
0.20540716 0.022608573 0.57900006
0.2156086 0.023160001 0.57900006
0.22025825 0.02346978 0.57846677
0.19151081 0.019678943 0.58666658
0.19741268 0.02002879 0.5812273
0.20935239 0.021542858 0.58000004
0.21294998 0.020355681 0.58007687
0.19227821 0.026385421 0.58707154
0.19837973 0.026065871 0.5822776
0.20617837 0.026423328 0.58039999
0.21351509 0.026354196 0.58013952
0.22187097 0.026962144 0.58068758
0.22896683 0.026698003 0.58283865
0.23580904 0.027287044 0.58678263
0.24064858 0.028608574 0.58900005
0.19253017 0.03376732 0.58731574
0.19858617 0.033932719 0.58408153
0.20608264 0.033795018 0.58169645
0.21386199 0.03370994 0.58024484
0.22148977 0.033777442 0.58140486
0.22868742 0.033943675 0.58422852
0.23480542 0.033535976 0.58777285
0.19261019 0.040851567 0.58759457
0.19878228 0.041115902 0.58373916
0.20632547 0.041531034 0.58237517
0.21339311 0.041674998 0.58139133
0.22125815 0.041534387 0.58243775
0.22906159 0.041198298 0.5853793
0.23495977 0.040980592 0.58866668
0.19231753 0.048537675 0.58792102
0.19848007 0.048653115 0.58484602
0.20592228 0.048771475 0.58302331
0.21368961 0.048884038 0.58251166
0.22102126 0.048771959 0.5828858
0.22845116 0.048474915 0.58504748
0.23440009 0.048224706 0.58833343
0.19284685 0.057108257 0.5887143
0.19867761 0.05636831 0.58600008
0.2060113 0.056086652 0.58306128
0.21356507 0.056026984 0.58244914
0.22112188 0.056115128 0.58335716
0.22842723 0.056323566 0.58553833
0.23279525 0.056095243 0.58900005
0.19242834 0.062977336 0.58852005
0.19879016 0.063772477 0.58594006
0.20628087 0.063942336 0.58381623
0.21398041 0.063983768 0.58377075
0.22124696 0.063902162 0.58393008
0.22889848 0.063588031 0.58639997
0.23353739 0.064483576 0.58875
0.19404534 0.070909292 0.58858341
0.19837722 0.070919953 0.58617646
0.20625345 0.071344152 0.58481818
0.21388118 0.071514428 0.58363819
0.22127019 0.071161725 0.58374995
0.22867267 0.070812859 0.58750004
0.23279525 0.067875244 0.58900005
0.19423552 0.077775106 0.58871436
0.19853701 0.078859016 0.58722436
0.20643246 0.078656621 0.58603632
0.21376197 0.078646064 0.58407122
0.22140351 0.078666091 0.58578563
0.22810522 0.078988187 0.58683783
0.23279525 0.079094291 0.58900005
0.19428739 0.087752149 0.58875
0.19879125 0.086236447 0.58797604
0.20630002 0.086316504 0.58675551
0.21370167 0.086296864 0.58606541
0.22113222 0.08649759 0.58651221
0.22706352 0.086478494 0.58810008
0.19953662 0.09295994 0.58761102
0.20602116 0.093468532 0.5867334
0.21398686 0.093680695 0.58671743
0.22152194 0.093841314 0.5871622
0.22786719 0.093723685 0.58821207
0.1991884 0.10144123 0.58802271
0.20616992 0.10144421 0.58774984
0.21368587 0.10107627 0.58696294
0.220882 0.10031255 0.58659375
0.22746637 0.099761166 0.58811116
0.2004815 0.10821483 0.58845466
0.20601544 0.10862438 0.58695459
0.21393234 0.10847087 0.58618754
0.21986255 0.11063033 0.58716667
0.20072161 0.1150679 0.58859998
0.20603451 0.11617691 0.58795238
0.21344204 0.11577753 0.58776581
0.22107665 0.11604742 0.58820522
0.22587192 0.11433762 0.58850002
0.20024507 0.12420498 0.58895653
0.20601264 0.12364921 0.58809817
0.2135227 0.12383007 0.58762211
0.21975024 0.12365486 0.58873075
0.20004906 0.13037667 0.58868194
0.20589752 0.13179807 0.58818597
0.21332422 0.13115765 0.58811611
0.21920857 0.131189 0.58866674
0.20082097 0.13575049 0.58900005
0.20561053 0.13808325 0.58890003
0.21417771 0.13785787 0.58900017
0.21925227 0.13727306 0.58900011
0.21708858 0.14304286 0.58900005
0.18292859 0.014071429 0.59100002
0.17980914 0.017819431 0.59560001
0.18376195 0.019059764 0.5927546
0.18898734 0.02116508 0.59000003
0.18413031 0.026307862 0.59429306
0.18896058 0.026088439 0.59000009
0.23937145 0.029780954 0.59000003
0.24223383 0.029856669 0.59150004
0.17970002 0.037080955 0.59900004
0.18379553 0.033632141 0.59445757
0.18882661 0.033718973 0.59008348
0.23865981 0.034308467 0.59055561
0.24250823 0.033838656 0.59216666
0.17970002 0.038221907 0.59900004
0.18389226 0.041170426 0.59464413
0.18895896 0.041729622 0.59050006
0.23826058 0.041369934 0.59042865
0.24337797 0.041585132 0.59291166
0.24763335 0.041933335 0.59500003
0.18458749 0.048875522 0.5948298
0.18876828 0.048650295 0.59056252
0.23800865 0.049202811 0.59094739
0.24336134 0.04829476 0.59251612
0.24784145 0.048774764 0.59549999
0.18448354 0.05618507 0.59526789
0.19040816 0.055748127 0.59032005
0.23676981 0.056469679 0.59219998
0.24175844 0.056270119 0.59379172
0.18469344 0.063706517 0.59512001
0.18963537 0.064651482 0.59070837
0.2372134 0.063719206 0.59252
0.24183358 0.063207522 0.59452647
0.18433174 0.071259685 0.59604454
0.19054428 0.071502864 0.59116268
0.23170145 0.073671907 0.5905
0.23614374 0.071583293 0.59212899
0.24041203 0.070641339 0.5934
0.18447995 0.078732982 0.5958696
0.19071151 0.078871541 0.59144181
0.23246002 0.075985722 0.59100002
0.23680146 0.078490674 0.59200001
0.24158736 0.078888081 0.5934118
0.18427809 0.086068004 0.59579545
0.19125389 0.086041659 0.59151906
0.23141828 0.086140953 0.59070593
0.23646161 0.086045541 0.5925588
0.24012503 0.085879765 0.59325004
0.18439643 0.09367945 0.59722513
0.19104901 0.093647942 0.59248132
0.19672373 0.095368624 0.59047067
0.23190434 0.093249105 0.5902223
0.2367359 0.093424685 0.59375012
0.24097335 0.095340252 0.59675002
0.18438335 0.101328 0.59712827
0.19079502 0.10109659 0.59230888
0.19570811 0.10038525 0.59050006
0.23162763 0.10000896 0.59060001
0.23586908 0.099602386 0.59337503
0.24010287 0.098198101 0.59600002
0.18503138 0.10850579 0.59719449
0.19143328 0.10886892 0.59250903
0.19734825 0.10944923 0.59065223
0.2321562 0.11182096 0.59600002
0.23619621 0.11212116 0.59760004
0.18464178 0.11603434 0.59741199
0.19097936 0.11632437 0.5937199
0.19764657 0.11670066 0.59069443
0.2036905 0.11884287 0.59000003
0.22420001 0.11912382 0.59000003
0.22918873 0.11715256 0.59308332
0.23518592 0.11637284 0.597
0.18575507 0.12373015 0.59821737
0.19147849 0.12369335 0.59430772
0.19682479 0.123642 0.59069562
0.20397145 0.12080953 0.59000003
0.22336477 0.12393767 0.59007704
0.22883277 0.12366975 0.59169215
0.23428486 0.12343342 0.59430778
0.18452375 0.13149779 0.59772503
0.19118206 0.1310706 0.59422654
0.19726045 0.13165542 0.59122223
0.20621906 0.13036191 0.59000003
0.22311239 0.13094541 0.59009534
0.22843003 0.13127054 0.59248483
0.23577926 0.13159791 0.59620589
0.18473038 0.13847905 0.59775001
0.19117184 0.13869451 0.59458494
0.19861184 0.13922113 0.59172094
0.20650543 0.14140227 0.59007704
0.21285976 0.14144677 0.59000015
0.22235814 0.13934079 0.59050006
0.22919089 0.13884214 0.59409678
0.23556364 0.13832767 0.59692001
0.1865319 0.14463858 0.59850001
0.19115222 0.14642143 0.59631813
0.1985489 0.14628917 0.59253842
0.20640329 0.14622453 0.59052384
0.21393061 0.14617422 0.59055263
0.22114849 0.14649314 0.59147048
0.2283695 0.14624891 0.59490627
0.23427381 0.14640263 0.59789479
0.18614326 0.15450168 0.598625
0.19121119 0.1536271 0.59659618
0.19874664 0.15373054 0.59258479
0.2065047 0.15361306 0.59081608
0.21388574 0.15366003 0.59099972
0.22081949 0.15377297 0.5912323
0.22871757 0.15364492 0.59571886
0.23538211 0.15309858 0.59882766
0.24017049 0.1511762 0.59900004
0.18628569 0.16131 0.59850001
0.19135571 0.16131043 0.59606671
0.19859181 0.16119725 0.59292299
0.20656855 0.16154 0.59099972
0.21387939 0.16150431 0.59117049
0.22098437 0.1612273 0.59191656
0.22859059 0.1611183 0.5959667
0.2337051 0.15840223 0.5990001
0.18638416 0.16800615 0.59888887
0.19117317 0.16874096 0.59706259
0.19899788 0.16880599 0.59324068
0.20661306 0.16889381 0.59136564
0.21414258 0.16905406 0.59178925
0.22137287 0.16845338 0.59316212
0.22883329 0.16892244 0.59680009
0.19157696 0.17630202 0.59719616
0.19878633 0.17619228 0.59321576
0.20637101 0.17648648 0.59204739
0.21371482 0.17647357 0.59208477
0.22167559 0.17591898 0.59422487
0.22846277 0.17649011 0.59700006
0.23446573 0.17627716 0.59900004
0.18654573 0.18502447 0.5990001
0.19119982 0.18388766 0.59755117
0.19908005 0.18359937 0.59425533
0.2061663 0.18392062 0.59233326
0.21381073 0.18404676 0.59362161
0.22124614 0.18379718 0.59520596
0.22774237 0.18387365 0.59788001
0.18654573 0.18882763 0.5990001
0.19140181 0.19104269 0.59878963
0.19855793 0.19108848 0.59558821
0.20621395 0.19112813 0.59337223
0.21351993 0.19105534 0.59360522
0.22110546 0.19103247 0.59546334
0.22866365 0.19145538 0.59835494
0.23361002 0.1931062 0.59900004
0.19201145 0.19845152 0.5986765
0.198667 0.1986282 0.5961132
0.20602056 0.19887172 0.59417057
0.21354546 0.19864245 0.59489113
0.22149758 0.19862151 0.59633338
0.22823235 0.19818103 0.59878266
0.23370326 0.19652002 0.59880006
0.19193569 0.20606515 0.59845465
0.19856051 0.20606425 0.59562975
0.20637904 0.20614314 0.59430218
0.21395151 0.20595412 0.5949167
0.22118291 0.20629552 0.59743249
0.22630356 0.20638074 0.59900004
0.19291687 0.21358728 0.59870833
0.19876109 0.21379116 0.59623075
0.20651078 0.21393788 0.595375
0.21349245 0.21404697 0.59593034
0.220622 0.21369213 0.59772235
0.22579451 0.21141849 0.59900004
0.22042064 0.2211518 0.59803569
0.23560669 0.22020382 0.59900004
0.17703451 0.020843765 0.60233343
0.18000001 0.021714289 0.60000002
0.17700996 0.02634456 0.60383791
0.18000001 0.026285719 0.60000002
0.17766502 0.0336858 0.60373539
0.18000001 0.033142857 0.60000002
0.17729445 0.041110847 0.60422224
0.18000001 0.041714288 0.60000002
0.17746705 0.048762426 0.60317147
0.18059286 0.04857694 0.60007143
0.17729554 0.056198638 0.60552502
0.18054715 0.056027718 0.60029995
0.17805472 0.063533284 0.60517651
0.18070002 0.063475117 0.60042858
0.17763723 0.071383074 0.60527784
0.18076457 0.071503744 0.60064286
0.17762534 0.078406066 0.60436118
0.18082163 0.078967623 0.60083336
0.17760694 0.086588532 0.60622859
0.18090034 0.086382732 0.60173345
0.17725094 0.093759336 0.60546666
0.18092039 0.093609758 0.60130769
0.17699406 0.10106778 0.60568416
0.18103833 0.1011646 0.60211772
0.17749473 0.10846027 0.60522228
0.18155745 0.10911422 0.60121751
0.23942858 0.11142858 0.60000002
0.17729056 0.11627351 0.60705727
0.18115103 0.11647293 0.6024546
0.2392925 0.1169306 0.600375
0.24057144 0.11257143 0.60000002
0.17757155 0.1237185 0.60625005
0.18226403 0.12385047 0.60134292
0.23931308 0.12412778 0.6030001
0.24246623 0.12404047 0.60390484
0.17746289 0.13122945 0.60683882
0.18109836 0.1311864 0.60276198
0.17778544 0.13856657 0.60623342
0.18124078 0.13918754 0.60214293
0.23918065 0.14084034 0.60033339
0.17831352 0.14640284 0.60637045
0.18275549 0.14624555 0.60120934
0.18800001 0.14914286 0.60000002
0.23855786 0.14563866 0.60068417
0.24117288 0.14550525 0.60150003
0.17793047 0.1533986 0.60642433
0.18285249 0.15352713 0.60124999
0.23849353 0.15454547 0.59999996
0.24057144 0.15028572 0.60000002
0.17783338 0.16107103 0.60696447
0.18227425 0.16123639 0.60226327
0.23667376 0.16183226 0.60149997
0.24134654 0.16185483 0.60357153
0.24956954 0.1627124 0.60800004
0.17812368 0.16858225 0.60647833
0.18274833 0.16888511 0.60206991
0.23598415 0.16849911 0.60137135
0.1781501 0.17624296 0.60673922
0.18338913 0.17624366 0.60209817
0.18800001 0.17588572 0.60000002
0.23403205 0.17597079 0.60047054
0.1779965 0.18364862 0.60688895
0.18335284 0.18358816 0.60210007
0.18800001 0.18000001 0.60000002
0.23110208 0.18424492 0.60000002
0.2344389 0.18343328 0.60091996
0.177891 0.19134301 0.60711122
0.18351056 0.19135557 0.60253197
0.18848981 0.19338778 0.60000002
0.23162144 0.19072857 0.60049999
0.23306125 0.1899592 0.60000002
0.17861883 0.19863911 0.60755008
0.18383074 0.19882379 0.60344237
0.18857142 0.19954287 0.59999996
0.23051432 0.19954287 0.59999996
0.23314287 0.19857144 0.60000002
0.17858833 0.20633119 0.60685718
0.18377557 0.20640232 0.60331488
0.18867545 0.20606557 0.60007137
0.22942433 0.20607635 0.60026318
0.23482211 0.20894821 0.60640007
0.1787333 0.21376735 0.60711771
0.18402466 0.21382064 0.60345829
0.18968277 0.21402344 0.60033333
0.22457144 0.21542859 0.60000002
0.22891031 0.21415602 0.60111552
0.23412377 0.21301879 0.60416675
0.17492716 0.027699288 0.61225003
0.17528947 0.033382494 0.61261111
0.17526038 0.039447509 0.61137503
0.17637183 0.049076956 0.61200005
0.17189334 0.059253339 0.61600006
0.17406355 0.056580175 0.61247063
0.17226541 0.062519372 0.61733341
0.17482099 0.063844793 0.61393547
0.17133525 0.073679999 0.61400002
0.17446153 0.071186118 0.61266673
0.17216954 0.080214292 0.61700004
0.17444475 0.079060771 0.61303455
0.17212591 0.085768424 0.61683345
0.17461801 0.085291825 0.61340916
0.17463979 0.1021043 0.61175001
0.17203583 0.11075467 0.61400002
0.17434932 0.10864508 0.61285722
0.17119738 0.11585598 0.6141538
0.17381084 0.11627297 0.61269575
0.1714187 0.12288322 0.61587507
0.17418388 0.12373666 0.61347836
0.17245144 0.13046668 0.61800003
0.17453738 0.13128105 0.61500001
0.17199683 0.13944066 0.61777782
0.17450824 0.13866809 0.61382759
0.1722189 0.14577064 0.61716676
0.17482884 0.14623593 0.61314297
0.1723229 0.15415797 0.6181429
0.17421034 0.15360883 0.6131072
0.17187835 0.16056526 0.61700004
0.17461687 0.16129683 0.61321872
0.25237715 0.16261715 0.61200005
0.17212591 0.16918969 0.61683345
0.17496812 0.16891786 0.61333346
0.17203288 0.17613856 0.61650008
0.17474864 0.17611325 0.61311114
0.17207938 0.18402287 0.61666673
0.17476763 0.18385708 0.61361289
0.17212591 0.19151127 0.61683345
0.17477293 0.19130383 0.61416125
0.17231193 0.19877811 0.61750007
0.17530593 0.19903098 0.61388576
0.17245144 0.20570573 0.61800003
0.17539109 0.20634972 0.61415398
0.17235844 0.21294859 0.61766672
0.17550436 0.21364571 0.61394447
0.1710805 0.081254765 0.62050003
0.17064764 0.083257146 0.62
0.17143773 0.13171072 0.62108338
0.17300954 0.13285716 0.62
0.17075536 0.1386141 0.62111115
0.17144732 0.14657781 0.62183344
0.17109807 0.15368174 0.62408698
0.1729562 0.15397002 0.62300003
0.1711493 0.16110262 0.62075001
0.1709865 0.16917916 0.62330431
0.17286889 0.16694447 0.62233335
0.17035516 0.17577893 0.62326086
0.1732143 0.17916667 0.625
0.17238286 0.18660001 0.62200004
0.17105457 0.19173303 0.62521434
0.17090328 0.19872361 0.62568748
0.17289303 0.19891398 0.62100005
0.17050664 0.20697899 0.62554544
0.17289303 0.20600924 0.62100005
0.17014459 0.21371838 0.62444735
0.16766572 0.2097324 0.63100004
0.16708587 0.2148919 0.63230771
