# .PCD v0.7 - Point Cloud Data file format
VERSION 0.7
FIELDS x y z
SIZE 4 4 4
TYPE F F F
COUNT 1 1 1
WIDTH 336
HEIGHT 1
VIEWPOINT 0 0 0 1 0 0 0
POINTS 336
DATA ascii
0.20170479 0.014318096 0.52749997
0.20491406 0.013642686 0.52700001
0.20027535 0.020010266 0.52822232
0.20614567 0.021068199 0.52538896
0.21708573 0.022457145 0.52400005
0.22127882 0.022040715 0.523
0.22563715 0.021916192 0.523
0.1949743 0.028213335 0.52900004
0.19912596 0.026303191 0.52741683
0.20598549 0.0261492 0.5241912
0.21421057 0.026945118 0.52477151
0.22120304 0.026275538 0.5258078
0.22557554 0.027033471 0.5268572
0.1949743 0.032747623 0.52900004
0.19957478 0.033026025 0.52805138
0.20625211 0.03356798 0.52654254
0.21356328 0.03368552 0.52540004
0.22108935 0.033665963 0.52759528
0.20071937 0.041414116 0.52875876
0.20618339 0.041169841 0.52788883
0.21379307 0.041125856 0.5270955
0.22117859 0.041284915 0.52797961
0.2014761 0.04722131 0.52887505
0.20613433 0.048747163 0.52807546
0.2135901 0.048626211 0.52784318
0.22008546 0.048523553 0.52865636
0.20162459 0.057736576 0.5290001
0.20635015 0.056200121 0.52843851
0.21347834 0.055997472 0.52873456
0.2195721 0.055033788 0.52900016
0.20188372 0.063120142 0.52900004
0.20656191 0.064248979 0.52900004
0.21103321 0.063102141 0.52900016
0.20706573 0.068014286 0.52900004
0.21285954 0.068518102 0.52900004
0.20832527 0.081365243 0.52900004
0.18696001 0.021786667 0.53200001
0.19198231 0.021466285 0.53160006
0.19892758 0.019272326 0.53005892
0.20341906 0.017666668 0.53000003
0.18539678 0.026189977 0.53636843
0.19116724 0.026335945 0.5316419
0.19584765 0.024733335 0.53000009
0.18499789 0.033729233 0.53660423
0.19104688 0.033847846 0.53241545
0.19709258 0.035201009 0.53023535
0.18578096 0.041139133 0.5370571
0.19087814 0.041163698 0.53264278
0.19713542 0.041092724 0.53100002
0.18622434 0.048590217 0.53744829
0.19139709 0.048727755 0.53376186
0.19826335 0.048924185 0.53114039
0.20341906 0.051990479 0.53000003
0.2135143 0.051990479 0.53000003
0.18663195 0.054955509 0.53705567
0.1910942 0.0563793 0.53442621
0.19823626 0.055958226 0.53107274
0.20341906 0.054009527 0.53000003
0.21553335 0.058384132 0.53000009
0.18684092 0.064960212 0.53707147
0.1912387 0.06354364 0.53450006
0.19849548 0.063759916 0.5314666
0.20473921 0.06270697 0.53000009
0.2146225 0.06406343 0.53010815
0.18661611 0.070868298 0.53805882
0.19129586 0.071080111 0.53489065
0.19860409 0.071146458 0.53191805
0.20614596 0.071658418 0.53055114
0.21362294 0.071684279 0.53014648
0.18677539 0.076951712 0.53814286
0.19127919 0.07855738 0.53551519
0.19852298 0.078544632 0.53159636
0.20603484 0.078663312 0.5307169
0.21380377 0.078752019 0.53094447
0.19163254 0.086387038 0.53586441
0.19880557 0.086204283 0.53229243
0.20638205 0.086473122 0.53096241
0.21402372 0.086415343 0.53121156
0.18736668 0.092913337 0.53900003
0.19137298 0.09347862 0.53684479
0.19850095 0.093851574 0.53325886
0.20600142 0.093860626 0.53205746
0.21376361 0.093684681 0.53203607
0.19240585 0.10103653 0.53782964
0.19849847 0.10127293 0.53481036
0.20585994 0.10124663 0.53214496
0.21351156 0.10103354 0.53266019
0.19209567 0.10869151 0.53674984
0.19869019 0.1088082 0.53430015
0.2057534 0.10887426 0.5323965
0.21374963 0.10871253 0.53278601
0.1921322 0.11709951 0.53705883
0.19861843 0.11659301 0.53491223
0.20598081 0.11618308 0.53271443
0.2134811 0.11598635 0.53270221
0.1922722 0.12362698 0.53772497
0.19895118 0.12404905 0.53585941
0.20598054 0.12383879 0.53377378
0.1931067 0.13113335 0.53899992
0.19862929 0.13123141 0.53615862
0.20619211 0.13105798 0.53463054
0.19274168 0.13800368 0.5389353
0.19846523 0.13878363 0.53626132
0.20632032 0.138815 0.53577024
0.19304436 0.14585951 0.53853846
0.19828214 0.14637925 0.53641802
0.20615676 0.14645398 0.53580344
0.19390003 0.15320669 0.53900003
0.1990034 0.15376453 0.53813732
0.20637448 0.15376048 0.53637481
0.20038193 0.16175637 0.53836364
0.20636508 0.16125867 0.53628564
0.20061238 0.16844068 0.53768957
0.20613959 0.16863477 0.53714889
0.19995421 0.17609663 0.53858966
0.20068847 0.18248725 0.53869563
0.20174001 0.19866002 0.53900003
0.17903417 0.028790345 0.54671431
0.18200442 0.027612431 0.54185003
0.17866951 0.034038495 0.54775006
0.18154018 0.033619538 0.54308575
0.17869771 0.040766727 0.54835302
0.18189698 0.041526068 0.54331386
0.17877732 0.049042001 0.54840004
0.18222368 0.04875347 0.54305774
0.24042858 0.050657146 0.54000002
0.17800032 0.055604231 0.54821438
0.18292829 0.056111548 0.54247373
0.18771429 0.059142862 0.54000002
0.17824018 0.063770324 0.54883337
0.18399335 0.064118452 0.54208517
0.18771429 0.060685717 0.54000002
0.17830628 0.071984135 0.54785186
0.18292737 0.071314842 0.54301661
0.17900014 0.07732138 0.54655558
0.18343312 0.078703284 0.54224557
0.18828891 0.081528895 0.5406667
0.17882641 0.086130343 0.54857147
0.18359947 0.086395204 0.54451436
0.18864141 0.085227937 0.54084617
0.1783389 0.093253732 0.5484091
0.18346851 0.093645841 0.54326087
0.18771429 0.094114289 0.54000002
0.23541775 0.091300361 0.54237503
0.17858204 0.10167297 0.54860002
0.18323323 0.10126796 0.54368418
0.18903588 0.10208215 0.54025
0.17862985 0.10890542 0.54853332
0.18347982 0.10895327 0.54425716
0.18860237 0.10841726 0.54011768
0.23340288 0.1107762 0.54100001
0.178937 0.11481985 0.54883337
0.18367276 0.11612902 0.54425383
0.18887104 0.11536055 0.54036844
0.17885821 0.12431585 0.54781818
0.18396638 0.12384389 0.54428995
0.18881482 0.1241432 0.54065001
0.17851898 0.13135864 0.54868746
0.1836663 0.13134053 0.54491556
0.19012782 0.13113487 0.54058838
0.23453248 0.13307153 0.54410011
0.17934 0.13855717 0.54900002
0.18364649 0.13887727 0.54499996
0.1897275 0.13922177 0.54006451
0.23413162 0.14021525 0.54509097
0.17934 0.14326286 0.54900002
0.18379007 0.14622444 0.54463238
0.18991032 0.14663441 0.54096782
0.23548052 0.14606114 0.5467242
0.17934 0.15424287 0.54900002
0.18365 0.15377417 0.54596925
0.19055019 0.1540176 0.54121166
0.19645715 0.15582858 0.54000002
0.22859523 0.15343587 0.54313517
0.23385839 0.15340263 0.546
0.18427683 0.16111948 0.54593444
0.1914753 0.16140954 0.54152554
0.19732764 0.16094461 0.54003704
0.22907215 0.1613555 0.54432607
0.23448603 0.16110314 0.54743749
0.17934 0.16992858 0.54900002
0.18385962 0.16874009 0.54670507
0.19151044 0.16891949 0.54193753
0.19730307 0.1690333 0.54003447
0.22816306 0.16835554 0.54367864
0.23523651 0.16638637 0.54766673
0.18393241 0.17612198 0.54712898
0.19127475 0.17612949 0.54233325
0.19639781 0.17695662 0.54021055
0.20417145 0.1769143 0.54000002
0.22851756 0.1763822 0.54389185
0.18410206 0.18338399 0.54708064
0.19135557 0.18380047 0.54284465
0.1973711 0.1841609 0.54047239
0.22806104 0.1834545 0.54460865
0.18406142 0.19111255 0.54769385
0.19105616 0.19139616 0.54363054
0.19898729 0.19131468 0.54105192
0.22877508 0.19164687 0.54670286
0.23380578 0.19213687 0.54885721
0.18499236 0.19808973 0.54765797
0.19107367 0.19879767 0.54372573
0.19882889 0.19886611 0.5409832
0.22895381 0.19799376 0.54669708
0.23384324 0.19571656 0.54837501
0.18505073 0.20675801 0.54797435
0.19101664 0.20619459 0.54369688
0.19855775 0.20625207 0.54184085
0.22751486 0.20735744 0.54618752
0.23528573 0.20652859 0.54900002
0.18496442 0.2135395 0.54791898
0.19134353 0.2137693 0.54434407
0.19905923 0.21373262 0.54205251
0.22900222 0.21388805 0.54818428
0.23267144 0.21384859 0.54900002
0.18529327 0.22117747 0.54797304
0.19131114 0.22124173 0.54471868
0.19899608 0.22115153 0.54266655
0.22107963 0.22142796 0.54524398
0.2273445 0.22107522 0.54848146
0.18570456 0.22859047 0.54820687
0.19113778 0.22820595 0.54472226
0.22141269 0.22787447 0.54551613
0.22734563 0.22783773 0.54876471
0.22535144 0.23267144 0.54900002
0.17653126 0.027066518 0.55610806
0.17628746 0.033422992 0.55381083
0.17659576 0.041652679 0.55200011
0.17629094 0.048986144 0.55267745
0.17596124 0.056549117 0.55200005
0.17640384 0.064076051 0.5552392
0.17580262 0.070625558 0.55461544
0.17240477 0.080101907 0.55700004
0.17540811 0.078931257 0.55422229
0.1758942 0.085948661 0.55302435
0.17143351 0.094824106 0.5562309
0.17551655 0.093712591 0.55436373
0.16921978 0.097829767 0.55524999
0.17660865 0.10072414 0.5526129
0.17538483 0.10869541 0.55471432
0.17187428 0.11511334 0.55700004
0.17552234 0.11537417 0.5540908
0.17187428 0.12254 0.55700004
0.17504767 0.12492421 0.55522853
0.17530262 0.13106602 0.5545184
0.1762231 0.13889273 0.55445766
0.17644846 0.14625278 0.55428129
0.18071429 0.14928572 0.55000001
0.23938097 0.14771429 0.55000001
0.17654243 0.15374154 0.55404603
0.18071429 0.15033334 0.55000001
0.17646645 0.16116074 0.55455881
0.18071429 0.16185716 0.55000001
0.17665987 0.16865577 0.55415148
0.18071429 0.16604763 0.55000007
0.17240477 0.17558762 0.55700004
0.17649038 0.17639449 0.55392861
0.17649625 0.18374656 0.5541718
0.18071429 0.1859524 0.55000007
0.17695074 0.1911182 0.55471671
0.18071429 0.19066668 0.55000001
0.23204763 0.18909524 0.55000001
0.2355397 0.19293654 0.55000007
0.17731826 0.1986827 0.55561823
0.18160103 0.19952276 0.55070841
0.2351905 0.19800001 0.55000001
0.17718752 0.20646273 0.55473351
0.18207182 0.20508713 0.55036372
0.23194382 0.20675525 0.551
0.2344605 0.20734525 0.55116671
0.17660867 0.21357597 0.55487096
0.18149346 0.21409395 0.55030006
0.23072082 0.2118573 0.55016667
0.23268002 0.21052001 0.55400002
0.17653307 0.22125691 0.55575746
0.18159488 0.2210941 0.55055559
0.22970825 0.22183746 0.55066669
0.23356555 0.22321545 0.55460006
0.17678422 0.22882815 0.5560149
0.1819846 0.22934382 0.55046678
0.22999126 0.2295984 0.55056262
0.23382546 0.2289999 0.55385715
0.17508906 0.031494766 0.56050003
0.17165239 0.067261912 0.565
0.17364454 0.065660723 0.56275004
0.1734731 0.069949768 0.56175005
0.17160574 0.081794292 0.56133336
0.17471144 0.077471435 0.56100005
0.17076288 0.08341714 0.56266671
0.17284095 0.083882384 0.56100005
0.1715159 0.12587504 0.56455559
0.17298447 0.12585621 0.56233335
0.17052105 0.13141532 0.56661761
0.17322747 0.13123795 0.56400001
0.17035753 0.13810065 0.56397057
0.17312193 0.13864049 0.56133336
0.1713365 0.14631049 0.5660001
0.17304869 0.14652488 0.56150007
0.17058365 0.15386011 0.5648182
0.17319709 0.15324894 0.56178582
0.17040601 0.16164832 0.56610256
0.17301664 0.16160414 0.56166673
0.17080818 0.16890913 0.56547064
0.17317335 0.16889477 0.56150001
0.17067868 0.17626071 0.56524241
0.17305103 0.17543006 0.56177789
0.17069939 0.18358593 0.56511426
0.17307924 0.18409468 0.56160003
0.17043245 0.19129619 0.56589192
0.17342317 0.1913823 0.56215388
0.17060676 0.19892047 0.56572413
0.1737034 0.19900575 0.56253856
0.17090464 0.20607951 0.56526673
0.17365278 0.206001 0.56164712
0.17089352 0.21334188 0.56506246
0.1733516 0.21336494 0.56192315
0.17098886 0.22118157 0.56515622
0.17261824 0.2207154 0.56114298
0.1695423 0.22965902 0.56394923
0.17289959 0.22888002 0.56057149
0.16856477 0.1316289 0.57033336
0.16917382 0.14034621 0.57116675
0.16922286 0.14419302 0.57133341
0.16994049 0.1536262 0.57100004
0.1685251 0.15980127 0.57266676
0.1689764 0.16948766 0.57173336
0.16886607 0.17582943 0.57337505
0.16838801 0.184187 0.57290488
0.1686435 0.19067678 0.57538104
0.16846442 0.19580847 0.57712501
0.16874272 0.20763034 0.57355553
0.16834597 0.21330826 0.57283342
0.16921495 0.22223447 0.57217652
0.16809186 0.22865766 0.57119054
0.16737144 0.17565715 0.58000004
0.16669668 0.21210811 0.58150005
