# .PCD v0.7 - Point Cloud Data file format
VERSION 0.7
FIELDS x y z
SIZE 4 4 4
TYPE F F F
COUNT 1 1 1
WIDTH 415
HEIGHT 1
VIEWPOINT 0 0 0 1 0 0 0
POINTS 415
DATA ascii
0.20150326 0.020161906 0.57840008
0.20634018 0.020565605 0.57811773
0.21409589 0.020591393 0.57596165
0.22019048 0.020278625 0.57544452
0.20182739 0.025905799 0.57875007
0.20665936 0.025824448 0.57845843
0.21364665 0.026018681 0.57723242
0.22116965 0.02568992 0.57830775
0.22609894 0.025420003 0.57842863
0.20815185 0.032893609 0.5788573
0.21362869 0.033630628 0.57811981
0.21988767 0.033284225 0.57900023
0.20862383 0.040070482 0.57900006
0.21305458 0.039093386 0.57900017
0.21836573 0.038048573 0.57900006
0.2139543 0.045768574 0.57900006
0.18595509 0.019304851 0.58827281
0.19146599 0.019499432 0.58654761
0.19865952 0.01954967 0.58242422
0.20355238 0.019057143 0.58000004
0.18637034 0.024862384 0.58883339
0.19103117 0.026253359 0.58651781
0.19810925 0.026058545 0.58217651
0.20382859 0.029276192 0.58000004
0.22371431 0.028834289 0.58000004
0.2292943 0.027411718 0.58140004
0.23668775 0.027551303 0.58713639
0.24064858 0.029169526 0.58900005
0.19152032 0.033856809 0.58649129
0.19882834 0.033872504 0.58228862
0.20489089 0.034217641 0.58038712
0.22361299 0.033760164 0.58005553
0.22886676 0.034220364 0.58285296
0.23590183 0.033346638 0.58775008
0.24064858 0.031413335 0.58900005
0.19211192 0.040913336 0.58721054
0.19872054 0.041196477 0.58308154
0.20572245 0.041780256 0.58077765
0.21399242 0.042864766 0.58000004
0.2213221 0.041643549 0.58067501
0.22860295 0.041203048 0.58330566
0.23565273 0.041589942 0.58728004
0.19197343 0.048814543 0.58775508
0.19880134 0.048655167 0.58399987
0.20623027 0.048613794 0.58137786
0.21389098 0.04878173 0.58039993
0.22137769 0.048703443 0.58111107
0.22891347 0.048468757 0.58386117
0.23556587 0.048439912 0.58741385
0.19219245 0.056599293 0.58788645
0.19878319 0.055984642 0.58394444
0.2062339 0.055976167 0.58168006
0.21396576 0.055995103 0.58099991
0.22164334 0.055965953 0.58180958
0.22877595 0.056220241 0.5844571
0.23437303 0.0559511 0.58782351
0.19191112 0.063397191 0.58828211
0.1987856 0.06391421 0.58454907
0.20611984 0.063824289 0.58295757
0.21333142 0.063723482 0.58181643
0.22143918 0.063774288 0.58291686
0.22764312 0.063721299 0.58383995
0.2335432 0.063013658 0.58900005
0.19262402 0.070467047 0.5881601
0.19831775 0.071126677 0.58528292
0.2061138 0.071408607 0.58300012
0.21367678 0.071596362 0.58275527
0.22100683 0.071300693 0.58321059
0.22733 0.070876755 0.58451986
0.23279525 0.06843619 0.58900005
0.19465049 0.079094291 0.58900005
0.19853504 0.078747615 0.58640379
0.20608163 0.078821868 0.58437502
0.21369503 0.078780815 0.58302438
0.2216296 0.078776866 0.58480477
0.22862707 0.078694098 0.58669454
0.23279525 0.079655245 0.58900005
0.19373748 0.087060481 0.58850002
0.19883034 0.086358577 0.58638012
0.20627488 0.086186945 0.5842939
0.21365911 0.086283207 0.58397657
0.22118762 0.086158 0.58513027
0.22779417 0.085999705 0.58736843
0.1937547 0.091391161 0.5887143
0.19880362 0.093495131 0.58643991
0.2061439 0.093390979 0.58442086
0.21374102 0.094014212 0.58384883
0.22150676 0.093645215 0.58539397
0.22794266 0.093569204 0.58733332
0.19863148 0.10127611 0.58751017
0.20602153 0.10105763 0.58624494
0.21344458 0.10113176 0.58456498
0.2206804 0.099582911 0.5845294
0.22752587 0.10100971 0.58758336
0.199277 0.10853716 0.58794439
0.20606308 0.10857488 0.58521146
0.21384658 0.10877635 0.58544451
0.21976742 0.11000846 0.58633333
0.22830763 0.10646877 0.58900005
0.1946505 0.1166781 0.58900005
0.19896749 0.11604699 0.58829153
0.20629811 0.11624248 0.58725572
0.21391638 0.11617409 0.58645242
0.22144109 0.1163994 0.58758819
0.19465049 0.12116572 0.58900005
0.19936739 0.12352197 0.5882619
0.2062912 0.12366306 0.58720821
0.21380582 0.12342533 0.58721733
0.22138889 0.12402605 0.58829546
0.22606382 0.12453144 0.58900005
0.20068042 0.1315659 0.58840752
0.20611362 0.13148622 0.58783698
0.21339986 0.13165185 0.58791649
0.22108111 0.13132332 0.58851165
0.20065263 0.13782372 0.58841181
0.20601177 0.13909267 0.58839482
0.21339408 0.13890299 0.58809519
0.21970735 0.13832507 0.58843482
0.20138192 0.1486524 0.58900011
0.20631072 0.14765841 0.58876675
0.21356985 0.14630476 0.58877099
0.20138192 0.15145716 0.58900005
0.20632677 0.15202321 0.58878946
0.21323675 0.15332702 0.58900005
0.20923524 0.1604324 0.58900005
0.21298936 0.15965571 0.58899993
0.21895842 0.15912351 0.58900011
0.18415748 0.014079366 0.59133339
0.17970002 0.022248574 0.59900004
0.18303461 0.01940977 0.59282857
0.17945887 0.025751049 0.59820002
0.18349539 0.026551602 0.59321147
0.24146573 0.025328573 0.59100002
0.17965718 0.033649258 0.59885716
0.18349323 0.033701956 0.59343863
0.23970857 0.034276195 0.59000009
0.24220416 0.034636259 0.59064293
0.17960003 0.039341591 0.59866667
0.18380783 0.04119553 0.59386891
0.18899396 0.042169053 0.59035724
0.23928156 0.040605597 0.59012508
0.24227516 0.041018002 0.5916
0.18439826 0.048835479 0.59341168
0.18839867 0.048083 0.59000009
0.23939407 0.049231194 0.59074998
0.24266119 0.049073972 0.59299999
0.18388647 0.056239448 0.59468335
0.18880002 0.055628572 0.59000009
0.23808935 0.057186481 0.59100002
0.24205819 0.055893503 0.59383339
0.18462276 0.063685797 0.59419233
0.18861273 0.064244449 0.59000009
0.23701054 0.063948244 0.59103024
0.24156678 0.062275324 0.59200001
0.18414439 0.07115823 0.59527588
0.18988803 0.072201297 0.59024006
0.23200975 0.073959433 0.59100002
0.23654504 0.071729548 0.59174991
0.24058858 0.068336196 0.59300005
0.18389615 0.078761049 0.59496301
0.1912342 0.078792252 0.59113616
0.23660125 0.078694046 0.59149998
0.24258943 0.078754842 0.59447372
0.18428487 0.086221658 0.59479249
0.19065 0.085882641 0.5906052
0.23169892 0.086842775 0.59036374
0.23590147 0.086006485 0.59168744
0.24002382 0.083584771 0.59300005
0.18393625 0.093543053 0.59655571
0.19093776 0.094120182 0.59177542
0.19610478 0.094961911 0.59000003
0.23192059 0.093194485 0.59020007
0.2357378 0.093850963 0.59185714
0.18481751 0.10105424 0.59685367
0.1912697 0.1011791 0.59179616
0.23195398 0.1001327 0.59066671
0.23513168 0.099535637 0.59158337
0.18424758 0.10851435 0.59687197
0.19143349 0.10880629 0.59255725
0.19647938 0.10957144 0.59000009
0.18485764 0.11606918 0.59575677
0.190862 0.11601333 0.59199983
0.19610478 0.11294287 0.59000003
0.22799386 0.11927599 0.59044451
0.23285335 0.11896382 0.59200001
0.18497452 0.12341346 0.59775013
0.19139653 0.12366366 0.59381479
0.19608822 0.12538442 0.59037507
0.22889344 0.12358705 0.59068751
0.23426791 0.1236986 0.59305882
0.18465342 0.13179301 0.59700006
0.19093849 0.13128956 0.59326309
0.19686267 0.1312217 0.5907777
0.22917895 0.13145344 0.5916571
0.23593894 0.13116515 0.59510708
0.18415521 0.13889453 0.59638464
0.19093773 0.13890928 0.59358007
0.19772588 0.1392635 0.59096873
0.22345293 0.13966721 0.59043753
0.22879179 0.13879724 0.59296781
0.23539039 0.13849784 0.59648007
0.18457247 0.1462073 0.59761769
0.19146769 0.14625967 0.59429413
0.19835995 0.14602421 0.59090453
0.20548217 0.14465117 0.59026325
0.21745716 0.14890477 0.59000003
0.22155792 0.14618178 0.59088236
0.2286821 0.14630118 0.59364712
0.23504914 0.14644423 0.59757894
0.18529661 0.15342961 0.5982759
0.19125217 0.15366654 0.59464163
0.19856811 0.1538868 0.59130412
0.20586924 0.15537442 0.59026092
0.21530321 0.15489843 0.59000015
0.22116341 0.15365954 0.59063894
0.22893153 0.15400138 0.59502709
0.2359878 0.1535023 0.59806257
0.1857187 0.16122326 0.59817868
0.19161198 0.16104856 0.59533346
0.1989335 0.16150756 0.59195644
0.20590134 0.16146572 0.59044188
0.21485037 0.16273506 0.59013647
0.22120428 0.16141433 0.59110343
0.22876468 0.16141172 0.59584379
0.23558378 0.16118045 0.59864998
0.18575394 0.16866198 0.59829175
0.19128053 0.16871196 0.59620845
0.19868019 0.16867438 0.59256858
0.20637633 0.16870107 0.59045231
0.21385594 0.16883367 0.59091645
0.22109997 0.16872595 0.59192485
0.22879675 0.16884591 0.59651721
0.23719163 0.16891907 0.59840006
0.24079847 0.16768943 0.59737504
0.18614344 0.17588688 0.5983479
0.19136493 0.17634657 0.59587234
0.19879061 0.17620592 0.59299994
0.20626834 0.17602471 0.59099978
0.21377797 0.17651689 0.59165192
0.22097522 0.17618032 0.59221059
0.22877085 0.17628339 0.59683341
0.23446573 0.1728543 0.59900004
0.18645622 0.18458262 0.59871429
0.19106956 0.18374811 0.59661698
0.19900796 0.18384393 0.59374493
0.20629658 0.18375091 0.59183311
0.21367559 0.18388629 0.5919764
0.22147873 0.18363267 0.59418756
0.22887161 0.18385658 0.59735304
0.23355323 0.18342322 0.59812504
0.18571077 0.19027357 0.59876198
0.19143277 0.1914371 0.59689802
0.19876875 0.19097297 0.59353995
0.20627622 0.19145566 0.59253329
0.21372193 0.19123536 0.59210384
0.22152598 0.19123282 0.59479409
0.22815457 0.19113839 0.59731263
0.23393267 0.19390465 0.59557146
0.18685608 0.19740419 0.598625
0.1912186 0.19882879 0.59712511
0.19877912 0.19892578 0.59457451
0.20622544 0.19899958 0.59282231
0.21364234 0.19846559 0.59234995
0.22126071 0.19880515 0.59481823
0.22879252 0.19837227 0.59780008
0.23385906 0.19582859 0.59600002
0.18654573 0.20251906 0.59900004
0.19126648 0.2062012 0.5976541
0.19871658 0.20639651 0.59499997
0.20607348 0.20644395 0.59323919
0.2137128 0.20612083 0.59397376
0.22133383 0.20614506 0.59628576
0.2271986 0.20560557 0.59838891
0.23332478 0.20251906 0.59900004
0.19196345 0.21396996 0.59811443
0.19858158 0.21382236 0.5955283
0.206128 0.21418844 0.59394997
0.21379672 0.2137205 0.59482211
0.22137713 0.2137976 0.59643596
0.22621372 0.2131021 0.59860003
0.22533812 0.21849239 0.59900004
0.23446573 0.22077429 0.59900004
0.17874743 0.020928763 0.60040009
0.18000001 0.020000001 0.60000002
0.17737797 0.027158316 0.60204548
0.17748073 0.033833582 0.6020968
0.17729455 0.04129925 0.60354555
0.18000001 0.042857148 0.60000002
0.17743775 0.048830461 0.6035946
0.18074287 0.048617415 0.60057145
0.17712733 0.056046784 0.60435134
0.18000001 0.056000005 0.60000002
0.17775998 0.063688189 0.60405886
0.18066594 0.063741542 0.60046148
0.17736448 0.071515448 0.60543591
0.18021786 0.071028575 0.60025001
0.17726302 0.078584209 0.60531819
0.18047321 0.079082742 0.60062498
0.17721231 0.086495966 0.60528576
0.18049286 0.086013816 0.60049999
0.17721918 0.093646809 0.60470736
0.18036073 0.094325721 0.60025001
0.17679727 0.10144384 0.60565221
0.18132319 0.10136447 0.60131252
0.17693138 0.10887639 0.60565305
0.1810395 0.10872029 0.60128576
0.17226002 0.11542001 0.60900003
0.17661116 0.11601402 0.60591125
0.18152075 0.11634533 0.6017729
0.17735963 0.12386883 0.60600001
0.1819104 0.12391303 0.60185194
0.17740941 0.13117237 0.60534209
0.18181492 0.13083927 0.60173917
0.17740382 0.13824098 0.60651624
0.18075383 0.13898338 0.60229415
0.23897143 0.14137143 0.60000002
0.24083875 0.14015557 0.6006667
0.17818059 0.14642707 0.60621881
0.18103375 0.14603935 0.60184216
0.23909248 0.14655341 0.60092306
0.2409724 0.14672033 0.60100001
0.17761101 0.15368888 0.60556412
0.18198594 0.15406846 0.60159093
0.23942858 0.15447621 0.60000002
0.24125715 0.15622859 0.60000002
0.17748682 0.16086513 0.6061334
0.18180953 0.16135457 0.60209686
0.23741065 0.16177563 0.60023075
0.24097164 0.15969582 0.60100001
0.17780659 0.16874209 0.60575002
0.18182202 0.16856825 0.6019063
0.23576355 0.16861083 0.6000002
0.17743176 0.17631888 0.60660011
0.1820422 0.17621812 0.60183334
0.23302858 0.1752 0.60000002
0.17790541 0.18352436 0.60707158
0.18248877 0.18349917 0.60151231
0.23485716 0.18228573 0.60000002
0.17785801 0.1914652 0.60700005
0.18225497 0.1915395 0.6024707
0.23142859 0.192 0.60000002
0.23282985 0.19050097 0.60066676
0.17772926 0.19861636 0.60675001
0.18309793 0.19884489 0.60277784
0.23142859 0.19885716 0.60000002
0.23354049 0.19624239 0.60250008
0.17823252 0.2065672 0.6071251
0.18357654 0.20626278 0.6022076
0.22986804 0.20745221 0.60040003
0.23327735 0.20844345 0.60360003
0.17834125 0.21364219 0.60714293
0.18351509 0.21381339 0.60258824
0.18851948 0.21397404 0.59999996
0.23000672 0.21393664 0.60069573
0.23412046 0.21315664 0.60353851
0.17518586 0.050823689 0.61162502
0.17205858 0.056773812 0.61450005
0.17439251 0.056638397 0.61242115
0.16938634 0.06462732 0.61721057
0.17501104 0.06298016 0.6137501
0.16982192 0.067576192 0.61700004
0.17501462 0.07058806 0.61176926
0.17400242 0.079057276 0.61186671
0.17408004 0.086165674 0.6125294
0.17398953 0.090195246 0.611
0.17408447 0.10188826 0.61133337
0.17142402 0.10759429 0.61600012
0.17361221 0.10849901 0.61456251
0.17195636 0.11652588 0.61483347
0.17330061 0.11644726 0.61299998
0.17205206 0.12293703 0.61762506
0.17398188 0.12420996 0.61330438
0.17157242 0.13235715 0.61766672
0.17372635 0.13128686 0.6134643
0.17102405 0.13754494 0.61735302
0.17402789 0.13898636 0.61328
0.17188574 0.14575833 0.61650008
0.17459364 0.14614834 0.61275005
0.17151085 0.1543688 0.61764288
0.17411382 0.15366612 0.61350012
0.17117564 0.16107216 0.61680013
0.17424099 0.16143703 0.61321437
0.1718213 0.16829304 0.61750007
0.1747749 0.16893275 0.61377412
0.17180035 0.17609589 0.61566675
0.17411391 0.17596647 0.61286217
0.17194918 0.18486117 0.61620009
0.17435603 0.18389831 0.61286223
0.17193985 0.19130492 0.61616677
0.17446172 0.19114873 0.61293548
0.17191276 0.19791989 0.61712503
0.17441379 0.19913048 0.61367869
0.17209269 0.20615746 0.61671436
0.17467128 0.20633596 0.6130572
0.17212588 0.21383765 0.61683339
0.17505266 0.21374962 0.61316133
0.23869736 0.21146421 0.611
0.17112002 0.062236197 0.62
0.17132269 0.12538554 0.62160009
0.17078224 0.13040243 0.62106669
0.17300953 0.13049525 0.62
0.16946667 0.13521905 0.62
0.1707978 0.14786726 0.62286675
0.17030706 0.15346584 0.62447995
0.16988985 0.1584181 0.62300003
0.17041504 0.17002457 0.62155563
0.17039041 0.17597923 0.62452179
0.17279857 0.17695667 0.62349999
0.17146763 0.18332288 0.62300003
0.17081979 0.19226088 0.62365216
0.16954345 0.19908221 0.62573171
0.17261715 0.19999811 0.625
0.1702974 0.20653908 0.62345451
0.16942972 0.21379043 0.62465107
0.16766572 0.19651145 0.63100004
