# .PCD v0.7 - Point Cloud Data file format
VERSION 0.7
FIELDS x y z
SIZE 4 4 4
TYPE F F F
COUNT 1 1 1
WIDTH 414
HEIGHT 1
VIEWPOINT 0 0 0 1 0 0 0
POINTS 414
DATA ascii
0.14722382 0.10476858 0.71900004
0.15270191 0.10408381 0.71900004
0.14722382 0.10887715 0.71900004
0.16052778 0.10672504 0.71900004
0.14705263 0.11692311 0.71899992
0.13206857 0.10340571 0.72000009
0.13835767 0.10365716 0.72023547
0.1465143 0.10445715 0.72000003
0.15154287 0.10354286 0.72000003
0.12545586 0.10893192 0.72721428
0.1309813 0.10892382 0.72386676
0.13852681 0.10903853 0.72006667
0.1459379 0.10902858 0.72000015
0.15362899 0.10904926 0.7201333
0.16153371 0.11002862 0.72105569
0.16891375 0.1088217 0.72522217
0.17389938 0.10948732 0.72811115
0.12521328 0.11598534 0.72683328
0.1309337 0.11625618 0.72463644
0.13868502 0.11603159 0.7209
0.14468575 0.11567474 0.72000015
0.15364352 0.11591767 0.7202
0.16163552 0.11620735 0.72270834
0.16849744 0.11624768 0.72567999
0.17275858 0.11725429 0.72850001
0.1256924 0.12398734 0.72792304
0.13124317 0.12364665 0.72530007
0.13894442 0.12363026 0.72174287
0.14600441 0.12395606 0.72000009
0.15359417 0.12342518 0.72091174
0.160914 0.12382258 0.72352159
0.16809417 0.1238208 0.72632003
0.17330049 0.12286081 0.72883338
0.12556641 0.13081674 0.72785723
0.13136004 0.1311646 0.72540003
0.13899072 0.13139576 0.72306436
0.14616907 0.13107406 0.72056007
0.15367639 0.13134281 0.7215001
0.16120939 0.1311546 0.72325909
0.16810781 0.13073468 0.72662508
0.12625849 0.13874567 0.72841668
0.13122855 0.1388116 0.72583872
0.13917615 0.13851127 0.72287083
0.14644448 0.13867596 0.7214483
0.15369433 0.13830996 0.72158068
0.16151781 0.13839205 0.72238469
0.16811596 0.13832232 0.72741675
0.1264094 0.14544587 0.72871435
0.1314231 0.14595313 0.72630006
0.13873564 0.14611024 0.72424144
0.14599478 0.14661847 0.72341925
0.1536513 0.14622349 0.72299999
0.16062315 0.14603603 0.7245
0.16683489 0.14606662 0.72686672
0.13160916 0.15377797 0.72733337
0.13872278 0.15386568 0.72523093
0.14605664 0.1536369 0.72339988
0.15370677 0.15370572 0.72372001
0.16117544 0.15380326 0.72562969
0.16685134 0.15356673 0.72729409
0.12705429 0.1610743 0.72900003
0.13152531 0.16129535 0.72686672
0.13884616 0.16095233 0.72532004
0.14638096 0.16088101 0.7250002
0.15397796 0.16088197 0.72499996
0.16129981 0.1613002 0.72687995
0.16691621 0.16094156 0.72815382
0.13224335 0.16798732 0.72804546
0.13865033 0.16871575 0.72565627
0.14640842 0.16850881 0.72513902
0.1541118 0.16862331 0.72563338
0.16164549 0.16858165 0.72843999
0.16628143 0.16732287 0.72900003
0.13225727 0.17694487 0.72859997
0.13830157 0.17610717 0.72610003
0.14638096 0.17607142 0.7250002
0.15414689 0.17626573 0.72579992
0.16149145 0.17606369 0.72864288
0.16593429 0.17496002 0.72900003
0.13215292 0.18331316 0.72853333
0.13846795 0.18374667 0.72611767
0.14602529 0.18359002 0.72537512
0.15377893 0.18370731 0.72675854
0.16062674 0.18370983 0.72893751
0.13306084 0.19189991 0.72835302
0.13840637 0.19121502 0.72639996
0.14586724 0.19149372 0.72587991
0.153565 0.19101743 0.72824144
0.16045247 0.19085002 0.72870004
0.13226387 0.19856241 0.72831577
0.13857406 0.19878212 0.72689658
0.14608513 0.19870412 0.72695988
0.15301113 0.19919805 0.7287727
0.15922287 0.19648287 0.72900003
0.13316402 0.20564742 0.72900003
0.13879499 0.20608072 0.72809684
0.1462314 0.20599195 0.72769237
0.15297355 0.20589784 0.72859097
0.15760286 0.20342572 0.72900003
0.13399716 0.21036859 0.72900003
0.13898554 0.21339212 0.72816133
0.14621046 0.21354464 0.72758627
0.15228467 0.213782 0.7288
0.14084268 0.22083071 0.72850007
0.1462121 0.22110991 0.72816658
0.15214708 0.22052631 0.72891676
0.14163429 0.22564287 0.72900003
0.14607772 0.22647603 0.72900003
0.11859477 0.10254905 0.73250008
0.1233436 0.10286508 0.73169243
0.12949145 0.10373238 0.73100001
0.11806101 0.10897548 0.73721069
0.12265744 0.10814995 0.7317729
0.17719668 0.11092097 0.73250002
0.18014477 0.11145144 0.73600006
0.11863553 0.11624315 0.7365883
0.12182816 0.11645389 0.7315715
0.1763923 0.11615362 0.73341179
0.18109144 0.11581429 0.73700005
0.1181216 0.12412393 0.73633349
0.1224421 0.12361614 0.73157901
0.17686653 0.12431034 0.73310536
0.1811851 0.12071207 0.7383334
0.11785249 0.13118514 0.73660016
0.12203925 0.13141081 0.73177785
0.17195906 0.13436477 0.73100001
0.17536823 0.13153517 0.7311579
0.11819744 0.13866337 0.73728591
0.12274494 0.13878851 0.7323001
0.17152512 0.13913584 0.73137498
0.17610474 0.13908298 0.73218203
0.18014477 0.13808763 0.73600006
0.11799049 0.14633994 0.73846161
0.12295167 0.14675364 0.73341382
0.17083254 0.14615744 0.73128575
0.17590493 0.14584468 0.73348159
0.11781093 0.15357651 0.73633343
0.12397497 0.15371917 0.73262513
0.17103335 0.15428209 0.73299998
0.17583527 0.15341896 0.73556
0.18130609 0.15460417 0.73787498
0.11880874 0.15982081 0.73816675
0.12318765 0.16139632 0.73403239
0.17063782 0.16227098 0.73189998
0.1761416 0.16101818 0.73600012
0.18063429 0.15884477 0.73800004
0.11870922 0.16985272 0.73900002
0.12358743 0.16876566 0.73364872
0.12925939 0.17033462 0.73100007
0.1698712 0.16914393 0.73139131
0.17535287 0.17010573 0.73500001
0.11829457 0.17699009 0.73871434
0.12372283 0.17615783 0.73400003
0.12993447 0.17588305 0.73100007
0.16499716 0.17892097 0.73100001
0.16941769 0.17619348 0.73150003
0.17560546 0.17630284 0.73606265
0.11767743 0.18374738 0.73800015
0.12373199 0.18380703 0.73469239
0.13018763 0.1851093 0.73100001
0.16430096 0.18449047 0.73100001
0.16918439 0.18311816 0.73154181
0.17481482 0.18287036 0.73353857
0.117931 0.19092788 0.73827267
0.12394598 0.19137348 0.7348612
0.12981343 0.19088949 0.73130774
0.15664287 0.19423716 0.73100001
0.16448496 0.19150555 0.73119998
0.16881351 0.19111207 0.73381835
0.17464153 0.19221121 0.73791671
0.11894383 0.19964731 0.73900002
0.12359011 0.19870889 0.73641932
0.12873733 0.19862096 0.73133337
0.1563644 0.19813584 0.73100001
0.16128531 0.19977398 0.73344451
0.16890004 0.19873983 0.73657697
0.175014 0.19870892 0.73900002
0.11894383 0.20621622 0.73900002
0.12348645 0.20628475 0.73673534
0.12953727 0.20658879 0.73143488
0.15664288 0.20816097 0.73100007
0.1614458 0.20637059 0.732889
0.16905372 0.20623092 0.73653585
0.17384097 0.2062162 0.73900002
0.11894382 0.21114287 0.73900002
0.12344061 0.21392648 0.73646885
0.13084878 0.21396776 0.73148292
0.13575715 0.21581906 0.73100001
0.1561743 0.21362929 0.73124999
0.16132529 0.2139495 0.73281509
0.16909893 0.21402739 0.73719245
0.1759524 0.21149477 0.73900002
0.11894382 0.21888478 0.73900002
0.12352059 0.2213939 0.73765528
0.13122894 0.22133756 0.731879
0.13730426 0.22200741 0.73100001
0.14968096 0.22486953 0.73100001
0.15505157 0.22208478 0.73100007
0.16119404 0.22119911 0.73268014
0.16863048 0.22132683 0.73726332
0.12468421 0.22857381 0.73742318
0.13094504 0.22883148 0.73184401
0.1384259 0.22916274 0.73100013
0.14623663 0.23021922 0.73100001
0.1540554 0.22901882 0.7314232
0.16129167 0.22863086 0.73361546
0.16849756 0.22872774 0.73772746
0.12460737 0.23638856 0.73816693
0.13126165 0.23622929 0.73272431
0.13860211 0.23611267 0.73132008
0.14622691 0.23605207 0.73113364
0.15399356 0.2362159 0.73164016
0.16164193 0.23608992 0.73472005
0.16798426 0.23595881 0.73800015
0.12567692 0.2437986 0.73825014
0.13165529 0.2439439 0.73533338
0.13873145 0.24399999 0.73200029
0.14636035 0.24393527 0.73180574
0.15398037 0.24384624 0.73228586
0.16179189 0.2435253 0.73652184
0.16715477 0.24457383 0.73900002
0.12586701 0.2510334 0.73833346
0.13159673 0.25129572 0.73536366
0.13877679 0.25175032 0.73224014
0.14621226 0.25143525 0.73222238
0.15436961 0.25120685 0.73313051
0.16148263 0.25136015 0.73678285
0.16680288 0.25126004 0.73900008
0.12604834 0.25851765 0.73887509
0.13169129 0.25872028 0.73553336
0.13879089 0.25875333 0.73232007
0.14618331 0.2589041 0.7336297
0.15382655 0.25870675 0.73388559
0.16108671 0.25884396 0.73635024
0.16562986 0.25782892 0.73900002
0.12559089 0.26557082 0.73900014
0.13174763 0.26593053 0.73610014
0.1388012 0.2661683 0.73323101
0.14602196 0.26619241 0.73360008
0.1533324 0.26658371 0.73438466
0.16105148 0.26639032 0.73740005
0.16539524 0.26252097 0.73900002
0.12738954 0.27237433 0.73900002
0.13141187 0.27383277 0.73759276
0.1387054 0.27391142 0.73556674
0.14626007 0.27362666 0.73479992
0.15324207 0.27359763 0.73471999
0.15961811 0.27392742 0.73750013
0.12703763 0.28257954 0.73900002
0.13136816 0.28114498 0.73764008
0.13868493 0.28087932 0.73546672
0.14623287 0.28083235 0.73492312
0.1536262 0.28129631 0.73656017
0.1593543 0.28073356 0.73839998
0.12654497 0.28616899 0.73900002
0.13176326 0.28838924 0.73847836
0.13901706 0.28864795 0.73675001
0.14645313 0.2886439 0.73630786
0.15380269 0.28864062 0.73740011
0.15906096 0.28856191 0.73900002
0.13302003 0.29630381 0.73900008
0.1391446 0.29613093 0.73740005
0.14676608 0.29636401 0.7370742
0.15366423 0.2958858 0.73827296
0.15906096 0.29536545 0.73900002
0.13302001 0.30287272 0.73900002
0.13925512 0.30320346 0.73881835
0.14648077 0.303837 0.73788017
0.15413427 0.30334187 0.73900014
0.15898275 0.30302909 0.73899996
0.11472819 0.11689089 0.74289471
0.11169429 0.12023143 0.74700004
0.11502635 0.12371553 0.74529415
0.11430599 0.13110991 0.74549997
0.11184382 0.13606477 0.74800003
0.11414598 0.13837989 0.74259996
0.1110962 0.14930762 0.74300003
0.11526314 0.14706123 0.74185717
0.11184382 0.15316191 0.74800003
0.11408934 0.15380496 0.74293745
0.11562276 0.16142935 0.74370831
0.11184382 0.16740954 0.74800003
0.11563995 0.16856007 0.74461544
0.11169429 0.17358857 0.74700004
0.11597377 0.17457445 0.74385715
0.11511344 0.18487249 0.74430007
0.11519708 0.19074947 0.74535722
0.11725254 0.19844359 0.74247044
0.17749934 0.19985037 0.74000007
0.11184382 0.20587811 0.74800003
0.11577751 0.20632002 0.74323803
0.17625716 0.20626099 0.74054545
0.11670378 0.21392713 0.74420834
0.17564449 0.21456006 0.74066663
0.11689372 0.22141668 0.74391991
0.175809 0.22161207 0.74283326
0.11706479 0.22876006 0.74499989
0.12096354 0.22974071 0.74028575
0.17610893 0.22876935 0.74331999
0.11761841 0.23595351 0.74522734
0.12091702 0.23669934 0.74000007
0.17078732 0.23726985 0.74000001
0.17656501 0.23668653 0.74407691
0.18092859 0.2348524 0.74500006
0.11777334 0.24370196 0.74561912
0.12196327 0.24402994 0.74085718
0.17070669 0.24406636 0.74066663
0.17590703 0.2437295 0.74404764
0.1178722 0.25101852 0.74560004
0.12215911 0.25138128 0.74143744
0.17070551 0.25162616 0.74100006
0.1758896 0.25120211 0.74413639
0.11846871 0.25816703 0.74599999
0.12203999 0.25881827 0.74124986
0.16961768 0.25897574 0.74157888
0.17593908 0.25894219 0.74489999
0.11855357 0.2659055 0.74594128
0.1223188 0.26718488 0.74126667
0.16889504 0.26638484 0.74224997
0.17528404 0.26611957 0.74513334
0.11898621 0.27422079 0.74621427
0.12356537 0.27395189 0.74178255
0.12756191 0.27626669 0.74000001
0.16363239 0.27454838 0.74022222
0.1695098 0.27381381 0.74350017
0.17470664 0.27371249 0.745
0.11873221 0.28131098 0.74653339
0.12362224 0.28100896 0.74207699
0.12756191 0.27908573 0.74000001
0.16328882 0.28199413 0.74123079
0.1690762 0.28084916 0.7428
0.17421506 0.28114974 0.74360001
0.11859889 0.28832185 0.74681258
0.12331312 0.28890568 0.74247825
0.12856872 0.29066396 0.74000007
0.16291246 0.28908804 0.74088228
0.16877542 0.28849673 0.74315387
0.17392211 0.29081774 0.74660003
0.11903322 0.29448602 0.74714297
0.12354411 0.29644966 0.74381489
0.12913285 0.29660717 0.74093324
0.15669209 0.29764447 0.74000001
0.1621889 0.29678047 0.74077767
0.16889493 0.2966269 0.74511117
0.17382097 0.29688478 0.74800009
0.11896763 0.30489907 0.74800003
0.12335307 0.3038719 0.74493766
0.13105723 0.30402949 0.74118507
0.13672382 0.30445716 0.74000001
0.1629415 0.30363557 0.74143744
0.16853456 0.30423895 0.74561107
0.10446905 0.12392334 0.75650001
0.10943002 0.12494924 0.75400007
0.11126763 0.13082686 0.75133336
0.1115762 0.13518 0.75100005
0.1115762 0.15663715 0.75100005
0.11100531 0.16078466 0.75128573
0.11142857 0.16500001 0.75000006
0.11357144 0.16500001 0.75000006
0.11214286 0.18642858 0.75000006
0.11062436 0.19113687 0.75306249
0.11334573 0.1935254 0.75166672
0.11167105 0.19710957 0.75260007
0.11457478 0.19778602 0.75190002
0.11117639 0.20904839 0.75120008
0.10989625 0.21438774 0.75286365
0.11380953 0.21404764 0.75000012
0.10963984 0.22085105 0.75535303
0.11313588 0.2214254 0.75133336
0.11114234 0.22815916 0.7540589
0.11357143 0.22857144 0.75000012
0.11147185 0.23743132 0.75514293
0.11373777 0.23668334 0.75178581
0.11064616 0.24406582 0.75630778
0.11382192 0.24411274 0.75166672
0.11032683 0.25066414 0.75715393
0.11397389 0.251178 0.75200003
0.11116929 0.25873643 0.75674999
0.11435763 0.25872347 0.75190002
0.11084227 0.26632592 0.75709093
0.11460248 0.26610017 0.75210005
0.1106343 0.27349797 0.7571429
0.11500846 0.27361792 0.75252187
0.17928001 0.27720001 0.75600004
0.11140858 0.28092226 0.75633335
0.1144501 0.28105286 0.75195462
0.17928003 0.28151891 0.75600004
0.18119971 0.28213114 0.75700009
0.1115562 0.28850716 0.75450003
0.11469975 0.28870249 0.75116664
0.18264192 0.28515241 0.75800002
0.1116 0.29592004 0.75600004
0.11534099 0.2964831 0.75187999
0.1757143 0.29928574 0.75000006
0.11143592 0.30405799 0.75628579
0.11554885 0.30368814 0.75200003
0.17214286 0.30428571 0.75000006
0.17594935 0.30322909 0.75080007
0.10127144 0.23970002 0.76500005
0.10187452 0.24346097 0.76337516
0.10749756 0.24434875 0.76331258
0.10857144 0.25116193 0.76000005
0.10850877 0.25892836 0.76126677
0.10767402 0.26623589 0.7617144
0.10349811 0.27457625 0.76300007
0.10709608 0.27441013 0.7617501
0.10371715 0.28086287 0.76333332
0.10791358 0.28157306 0.76133335
0.18312231 0.28084382 0.76120007
0.10374048 0.28952596 0.76575011
0.10806848 0.28885677 0.76247841
0.10328934 0.29569682 0.76700014
0.10831989 0.29603466 0.76291311
0.10919978 0.30296922 0.76352948
