# .PCD v0.7 - Point Cloud Data file format
VERSION 0.7
FIELDS x y z rgb
SIZE 4 4 4 4
TYPE F F F F
COUNT 1 1 1 1
WIDTH 556
HEIGHT 1
VIEWPOINT 0 0 0 1 0 0 0
POINTS 556
DATA ascii
0.022480002 -0.1501343 0.84300005 1.1557103e-38
0.028100003 -0.1501343 0.84300011 8.7029813e-39
0.033318575 -0.15053573 0.84300005 9.9033294e-39
0.037332863 -0.15053573 0.84300005 1.1004643e-38
0.053791434 -0.1501343 0.84300005 1.4220056e-38
0.017823432 -0.14660172 0.84300005 1.1910502e-38
0.022407016 -0.14706884 0.84300011 8.6983514e-39
0.028100001 -0.14692289 0.84299999 9.5284554e-39
0.032917146 -0.14692289 0.84299999 9.7110488e-39
0.037734289 -0.14692287 0.84299999 8.3278089e-39
0.042551432 -0.1466935 0.84300005 8.4167871e-39
0.047368575 -0.14692287 0.84299999 9.3401517e-39
0.052185714 -0.14692287 0.84299999 9.7067762e-39
0.057002861 -0.14692287 0.84299999 9.894043e-39
0.061284766 -0.14585239 0.84300011 8.5165077e-39
0.081891432 -0.14531715 0.84300005 1.3831847e-38
0.016324764 -0.14264098 0.84300005 1.3102122e-38
0.022212384 -0.14371143 0.84300011 5.3738871e-39
0.028902858 -0.14371143 0.84300005 7.8674375e-39
0.032917146 -0.14290857 0.84300005 6.9390086e-39
0.037413146 -0.14306915 0.84300005 3.4378055e-39
0.042551436 -0.14290859 0.84300005 5.0051256e-39
0.047368571 -0.14290857 0.84300005 6.2040233e-39
0.052185722 -0.14290857 0.84300005 3.4450194e-39
0.057002865 -0.14290859 0.84300005 4.548797e-39
0.061820004 -0.14371143 0.84300005 4.8286657e-39
0.0826943 -0.14210574 0.84299999 1.3921515e-38
0.015254287 -0.13889429 0.84300005 1.7607778e-38
0.02745905 -0.15587048 0.84800005 1.7623677e-38
0.050880004 -0.15587048 0.84800005 2.2774746e-38
0.017244762 -0.15134917 0.84619999 1.3847647e-38
0.022551905 -0.15304118 0.84575009 1.0819186e-38
0.02816667 -0.15290478 0.84500015 1.7628957e-38
0.032673337 -0.15306573 0.84500009 2.0110009e-38
0.038145717 -0.15306573 0.84500009 2.0661e-38
0.042652387 -0.15210001 0.84500015 1.7443218e-38
0.047480959 -0.15210003 0.84500015 1.7995329e-38
0.05210834 -0.15230121 0.84500015 1.9006639e-38
0.057205718 -0.15228193 0.84600008 1.8637498e-38
0.062076669 -0.15156525 0.8465001 1.6247986e-38
0.067195386 -0.15202586 0.84714299 1.7442899e-38
0.071794294 -0.15165429 0.84700006 1.5789053e-38
0.077461429 -0.15169883 0.84725004 1.13727e-38
0.083388954 -0.15145718 0.84680003 1.3828237e-38
0.015692858 -0.14767382 0.84500003 1.6598785e-38
0.023338096 -0.14566192 0.84500003 6.9441121e-39
0.042652383 -0.14807621 0.84500003 1.0173511e-38
0.06223492 -0.14780796 0.84500015 1.0814915e-38
0.066795245 -0.14727145 0.84500015 1.0358233e-38
0.072428584 -0.14727145 0.84500021 1.0357839e-38
0.078061916 -0.14727145 0.84500015 1.0819902e-38
0.082890481 -0.14807621 0.84500015 1.3830754e-38
0.017973017 -0.14136986 0.84500003 5.2741231e-39
0.022622753 -0.14190635 0.84500015 4.3615036e-39
0.027936736 -0.14198302 0.84500015 9.1487862e-39
0.032995243 -0.14083335 0.84500003 9.6011225e-39
0.038226195 -0.14123572 0.84500003 7.0214918e-39
0.042652383 -0.14083335 0.84500003 1.1352945e-38
0.047480956 -0.14083335 0.84500003 1.4023696e-38
0.052309528 -0.14083335 0.84500003 4.6409828e-39
0.057138097 -0.14083335 0.84500003 6.1107179e-39
0.061966676 -0.14198302 0.84500015 6.0174643e-39
0.066795237 -0.14244287 0.84500015 5.4685897e-39
0.072428584 -0.14244288 0.84500021 5.8373764e-39
0.078061916 -0.14244288 0.84500015 7.2109768e-39
0.017904002 -0.13822821 0.84680003 4.5365608e-39
0.021805717 -0.13891049 0.84800005 6.568815e-39
0.02745905 -0.13891049 0.84800005 1.4940976e-38
0.033042099 -0.13877544 0.84619999 1.6139454e-38
0.038131293 -0.13835251 0.84671432 1.7063237e-38
0.042545121 -0.1381194 0.84687507 1.6511655e-38
0.047593337 -0.13793811 0.84700006 1.3747514e-38
0.052402388 -0.13866335 0.84650004 3.0768941e-39
0.057239529 -0.13866335 0.84650004 4.4552393e-39
0.062076669 -0.13866335 0.84650004 4.3619927e-39
0.066986099 -0.13897316 0.84740013 4.9143523e-39
0.071878105 -0.1397181 0.84800005 6.478399e-39
0.078003712 -0.13818975 0.84633338 7.5779587e-39
0.082689285 -0.13781549 0.84500015 1.1063505e-38
0.078339055 -0.13487239 0.84800005 8.1293009e-39
0.018706668 -0.16510668 0.85400003 1.4772128e-38
0.022366669 -0.16551335 0.85400003 1.4962266e-38
0.027043335 -0.16653 0.85400003 1.633079e-38
0.032533336 -0.16592 0.85400003 2.0835397e-38
0.037413336 -0.16510668 0.85400003 2.3412951e-38
0.073200002 -0.16510668 0.85400003 1.4957552e-38
0.075640008 -0.16510668 0.85400003 1.5699768e-38
0.017893335 -0.16266668 0.85400003 1.4034197e-38
0.021925082 -0.16241334 0.8526668 1.4225787e-38
0.026808575 -0.16247718 0.8530001 1.8640065e-38
0.032515239 -0.16257192 0.85350007 2.3233635e-38
0.038226668 -0.16185334 0.85400003 2.3142158e-38
0.044191115 -0.16239557 0.85400003 2.2591012e-38
0.047949847 -0.16254033 0.85333341 2.1854533e-38
0.053408891 -0.16212445 0.85400003 2.2038952e-38
0.057746675 -0.16104001 0.85400003 2.332577e-38
0.062626667 -0.16165002 0.85400003 2.222369e-38
0.067283101 -0.1620093 0.85375005 2.1578329e-38
0.07230255 -0.16247652 0.8530001 2.0018546e-38
0.077310726 -0.16294216 0.8522501 1.4872578e-38
0.080331437 -0.16228573 0.85200006 1.4218949e-38
0.017485444 -0.15783866 0.85114294 1.3572135e-38
0.021874286 -0.15798223 0.85066676 1.1556045e-38
0.027203813 -0.15871187 0.85085714 1.7442919e-38
0.032920577 -0.15828057 0.85140008 2.2130435e-38
0.037889998 -0.15784143 0.85100007 2.2038625e-38
0.042949632 -0.15802351 0.85088891 2.2866202e-38
0.047824766 -0.15806477 0.85111123 2.3142091e-38
0.052672114 -0.15801743 0.8508572 2.2498915e-38
0.057566993 -0.15729462 0.85133338 2.314205e-38
0.062529527 -0.15754098 0.85266674 2.3142069e-38
0.067625038 -0.15787104 0.85257155 2.3417585e-38
0.072217152 -0.15822859 0.85200012 2.1486135e-38
0.077085726 -0.15822859 0.85200012 1.2660594e-38
0.081751436 -0.15802571 0.85200012 1.3198322e-38
0.016604288 -0.15430525 0.85049999 1.4763845e-38
0.062333342 -0.15461907 0.85000008 2.3417599e-38
0.066380963 -0.15461905 0.85000002 2.3417579e-38
0.072047621 -0.15461907 0.85000008 2.1578301e-38
0.076904766 -0.15461907 0.85000008 1.1278351e-38
0.081810005 -0.15430428 0.85049999 1.2736249e-38
0.085000008 -0.15461905 0.85000002 1.2995259e-38
0.017580954 -0.13604826 0.852 6.0088225e-39
0.021882858 -0.13615906 0.85100007 1.0806664e-38
0.027203813 -0.13625199 0.85085714 1.4018109e-38
0.032823808 -0.13636144 0.85100007 1.4756402e-38
0.037758857 -0.13596535 0.85080004 1.4017079e-38
0.043309525 -0.13559525 0.85000002 1.4847902e-38
0.04776191 -0.13519049 0.85000008 1.4851314e-38
0.052680954 -0.13615906 0.85100001 8.2197323e-39
0.057543814 -0.13615906 0.85100007 7.9497694e-39
0.06240667 -0.13615906 0.85100007 9.8787478e-39
0.067258239 -0.13648328 0.8508572 7.5777414e-39
0.072160639 -0.13702288 0.85133344 6.8432565e-39
0.075968765 -0.13654934 0.85040009 5.3706221e-39
0.081761912 -0.13519049 0.85000008 1.3374093e-38
0.018289048 -0.13290143 0.85350007 2.0606696e-39
0.021925718 -0.1339905 0.85266674 1.2645187e-38
0.027127622 -0.13336077 0.85280007 1.5578228e-38
0.032141227 -0.13332328 0.85285729 1.4665956e-38
0.038172957 -0.13336079 0.85280007 1.4111727e-38
0.043437622 -0.13355762 0.85250008 1.4674943e-38
0.047468573 -0.13347906 0.85200006 1.4381725e-38
0.052826669 -0.13409525 0.85333341 1.1708464e-38
0.058153335 -0.13379334 0.85400003 8.9647032e-39
0.062577151 -0.13328192 0.85333341 1.06199e-38
0.067453973 -0.13328193 0.85333341 9.7886863e-39
0.072546408 -0.13290343 0.85314298 1.1351456e-38
0.077103712 -0.13229652 0.85222226 5.275942e-39
0.081641644 -0.1325935 0.85114294 1.3561343e-38
0.039131433 -0.16386287 0.85600007 2.2865164e-38
0.042120636 -0.16331938 0.85600013 2.1854883e-38
0.051360004 -0.16386287 0.85600007 1.98359e-38
0.057881914 -0.16386287 0.85600013 1.9189095e-38
0.062773339 -0.16386287 0.85600007 1.9003974e-38
0.016149716 -0.13261981 0.85640013 1.050484e-38
0.022019368 -0.13211969 0.85633337 1.2833191e-38
0.026495241 -0.13166097 0.85600007 1.485397e-38
0.031794287 -0.13125335 0.85600013 1.3017938e-38
0.03722921 -0.13179684 0.85600007 1.2467634e-38
0.042881526 -0.13190554 0.85600007 1.329123e-38
0.048425149 -0.13190554 0.85600007 1.5033822e-38
0.052990481 -0.13206857 0.85600007 1.438994e-38
0.057555821 -0.13190554 0.85600007 8.3207814e-39
0.062773339 -0.13125335 0.85600013 6.0284785e-39
0.067664772 -0.13125335 0.85600013 9.4245631e-39
0.071740955 -0.13125335 0.85600007 1.3377606e-38
0.015525715 -0.12910858 0.85800004 1.6590799e-38
0.023152385 -0.12938097 0.85800004 1.3199053e-38
0.026955243 -0.12905811 0.85766667 1.1532639e-38
0.031831432 -0.12895715 0.85700005 1.1350057e-38
0.036771432 -0.12992573 0.85800004 8.502129e-39
0.042491429 -0.12992573 0.85800004 8.0429375e-39
0.048211437 -0.12992573 0.85800004 1.7340847e-38
0.053441145 -0.12927201 0.85799998 1.81649e-38
0.05823075 -0.12871513 0.8577143 1.0984325e-38
0.062920004 -0.12910858 0.85799998 5.6474963e-39
0.067769527 -0.12900764 0.85733336 1.1170442e-38
0.072668582 -0.12900764 0.85733336 1.5766719e-38
0.077538103 -0.12895715 0.85700005 4.0784904e-39
0.080708578 -0.12880763 0.85600007 9.9653494e-39
0.018019048 -0.13022858 0.86000001 4.6309621e-39
0.020476192 -0.13022858 0.86000001 7.409119e-39
0.017425716 -0.1268943 0.86100006 8.0338963e-39
0.02192786 -0.12685739 0.86075008 1.0709363e-38
0.027028574 -0.12613335 0.86000007 1.4197955e-38
0.031942859 -0.12613335 0.86000007 1.3284301e-38
0.036886562 -0.12704995 0.86066675 1.2447387e-38
0.041836195 -0.12714794 0.86133343 1.3373648e-38
0.047330398 -0.12723447 0.86090916 1.7248688e-38
0.052653331 -0.12641096 0.86050004 1.7432011e-38
0.057824768 -0.12596954 0.86000007 1.7706819e-38
0.0631162 -0.12623048 0.86066669 1.6782385e-38
0.068060003 -0.12627906 0.861 1.7518801e-38
0.072895244 -0.12613335 0.86000007 1.5121326e-38
0.077809528 -0.12613335 0.86000007 5.2766762e-39
0.023807621 -0.12396382 0.86200005 1.5598107e-38
0.027091432 -0.12396382 0.86200011 1.539718e-38
0.032017149 -0.12396382 0.86200011 1.2367741e-38
0.036942862 -0.12396382 0.86200011 1.4575016e-38
0.041868575 -0.12396382 0.86200011 1.5310443e-38
0.046794292 -0.12396382 0.86200011 1.4671191e-38
0.051720005 -0.12396382 0.86200011 1.494528e-38
0.056974102 -0.12363545 0.86200011 1.5678157e-38
0.063213341 -0.12396382 0.86200011 1.5679229e-38
0.068139054 -0.12396382 0.86200011 1.5860315e-38
0.073393151 -0.12330706 0.86200011 1.4016439e-38
0.078150004 -0.12245524 0.86150002 5.3728432e-39
0.014069525 -0.12414286 0.86900002 1.8442328e-38
0.017694665 -0.12270363 0.8682 7.3881444e-39
0.021920741 -0.1224473 0.86677784 1.0618921e-38
0.027217146 -0.12206382 0.86600012 1.6040379e-38
0.032153338 -0.12201715 0.86566681 1.4932309e-38
0.037132658 -0.12176967 0.86642867 1.5487627e-38
0.042111434 -0.12137748 0.86700004 1.5214323e-38
0.047018643 -0.12172968 0.86614293 1.5214632e-38
0.051919367 -0.12197049 0.86533344 1.4850196e-38
0.057172388 -0.12175906 0.86500007 1.4942055e-38
0.061857149 -0.12206383 0.86600006 1.4571838e-38
0.066882871 -0.12137747 0.86700004 1.4755046e-38
0.071977831 -0.12145431 0.8658573 1.5955741e-38
0.077402227 -0.12036985 0.86766672 5.4516858e-39
0.080279052 -0.12000477 0.86900002 1.2473301e-38
0.022655431 -0.11890115 0.8682 1.2551414e-38
0.027290476 -0.11825747 0.86833334 1.4484621e-38
0.032252382 -0.11825747 0.86833334 1.6140862e-38
0.037221432 -0.11807358 0.86849999 1.5311167e-38
0.041794762 -0.11793572 0.86900002 1.5495917e-38
0.047147147 -0.11807358 0.86850005 1.6971668e-38
0.052100006 -0.11825747 0.86833334 1.6420015e-38
0.056833569 -0.11841882 0.86800003 1.6507594e-38
0.062000006 -0.11903906 0.86800003 1.6050169e-38
0.06703715 -0.11834954 0.86900008 1.8902039e-38
0.07193657 -0.11890115 0.8682 1.6139051e-38
0.076602869 -0.11829429 0.86860001 8.1220955e-39
0.08110667 -0.11834953 0.86900002 1.780987e-38
0.014101906 -0.12111048 0.87100005 1.9182768e-38
0.015760953 -0.12111048 0.87100005 1.889314e-38
0.013302858 -0.11723143 0.87300009 1.8904762e-38
0.017441375 -0.11711122 0.8721112 8.217175e-39
0.022397146 -0.11613335 0.87100017 1.1998233e-38
0.027374288 -0.11530381 0.87100005 1.2001478e-38
0.032351431 -0.11530381 0.87100005 1.208896e-38
0.037328579 -0.11530381 0.87100005 9.5104627e-39
0.042637527 -0.11596745 0.87100011 1.3465444e-38
0.04728286 -0.11530381 0.87100005 1.2094342e-38
0.052260004 -0.11530381 0.87100005 1.1453051e-38
0.057651911 -0.11571857 0.87100005 1.3474099e-38
0.062214296 -0.11613335 0.87100017 1.2830205e-38
0.067242227 -0.11622159 0.87166679 1.4208784e-38
0.072168581 -0.11613333 0.87100017 1.365481e-38
0.077145718 -0.11596743 0.87100011 8.1275409e-39
0.082280651 -0.11635524 0.87266672 1.9183871e-38
0.022448575 -0.11390572 0.87300003 1.2920171e-38
0.027437147 -0.11390572 0.87300003 1.5030218e-38
0.032425717 -0.11390572 0.87300003 1.5031248e-38
0.03741429 -0.11390572 0.87300003 1.3643388e-38
0.042818572 -0.11349001 0.87300003 1.5581957e-38
0.047391437 -0.1130743 0.87300009 1.5951081e-38
0.052380007 -0.11390572 0.87300003 1.3647075e-38
0.056537148 -0.11390572 0.87300003 1.3827743e-38
0.083974294 -0.11390572 0.87300003 2.0375213e-38
0.014166668 -0.11333334 0.87500006 1.7711241e-38
0.017520001 -0.11262667 0.87600011 7.8480393e-39
0.022538573 -0.11185668 0.87650007 1.3017413e-38
0.027547147 -0.11185668 0.87650007 1.7150699e-38
0.032555718 -0.11185668 0.87650007 1.6968833e-38
0.037500001 -0.11166667 0.87500012 1.6694039e-38
0.042166673 -0.1115 0.87500012 1.6140863e-38
0.047500007 -0.11083334 0.87500012 1.5320452e-38
0.052560963 -0.11179334 0.87600005 1.5499897e-38
0.057822593 -0.11218668 0.87628573 1.5774637e-38
0.062571436 -0.11262667 0.87599999 1.5126413e-38
0.067577146 -0.11262667 0.87600011 1.5404794e-38
0.072582863 -0.11262667 0.87599999 1.4112945e-38
0.077500008 -0.1125 0.87500006 7.7635102e-39
0.081666678 -0.1125 0.87500012 1.9276067e-38
0.016723812 -0.10954096 0.87800002 1.1801998e-38
0.034283813 -0.10954096 0.87800002 1.393254e-38
0.037628572 -0.10912286 0.87800002 1.2550284e-38
0.042595245 -0.1094162 0.87700003 1.3010196e-38
0.047662862 -0.10954096 0.87800002 1.3472623e-38
0.052680008 -0.10954096 0.87800002 1.4120184e-38
0.057362672 -0.10887201 0.87800008 1.375073e-38
0.068567619 -0.10954096 0.87800002 1.5224396e-38
0.072748579 -0.10954096 0.87800002 1.3927505e-38
0.077940837 -0.10803084 0.87762511 9.8857641e-39
0.081806198 -0.10768239 0.87650007 1.9274977e-38
0.079438098 -0.10452382 0.87800002 1.8078933e-38
0.082225405 -0.10396636 0.87800002 1.93625e-38
0.014312382 -0.1052381 0.88400006 1.6231397e-38
0.018035479 -0.10736597 0.88075006 8.3147558e-39
0.022667143 -0.10745572 0.88150012 7.5833691e-39
0.027704289 -0.10745572 0.88150012 9.3268226e-39
0.032344975 -0.10766223 0.88088894 1.024946e-38
0.037714288 -0.10710859 0.88000005 9.1473765e-39
0.043026671 -0.10682715 0.88150007 8.5974607e-39
0.048090003 -0.10688762 0.88200009 1.007042e-38
0.052664049 -0.10679691 0.88125008 1.0710749e-38
0.058247622 -0.10685715 0.88000005 1.1169652e-38
0.062857144 -0.10811429 0.88000005 1.3104299e-38
0.06766776 -0.10766995 0.8802858 1.2183431e-38
0.072914287 -0.1072762 0.88000005 8.0414493e-39
0.076266669 -0.1064381 0.88000005 3.1691668e-39
0.014312382 -0.10355429 0.88400006 1.5865859e-38
0.017328002 -0.10413259 0.88320011 1.0516648e-38
0.022731431 -0.10355429 0.88400006 8.0472227e-39
0.03337016 -0.10375556 0.88333338 1.0990984e-38
0.037848987 -0.10393336 0.88314295 9.5173081e-39
0.041783493 -0.1040362 0.88333338 7.6776849e-39
0.054600004 -0.105 0.88200003 9.6894912e-39
0.058025718 -0.10427716 0.88300008 8.310898e-39
0.063071437 -0.10427716 0.88300008 8.4045188e-39
0.068117157 -0.10427716 0.88300008 8.8622809e-39
0.073366813 -0.10386587 0.88257152 4.7281996e-39
0.078069925 -0.10325089 0.8814286 1.0440042e-38
0.081480011 -0.1024781 0.88200009 1.9272802e-38
0.046461906 -0.10559525 0.88700002 8.8669332e-39
0.014377143 -0.10148477 0.88800001 1.5492072e-38
0.017760001 -0.10148478 0.88800001 1.0339081e-38
0.022826351 -0.10144699 0.8876667 1.1543808e-38
0.027890692 -0.10226656 0.8874445 1.2923874e-38
0.032607812 -0.10120249 0.88700002 1.209734e-38
0.038014289 -0.10120249 0.88700002 1.0164104e-38
0.043324221 -0.10173349 0.88700008 8.8758707e-39
0.048199687 -0.10231735 0.88788891 1.0254875e-38
0.053038336 -0.10248405 0.88750005 1.0436385e-38
0.057860553 -0.1013479 0.8878572 1.0253455e-38
0.062512383 -0.10137144 0.88700002 9.9793736e-39
0.066736192 -0.10137144 0.88700002 9.8853829e-39
0.071859375 -0.10144699 0.8876667 8.503805e-39
0.077003337 -0.10111905 0.88849998 4.7318318e-39
0.081280008 -0.10075334 0.88900006 2.0651751e-38
0.014393334 -0.099060006 0.88900006 1.4845643e-38
0.017780002 -0.099060014 0.88900012 1.1995727e-38
0.022521336 -0.098382674 0.88900006 1.3754013e-38
0.028278667 -0.098382674 0.88900006 1.329338e-38
0.033020005 -0.098213345 0.88900006 1.1912238e-38
0.038057148 -0.098101914 0.88800013 1.0163001e-38
0.043147624 -0.09813907 0.88833332 9.1513716e-39
0.048260003 -0.098213337 0.88900006 1.0531121e-38
0.052493334 -0.099060006 0.88900006 1.1543109e-38
0.056726672 -0.099060014 0.88900012 1.1263999e-38
0.062145334 -0.098382674 0.88900006 9.8814425e-39
0.066886671 -0.098213337 0.88900006 1.0067993e-38
0.071543336 -0.098636672 0.88900006 1.0527117e-38
0.077385336 -0.098382674 0.88900006 8.2298525e-39
0.081280008 -0.098213345 0.88900006 2.0192935e-38
0.014425715 -0.097585723 0.89100003 1.4383945e-38
0.017820003 -0.097585723 0.89100003 1.337653e-38
0.023393573 -0.096555009 0.89325005 1.5228447e-38
0.027649287 -0.096555009 0.89325005 1.4582676e-38
0.033205718 -0.096211433 0.89400005 1.3841879e-38
0.038228579 -0.095996201 0.89200008 1.2368421e-38
0.043372385 -0.096103817 0.89300007 1.1447161e-38
0.047601432 -0.096050009 0.89250004 1.0254161e-38
0.052173149 -0.096696578 0.89220011 1.1548538e-38
0.056919053 -0.096844777 0.89200008 1.1177929e-38
0.061625719 -0.09647429 0.89250004 1.0351382e-38
0.067262866 -0.096211433 0.89400005 1.0260295e-38
0.072613716 -0.09676116 0.89280003 1.0350674e-38
0.076924294 -0.09647429 0.89250004 8.9609071e-39
0.08146286 -0.095888577 0.89100003 1.9732334e-38
0.028948573 -0.094508581 0.89400005 1.6601636e-38
0.033205718 -0.094508581 0.89400005 1.577402e-38
0.03746286 -0.094508581 0.89400005 1.4854533e-38
0.040868573 -0.094508581 0.89400005 1.430171e-38
0.045977145 -0.094508581 0.89400005 1.1357937e-38
0.051937148 -0.094508581 0.89400005 1.0994567e-38
0.057045721 -0.094508581 0.89400005 1.0810167e-38
0.061302863 -0.094508581 0.89400005 1.0259506e-38
0.078615248 -0.093940966 0.89400005 1.1547109e-38
0.081453346 -0.093940966 0.89400005 1.9361042e-38
0.013653334 -0.096426673 0.89600003 1.5490266e-38
0.017920002 -0.096426681 0.89600009 1.4670879e-38
0.013968891 -0.09379112 0.89800012 1.5581028e-38
0.018204356 -0.09370967 0.89800012 1.5772989e-38
0.023068152 -0.093127407 0.89711118 1.6418714e-38
0.027933609 -0.092583962 0.89657146 1.5677177e-38
0.033280004 -0.092160009 0.89600003 1.5217611e-38
0.037546668 -0.092160009 0.89600003 1.4301065e-38
0.042057149 -0.092525728 0.89600003 1.3843695e-38
0.047207627 -0.092583962 0.89657152 1.4118773e-38
0.052069936 -0.092554845 0.89628577 1.0988757e-38
0.057210345 -0.092583947 0.89657146 9.6108686e-39
0.062577419 -0.092583947 0.89657146 8.870833e-39
0.067463495 -0.093081273 0.89666665 8.6875642e-39
0.072587304 -0.093081281 0.89666665 8.133296e-39
0.077141598 -0.092512392 0.89666671 9.4226083e-39
0.081066675 -0.091306672 0.89600003 1.8808231e-38
0.023946669 -0.089800008 0.89800006 1.5307604e-38
0.028222859 -0.089800015 0.89800012 1.4936272e-38
0.032499049 -0.089800008 0.89800006 1.4933422e-38
0.036775239 -0.089800015 0.89800012 1.4196235e-38
0.04190667 -0.089800015 0.89800012 1.3651779e-38
0.047038101 -0.089800015 0.89800012 1.4763173e-38
0.052597146 -0.089372389 0.89800006 1.2920535e-38
0.057300955 -0.089800015 0.89800012 9.1509806e-39
0.06243239 -0.089800015 0.89800012 8.689292e-39
0.065853335 -0.089800008 0.89800006 7.7691742e-39
0.077826671 -0.089800015 0.89800012 1.1907934e-38
0.012656906 -0.091816194 0.90100002 1.5305863e-38
0.017676761 -0.090786479 0.90100002 1.4474315e-38
0.021452382 -0.090100005 0.90100002 1.5399808e-38
0.068647623 -0.090100005 0.90100002 7.40004e-39
0.0729381 -0.090100013 0.90100002 6.6614016e-39
0.012892804 -0.086816825 0.90255558 1.5302986e-38
0.018042224 -0.086773232 0.90211117 1.3178822e-38
0.022979764 -0.086977378 0.90200001 1.3828141e-38
0.027311811 -0.087087058 0.9018001 1.410363e-38
0.031775951 -0.086953335 0.90174997 1.4009333e-38
0.036934502 -0.086751856 0.90188897 1.2905879e-38
0.04209381 -0.086977378 0.90200007 1.3366135e-38
0.047248099 -0.086977385 0.90200001 1.2995617e-38
0.052201435 -0.086571902 0.90225005 1.438933e-38
0.057319596 -0.087267354 0.902143 1.1357888e-38
0.062710486 -0.087621912 0.90200013 8.5988803e-39
0.067889847 -0.087654613 0.90233344 7.8602881e-39
0.073019058 -0.087621912 0.90200007 6.6628141e-39
0.078173339 -0.08762192 0.90200007 1.319474e-38
0.01462 -0.083420008 0.90300006 1.4748703e-38
0.024995239 -0.085328579 0.90500003 1.2901504e-38
0.02844286 -0.085328579 0.90500003 1.345757e-38
0.031890478 -0.085328579 0.90500003 1.3179952e-38
0.042233337 -0.085328579 0.90500003 1.299624e-38
0.047404766 -0.085328579 0.90500003 1.2068949e-38
0.058609527 -0.085328579 0.90500003 1.3558398e-38
0.06291905 -0.085328579 0.90500009 7.9552975e-39
0.068090484 -0.085328579 0.90500009 7.6769646e-39
0.073261909 -0.085328579 0.90500009 6.1139283e-39
0.077571437 -0.085328579 0.90500003 1.1815035e-38
0.014093969 -0.081969529 0.90600008 1.5488744e-38
0.018130001 -0.082878582 0.9065001 1.2621724e-38
0.022956382 -0.083023809 0.90620005 1.2441256e-38
0.027116954 -0.082733348 0.90680009 1.2716084e-38
0.031960957 -0.082060002 0.90700012 1.3085223e-38
0.037102863 -0.081969529 0.90600014 1.281113e-38
0.042311747 -0.082029849 0.90666676 1.3178496e-38
0.047509529 -0.082060002 0.90700012 1.2071791e-38
0.052634288 -0.081969529 0.90600014 1.0426322e-38
0.057811432 -0.081969529 0.90600014 1.3753289e-38
0.06301111 -0.081999689 0.90633339 1.0989484e-38
0.06769307 -0.082241915 0.90628582 7.5858466e-39
0.072270796 -0.082060009 0.90700001 6.663865e-39
0.077180006 -0.081936203 0.90800005 1.0804824e-38
0.080422863 -0.080422863 0.90800005 1.6506252e-38
0.033725716 -0.078693338 0.90800005 1.4745099e-38
0.037184767 -0.078693345 0.90800011 1.4287727e-38
0.042373337 -0.078693338 0.90800005 1.3638053e-38
0.053615242 -0.078693338 0.90800005 9.2337904e-39
0.057939053 -0.078693345 0.90800011 1.0993514e-38
0.063127629 -0.078693345 0.90800011 1.0711161e-38
0.067451432 -0.078693338 0.90800005 7.5855032e-39
0.070045717 -0.078693338 0.90800005 7.308552e-39
0.018200003 -0.080600008 0.91000003 1.2350225e-38
0.022533335 -0.080600008 0.91000003 1.2903387e-38
0.026866667 -0.080600008 0.91000003 1.3084515e-38
0.014733334 -0.078866675 0.91000003 1.474758e-38
0.018260002 -0.079126671 0.91300005 1.1887055e-38
0.022607621 -0.079126671 0.91300005 1.3358199e-38
0.027344286 -0.078561909 0.91150004 1.3267456e-38
0.031783432 -0.077979244 0.91180003 1.3268204e-38
0.037389528 -0.077387623 0.91300005 1.2623925e-38
0.042571671 -0.077757388 0.91225004 1.2900478e-38
0.047745239 -0.078127146 0.91149998 1.1237755e-38
0.052768443 -0.076853618 0.91257155 8.1253184e-39
0.058162387 -0.076390959 0.9115001 1.0249841e-38
0.062450714 -0.076328807 0.91075003 7.6723431e-39
0.066843338 -0.076390952 0.91149998 7.5833579e-39
0.072051913 -0.077548422 0.9115001 6.7550041e-39
0.077304766 -0.079040006 0.91200006 1.0620437e-38
0.059997145 -0.073909529 0.91300005 8.6828587e-39
0.062605724 -0.073909529 0.91300005 7.304229e-39
0.066953346 -0.073909536 0.91300005 9.147071e-39
0.014814286 -0.076685719 0.91500002 1.2439883e-38
0.017428573 -0.076685719 0.91500002 1.0589856e-38
0.021785717 -0.076685719 0.91500008 1.1517855e-38
0.026665716 -0.076511435 0.91500008 1.1608293e-38
0.032242861 -0.075814292 0.91500008 1.1055159e-38
0.037471432 -0.075814292 0.91500008 1.1057673e-38
0.042700004 -0.075814292 0.91500008 1.1702295e-38
0.047928572 -0.075814292 0.91500008 1.0590921e-38
0.073200002 -0.075814292 0.91500002 6.7532188e-39
0.077557154 -0.076685719 0.91500008 1.1170738e-38
0.014825081 -0.072380006 0.9156667 1.2530635e-38
0.017292002 -0.072836004 0.917 1.0504516e-38
0.02182762 -0.072468676 0.91677773 1.1609734e-38
0.027053652 -0.072432704 0.91633332 1.142388e-38
0.032273758 -0.072397567 0.91588891 1.114839e-38
0.03750826 -0.072397575 0.91588891 1.142534e-38
0.042720746 -0.072362863 0.91544449 1.2163244e-38
0.047939796 -0.072345719 0.91522229 1.0412595e-38
0.052953813 -0.072565719 0.91525006 1.0522405e-38
0.057193886 -0.072145723 0.9158572 1.0064358e-38
0.061549909 -0.071662299 0.91540003 8.2218861e-39
0.067100003 -0.072328582 0.91500008 1.0620379e-38
0.072623819 -0.072871163 0.91557151 9.9732191e-39
0.077689849 -0.072451115 0.91655552 1.2640847e-38
0.014846668 -0.068993337 0.91700006 1.252989e-38
0.016593335 -0.068993337 0.91700006 1.0506644e-38
0.022706669 -0.068993337 0.91700006 1.1793745e-38
0.02794667 -0.068993337 0.91700006 1.1792295e-38
0.032313336 -0.068993345 0.91700006 1.1700126e-38
0.03755334 -0.068993345 0.91700006 1.2162868e-38
0.041046668 -0.068993337 0.91700006 1.317736e-38
0.053273335 -0.068993337 0.91700006 1.0806528e-38
0.077726677 -0.068993345 0.91700006 1.3748263e-38
0.0184 -0.070971437 0.92000002 1.1150592e-38
0.063961908 -0.070971437 0.92000002 8.4097932e-39
0.067466676 -0.070971444 0.92000002 1.0341996e-38
0.071847625 -0.070971437 0.92000002 1.1997542e-38
0.021352384 -0.068148576 0.92133331 1.1977781e-38
0.027202543 -0.068148576 0.92133331 1.1884509e-38
0.032489527 -0.067613341 0.92200005 1.1793066e-38
0.036880001 -0.067613341 0.92200005 1.2161422e-38
0.043904766 -0.068491429 0.92200005 1.243979e-38
0.04765746 -0.068123497 0.921 8.7656782e-39
0.052062228 -0.067271113 0.92133331 8.5884714e-39
0.057021584 -0.067546882 0.92111111 6.3751205e-39
0.062055785 -0.068072118 0.92142868 7.2041763e-39
0.067613333 -0.068491429 0.92200005 1.0335591e-38
0.072881907 -0.068491429 0.92200005 1.1537685e-38
0.078150481 -0.066735245 0.92200005 1.3744318e-38
0.052393019 -0.063515566 0.92200011 4.8099444e-39
0.055320002 -0.064100958 0.92200005 5.5432298e-39
0.077272385 -0.064100958 0.92200005 1.2731968e-38
0.017795241 -0.067480952 0.92500013 1.1240234e-38
0.022023812 -0.066511914 0.92500007 1.225327e-38
0.026869047 -0.066511914 0.92500007 1.1977408e-38
0.032595243 -0.066776194 0.92500013 1.1793399e-38
0.038321432 -0.066511914 0.92500007 1.2718895e-38
0.042726193 -0.066511914 0.92500007 1.1984932e-38
0.048452385 -0.066071436 0.92500007 7.1133483e-39
0.050214291 -0.066071436 0.92500007 7.0258372e-39
0.063428581 -0.066071436 0.92500007 8.1333353e-39
0.067833334 -0.066071436 0.92500007 1.1352631e-38
0.073119052 -0.066071436 0.92500007 1.043496e-38
0.017657144 -0.064448573 0.92700005 1.1146218e-38
0.022303266 -0.063127771 0.92614299 1.1978123e-38
0.027348893 -0.062636517 0.92633343 1.1794087e-38
0.032665718 -0.062682852 0.92700005 1.1242386e-38
0.037944239 -0.062651962 0.92655563 6.73811e-39
0.042980477 -0.062817618 0.92575008 5.6400413e-39
0.04723715 -0.062352251 0.92585731 7.5761356e-39
0.051700637 -0.061982226 0.92533344 5.8240809e-39
0.057498097 -0.062343813 0.92525011 4.9000072e-39
0.062638626 -0.062636942 0.92633343 7.8581819e-39
0.067930482 -0.063519374 0.92633343 1.4670209e-38
0.07282915 -0.063658863 0.92580003 8.677182e-39
0.076752707 -0.061754927 0.92633343 1.1351196e-38
0.046791434 -0.059151433 0.92700005 6.5638025e-39
0.052049845 -0.059108894 0.92633343 7.1183888e-39
0.057304453 -0.059066355 0.92566675 6.8356867e-39
0.06268286 -0.059151433 0.92700005 7.2138621e-39
0.068200007 -0.061114293 0.93000007 1.1357692e-38
0.072628573 -0.061114289 0.93000007 5.54689e-39
