# .PCD v0.7 - Point Cloud Data file format
VERSION 0.7
FIELDS x y z rgb
SIZE 4 4 4 4
TYPE F F F F
COUNT 1 1 1 1
WIDTH 691
HEIGHT 1
VIEWPOINT 0 0 0 1 0 0 0
POINTS 691
DATA ascii
0.067658968 -0.14677688 0.84300011 1.1464917e-38
0.072859287 -0.14672217 0.84299999 1.1278673e-38
0.076271437 -0.14531715 0.84300005 1.1548124e-38
0.06792172 -0.1422663 0.84300005 8.9760355e-39
0.073060013 -0.14210573 0.84299999 1.0355676e-38
0.076271437 -0.14210573 0.84300011 1.1081704e-38
0.068443581 -0.13748929 0.84299999 5.6483216e-39
0.073060013 -0.13728857 0.84299999 8.0429109e-39
0.076271437 -0.13809144 0.84300005 1.3931512e-38
0.069848575 -0.13407715 0.84300005 3.9019983e-39
0.071454294 -0.13407715 0.84300005 7.1155582e-39
0.053302862 -0.15183239 0.84800005 1.0265337e-38
0.057491437 -0.15230455 0.84725004 1.3667971e-38
0.062113337 -0.15246193 0.84700012 1.8180123e-38
0.066874303 -0.15228191 0.84600013 2.1672383e-38
0.072022006 -0.15210278 0.84590006 2.0199709e-38
0.07640937 -0.15255097 0.84750003 1.4127745e-38
0.052929394 -0.14771961 0.84757155 6.6664953e-39
0.057160009 -0.14733018 0.8453334 8.3299445e-39
0.061966673 -0.14727145 0.84500015 1.0266046e-38
0.065185718 -0.14888096 0.84500003 1.4312638e-38
0.074842863 -0.14888096 0.84500003 1.1185466e-38
0.078298457 -0.14753871 0.84537512 9.9898021e-39
0.08156953 -0.14698666 0.84800005 7.5854388e-39
0.054110479 -0.14456382 0.84800005 6.3851454e-39
0.057465363 -0.1429594 0.84687507 6.2936868e-39
0.061990481 -0.14249843 0.8453334 6.4806172e-39
0.065185718 -0.1416381 0.84500003 6.7572798e-39
0.078866675 -0.14244288 0.84500015 1.3381206e-38
0.081569538 -0.1429486 0.84800005 1.3748959e-38
0.058956195 -0.1397181 0.84800005 5.4647627e-39
0.062687457 -0.13855891 0.84750009 5.9241798e-39
0.065645956 -0.13733263 0.84575003 6.3840776e-39
0.07860259 -0.13752314 0.84585726 1.5125761e-38
0.08156953 -0.1397181 0.84800005 1.6604801e-38
0.06785696 -0.13329506 0.84619999 6.1067382e-39
0.072602764 -0.13276213 0.84600013 8.7772263e-39
0.077171758 -0.13417493 0.84700006 1.4572176e-38
0.071573339 -0.16510668 0.85400003 9.9844379e-39
0.043920003 -0.16022667 0.85400003 1.3758353e-38
0.047580004 -0.16104001 0.85400003 2.029265e-38
0.052866675 -0.16022667 0.85400003 2.222375e-38
0.057746671 -0.16022667 0.85400003 2.2865867e-38
0.062626675 -0.1607689 0.85400003 2.2590771e-38
0.067832008 -0.16087735 0.85400003 2.3233907e-38
0.072367415 -0.16181123 0.85377783 1.9733702e-38
0.077085719 -0.16147432 0.85200012 1.2092942e-38
0.03782 -0.15575334 0.85400003 3.9085213e-39
0.042890243 -0.15713073 0.85375005 8.6108473e-39
0.047890894 -0.15781799 0.8522858 1.2658439e-38
0.052742865 -0.15741715 0.85200012 1.8819381e-38
0.057543814 -0.15723334 0.85100001 2.1763489e-38
0.062227763 -0.1577124 0.85171443 2.1672007e-38
0.067348577 -0.15741715 0.85200012 2.2591127e-38
0.072217152 -0.15741715 0.85200012 2.3417595e-38
0.077085726 -0.15822859 0.85200012 1.9646437e-38
0.081777975 -0.15787105 0.85257161 1.431394e-38
0.086892068 -0.15781017 0.8526668 1.3020008e-38
0.090686671 -0.15697335 0.85400003 1.1904002e-38
0.043433238 -0.15251556 0.85333341 8.6825336e-39
0.047695071 -0.15267169 0.85145468 7.8668307e-39
0.051971432 -0.15364762 0.85000002 9.2551532e-39
0.055857148 -0.15461905 0.85000002 1.5147393e-38
0.078523815 -0.15380953 0.85000002 1.3853373e-38
0.081870057 -0.15320043 0.85111123 1.2112104e-38
0.086731613 -0.15242513 0.85254562 9.2400528e-39
0.091810159 -0.15193589 0.85311121 1.1712788e-38
0.044733338 -0.14884001 0.85400003 1.9447413e-38
0.048284031 -0.14756151 0.85288894 5.1902245e-39
0.051040005 -0.14717716 0.8506667 6.662126e-39
0.082976192 -0.14854763 0.85000002 7.216383e-39
0.086823709 -0.14686817 0.85200012 1.1622671e-38
0.091537528 -0.14811963 0.85360003 1.1986839e-38
0.049613338 -0.14396001 0.85400003 5.3706011e-39
0.052908156 -0.14250225 0.85177785 6.4756132e-39
0.056440644 -0.14069715 0.8506667 6.0165268e-39
0.083528101 -0.1427262 0.85150003 1.4205547e-38
0.086451113 -0.14281937 0.85366672 1.6413137e-38
0.053817149 -0.13771354 0.85360003 9.9763062e-39
0.057640214 -0.1372017 0.85244453 8.3200317e-39
0.061841913 -0.13637589 0.8506667 7.4847807e-39
0.065571435 -0.13519049 0.85000002 6.4744936e-39
0.08195582 -0.13713144 0.85200006 1.5498821e-38
0.057746675 -0.13420001 0.85400003 9.9788482e-39
0.062774695 -0.13285907 0.85285729 9.0474597e-39
0.066754296 -0.1316178 0.85133338 8.222228e-39
0.072047621 -0.13033335 0.85000008 6.9365423e-39
0.077056199 -0.13193938 0.85166669 1.4481774e-38
0.080331437 -0.13388573 0.85200006 1.5400459e-38
0.064253338 -0.12932001 0.85400003 1.6135202e-38
0.067689762 -0.12785882 0.85375005 1.0512694e-38
0.072311759 -0.12755916 0.85311121 7.0291051e-39
0.075640008 -0.12932001 0.85400003 1.3567023e-38
0.070760004 -0.12444001 0.85400003 1.6093549e-39
0.04494286 -0.16588001 0.85800004 2.2039661e-38
0.047394291 -0.16588001 0.85800004 2.0293766e-38
0.068559051 -0.16568667 0.85700005 1.4301342e-38
0.028600002 -0.16097715 0.85800004 6.5760583e-39
0.032072861 -0.16240716 0.85799992 1.0909226e-38
0.037071433 -0.16233544 0.85739994 9.9898245e-39
0.042366989 -0.16303028 0.8573333 1.6246504e-38
0.048562862 -0.16364668 0.85700005 2.1947459e-38
0.053052388 -0.16323906 0.85700005 2.2591127e-38
0.057507146 -0.16273573 0.85650003 2.2866254e-38
0.063290954 -0.16333382 0.85750008 2.3417553e-38
0.067295715 -0.16355097 0.85650009 2.0658758e-38
0.032072861 -0.15791287 0.85799992 1.0067172e-38
0.037297148 -0.15795238 0.85600001 7.3157939e-39
0.092937149 -0.15571049 0.85600007 1.1527304e-38
0.037534863 -0.15291773 0.85680002 1.0800432e-38
0.040808573 -0.15099525 0.85700005 1.3832799e-38
0.042862147 -0.14797691 0.85724998 1.7343896e-38
0.046468575 -0.14592762 0.85600007 1.0050669e-38
0.092266671 -0.14615493 0.85733336 1.2445641e-38
0.04494286 -0.14463429 0.85800004 1.6778761e-38
0.048178777 -0.14290424 0.85742861 7.7597785e-39
0.051360004 -0.1410362 0.85600007 6.3820443e-39
0.088386677 -0.14168954 0.85666674 1.4932689e-38
0.091924958 -0.14384572 0.85720009 1.161517e-38
0.049845718 -0.13891429 0.85800004 1.1069214e-38
0.051827621 -0.13752763 0.85699999 9.2376243e-39
0.084067628 -0.13711905 0.85700005 1.5581333e-38
0.086938784 -0.13828409 0.8577143 1.512141e-38
0.090702862 -0.13973144 0.85800004 1.1430417e-38
0.054120004 -0.1340743 0.85666674 7.7697684e-39
0.058289148 -0.1324164 0.85720009 8.1403474e-39
0.061958101 -0.13125335 0.85600007 8.8721012e-39
0.079078101 -0.13125335 0.85600007 1.5401187e-38
0.082126863 -0.13339543 0.85720009 1.5678157e-38
0.086617149 -0.13482858 0.85800004 1.1720626e-38
0.059651431 -0.12992573 0.85800004 5.281571e-39
0.06343969 -0.12796924 0.85766667 1.4117328e-38
0.066111431 -0.12569238 0.85700005 1.4667876e-38
0.077024132 -0.12791875 0.85733336 1.3932169e-38
0.068375483 -0.1228712 0.85724998 9.2287541e-39
0.072781131 -0.12219135 0.8569091 7.0305176e-39
0.07599429 -0.12257144 0.85800004 9.1424271e-39
0.023807621 -0.17157906 0.86200005 1.4669136e-38
0.02708159 -0.17233305 0.86166668 1.2838167e-38
0.031688765 -0.17223583 0.86200011 1.1828639e-38
0.037353337 -0.17198955 0.86200005 2.1856373e-38
0.041540194 -0.17223583 0.86200011 2.1946772e-38
0.047122668 -0.17223583 0.86200011 2.268227e-38
0.051309526 -0.17198955 0.86200005 2.2589652e-38
0.056098416 -0.17212638 0.86200011 1.540806e-38
0.022869391 -0.16782615 0.86200011 1.2372182e-38
0.027041698 -0.16799198 0.86044455 1.1279818e-38
0.031967625 -0.16803619 0.86066669 1.2659817e-38
0.03688572 -0.16803621 0.86066675 2.0568863e-38
0.041803814 -0.16803619 0.86066675 2.1855246e-38
0.04753143 -0.16841286 0.86050004 2.2590767e-38
0.052479532 -0.16810143 0.86100006 2.332577e-38
0.057360854 -0.16806985 0.86177778 2.2957654e-38
0.063140005 -0.16728097 0.86100006 2.0654123e-38
0.067571431 -0.16749527 0.86000001 1.6228892e-38
0.022703812 -0.16303208 0.86166668 8.3155699e-39
0.026671112 -0.16284974 0.86022234 6.2101582e-39
0.030304763 -0.16462858 0.86000001 1.0358935e-38
0.058971435 -0.16462858 0.86000001 2.3142125e-38
0.063066669 -0.16462858 0.86000001 2.3417533e-38
0.02753252 -0.15828519 0.86114293 7.3056177e-39
0.030899052 -0.15558605 0.86133337 1.3929592e-38
0.033229049 -0.15342811 0.86150002 1.4943897e-38
0.035260003 -0.15087906 0.86100006 1.7613278e-38
0.037843272 -0.14797445 0.86114293 1.6412651e-38
0.040566191 -0.14669383 0.86049998 1.475855e-38
0.042167049 -0.14274499 0.86140007 1.4669563e-38
0.046139687 -0.14114922 0.86000007 1.4015759e-38
0.092006356 -0.14114922 0.86000001 1.1429715e-38
0.042963177 -0.13819367 0.86200011 1.3015913e-38
0.047319837 -0.13674736 0.86072731 1.733549e-38
0.051600002 -0.13514286 0.86000001 1.3648218e-38
0.089276195 -0.13678096 0.86000001 1.2256219e-38
0.090914294 -0.13678096 0.86000001 1.1431496e-38
0.05386667 -0.13261843 0.86133337 1.1251932e-38
0.056546196 -0.13071382 0.86049998 9.3237369e-39
0.083129153 -0.13166097 0.86080009 1.3096348e-38
0.087841913 -0.13299429 0.86200011 9.4164833e-39
0.090914294 -0.13350476 0.86000001 1.6314245e-38
0.057753723 -0.12748668 0.86140007 1.5956951e-38
0.062083818 -0.12662478 0.86000007 1.6230234e-38
0.078866296 -0.12674211 0.86080009 1.1254206e-38
0.081274293 -0.12888953 0.86200005 1.0430201e-38
0.059108578 -0.12396382 0.86200005 1.6230582e-38
0.063362621 -0.12241976 0.86125004 1.7333302e-38
0.066888899 -0.12094604 0.86000001 1.2914753e-38
0.077384137 -0.12222859 0.86133337 9.3336483e-39
0.064307943 -0.11849081 0.86200011 1.8070471e-38
0.068304293 -0.11753238 0.86150008 7.9427321e-39
0.072795957 -0.11749786 0.86125004 7.8599616e-39
0.076348573 -0.11903811 0.86200005 1.0527871e-38
0.038898099 -0.18124859 0.86900002 1.303007e-38
0.042177465 -0.18110955 0.86833334 1.3116887e-38
0.04551905 -0.18124859 0.86900002 1.4119176e-38
0.028009526 -0.17547144 0.86500007 1.4029555e-38
0.03253467 -0.17653924 0.86700004 1.2567317e-38
0.037184872 -0.17766678 0.86766672 1.5785205e-38
0.042101059 -0.1774852 0.86677784 2.0842298e-38
0.047053233 -0.17748563 0.86677784 2.010252e-38
0.051766947 -0.17699988 0.86671436 1.5864347e-38
0.056565147 -0.17629431 0.86580002 1.4019062e-38
0.06110286 -0.17587715 0.86700004 1.4937823e-38
0.033776194 -0.17382382 0.86500007 1.2740863e-38
0.036247618 -0.17382382 0.86500007 1.744326e-38
0.043661907 -0.17382382 0.86500007 2.1484093e-38
0.045309525 -0.17382382 0.86500007 2.0568981e-38
0.05272381 -0.17382382 0.86500007 2.0376179e-38
0.057666674 -0.17258811 0.86500007 1.6048773e-38
0.061615955 -0.17206977 0.86550009 1.4390004e-38
0.065080956 -0.17052858 0.86500007 1.245857e-38
0.020595239 -0.16558573 0.86500007 1.3007868e-38
0.021830954 -0.16105476 0.86500007 9.9674962e-39
0.022310585 -0.15783103 0.86766672 8.9547526e-39
0.026788572 -0.15620191 0.86550003 1.1167418e-38
0.022759527 -0.15435097 0.86900002 8.4974781e-39
0.02726868 -0.15287292 0.86766672 1.5121535e-38
0.031603493 -0.15197176 0.86566681 1.4298999e-38
0.028966669 -0.14979906 0.86900002 1.4478652e-38
0.032455239 -0.14822191 0.86825001 1.5404599e-38
0.035877619 -0.14721859 0.86600006 1.5581827e-38
0.033932384 -0.14483334 0.86900002 1.2926768e-38
0.037371907 -0.14309619 0.86725008 1.3102571e-38
0.040366668 -0.14087144 0.86500007 9.6913283e-39
0.038417146 -0.13838571 0.86750001 1.1798399e-38
0.041527938 -0.13723716 0.86633343 1.3099872e-38
0.043863811 -0.13490191 0.86900002 1.8075584e-38
0.047298811 -0.13322167 0.86750001 1.7616051e-38
0.051463 -0.13248451 0.86557156 1.7428455e-38
0.08485239 -0.13098572 0.86500007 5.7430032e-39
0.088147625 -0.13098572 0.86500013 7.576172e-39
0.048829526 -0.1299362 0.86900002 1.6140669e-38
0.052300952 -0.1283762 0.86825001 1.6141687e-38
0.05608286 -0.12618858 0.86600006 1.558531e-38
0.083057791 -0.1278854 0.86633343 6.2915092e-39
0.087226823 -0.12854031 0.86757153 8.7746928e-39
0.090210482 -0.12828097 0.86900002 1.5406294e-38
0.053795241 -0.12497048 0.86900002 1.3466987e-38
0.056989286 -0.1226531 0.86725003 1.5490874e-38
0.060733657 -0.12174255 0.86566675 1.5573018e-38
0.079085723 -0.12274763 0.86500007 9.6087876e-39
0.081060484 -0.1232443 0.86849999 9.6077409e-39
0.058313336 -0.11828048 0.86849999 1.7064326e-38
0.061956763 -0.11730325 0.86740011 1.6784093e-38
0.065904766 -0.11615715 0.86500007 1.4946666e-38
0.074966669 -0.11615715 0.86500007 1.0618624e-38
0.076968573 -0.11834953 0.86900002 1.0708298e-38
0.067318417 -0.11305323 0.86788893 8.7731948e-39
0.071892388 -0.1132073 0.86766666 7.2149243e-39
0.076421909 -0.11442667 0.86750007 1.0344207e-38
0.034010477 -0.18000668 0.87100005 1.3669721e-38
0.023082098 -0.15160897 0.87180007 5.3768999e-39
0.026544765 -0.15014382 0.87100005 1.6958929e-38
0.024111429 -0.14882572 0.87300003 9.8022649e-39
0.027620478 -0.14724332 0.87225008 1.4393273e-38
0.031245401 -0.14571971 0.87100005 1.0622993e-38
0.029100003 -0.14383715 0.87300003 1.1441787e-38
0.032586195 -0.14217761 0.87175012 1.1077696e-38
0.035669528 -0.14101905 0.87100005 1.0597395e-38
0.034088574 -0.13884859 0.87300003 1.5681326e-38
0.036540002 -0.13785905 0.8720001 1.5026999e-38
0.042305715 -0.13521239 0.87100005 1.8257441e-38
0.043477785 -0.13320351 0.87233341 1.5040341e-38
0.046211749 -0.13088796 0.87166679 1.4937072e-38
0.048344195 -0.12742382 0.87220013 1.5767089e-38
0.051153973 -0.12581113 0.87100005 1.5586699e-38
0.083781913 -0.1252581 0.87100005 8.7844248e-39
0.087471813 -0.12597923 0.87140006 1.172281e-38
0.091247626 -0.12608764 0.87100005 1.817146e-38
0.052767761 -0.12225702 0.8715716 1.6786695e-38
0.055578098 -0.12111048 0.87100005 1.6511887e-38
0.078804769 -0.12028096 0.87100005 1.0707606e-38
0.082631916 -0.12207906 0.8720001 9.1478403e-39
0.087220006 -0.12310419 0.87220001 1.1173981e-38
0.090936676 -0.12249382 0.8720001 1.8170755e-38
0.053211432 -0.11889429 0.87300003 1.3836089e-38
0.056957152 -0.11673772 0.87180007 1.2000106e-38
0.060555242 -0.11530381 0.87100005 1.3282132e-38
0.077145718 -0.11696286 0.87100005 1.043457e-38
0.062838733 -0.11266731 0.8720001 1.5310014e-38
0.066085398 -0.11087969 0.87100005 1.4479567e-38
0.072168581 -0.11032668 0.87100005 7.3997121e-39
0.076552957 -0.111756 0.87180007 1.0526806e-38
0.067646667 -0.1082021 0.87260002 8.7710592e-39
0.071836673 -0.10837667 0.8720001 7.0305834e-39
0.075660005 -0.10891715 0.87300003 9.7935615e-39
0.022318454 -0.14748132 0.87612498 5.4625781e-39
0.025833335 -0.14583334 0.87500006 1.3744241e-38
0.023246096 -0.14365754 0.87800008 6.2911393e-39
0.027325597 -0.14247347 0.87612498 1.4661063e-38
0.030833336 -0.14083335 0.87500006 1.3560086e-38
0.028430477 -0.13880762 0.87800002 1.5397179e-38
0.032555718 -0.13801256 0.87650001 1.3919938e-38
0.037628576 -0.13629906 0.87800002 1.4758288e-38
0.040833335 -0.13583334 0.87500006 1.7246869e-38
0.037963051 -0.13395773 0.87800008 1.4664301e-38
0.042038735 -0.13224636 0.87700003 1.4019024e-38
0.043456674 -0.12786335 0.87750006 1.6413527e-38
0.046250004 -0.12708335 0.87500006 1.7244703e-38
0.043900002 -0.1233381 0.87800002 1.4305259e-38
0.047588576 -0.12273271 0.87666672 1.4394649e-38
0.050833337 -0.12166668 0.87500006 1.5864017e-38
0.083333343 -0.12083334 0.87500006 9.2429002e-39
0.087500006 -0.12125001 0.87500006 1.1814705e-38
0.047997337 -0.1189063 0.87800008 1.420086e-38
0.052590005 -0.11742176 0.87650007 1.4111221e-38
0.055833336 -0.11583334 0.87500006 1.0067592e-38
0.079166673 -0.11833334 0.87500006 1.0617908e-38
0.082539171 -0.11806084 0.87762511 9.70064e-39
0.087800011 -0.11957525 0.87800002 1.3102924e-38
0.058744453 -0.11387017 0.87700003 1.5309711e-38
0.06145842 -0.11151557 0.87600005 1.6323126e-38
0.079257153 -0.11262667 0.87600005 9.884325e-39
0.081110485 -0.11372191 0.87800002 9.7013967e-39
0.063129254 -0.10800138 0.87714297 1.5962328e-38
0.067139767 -0.10634072 0.87575006 1.2179058e-38
0.072933912 -0.10664516 0.87620002 8.5971805e-39
0.076798096 -0.10768287 0.87650001 1.0070845e-38
0.064386673 -0.10452382 0.87800002 1.0066576e-38
0.068065904 -0.10385487 0.87800008 6.474523e-39
0.072748572 -0.10452382 0.87800002 8.6868299e-39
0.019276192 -0.14666668 0.88000005 1.7142213e-38
0.019276192 -0.1433143 0.88000005 1.6961059e-38
0.021968383 -0.14203696 0.88040012 3.5286111e-39
0.019276192 -0.13912383 0.88000005 1.5398066e-38
0.023060478 -0.13920239 0.88050008 6.3848189e-39
0.02729167 -0.1368793 0.88174999 1.6321995e-38
0.031591747 -0.13615303 0.88066673 1.3646195e-38
0.029466668 -0.13386287 0.88400006 1.2276557e-38
0.032904595 -0.13246097 0.88181818 1.5586967e-38
0.037060194 -0.13164 0.88040012 1.6048299e-38
0.033930793 -0.12815303 0.88333338 1.4206596e-38
0.038126286 -0.12764896 0.88180012 1.438809e-38
0.041066669 -0.12822857 0.88000005 1.6042928e-38
0.038978416 -0.12310541 0.88333338 1.5310392e-38
0.041687619 -0.12254541 0.88133335 1.5032382e-38
0.043771163 -0.1178811 0.88142872 1.586688e-38
0.047608983 -0.11620273 0.8814286 1.5957623e-38
0.051181909 -0.11578763 0.88100004 1.6327487e-38
0.084743813 -0.11578763 0.88100004 8.1326066e-39
0.087840006 -0.11677001 0.88050008 1.2272824e-38
0.049672384 -0.11365715 0.88400006 1.4209531e-38
0.053580005 -0.11304143 0.88250005 1.4947823e-38
0.057280716 -0.11204262 0.88125002 1.5592108e-38
0.082537785 -0.11191303 0.88133335 1.0066892e-38
0.086716197 -0.11365715 0.88400006 9.2375234e-39
0.054723814 -0.10860572 0.88400006 9.1449719e-39
0.058375876 -0.10731895 0.88266671 9.5141061e-39
0.061180957 -0.1072762 0.88000005 1.2461844e-38
0.079335719 -0.10787763 0.88150007 1.0069048e-38
0.06281165 -0.10275874 0.88200009 8.0414816e-39
0.067466669 -0.10182858 0.88000005 5.556524e-39
0.072942548 -0.10228604 0.88033336 9.0563299e-39
0.077029534 -0.10307716 0.8823334 1.0162317e-38
0.064777784 -0.098427311 0.88333338 8.3183263e-39
0.068056725 -0.098302655 0.88222229 6.662098e-39
0.072952859 -0.098600484 0.88300002 9.425097e-39
0.022567214 -0.1372135 0.88700008 5.1880721e-39
0.023283334 -0.13419667 0.88900006 6.5702303e-39
0.027885582 -0.13267036 0.88728583 1.4937994e-38
0.028942669 -0.12812707 0.88859999 1.6322725e-38
0.032406669 -0.12709048 0.8876667 1.5494395e-38
0.036324766 -0.12586953 0.88700002 1.5109503e-38
0.034148891 -0.12389557 0.88900012 1.5958256e-38
0.037492704 -0.12206414 0.88800001 1.5682765e-38
0.039199054 -0.11872604 0.88833332 1.1630582e-38
0.041863337 -0.11713001 0.88800007 1.1540556e-38
0.044275239 -0.11364985 0.88833344 7.5841033e-39
0.047980003 -0.11223619 0.88775003 1.0615381e-38
0.052093655 -0.111227 0.88700002 1.0157996e-38
0.086750291 -0.11177734 0.88780004 9.9725255e-39
0.049953338 -0.10922001 0.88900006 9.9746667e-39
0.053253748 -0.10735334 0.88757151 9.144211e-39
0.056599051 -0.10559525 0.88700002 6.4817313e-39
0.082531303 -0.10718056 0.88814294 9.6052017e-39
0.086360008 -0.10922001 0.88900006 9.4179644e-39
0.057946429 -0.10299429 0.88825005 9.6088017e-39
0.060890481 -0.10064001 0.88800001 8.9634589e-39
0.078651436 -0.10148477 0.88800001 8.8730373e-39
0.080433339 -0.10329334 0.88900006 8.5953742e-39
0.062088192 -0.098294295 0.8882001 9.8864563e-39
0.06678509 -0.095529854 0.8876667 9.5154598e-39
0.071860008 -0.095529854 0.8876667 8.0446877e-39
0.076604769 -0.097573154 0.88780004 1.006942e-38
0.067310005 -0.09355668 0.88900006 1.0527127e-38
0.071120009 -0.093133345 0.88900006 7.6755619e-39
0.022586286 -0.13229601 0.89160007 5.3652607e-39
0.026305716 -0.13152859 0.89100003 1.7608759e-38
0.023188574 -0.12880328 0.89228582 6.6609672e-39
0.027038861 -0.12737145 0.89280003 1.4211231e-38
0.029750001 -0.12409858 0.89250004 1.1447259e-38
0.032951072 -0.12202465 0.89287508 1.1079532e-38
0.034908574 -0.11834858 0.89400005 9.420051e-39
0.037682384 -0.11758238 0.8925001 9.4211412e-39
0.038314287 -0.11409144 0.89400005 8.9637658e-39
0.041845083 -0.1126927 0.8926667 8.5027834e-39
0.089100003 -0.11116286 0.89100003 1.4866104e-38
0.090797149 -0.11116286 0.89100003 2.0468436e-38
0.047445714 -0.10866516 0.89280003 1.0432811e-38
0.050631434 -0.10663715 0.89100003 1.0800134e-38
0.08724115 -0.10764688 0.89280003 1.1077119e-38
0.091102861 -0.10983429 0.89400005 2.0280476e-38
0.052445721 -0.10347335 0.89300007 1.089553e-38
0.055784769 -0.10165906 0.89200008 1.0437123e-38
0.08287634 -0.10253184 0.89185721 7.6730802e-39
0.087271437 -0.10430001 0.89400005 1.3007475e-38
0.057346858 -0.098869152 0.89340001 1.1174341e-38
0.061572146 -0.096393578 0.89175004 1.0625825e-38
0.078526676 -0.09666954 0.89300007 1.0251668e-38
0.082193725 -0.098869145 0.89340001 8.6839741e-39
0.063289531 -0.093940966 0.89400005 1.126944e-38
0.066741727 -0.091537155 0.89160007 8.693332e-39
0.072857149 -0.091876581 0.89160007 8.8744736e-39
0.076075718 -0.093074299 0.89250004 9.5180648e-39
0.068114288 -0.089400008 0.89400005 6.8429286e-39
0.071520001 -0.089400008 0.89400005 8.136917e-39
0.023608891 -0.1260089 0.89600009 2.7106269e-39
0.026453335 -0.12544 0.89600003 7.0365894e-39
0.024801906 -0.1231543 0.89800006 5.0079296e-39
0.027984526 -0.12198311 0.89725012 7.5819103e-39
0.031573337 -0.12032001 0.89600003 9.0540486e-39
0.029340956 -0.1182197 0.89733338 1.1267576e-38
0.033084288 -0.11675809 0.89649999 1.089699e-38
0.036693335 -0.11520001 0.89600003 1.0067969e-38
0.033898413 -0.11309206 0.89733338 1.1451666e-38
0.03672735 -0.11140491 0.89685714 1.0069421e-38
0.041813336 -0.11008 0.89600009 9.2418044e-39
0.037915558 -0.10804509 0.89800012 9.4258201e-39
0.04187471 -0.10682455 0.89733338 9.3347077e-39
0.046080004 -0.10752001 0.89600003 1.0437111e-38
0.089700006 -0.10763906 0.89700007 1.5136287e-38
0.091442548 -0.10682414 0.89733338 1.9546163e-38
0.043617144 -0.10348382 0.89800006 9.6984077e-39
0.047155153 -0.10277699 0.89727277 1.1910795e-38
0.050915562 -0.10211556 0.89600009 1.3289749e-38
0.087893337 -0.1024 0.89600003 1.4207807e-38
0.048748575 -0.098352388 0.89800006 1.0804377e-38
0.052104551 -0.098229423 0.89688897 1.0714762e-38
0.056777623 -0.096907154 0.89650005 1.0532191e-38
0.082834929 -0.097067319 0.89666671 7.7652128e-39
0.087137148 -0.099096201 0.89700007 1.2919554e-38
0.053024765 -0.094931431 0.89800006 8.9647845e-39
0.057770889 -0.093435116 0.89771444 8.5042267e-39
0.061746985 -0.092478424 0.8963334 8.3220327e-39
0.078782871 -0.092795052 0.89720011 9.3322414e-39
0.081247628 -0.094931431 0.89800006 9.2374926e-39
0.06297873 -0.088626355 0.89766681 7.4010503e-39
0.067190483 -0.087433197 0.89628571 6.3887761e-39
0.072847635 -0.087488718 0.89685714 8.5064016e-39
0.076629847 -0.089163184 0.89733338 9.330068e-39
0.067905918 -0.08398439 0.89800006 7.3074926e-39
0.071554929 -0.084098421 0.89800012 7.9521586e-39
0.023193333 -0.12284382 0.90200007 5.9234442e-39
0.024940001 -0.11954001 0.90300006 9.5166088e-39
0.027490478 -0.11854763 0.90200007 1.1634941e-38
0.030100003 -0.11610001 0.90300006 1.3198661e-38
0.032196194 -0.11204287 0.90150005 1.2187016e-38
0.033540003 -0.10922001 0.90300006 1.2645843e-38
0.036586098 -0.10701468 0.9018001 1.2275599e-38
0.03812667 -0.10348668 0.90300006 1.430465e-38
0.041866191 -0.10198286 0.90175003 1.3013162e-38
0.045479052 -0.10039715 0.90100002 1.2370987e-38
0.043860003 -0.098900005 0.90300006 1.5866219e-38
0.047581147 -0.097393349 0.9018001 1.2552862e-38
0.050627623 -0.09524858 0.90100002 8.6896325e-39
0.084093332 -0.096106678 0.90100002 5.8316451e-39
0.086222552 -0.095961593 0.90233344 8.4102529e-39
0.05265484 -0.092422999 0.902143 9.7916431e-39
0.056830671 -0.091169715 0.90140003 8.5052707e-39
0.079802863 -0.090100005 0.90100002 9.4226364e-39
0.082213022 -0.093097471 0.90233344 8.5021052e-39
0.05801715 -0.088100962 0.90250009 8.1375672e-39
0.061387621 -0.086714774 0.90150005 7.6765652e-39
0.077314287 -0.08676286 0.90200007 9.7892034e-39
0.063231163 -0.083366133 0.90242863 7.2173807e-39
0.067360476 -0.081948102 0.90100002 7.4907741e-39
0.073346868 -0.08296515 0.9018001 8.7804759e-39
0.068223052 -0.079221152 0.90220016 7.5818641e-39
0.07224001 -0.079980008 0.90300006 8.4088502e-39
0.022146035 -0.12108636 0.90600008 9.8748816e-39
0.022746352 -0.11891653 0.90700006 1.0340216e-38
0.026781501 -0.11663185 0.90714294 1.3109355e-38
0.030200003 -0.11303239 0.90600008 1.2556538e-38
0.032805242 -0.1079181 0.90650004 1.4760247e-38
0.035338096 -0.10601429 0.90500003 1.4850961e-38
0.033725716 -0.1046362 0.90800005 1.521727e-38
0.036526352 -0.10210445 0.90600008 1.4293135e-38
0.038049527 -0.099447623 0.90800005 1.3182448e-38
0.042303335 -0.097843021 0.90650004 1.3746474e-38
0.046255559 -0.096246049 0.90500009 1.5409946e-38
0.044102859 -0.094259053 0.90800005 1.2992744e-38
0.047717743 -0.092629649 0.90687507 1.355887e-38
0.05171429 -0.090500005 0.90500003 1.2916581e-38
0.083122544 -0.091174617 0.90600008 8.4102655e-39
0.086333342 -0.093238577 0.90650004 8.6875642e-39
0.049291432 -0.089070484 0.90800005 1.457446e-38
0.053168308 -0.087462731 0.90671444 1.3657809e-38
0.05740286 -0.086018108 0.90500003 8.870791e-39
0.078433335 -0.085328579 0.90500003 1.0707221e-38
0.081486359 -0.087819383 0.90700006 9.6044969e-39
0.054480005 -0.083881907 0.90800005 1.5683538e-38
0.058129802 -0.082568169 0.90714294 1.1172759e-38
0.062488098 -0.080588102 0.90500003 7.0329628e-39
0.07498572 -0.081019051 0.90500003 9.1474592e-39
0.077269055 -0.082447618 0.90650004 9.6952127e-39
0.059668574 -0.078693338 0.90800005 8.0428282e-39
0.063633658 -0.077453658 0.90700006 7.1234027e-39
0.06759017 -0.076505095 0.90600008 7.21382e-39
0.071943976 -0.076834768 0.90650004 8.7740103e-39
0.075234294 -0.078693338 0.90800005 7.0219851e-39
0.068316191 -0.073504768 0.90800005 6.5680653e-39
0.070910484 -0.073504768 0.90800005 9.7845133e-39
0.01995524 -0.11712667 0.91100001 1.7241586e-38
0.022570478 -0.11632334 0.91150004 1.3745719e-38
0.025133334 -0.11526667 0.91000003 1.4304659e-38
0.027137978 -0.11224632 0.91187501 1.5592546e-38
0.030333335 -0.11006667 0.91000003 1.6139953e-38
0.028694287 -0.10869049 0.91300005 1.5771572e-38
0.03108781 -0.10646192 0.91180003 1.5308747e-38
0.033257466 -0.1026689 0.91100001 1.4476045e-38
0.037762858 -0.098093338 0.91150004 1.2538449e-38
0.041600004 -0.096200004 0.91000003 1.3273922e-38
0.042545043 -0.092908032 0.91171432 1.243908e-38
0.045933336 -0.091000006 0.91000003 1.2625671e-38
0.086666673 -0.091000006 0.91000003 9.4215335e-39
0.044345718 -0.089560956 0.91300005 1.2072876e-38
0.048077337 -0.087994292 0.91120005 1.1341851e-38
0.051133338 -0.086666673 0.91000003 1.1728231e-38
0.083581269 -0.086472079 0.91100001 1.0436033e-38
0.086082861 -0.089560956 0.91300005 7.033826e-39
0.052952863 -0.082757942 0.9115001 1.2003353e-38
0.057200003 -0.080600008 0.91000003 1.1540619e-38
0.078866675 -0.081466675 0.91000003 9.9682305e-39
0.081356838 -0.083671749 0.91200006 1.2273842e-38
0.054780003 -0.079126671 0.91300005 1.2550777e-38
0.058193337 -0.077591747 0.91200006 8.4991891e-39
0.062178731 -0.076060638 0.91100001 7.4911258e-39
0.073666669 -0.075400002 0.91000003 1.2555439e-38
0.076060638 -0.077216201 0.91100001 1.2255158e-38
0.063475244 -0.073909529 0.91300005 7.5833158e-39
0.066859052 -0.072067216 0.91171432 6.9361471e-39
0.07228259 -0.071537286 0.91128576 1.2087609e-38
0.075648576 -0.073040009 0.91300005 1.5310076e-38
0.068692386 -0.068692386 0.91300005 7.576172e-39
0.070431434 -0.068692386 0.91300005 1.0232239e-38
0.021785717 -0.11241429 0.91500008 1.6507311e-38
0.025271431 -0.11067144 0.91500002 1.6234701e-38
0.018340001 -0.10829334 0.91700006 1.696542e-38
0.022039287 -0.10757881 0.91649997 1.4743706e-38
0.02681024 -0.10702597 0.91550004 1.4938135e-38
0.028108764 -0.102484 0.91660005 1.3827035e-38
0.031661909 -0.1013762 0.91500008 1.3918899e-38
0.033477779 -0.098104447 0.91700006 1.2719648e-38
0.036183812 -0.096780486 0.91549999 1.1890972e-38
0.038016193 -0.093358241 0.91614294 1.2898662e-38
0.040957145 -0.091500007 0.91500002 1.2715663e-38
0.039300002 -0.089953341 0.91700006 1.3182456e-38
0.042766128 -0.088151164 0.91642863 1.1983577e-38
0.046766669 -0.086852394 0.91500008 1.00457e-38
0.086365722 -0.087237149 0.91600001 1.1812876e-38
0.044540003 -0.08471334 0.91700006 1.0871098e-38
0.048198812 -0.083093107 0.91600001 8.0187567e-39
0.052285716 -0.081042863 0.91500002 1.0169823e-38
0.083428264 -0.082264453 0.91566676 1.484772e-38
0.087333336 -0.08471334 0.91700006 1.5028579e-38
0.049780004 -0.079473339 0.91700006 8.8743237e-39
0.052996427 -0.077423103 0.91600001 1.0343093e-38
0.057514288 -0.075814292 0.91500002 8.1249835e-39
0.0786722 -0.077275626 0.91580003 1.3922165e-38
0.082004771 -0.079386674 0.91600001 1.4297035e-38
0.053273335 -0.074233338 0.91700006 8.4012593e-39
0.056980282 -0.07293947 0.91642863 6.934694e-39
0.061686907 -0.072149292 0.91549999 8.8726043e-39
0.065357149 -0.07058572 0.91500002 9.054839e-39
0.077087939 -0.072432712 0.91633338 1.4837958e-38
0.058513336 -0.068993337 0.91700006 8.5898937e-39
0.062328197 -0.068264574 0.91660005 1.0159029e-38
0.066937149 -0.066935718 0.91575003 9.8817396e-39
0.072605714 -0.066935726 0.91575003 1.2627824e-38
0.075980008 -0.067246675 0.91700006 1.2808284e-38
0.068993337 -0.063753337 0.91700006 8.3187046e-39
0.070740007 -0.063753337 0.91700006 1.0149333e-38
0.0184 -0.10601906 0.92000002 1.6592622e-38
0.020152383 -0.10601906 0.92000002 1.5477314e-38
0.0184 -0.10426667 0.92000002 1.622817e-38
0.022147622 -0.10284381 0.921 1.3724443e-38
0.025861431 -0.10213096 0.92050004 1.2994762e-38
0.028391749 -0.098639369 0.92200011 1.2530254e-38
0.031857148 -0.096742861 0.92066669 1.2532392e-38
0.032825906 -0.093212962 0.92159998 1.2534606e-38
0.03653397 -0.090897158 0.92066669 1.3273227e-38
0.088495247 -0.090247624 0.92000002 1.2370705e-38
0.090247624 -0.090247624 0.92000002 1.7701135e-38
0.03879467 -0.087244205 0.92160004 1.2075771e-38
0.041225716 -0.085959055 0.921 1.1888494e-38
0.088591442 -0.087713346 0.921 1.4669853e-38
0.090345718 -0.087713346 0.921 1.7517464e-38
0.043287627 -0.083065405 0.92133331 1.1055481e-38
0.046438098 -0.081485718 0.92000002 9.1132409e-39
0.087619051 -0.082361907 0.92000002 1.5583532e-38
0.044782858 -0.079906672 0.92200005 1.0867487e-38
0.048249256 -0.07807783 0.92114288 9.4070946e-39
0.082995437 -0.077730678 0.92119998 1.5307559e-38
0.086931437 -0.078735881 0.92200011 1.5491308e-38
0.052113146 -0.073169142 0.9212001 8.6774987e-39
0.056136191 -0.071048573 0.921 5.3680956e-39
0.079206996 -0.072776511 0.92066669 1.4843742e-38
0.082540959 -0.074638098 0.92200005 1.5586339e-38
0.087809533 -0.074638098 0.92200005 1.5127223e-38
0.05820445 -0.06756445 0.92133343 8.9536554e-39
0.061838102 -0.066223815 0.92100006 1.0891583e-38
0.078150481 -0.068491429 0.92200005 1.2805077e-38
0.062344767 -0.064100958 0.92200005 1.1726452e-38
0.067565084 -0.062591121 0.92133343 9.0545124e-39
0.073138289 -0.062964574 0.92080003 1.032153e-38
0.077104762 -0.063961908 0.92000002 1.0879419e-38
0.018540001 -0.10241143 0.92700005 1.6042712e-38
0.020261906 -0.10130953 0.92500007 1.5848198e-38
0.018540001 -0.099762864 0.92700005 1.5213291e-38
0.022279765 -0.098164044 0.92650008 1.2626024e-38
0.026731431 -0.09723302 0.92533344 1.2164683e-38
0.022954287 -0.094465718 0.92700005 1.1422075e-38
0.027926352 -0.093187317 0.92600012 1.1793041e-38
0.032171432 -0.091227628 0.92550004 1.2074332e-38
0.033241905 -0.087959372 0.92666674 1.1330253e-38
0.03655953 -0.086773813 0.92500007 1.1700851e-38
0.038418915 -0.08225619 0.92585725 1.1702256e-38
0.041992068 -0.080753975 0.92500007 1.170226e-38
0.039728574 -0.077691436 0.92700005 1.2441292e-38
0.043003336 -0.076966189 0.9262501 1.0691358e-38
0.046169214 -0.075576201 0.92633343 9.1219317e-39
0.087566674 -0.077700011 0.92500013 1.5677143e-38
0.090738103 -0.076642863 0.92500007 1.632147e-38
0.043260004 -0.073277146 0.92700005 1.0232524e-38
0.047362547 -0.072955877 0.92666674 9.6022506e-39
0.050837781 -0.071995884 0.92566675 8.3090441e-39
0.0820181 -0.072316192 0.92600006 1.465725e-38
0.086546481 -0.073149912 0.92540008 1.4297818e-38
0.052771624 -0.068656199 0.9266001 4.3482614e-39
0.056204766 -0.067480952 0.92500013 5.2709197e-39
0.078404769 -0.066071436 0.92500007 1.30867e-38
0.081011623 -0.068304576 0.9266001 1.2535315e-38
0.05385429 -0.064448573 0.92700005 4.1638084e-39
0.057371538 -0.062667415 0.92677784 6.9401366e-39
0.062566951 -0.062062997 0.92528588 1.2645145e-38
0.066952385 -0.060785718 0.92500007 8.8651214e-39
0.073119059 -0.060785722 0.92500007 9.0315648e-39
0.077341914 -0.06204921 0.92633343 8.6717548e-39
0.059151433 -0.059151433 0.92700005 1.0164488e-38
0.062877148 -0.057835512 0.92614299 1.0063674e-38
0.067898951 -0.057315666 0.92588902 7.5794174e-39
0.072609536 -0.05791048 0.92600006 8.3958854e-39
0.076808579 -0.059151433 0.92700005 8.7689558e-39
0.018620001 -0.097532392 0.93100005 1.4567223e-38
0.020415239 -0.096750483 0.93200004 1.3457235e-38
0.021574922 -0.092803501 0.93100011 1.2524839e-38
0.026294604 -0.091884457 0.9306668 1.1421039e-38
0.028556192 -0.088153154 0.93120003 1.1511429e-38
0.031612702 -0.086566351 0.9306668 1.1052929e-38
0.033397146 -0.083050489 0.93100011 1.1145862e-38
0.036314286 -0.081485718 0.93000007 1.1701185e-38
0.038105242 -0.077542379 0.93050009 1.2347662e-38
0.039942861 -0.073672384 0.93200004 1.0609249e-38
0.042248897 -0.072384767 0.9306668 9.4103217e-39
0.045220003 -0.070932388 0.93100005 8.2121457e-39
0.084142864 -0.071742862 0.93000007 1.3734984e-38
0.088571429 -0.071742862 0.93000007 1.3830764e-38
0.047601275 -0.068592392 0.93133342 6.2832654e-39
0.051371433 -0.06731429 0.93000007 5.1765745e-39
0.083671749 -0.068296514 0.93133342 1.078506e-38
0.086800002 -0.069085717 0.93000007 1.272475e-38
0.052304223 -0.062943682 0.9308573 6.6505737e-39
0.078828573 -0.061114289 0.93000007 8.4934564e-39
0.081365086 -0.064204454 0.93200004 9.4136148e-39
0.024042858 -0.091719054 0.93500006 1.1694716e-38
0.022792248 -0.088491298 0.93585712 1.2064567e-38
0.026282858 -0.087758102 0.93550003 1.1603955e-38
0.028722096 -0.083312191 0.93660003 1.1605732e-38
0.03176032 -0.081626996 0.93500012 1.1516066e-38
0.033891905 -0.07848715 0.93650007 1.1701181e-38
0.037103176 -0.076284133 0.93500012 1.1888147e-38
0.037642099 -0.072608195 0.93660003 8.1174726e-39
0.041428573 -0.070830479 0.93550009 6.5580334e-39
0.084685713 -0.065964766 0.93600005 7.8545582e-39
0.086468577 -0.065964766 0.93600005 1.1534442e-38
0.023301907 -0.085138097 0.94100004 1.1603948e-38
0.025961906 -0.085047625 0.94000006 1.123948e-38
0.026577145 -0.082121275 0.94066668 1.2066012e-38
0.029007621 -0.079247624 0.94200009 1.1791555e-38
0.032420956 -0.07720191 0.94040006 1.1700462e-38
0.023624001 -0.082416005 0.94680005 1.1881254e-38
0.026100002 -0.080100007 0.94500005 1.1975676e-38
