# .PCD v0.7 - Point Cloud Data file format
VERSION 0.7
FIELDS x y z rgb
SIZE 4 4 4 4
TYPE F F F F
COUNT 1 1 1 1
WIDTH 627
HEIGHT 1
VIEWPOINT 0 0 0 1 0 0 0
POINTS 627
DATA ascii
0.067779288 -0.15169883 0.84725004 6.5761213e-39
0.071474291 -0.15142858 0.84800005 9.6246405e-39
0.075916193 -0.15102477 0.84800005 1.1372033e-38
0.068028256 -0.14869493 0.84700006 8.6824747e-39
0.072174571 -0.14774202 0.84770012 6.8519417e-39
0.077651963 -0.14760521 0.84690911 9.9898091e-39
0.082107946 -0.14671746 0.84800005 1.0448956e-38
0.072954923 -0.14402542 0.84800005 5.6465055e-39
0.077531427 -0.14294858 0.84800005 6.1100102e-39
0.082215622 -0.14327164 0.84800005 6.8465467e-39
0.078339055 -0.1397181 0.84800005 6.8407229e-39
0.059373338 -0.16022667 0.85400003 1.3579698e-38
0.063033335 -0.16063334 0.85400003 1.4503061e-38
0.067506671 -0.16104001 0.85400003 2.0478595e-38
0.072386675 -0.16063334 0.85400003 2.102519e-38
0.076453343 -0.16022667 0.85400003 2.2682542e-38
0.054493338 -0.15534668 0.85400003 1.7602823e-38
0.058492385 -0.15760192 0.85300004 1.1552124e-38
0.062528893 -0.15754034 0.8526668 1.3304578e-38
0.067348577 -0.15741715 0.85200012 1.5146707e-38
0.07227429 -0.15754098 0.85266674 1.8359845e-38
0.077206984 -0.15766415 0.85333341 2.1580142e-38
0.081821345 -0.15762402 0.85400003 2.1304563e-38
0.087026678 -0.1558889 0.85400003 1.1003148e-38
0.053680003 -0.15209335 0.85400003 1.5490959e-38
0.057645243 -0.15263669 0.85250014 9.1463339e-39
0.062442705 -0.15245795 0.85150021 8.5039171e-39
0.066542871 -0.15364762 0.85000002 8.7909562e-39
0.072371431 -0.15397143 0.85000002 1.0546954e-38
0.077162459 -0.15351456 0.85028577 1.4589868e-38
0.081933342 -0.15332045 0.85177785 1.3390952e-38
0.086743243 -0.15220459 0.85280007 1.0628667e-38
0.054493338 -0.14884001 0.85400003 1.4106238e-38
0.057746675 -0.14884001 0.85400003 1.4839513e-38
0.062774047 -0.14728644 0.85325009 1.485285e-38
0.066680714 -0.14714359 0.85125005 1.227276e-38
0.082841277 -0.14922224 0.85000008 1.1185809e-38
0.087053575 -0.14711405 0.8522501 1.1539462e-38
0.090280004 -0.14884001 0.85400003 1.5860445e-38
0.068134427 -0.14311729 0.85314298 1.4384529e-38
0.071743488 -0.14195684 0.8506667 1.1993931e-38
0.075285718 -0.14004762 0.85000002 1.2635633e-38
0.082841277 -0.14058731 0.85000008 6.5699542e-39
0.08621572 -0.14260715 0.85200006 1.3746849e-38
0.073002674 -0.13803886 0.85360003 1.7059246e-38
0.077125087 -0.13720086 0.85244453 1.336713e-38
0.081775948 -0.13737263 0.85225004 5.9256988e-39
0.085400008 -0.13908 0.85400003 1.4763555e-38
0.078080006 -0.13420001 0.85400003 1.1255601e-38
0.081333339 -0.13420001 0.85400003 4.2759291e-39
0.064554289 -0.16588001 0.85800004 1.0629107e-38
0.067822866 -0.16588001 0.85800004 2.1298592e-38
0.071908578 -0.16588001 0.85800004 2.3234019e-38
0.062810004 -0.16314335 0.85650003 1.3479959e-38
0.067664765 -0.16386287 0.85600013 2.1578469e-38
0.072624013 -0.16336383 0.85680002 2.1578435e-38
0.07750731 -0.16263177 0.85666668 2.2407044e-38
0.08243525 -0.16160667 0.85700005 2.1763767e-38
0.086975724 -0.16129193 0.85750002 1.8269326e-38
0.083969526 -0.15897144 0.85600007 2.341676e-38
0.087598108 -0.15839353 0.85640001 1.1550595e-38
0.091809258 -0.15737116 0.85742861 9.7089076e-39
0.091306679 -0.15244953 0.85600007 1.0068662e-38
0.054684766 -0.14691335 0.85700005 1.2815907e-38
0.057904448 -0.1467997 0.85633343 1.3467755e-38
0.061142862 -0.14592762 0.85600007 1.1725731e-38
0.091360487 -0.14764428 0.85650003 1.7155556e-38
0.063414603 -0.14343303 0.85733336 1.3101429e-38
0.066629216 -0.14168954 0.85666674 1.5686073e-38
0.088860959 -0.14185144 0.85600007 1.6135003e-38
0.090702862 -0.14381716 0.85800004 1.6687437e-38
0.068340644 -0.13858764 0.85766667 1.5312591e-38
0.07182382 -0.13712001 0.85700005 1.5772113e-38
0.083969526 -0.13614477 0.85600007 1.6228572e-38
0.087026671 -0.13829449 0.85720009 1.5399906e-38
0.07375747 -0.13417906 0.85733336 1.4482123e-38
0.077317558 -0.13259375 0.85714293 1.2265823e-38
0.082780585 -0.13306934 0.85720009 1.0255668e-38
0.085600004 -0.13451429 0.85600007 1.4570488e-38
0.068340957 -0.16863887 0.86040002 1.5865894e-38
0.072980009 -0.1683743 0.86100006 2.2221658e-38
0.077535719 -0.16696715 0.86150002 2.3233976e-38
0.0829162 -0.16665336 0.86200011 2.2223014e-38
0.087841913 -0.16610605 0.86200011 2.1946425e-38
0.092767626 -0.16501144 0.86200011 1.366496e-38
0.096051432 -0.16501144 0.86200005 1.026604e-38
0.079447627 -0.16462858 0.86000001 2.2774827e-38
0.082723819 -0.1646286 0.86000001 2.1760919e-38
0.087638102 -0.16380954 0.86000001 2.1485403e-38
0.092588894 -0.16223462 0.86033338 1.035568e-38
0.096051432 -0.16254859 0.86200005 9.8990386e-39
0.094263509 -0.15765017 0.86066675 1.0898104e-38
0.095995717 -0.15753001 0.86150002 1.1175421e-38
0.094409533 -0.15269715 0.86200005 1.623712e-38
0.096051432 -0.15351811 0.86200005 1.5499605e-38
0.055003814 -0.14530858 0.86200005 1.1333908e-38
0.093717471 -0.14836256 0.86066675 1.6506225e-38
0.057809528 -0.14308858 0.86100018 1.3648374e-38
0.06254445 -0.14120351 0.86033338 1.3743483e-38
0.091982491 -0.14248155 0.86080009 1.4941757e-38
0.063541725 -0.1380842 0.86200011 1.3744556e-38
0.067512706 -0.13639271 0.86100006 1.5125695e-38
0.071257144 -0.13514286 0.86000001 1.4209867e-38
0.08874476 -0.13664268 0.86120003 1.3003433e-38
0.092220329 -0.13655177 0.86200011 1.4299162e-38
0.069233663 -0.13326794 0.86200011 1.5122519e-38
0.072753102 -0.13177596 0.86075008 1.5403413e-38
0.077809535 -0.13022858 0.86000001 1.1620129e-38
0.082763046 -0.13094439 0.86040002 9.4262055e-39
0.086747311 -0.13326794 0.86200011 1.3555487e-38
0.074159376 -0.12834224 0.86200011 1.0067667e-38
0.077930167 -0.12796889 0.86133337 8.0349585e-39
0.081821591 -0.12834224 0.86200011 8.2276455e-39
0.078623816 -0.17628287 0.86900002 2.1305455e-38
0.073981278 -0.17244415 0.86633343 1.8630709e-38
0.077086434 -0.17298122 0.86800003 2.1946865e-38
0.081828684 -0.17275292 0.86788893 2.3141435e-38
0.086833335 -0.17284098 0.86833334 2.3141781e-38
0.092246942 -0.17185758 0.86814296 2.286442e-38
0.097162485 -0.17231029 0.86900008 1.7160584e-38
0.10014191 -0.17131716 0.86900002 1.0539344e-38
0.079085723 -0.16888097 0.86500007 2.3233572e-38
0.083204769 -0.16888098 0.86500013 2.2682957e-38
0.088214301 -0.16846192 0.86566675 2.2954833e-38
0.092741646 -0.16839799 0.86614293 1.9186682e-38
0.097509533 -0.16779639 0.86620009 1.0908118e-38
0.10096954 -0.16800669 0.86900008 1.0535773e-38
0.098033339 -0.16229048 0.86500013 9.2392807e-39
0.10096954 -0.16304097 0.86900008 7.8570791e-39
0.098502867 -0.15743859 0.86550003 1.2819099e-38
0.10091096 -0.15839811 0.86850005 1.0150513e-38
0.097510301 -0.15228669 0.86620009 1.4942474e-38
0.10014191 -0.15310955 0.86900008 1.3092891e-38
0.094847627 -0.14680669 0.86600006 1.6141362e-38
0.097709537 -0.14807683 0.8670001 1.7891888e-38
0.10014191 -0.14979906 0.86900002 1.6509724e-38
0.057732385 -0.14103429 0.86600006 1.3928146e-38
0.094023816 -0.14268571 0.86600006 1.5220083e-38
0.095727943 -0.14317811 0.86900008 1.6603348e-38
0.05755933 -0.13840286 0.86871433 1.2458116e-38
0.061329849 -0.13723716 0.86633343 1.3839592e-38
0.065080956 -0.13592859 0.86500007 1.4845846e-38
0.093090482 -0.13922381 0.86500007 1.4393893e-38
0.095176198 -0.13986763 0.86900002 1.6332491e-38
0.062598735 -0.13374667 0.86866677 9.5093865e-39
0.066694297 -0.13277048 0.86725008 1.0437461e-38
0.070023812 -0.13098572 0.86500007 1.2833477e-38
0.087527625 -0.1321162 0.86700004 1.337932e-38
0.090826675 -0.13459143 0.86700004 1.4577159e-38
0.067699246 -0.12894307 0.86900008 8.9612182e-39
0.072019376 -0.1276179 0.86700004 8.6800308e-39
0.078322232 -0.12614001 0.86566675 7.024719e-39
0.083252862 -0.12735143 0.86550009 1.1997549e-38
0.085597783 -0.12798318 0.86700004 1.6133316e-38
0.072333917 -0.1243084 0.86900008 1.0069036e-38
0.07713072 -0.12345023 0.86849999 7.4875301e-39
0.081644498 -0.123706 0.86842871 1.0063192e-38
0.078431442 -0.18097429 0.87300003 1.3572887e-38
0.081978865 -0.18108515 0.87300009 2.0293082e-38
0.087300003 -0.18083572 0.87300003 2.3325421e-38
0.077145718 -0.1775181 0.87100005 1.6517048e-38
0.082186356 -0.17765461 0.87166679 2.277446e-38
0.087100014 -0.17751811 0.87100017 2.3233272e-38
0.092147626 -0.17682511 0.87166679 2.231522e-38
0.097128585 -0.17682511 0.87166679 2.2681861e-38
0.10108033 -0.17585176 0.87233341 1.440046e-38
0.10266382 -0.17239653 0.87166679 1.0907796e-38
0.10559144 -0.17210573 0.87300003 1.0166964e-38
0.10369049 -0.16673431 0.87100005 8.1308269e-39
0.10559144 -0.16711716 0.87300003 6.9380151e-39
0.10392859 -0.1621286 0.87300003 9.5128043e-39
0.10559144 -0.16379143 0.87300003 9.4158975e-39
0.10226572 -0.15630859 0.87300003 9.6071047e-39
0.10226572 -0.1538143 0.87300003 1.1533515e-38
0.098713338 -0.14682573 0.87100005 1.9182916e-38
0.097165719 -0.14284095 0.87200004 1.6694481e-38
0.052687813 -0.13811982 0.87260008 1.4108032e-38
0.056599051 -0.13626993 0.87140006 7.8534806e-39
0.095395245 -0.13853048 0.87100005 1.6326388e-38
0.058312196 -0.13240783 0.87220001 9.8799837e-39
0.061684452 -0.13139112 0.87133348 9.0523292e-39
0.08875905 -0.13189429 0.87100005 1.3654475e-38
0.063416831 -0.12821876 0.87233341 9.7038573e-39
0.066760413 -0.12676287 0.8715716 1.0065461e-38
0.086270481 -0.12691715 0.87100005 1.6781164e-38
0.06831181 -0.12249582 0.87260008 7.0283372e-39
0.071954705 -0.12150545 0.87128592 6.2022045e-39
0.076730959 -0.12069573 0.87100005 5.6486832e-39
0.082493149 -0.12099981 0.87140006 1.2273388e-38
0.085539058 -0.12290953 0.87200004 1.5315402e-38
0.072750002 -0.11847858 0.87300003 6.5684184e-39
0.077246942 -0.11758981 0.87214297 5.1902049e-39
0.080648579 -0.11889429 0.87300003 8.2185945e-39
0.081946671 -0.18647049 0.87800002 1.3381303e-38
0.089472383 -0.18647049 0.87800002 2.3416157e-38
0.083128817 -0.18422358 0.87725002 1.8544232e-38
0.087680005 -0.18387888 0.87680006 2.3049559e-38
0.092352532 -0.18220343 0.87585717 2.3233928e-38
0.09766715 -0.18197954 0.87650007 2.3050234e-38
0.10309036 -0.18264791 0.87800014 2.0382669e-38
0.10786857 -0.18312573 0.87800014 1.1830091e-38
0.11121334 -0.18312572 0.87800002 1.1006422e-38
0.10311508 -0.17815796 0.87550008 1.6790668e-38
0.10770668 -0.17783874 0.87666672 1.081773e-38
0.11246763 -0.17769049 0.87800002 1.0061547e-38
0.11623048 -0.17810859 0.87800002 1.4292455e-38
0.10852048 -0.17279571 0.87650013 8.3172795e-39
0.11163144 -0.17350954 0.87800002 9.5075999e-39
0.10839573 -0.16759668 0.87550008 8.7746886e-39
0.11172916 -0.1675124 0.87680006 1.1255313e-38
0.10770834 -0.16229168 0.87500006 1.2088429e-38
0.1115 -0.16283335 0.87500012 1.2169401e-38
0.10440477 -0.15785812 0.87700003 1.1541103e-38
0.10828668 -0.15929431 0.87800002 1.3649956e-38
0.11083334 -0.15916668 0.87500006 1.3451511e-38
0.10267572 -0.15192524 0.87650001 1.4669455e-38
0.099166676 -0.14583334 0.87500006 1.8992471e-38
0.10083334 -0.14750001 0.87500006 1.8348092e-38
0.052618098 -0.13614383 0.87700003 1.1897146e-38
0.053454291 -0.13280192 0.87700003 1.1799917e-38
0.056250006 -0.13208334 0.87500006 8.041134e-39
0.089472383 -0.13128191 0.87800002 1.5028394e-38
0.09114477 -0.13462667 0.87800002 1.4667991e-38
0.054352384 -0.12960953 0.87800002 1.0240091e-38
0.058064528 -0.12908071 0.87725002 5.4671688e-39
0.062208384 -0.12725411 0.87560004 7.6727046e-39
0.087650001 -0.12688525 0.87650001 1.6414882e-38
0.06367372 -0.12316934 0.87740004 8.8716206e-39
0.066306435 -0.12218691 0.87575006 9.5118682e-39
0.085833341 -0.12083334 0.87500006 1.5853911e-38
0.068249367 -0.11839223 0.87750006 8.9630357e-39
0.072264962 -0.11665887 0.87620014 6.2940077e-39
0.077500001 -0.11583334 0.87500006 5.6508005e-39
0.082316518 -0.11763334 0.87600005 1.3012355e-38
0.073584765 -0.1145581 0.87800002 6.2940301e-39
0.077765718 -0.11372191 0.87800014 5.7411885e-39
0.081110485 -0.1145581 0.87800002 1.0344104e-38
0.0888381 -0.19024763 0.88000005 1.6065354e-38
0.093100332 -0.19039175 0.88066673 1.4221446e-38
0.097440004 -0.19068001 0.88200003 1.1829368e-38
0.084647626 -0.18773335 0.88000005 1.6430949e-38
0.087664761 -0.18790098 0.88000005 2.0107958e-38
0.093238108 -0.18710476 0.88000005 2.1670194e-38
0.0981071 -0.18699048 0.88044453 1.9738385e-38
0.10224763 -0.18605715 0.88000005 1.4956379e-38
0.11280762 -0.18086098 0.88000005 1.0810939e-38
0.11426033 -0.17627937 0.88000005 1.0702228e-38
0.11649524 -0.176 0.88000005 1.3918265e-38
0.11398096 -0.17180954 0.88000005 1.2082252e-38
0.11649524 -0.17348573 0.88000005 1.3920053e-38
0.11481906 -0.16845715 0.88000005 1.2356358e-38
0.10476191 -0.15504763 0.88000005 1.4022749e-38
0.10760128 -0.15719621 0.88266677 1.4387853e-38
0.10308572 -0.15001906 0.88000005 1.8346762e-38
0.10620077 -0.15231505 0.88360006 1.6322793e-38
0.10259619 -0.14716573 0.88300002 1.7331533e-38
0.099006668 -0.14347525 0.88100004 1.7153283e-38
0.095135242 -0.13723049 0.88400006 1.6967383e-38
0.089880005 -0.13020001 0.88200003 1.6321276e-38
0.091629207 -0.13197842 0.88266671 1.5771728e-38
0.053976007 -0.12661678 0.8828001 1.2359458e-38
0.057404906 -0.12667456 0.88085723 5.0979687e-39
0.061180957 -0.12655239 0.88000005 7.2131432e-39
0.090083815 -0.12796953 0.88400006 1.5864616e-38
0.058390904 -0.1224815 0.88288891 5.4657184e-39
0.061599623 -0.12236001 0.88120002 8.2229917e-39
0.088066682 -0.12329207 0.88066673 1.5678076e-38
0.063542858 -0.11766139 0.88177788 9.7957265e-39
0.066666193 -0.11656049 0.88050008 8.9634519e-39
0.084647626 -0.11733334 0.88000005 1.5960818e-38
0.086421907 -0.11914381 0.88100004 1.6784781e-38
0.064826667 -0.11365715 0.88400006 8.7819291e-39
0.068391055 -0.11258306 0.88220006 8.5031519e-39
0.07282877 -0.11192705 0.88100004 7.122702e-39
0.078013718 -0.11089601 0.88080007 5.188365e-39
0.082288578 -0.11251524 0.88166666 1.1721977e-38
0.074311756 -0.10796255 0.88333338 7.3056611e-39
0.078120962 -0.10877905 0.88200003 5.5539372e-39
0.10825144 -0.15307239 0.88800007 1.5491589e-38
0.10390572 -0.14614382 0.88700002 1.7153622e-38
0.10680173 -0.14877658 0.88860005 1.6321381e-38
0.098837152 -0.14107525 0.88700002 1.6786308e-38
0.10201658 -0.1439724 0.88819999 1.6969277e-38
0.093768574 -0.13600667 0.88700002 1.6502142e-38
0.097294927 -0.13790445 0.88833332 1.7336206e-38
0.10075334 -0.13970001 0.88900006 1.6695167e-38
0.093768582 -0.13262764 0.88700002 1.6600402e-38
0.095673345 -0.13292667 0.88900012 1.6512517e-38
0.092204385 -0.12773162 0.88819999 1.5859962e-38
0.05408477 -0.12253588 0.88733333 1.1619395e-38
0.056599051 -0.12080096 0.88700002 3.5335675e-39
0.088700004 -0.12080096 0.88700002 1.6695443e-38
0.090525404 -0.12267335 0.88833332 1.595502e-38
0.057946432 -0.11822143 0.88824999 6.3858825e-39
0.06114953 -0.11638255 0.8876667 9.1485115e-39
0.087427624 -0.11718991 0.88780004 1.4111908e-38
0.062887937 -0.11364985 0.88833332 9.2400093e-39
0.065609843 -0.111227 0.88700002 9.7924558e-39
0.083631434 -0.11066382 0.88700002 1.061636e-38
0.085513338 -0.11260667 0.88900006 1.1446151e-38
0.06683588 -0.10829143 0.88833332 9.6091702e-39
0.071653336 -0.10716334 0.88775003 7.8617552e-39
0.077211246 -0.10627107 0.88700002 6.9361541e-39
0.081782229 -0.10744476 0.88833332 8.2225559e-39
0.072813332 -0.10329334 0.88900006 6.479506e-39
0.076708011 -0.10346267 0.88900006 6.8432032e-39
0.10817944 -0.14724001 0.89160007 1.5211805e-38
0.1032263 -0.14165716 0.89280003 1.6784134e-38
0.099025726 -0.13684858 0.89250004 1.6785965e-38
0.10132001 -0.13878286 0.89400005 1.6142025e-38
0.097585723 -0.13322572 0.89100003 1.641606e-38
0.094297156 -0.12657717 0.89200008 1.6506049e-38
0.096474297 -0.12877287 0.89250004 1.595863e-38
0.048531432 -0.12005144 0.89400005 1.9269219e-38
0.05080191 -0.12118667 0.89400005 1.8536627e-38
0.092701912 -0.12331714 0.89300007 1.4850475e-38
0.052611433 -0.11880001 0.89100003 1.4661151e-38
0.055784769 -0.11695048 0.89200008 7.5728607e-39
0.089400008 -0.11664572 0.89400005 1.0985212e-38
0.090950005 -0.11899857 0.89250004 1.0615332e-38
0.058273576 -0.11356929 0.89325005 7.6755451e-39
0.06144857 -0.11241906 0.89200008 8.9645084e-39
0.087125726 -0.11304858 0.89250004 1.0251555e-38
0.058748577 -0.10983429 0.89400005 6.8467709e-39
0.062526435 -0.10931643 0.89325005 7.8603357e-39
0.06703715 -0.10607143 0.89100003 7.7702757e-39
0.084008574 -0.10692 0.89100003 1.1541245e-38
0.085994288 -0.10813144 0.89400005 1.2000817e-38
0.068056434 -0.10378644 0.89325005 6.8482577e-39
0.07154572 -0.10213429 0.89220011 7.398563e-39
0.077710718 -0.10148929 0.89175004 7.3967259e-39
0.081884295 -0.10341573 0.8925001 1.0713678e-38
0.073222861 -0.098765723 0.89400005 7.4903957e-39
0.077054292 -0.099191427 0.89400005 7.12053e-39
0.10837334 -0.14592001 0.89600003 1.273583e-38
0.11008 -0.14592001 0.89600003 1.30917e-38
0.10496001 -0.14250667 0.89600003 1.6140928e-38
0.10690477 -0.14282477 0.89800012 1.5587388e-38
0.10245763 -0.13746335 0.89650005 1.687528e-38
0.099840008 -0.13397335 0.89600003 1.6234938e-38
0.1009181 -0.13341716 0.89800006 1.6150639e-38
0.09771049 -0.12733716 0.89733338 1.410404e-38
0.09439905 -0.12173524 0.89700001 1.1626287e-38
0.096570164 -0.12220699 0.89733338 1.2089467e-38
0.051841639 -0.11649307 0.89657146 1.586294e-38
0.055466671 -0.11520001 0.89600003 8.4043842e-39
0.089600004 -0.11520001 0.89600003 9.3321783e-39
0.092691436 -0.11746572 0.89700007 9.976124e-39
0.05212995 -0.11195217 0.89733338 1.3375136e-38
0.056320008 -0.11178666 0.89600003 6.7524411e-39
0.089223333 -0.11142144 0.89649999 1.1173875e-38
0.091510482 -0.11374667 0.89800006 1.02527e-38
0.053880002 -0.10861524 0.89800006 4.2693585e-39
0.057508305 -0.10732437 0.89742869 6.2939993e-39
0.0618449 -0.10673361 0.89657146 6.6628617e-39
0.088314675 -0.10778668 0.89680004 1.301172e-38
0.091510482 -0.10690477 0.89800006 1.4119562e-38
0.063088 -0.10343696 0.89760011 7.9496306e-39
0.066745311 -0.10188654 0.89685726 8.8712016e-39
0.084100477 -0.10160238 0.89649999 1.4672724e-38
0.087137461 -0.10336731 0.89700001 1.3932629e-38
0.068186298 -0.098264001 0.89720005 8.9648644e-39
0.071882293 -0.097493723 0.89640009 7.4003945e-39
0.078064777 -0.097195439 0.89680004 9.0570558e-39
0.08178553 -0.098517731 0.89640009 1.5500687e-38
0.069274291 -0.094931431 0.89800006 6.4795438e-39
0.073122859 -0.094503812 0.89800006 5.1916637e-39
0.076686352 -0.094361275 0.89800012 9.8800398e-39
0.1089781 -0.1450181 0.90100002 1.4106907e-38
0.1106943 -0.1450181 0.90100002 1.3643787e-38
0.1089781 -0.14244382 0.90100002 1.4936324e-38
0.1106943 -0.14244382 0.90100002 1.4105176e-38
0.10382953 -0.13643715 0.90100002 1.5866177e-38
0.10554572 -0.13901144 0.90100002 1.6419307e-38
0.10161683 -0.1319578 0.90166676 1.383323e-38
0.10062001 -0.12900001 0.90300006 1.2538946e-38
0.0936362 -0.11682953 0.90200007 1.052785e-38
0.096964769 -0.11927525 0.90100002 1.292353e-38
0.048965715 -0.11253335 0.90200007 1.8991916e-38
0.091918096 -0.11167525 0.90200007 1.1078095e-38
0.05215786 -0.10710596 0.90150005 1.1444423e-38
0.056634292 -0.10554572 0.90100002 5.6508117e-39
0.090100005 -0.10554572 0.90100002 1.4491193e-38
0.054180004 -0.10406001 0.90300006 3.2587882e-39
0.058150165 -0.10283651 0.90233344 6.5695254e-39
0.06229772 -0.10108363 0.90100002 8.7786472e-39
0.08762382 -0.10050858 0.90200007 1.4571863e-38
0.090100005 -0.10382953 0.90100002 1.4021647e-38
0.062686041 -0.098753974 0.90166676 1.1538039e-38
0.067042388 -0.096266195 0.90250009 8.4138332e-39
0.079802863 -0.09524858 0.90100002 1.4132152e-38
0.083281435 -0.096588574 0.90150005 1.5860473e-38
0.086667627 -0.098680958 0.90100002 1.5029559e-38
0.069035247 -0.093097471 0.90233344 7.1212685e-39
0.072784297 -0.091676675 0.90174997 6.1099962e-39
0.077916197 -0.09195143 0.90233338 1.3103964e-38
0.10809524 -0.14095619 0.90800005 1.5309378e-38
0.10429049 -0.13531905 0.90500003 1.3836837e-38
0.1076889 -0.13734478 0.90700006 1.2543559e-38
0.11241905 -0.13922668 0.90800005 1.355881e-38
0.10403239 -0.13165763 0.90650004 1.1074252e-38
0.10783513 -0.13225323 0.90762508 1.3653884e-38
0.11155429 -0.13403811 0.90800005 1.6410037e-38
0.099283338 -0.12604526 0.90650004 1.0801969e-38
0.10204192 -0.12798476 0.90800005 1.1081435e-38
0.10809525 -0.12884954 0.90800011 1.5590369e-38
0.095988579 -0.11674286 0.90800005 1.163205e-38
0.094103336 -0.11395858 0.90650004 1.1079932e-38
0.092902228 -0.10785715 0.90600008 1.4300356e-38
0.05249 -0.10260477 0.90725005 1.0982314e-38
0.056598417 -0.10141747 0.90500009 5.9256232e-39
0.09080001 -0.10290667 0.90800005 1.355448e-38
0.054480005 -0.099447623 0.90800005 3.3513412e-39
0.058450796 -0.098185085 0.90700006 7.2124117e-39
0.062987626 -0.096639059 0.90600008 1.0163762e-38
0.086093657 -0.097033978 0.90700006 1.4563541e-38
0.063560002 -0.093826674 0.90800005 9.1507032e-39
0.067626834 -0.091800176 0.9065001 7.9488767e-39
0.081730329 -0.092376672 0.90650004 1.5211123e-38
0.068316191 -0.089070484 0.90800005 8.4116836e-39
0.072600529 -0.08775524 0.90633339 7.3989778e-39
0.077384494 -0.08700981 0.90714294 1.1160234e-38
0.080422863 -0.088205725 0.90800005 1.3729802e-38
0.073504768 -0.083881907 0.90800005 7.3982183e-39
0.076099053 -0.083881907 0.90800005 8.7711012e-39
0.11093334 -0.14126667 0.91000003 1.3743919e-38
0.11180001 -0.13693336 0.91000003 1.2812993e-38
0.11180001 -0.13260001 0.91000003 1.797951e-38
0.10324477 -0.12753811 0.91100001 1.1633166e-38
0.10715753 -0.12695639 0.91180003 1.3291613e-38
0.09966667 -0.12393335 0.91000003 1.2643367e-38
0.10869049 -0.12434191 0.91300005 1.6795759e-38
0.097066671 -0.11700001 0.91000003 1.172784e-38
0.094466671 -0.11093334 0.91000003 1.255505e-38
0.097149342 -0.11244382 0.91240007 1.2275574e-38
0.094778098 -0.10695144 0.91300005 1.6321128e-38
0.04956286 -0.1017343 0.91300005 1.6874292e-38
0.092357472 -0.10335811 0.91200006 1.3460125e-38
0.04956286 -0.099995248 0.91300005 1.641437e-38
0.053301748 -0.098201439 0.91250002 8.6799314e-39
0.056911118 -0.096777782 0.91000003 6.0189342e-39
0.088786989 -0.098040961 0.91100001 1.3730183e-38
0.091000006 -0.09966667 0.91000003 1.3454329e-38
0.04956286 -0.094778098 0.91300005 1.4572614e-38
0.054780003 -0.094778098 0.91300005 5.0076157e-39
0.058192383 -0.093805723 0.91200006 9.1478333e-39
0.062502861 -0.092016675 0.91150004 9.2407548e-39
0.065000005 -0.091000006 0.91000003 9.7049083e-39
0.084066674 -0.091866672 0.91000003 1.4191174e-38
0.085941434 -0.093752861 0.91150004 1.3549036e-38
0.063475244 -0.089560956 0.91300005 1.0253797e-38
0.066843346 -0.087965563 0.9115001 8.7811948e-39
0.07106667 -0.085800007 0.91000003 7.8617482e-39
0.082443051 -0.087648772 0.91120005 1.3082304e-38
0.072373718 -0.082789719 0.91120005 7.3070821e-39
0.077418104 -0.081876069 0.91042864 1.1158484e-38
0.080777153 -0.082512394 0.91200006 1.2899e-38
0.073909529 -0.079126671 0.91300005 7.9470551e-39
0.076518103 -0.079126671 0.91300005 1.0149729e-38
0.1037 -0.12635715 0.91500002 1.2002308e-38
0.10544287 -0.12635715 0.91500002 1.1999776e-38
0.1020845 -0.12302382 0.91614294 1.2552959e-38
0.10654667 -0.12401335 0.91700006 1.2825227e-38
0.098686673 -0.11964668 0.91700006 1.2279602e-38
0.098686673 -0.11091334 0.91700006 1.218332e-38
0.094985723 -0.10544287 0.91500002 1.4199559e-38
0.096799061 -0.10726255 0.9156667 1.5310531e-38
0.093344763 -0.10119525 0.91600001 1.2809659e-38
0.096066669 -0.10305333 0.91700006 1.1711981e-38
0.04967143 -0.096728578 0.91500002 1.5402361e-38
0.051414289 -0.097600006 0.91500002 1.3189607e-38
0.089855246 -0.09596096 0.91600001 1.3174146e-38
0.091700003 -0.097813338 0.91700006 1.2808279e-38
0.04967143 -0.093242861 0.91500002 1.3837207e-38
0.05269184 -0.093300015 0.91557145 8.9543701e-39
0.056682862 -0.091566674 0.91566676 6.7590188e-39
0.060128577 -0.091500007 0.91500002 9.0585244e-39
0.087497465 -0.093310803 0.9156667 1.3361761e-38
0.057640005 -0.089080006 0.91700006 5.7441242e-39
0.061703335 -0.087867618 0.91575003 7.6762808e-39
0.066228576 -0.086271435 0.91500002 6.5749807e-39
0.08452858 -0.087142862 0.91500002 1.2717128e-38
0.086460009 -0.089080006 0.91700006 1.2808618e-38
0.0625889 -0.083548896 0.917 1.0528227e-38
0.067115873 -0.08280541 0.91522229 7.951748e-39
0.071166679 -0.081623815 0.91500008 6.4798045e-39
0.082846038 -0.082844779 0.9156667 1.2068893e-38
0.067596003 -0.078774676 0.917 7.0305204e-39
0.072229296 -0.077465005 0.91649997 6.6610022e-39
0.077246673 -0.077683337 0.91650003 1.0512024e-38
0.081042863 -0.079300009 0.91500002 1.2159298e-38
0.072486669 -0.074233338 0.91700006 6.9350443e-39
0.10311954 -0.12067191 0.92149997 1.0896999e-38
0.10689525 -0.12179048 0.92000002 1.3927262e-38
0.099009529 -0.11653334 0.92000002 1.1542362e-38
0.10266414 -0.11845716 0.92133331 9.8860822e-39
0.099224769 -0.10800572 0.92200011 1.4577953e-38
0.097984776 -0.10266414 0.92133331 1.1992199e-38
0.093236201 -0.09732762 0.92066669 1.2349816e-38
0.052571431 -0.090247624 0.92000002 9.3235057e-39
0.055200003 -0.090247624 0.92000002 5.0994498e-39
0.088495247 -0.091123819 0.92000002 1.2993726e-38
0.090247624 -0.093752384 0.92000002 1.3360326e-38
0.052657623 -0.087761439 0.92150009 6.9332745e-39
0.057033658 -0.087453984 0.92133331 5.4660603e-39
0.087453984 -0.086868584 0.92133331 1.2347267e-38
0.058747306 -0.083297148 0.92066669 5.648302e-39
0.061041277 -0.082069844 0.92000002 1.0163738e-38
0.084990479 -0.084114291 0.92000002 1.206744e-38
0.085175246 -0.081662863 0.92200005 1.178983e-38
0.058832385 -0.079906672 0.92200005 7.1234489e-39
0.062530003 -0.078326672 0.92149997 9.0570824e-39
0.067028582 -0.076666668 0.92000002 6.939045e-39
0.079206996 -0.076867938 0.92066669 1.1792687e-38
0.081662863 -0.078150481 0.92200005 1.2067101e-38
0.068014763 -0.074158579 0.92150009 7.1223391e-39
0.072791569 -0.072289258 0.92085719 6.3840608e-39
0.076996572 -0.073136769 0.92080003 1.0601696e-38
0.1074762 -0.12069049 0.92500007 1.420852e-38
0.10189684 -0.11657938 0.92500007 1.0896246e-38
0.1066708 -0.11842573 0.92566675 1.2550811e-38
0.10152858 -0.11388858 0.92700005 1.0898341e-38
0.098666668 -0.10130953 0.92500007 1.1165653e-38
0.094465718 -0.096231438 0.92700005 1.1616207e-38
0.096231438 -0.099762864 0.92700005 1.1892803e-38
0.091875248 -0.092226863 0.92580003 1.2440532e-38
0.052857146 -0.085452385 0.92500007 5.4624604e-39
0.056087308 -0.086039685 0.92500007 4.822458e-39
0.089072391 -0.086425722 0.92600006 1.2530217e-38
0.091817148 -0.088285729 0.92700005 1.2164329e-38
0.053102292 -0.082386479 0.92620009 4.6377696e-39
0.056441598 -0.082015872 0.92600006 5.6468264e-39
0.083871432 -0.080340005 0.92700005 1.1698688e-38
0.086425722 -0.082015246 0.92600006 1.1791952e-38
0.058394101 -0.077094674 0.92620009 7.3060311e-39
0.060785718 -0.076642863 0.92500007 7.3065033e-39
0.082017146 -0.075842857 0.92600006 1.1974893e-38
0.059151433 -0.073277146 0.92700005 5.8370457e-39
0.062591858 -0.0731709 0.92566669 7.4907867e-39
0.067480952 -0.072061911 0.92500013 7.4918545e-39
0.078404769 -0.071357146 0.92500007 1.1612258e-38
0.08025334 -0.074079052 0.92600006 1.2251848e-38
0.064448573 -0.069745719 0.92700005 7.7634499e-39
0.068189256 -0.068442047 0.92642868 7.7666267e-39
0.072937861 -0.068089291 0.92550009 7.4864707e-39
0.077265725 -0.067685314 0.92642868 1.1704448e-38
0.076808572 -0.06444858 0.92700005 1.1061595e-38
0.10362858 -0.11602858 0.93000007 1.0344821e-38
0.10728572 -0.11703905 0.93100011 1.2921027e-38
0.10305297 -0.11227506 0.93120003 1.0525261e-38
0.10562667 -0.11361524 0.93200004 8.4992115e-39
0.1020762 -0.10917715 0.93200004 1.4938433e-38
0.098314293 -0.10008572 0.93000007 1.1342153e-38
0.096750483 -0.098525718 0.93200004 1.180061e-38
0.094771437 -0.09300001 0.93000007 1.1245601e-38
0.093749344 -0.087014101 0.93040007 1.0419805e-38
0.051112384 -0.081248261 0.9306668 7.7641436e-39
0.088666677 -0.082459055 0.93100005 1.1977051e-38
0.092312388 -0.084323816 0.93200004 1.1427117e-38
0.04881905 -0.078998104 0.93200004 1.6413584e-38
0.052922547 -0.077758729 0.93133342 5.3767682e-39
0.056242861 -0.07661429 0.93000007 8.2247406e-39
0.084142864 -0.077057146 0.93000007 1.1698666e-38
0.085914299 -0.077057153 0.93000007 1.1332393e-38
0.058000006 -0.072189718 0.93120003 8.7776061e-39
0.082786039 -0.072140962 0.93133342 1.1977408e-38
0.086099051 -0.073672384 0.93200004 9.7701275e-39
0.062952384 -0.068716198 0.93100011 8.5960875e-39
0.067385718 -0.066500008 0.93100005 8.5049386e-39
0.081379436 -0.06790363 0.93080008 1.2441626e-38
0.068309054 -0.064317621 0.93150002 8.507475e-39
0.072315112 -0.062942594 0.9308573 5.7401375e-39
0.077140003 -0.062065721 0.93100011 1.0513841e-38
0.081365086 -0.064204454 0.93200004 1.2353745e-38
0.10952858 -0.11665239 0.93500006 1.6878601e-38
0.11130953 -0.11665239 0.93500006 1.7984599e-38
0.10828994 -0.11287007 0.93528575 1.5129399e-38
0.11138889 -0.11316985 0.93566674 1.8719253e-38
0.10347334 -0.10739144 0.93500006 1.2912653e-38
0.10715398 -0.10834128 0.93500006 1.3382319e-38
0.10366636 -0.10366508 0.93566674 1.2823029e-38
0.10619334 -0.10440858 0.93700004 1.4392885e-38
0.098215051 -0.096788004 0.93580008 1.0609612e-38
0.09825734 -0.092192955 0.93619996 1.0334827e-38
0.10143398 -0.091320328 0.93700004 1.1722506e-38
0.097795248 -0.088876516 0.93633336 9.5922481e-39
0.089938104 -0.081033342 0.93500006 1.2071784e-38
0.092609532 -0.08192382 0.93500006 1.1430718e-38
0.096555628 -0.082277529 0.9370001 8.3076092e-39
0.048976194 -0.077471435 0.93500006 1.6039062e-38
0.05138699 -0.076338105 0.93566674 8.5877511e-39
0.088602386 -0.077916674 0.93500006 1.0966518e-38
0.09191525 -0.078529529 0.93700004 9.0412141e-39
0.053801592 -0.073420003 0.93633336 9.7935741e-39
0.05673366 -0.070991442 0.93566674 1.0437874e-38
0.061442859 -0.070347622 0.93500006 8.596065e-39
0.084595241 -0.070347622 0.93500006 1.1792658e-38
0.087520197 -0.071834862 0.93580008 9.0350975e-39
0.058865242 -0.067784287 0.93650001 9.0559922e-39
0.062366199 -0.065930009 0.93550009 9.6106065e-39
0.065004766 -0.065895244 0.93500006 9.2414597e-39
0.084595241 -0.068566673 0.93500006 1.1520728e-38
0.086376198 -0.068566673 0.93500006 1.0602696e-38
0.10295239 -0.10295239 0.94000006 1.1076003e-38
0.097580962 -0.085942864 0.94000006 8.3094014e-39
0.097580962 -0.083257146 0.94000006 8.4916263e-39
0.049238097 -0.076095246 0.94000006 1.5208949e-38
0.092276201 -0.076747313 0.94066668 7.8466072e-39
0.095994294 -0.079845719 0.94200003 8.7692992e-39
0.052505147 -0.072217144 0.94080001 1.052571e-38
0.090419054 -0.074304767 0.94000006 7.2941523e-39
0.10311715 -0.10131335 0.94700003 1.0613236e-38
0.10672478 -0.10251524 0.94700003 1.4758442e-38
0.10284501 -0.097432151 0.94725001 1.1441547e-38
0.099900007 -0.087300003 0.94500005 9.1427662e-39
0.10202286 -0.086674288 0.94800007 1.079548e-38
0.098411433 -0.080354288 0.94800007 9.5025552e-39
0.10142096 -0.083363816 0.94800013 1.0794042e-38
0.097508579 -0.078548573 0.94800007 9.4107197e-39
0.1022381 -0.10042858 0.95000005 1.0794367e-38
0.10692905 -0.10058715 0.95150006 1.4207436e-38
0.1033043 -0.095150009 0.95150006 1.1907927e-38
0.1060243 -0.097867146 0.95150006 1.3836148e-38
0.10404763 -0.091380961 0.95000005 1.226709e-38
0.10314287 -0.089571431 0.95000005 1.107534e-38
0.10585715 -0.089571431 0.95000005 1.4016987e-38
0.1064143 -0.095500007 0.95500004 1.4388603e-38
