# .PCD v0.7 - Point Cloud Data file format
VERSION 0.7
FIELDS x y z rgb
SIZE 4 4 4 4
TYPE F F F F
COUNT 1 1 1 1
WIDTH 388
HEIGHT 1
VIEWPOINT 0 0 0 1 0 0 0
POINTS 388
DATA ascii
0.0888381 -0.15102477 0.84800005 1.413507e-38
0.092876196 -0.15102479 0.84800005 1.3214197e-38
0.096914291 -0.15102477 0.84800005 1.4320902e-38
0.10256763 -0.15102479 0.84800005 1.8274897e-38
0.084153913 -0.14747125 0.84800005 1.117437e-38
0.08771906 -0.14727145 0.84500015 8.0562288e-39
0.092584766 -0.14733016 0.8453334 8.0501332e-39
0.097453021 -0.14738889 0.84566671 9.0654019e-39
0.10240761 -0.14756319 0.84666675 1.1736219e-38
0.10741334 -0.14779429 0.84800005 1.3395717e-38
0.11064382 -0.14779429 0.84800005 1.4872949e-38
0.083992384 -0.14375621 0.84800005 6.7428184e-39
0.087998815 -0.14276907 0.84575009 9.5143541e-39
0.09269429 -0.14266571 0.84633338 1.0527793e-38
0.09764573 -0.14283492 0.84733343 8.4098885e-39
0.10256762 -0.14294858 0.84800005 5.6519608e-39
0.10741334 -0.14294858 0.84800005 4.4562987e-39
0.087840006 -0.15616001 0.85400003 2.0754093e-38
0.091906667 -0.1577867 0.85400003 2.3325478e-38
0.096786678 -0.15697335 0.85400003 2.139295e-38
0.10292039 -0.1565745 0.85360003 2.341769e-38
0.107848 -0.15632269 0.85400003 1.9278165e-38
0.11224001 -0.15616001 0.85400003 1.3104311e-38
0.083577149 -0.15173715 0.85200006 1.7619766e-38
0.087453574 -0.153045 0.85025001 1.7996857e-38
0.093095243 -0.15380953 0.85000002 2.0384949e-38
0.098282464 -0.15361851 0.85085714 1.9649184e-38
0.10267925 -0.15393715 0.85160011 2.1856487e-38
0.10804327 -0.15274368 0.851143 1.6429469e-38
0.11251696 -0.1524583 0.8524 1.2917075e-38
0.082667626 -0.14750382 0.85100007 1.4221127e-38
0.1127262 -0.14814287 0.84999996 1.2546157e-38
0.082680397 -0.14180802 0.85280007 6.0136107e-39
0.086922228 -0.14064223 0.85033333 1.181362e-38
0.093095243 -0.14004764 0.85000008 1.4303321e-38
0.097952388 -0.14004764 0.85000008 1.2177616e-38
0.10280953 -0.14004764 0.85000008 8.9557756e-39
0.10766667 -0.14004764 0.85000008 8.1278071e-39
0.11252382 -0.14247622 0.85000008 9.1424439e-39
0.11576191 -0.1424762 0.85000002 1.4935297e-38
0.08296001 -0.13908 0.85400003 7.7509447e-39
0.086889952 -0.13723791 0.85266674 1.3013565e-38
0.092340268 -0.13736573 0.85254562 1.3373366e-38
0.097717464 -0.13723747 0.85266674 1.5863943e-38
0.10279828 -0.13706459 0.8526001 1.6137985e-38
0.10792001 -0.13712974 0.85200006 1.3926026e-38
0.11255674 -0.13759403 0.85200012 1.0696062e-38
0.11576191 -0.13842858 0.85000002 1.5488108e-38
0.087840006 -0.13420001 0.85400003 1.4113617e-38
0.091906667 -0.13420001 0.85400003 1.4016464e-38
0.096786678 -0.13420001 0.85400003 1.5952239e-38
0.10248 -0.13420001 0.85400003 1.6411764e-38
0.10817334 -0.13420001 0.85400003 1.3554373e-38
0.11142667 -0.13420001 0.85400003 1.1334241e-38
0.087297156 -0.16072699 0.85666674 1.827022e-38
0.09222953 -0.16160667 0.85700005 2.3417309e-38
0.097240016 -0.16097715 0.85800004 2.249857e-38
0.10173429 -0.16138573 0.85800004 2.341769e-38
0.10868001 -0.16097715 0.85800004 1.8449519e-38
0.11194858 -0.16097715 0.85800004 1.2736252e-38
0.11521715 -0.16097715 0.85800004 1.2443844e-38
0.084165722 -0.15770859 0.85800004 5.3005081e-39
0.086686999 -0.15788445 0.85600007 1.698381e-38
0.097013347 -0.15897146 0.85600013 2.1670254e-38
0.10190477 -0.15897146 0.85600013 2.3417331e-38
0.10704572 -0.15934287 0.85800004 2.1761369e-38
0.11113144 -0.15934287 0.85800004 1.3023249e-38
0.084165722 -0.15444002 0.85800004 1.4034933e-38
0.082703628 -0.13686134 0.85640013 9.4129001e-39
0.11413334 -0.13614477 0.85600007 1.0512453e-38
0.082339056 -0.1345143 0.85600013 1.0055677e-38
0.08733429 -0.1338543 0.85700005 1.3101999e-38
0.092337154 -0.1331943 0.85800004 1.4665035e-38
0.097240016 -0.1331943 0.85800004 1.5126051e-38
0.10208334 -0.1327081 0.85750002 1.4572551e-38
0.10692096 -0.13222192 0.85700005 1.3745618e-38
0.1122275 -0.13297145 0.8565715 1.1986826e-38
0.088662863 -0.16501144 0.86200005 1.9000486e-38
0.092767626 -0.16665336 0.86200011 2.2865912e-38
0.097693339 -0.16665336 0.86200011 2.3234016e-38
0.10261905 -0.16555874 0.86200011 2.341769e-38
0.10795525 -0.16542192 0.86200005 2.0747953e-38
0.11247049 -0.16624287 0.86200005 1.2645123e-38
0.084460005 -0.16236097 0.86100006 4.3778386e-39
0.087638102 -0.16299048 0.86000001 1.8637869e-38
0.092552386 -0.1646286 0.86000001 2.3140346e-38
0.09746667 -0.16380952 0.86000007 2.3325479e-38
0.10238095 -0.16353652 0.86000001 2.341769e-38
0.10701754 -0.16241105 0.86040002 2.240352e-38
0.11220954 -0.16364573 0.86000007 1.2645493e-38
0.11548572 -0.16380954 0.86000001 1.2535713e-38
0.11384763 -0.1597143 0.86000001 1.2085849e-38
0.11548572 -0.15889525 0.86000001 1.2355249e-38
0.079447627 -0.13022858 0.86000001 1.319258e-38
0.082873024 -0.13210435 0.86155558 1.0796099e-38
0.087509766 -0.13177548 0.86075002 1.4114378e-38
0.092552386 -0.13104764 0.86000007 1.4299128e-38
0.09746667 -0.13104764 0.86000007 1.3473356e-38
0.10238095 -0.13088383 0.86000007 1.2643285e-38
0.10729524 -0.13022858 0.86000001 1.2273055e-38
0.11139049 -0.13022858 0.86000001 1.0525657e-38
0.079632387 -0.12888953 0.86200005 1.3745757e-38
0.087841913 -0.12888953 0.86200011 1.1266466e-38
0.092767641 -0.1280686 0.86200011 1.1635224e-38
0.097693346 -0.1280686 0.86200011 1.3568466e-38
0.10261907 -0.1280686 0.86200011 1.4488277e-38
0.10768715 -0.12737811 0.86150002 1.2357715e-38
0.11259321 -0.12758857 0.86114293 1.2541736e-38
0.082761914 -0.17131716 0.86900002 1.2808388e-38
0.087313816 -0.17173097 0.86900002 1.2937225e-38
0.092225239 -0.17225313 0.86849999 2.2039381e-38
0.097507313 -0.17188191 0.86766672 2.2865953e-38
0.10203373 -0.17215258 0.8682 2.341769e-38
0.10676287 -0.17131716 0.86900008 2.3049252e-38
0.11212696 -0.17191391 0.86842859 1.4210307e-38
0.11605303 -0.17228922 0.86833334 1.3550224e-38
0.083184138 -0.16775081 0.86766672 1.1992975e-38
0.087085962 -0.16798596 0.86675012 1.2478035e-38
0.092371434 -0.1690762 0.86600006 2.1763161e-38
0.098033339 -0.16888098 0.86500013 2.3141825e-38
0.1033541 -0.16830002 0.86540002 2.341769e-38
0.10773925 -0.1684562 0.86620009 2.2129085e-38
0.11286192 -0.16888098 0.86500013 1.2827731e-38
0.11642572 -0.16927144 0.86700004 1.345868e-38
0.08339715 -0.16431716 0.86700004 1.0687147e-38
0.079909526 -0.12769048 0.86500007 1.4395405e-38
0.082546912 -0.12794642 0.86675006 9.6019003e-39
0.087397866 -0.12697643 0.86575007 7.9466697e-39
0.09309049 -0.12604287 0.86500013 9.0401197e-39
0.098033339 -0.12604287 0.86500013 9.1309813e-39
0.1029762 -0.12604287 0.86500013 9.4054228e-39
0.10627144 -0.12604287 0.86500007 8.9466041e-39
0.11203811 -0.12604287 0.86500007 1.1995776e-38
0.078623816 -0.12497048 0.86900002 1.8992587e-38
0.081934288 -0.12497048 0.86900002 1.0800509e-38
0.087338097 -0.12352371 0.86788893 8.5946651e-39
0.09225668 -0.12254904 0.86750001 8.0436648e-39
0.097708255 -0.1230289 0.8670001 7.4893798e-39
0.1027944 -0.12318783 0.86811113 6.7561433e-39
0.10772153 -0.12275486 0.86740011 5.4628962e-39
0.11218667 -0.1227231 0.86775005 1.5313422e-38
0.11503906 -0.12083239 0.86900002 2.0559583e-38
0.092288576 -0.18042001 0.87300003 2.2590715e-38
0.097277157 -0.18042001 0.87300003 2.2773376e-38
0.083142862 -0.17626287 0.87300003 1.2264531e-38
0.087431908 -0.17673527 0.87225008 1.505304e-38
0.092103101 -0.17694716 0.87125015 2.2315234e-38
0.097054295 -0.17668857 0.87100017 2.2681909e-38
0.10194167 -0.17668454 0.8720001 2.341769e-38
0.10683858 -0.17584716 0.87300003 2.3049612e-38
0.11224286 -0.17543146 0.87300003 1.4115247e-38
0.11556858 -0.17543145 0.87300003 1.3367279e-38
0.082952388 -0.17337048 0.87100005 1.2810544e-38
0.086270481 -0.17337048 0.87100005 1.1103368e-38
0.10700858 -0.17337048 0.87100005 2.2957773e-38
0.082122862 -0.1252581 0.87100005 6.8426147e-39
0.078895241 -0.12290953 0.87200004 1.7891633e-38
0.082448579 -0.12232144 0.87225008 6.3837889e-39
0.086734295 -0.12076477 0.87150007 6.2911519e-39
0.093736194 -0.12028096 0.87100005 8.9598365e-39
0.097054295 -0.12028097 0.87100005 8.49672e-39
0.10203143 -0.12028097 0.87100005 7.3925697e-39
0.10617906 -0.12028096 0.87100005 6.9369529e-39
0.11253874 -0.12083398 0.87100005 1.7891668e-38
0.081480011 -0.11723144 0.87300003 6.1093138e-39
0.087266043 -0.11801746 0.87266678 5.9248889e-39
0.092147619 -0.11705111 0.87166679 8.9645337e-39
0.097166203 -0.11730358 0.8720001 7.5811732e-39
0.10214859 -0.11792668 0.8720001 5.0051102e-39
0.10713095 -0.11730357 0.8720001 3.1676772e-39
0.11178492 -0.11747471 0.87128592 1.5871623e-38
0.089472383 -0.18814287 0.87800002 1.4958668e-38
0.091980964 -0.18647049 0.87800002 2.2038252e-38
0.084455244 -0.18145335 0.87800002 1.053043e-38
0.087699056 -0.18208288 0.87700003 1.5421086e-38
0.092658579 -0.18364906 0.87650001 2.2406655e-38
0.097416192 -0.18354382 0.87800002 2.2682605e-38
0.10267572 -0.18197954 0.87650001 2.341769e-38
0.10786858 -0.18145335 0.87800002 2.3050323e-38
0.11121334 -0.18145335 0.87800002 1.7342768e-38
0.083333343 -0.17916667 0.87500006 1.0617601e-38
0.085833341 -0.17916667 0.87500006 1.082067e-38
0.10416667 -0.17916667 0.87500006 2.341769e-38
0.10798192 -0.17874573 0.87620002 2.2957764e-38
0.11269286 -0.17864048 0.87650007 1.4391824e-38
0.11603191 -0.17864048 0.87650001 1.4564358e-38
0.079166673 -0.12083334 0.87500006 1.641579e-38
0.080833338 -0.12083334 0.87500006 9.8796348e-39
0.079166673 -0.11750001 0.87500012 1.3285421e-38
0.082738101 -0.11750001 0.87500012 5.5568519e-39
0.087500006 -0.11583334 0.87500012 5.0076073e-39
0.097500004 -0.11583334 0.87500006 8.9637391e-39
0.10250001 -0.11583334 0.87500012 5.9245147e-39
0.10750001 -0.11583334 0.87500006 3.717195e-39
0.11333334 -0.11583334 0.87500006 2.0192571e-38
0.079302385 -0.1135262 0.87650001 1.0519529e-38
0.082641438 -0.1135262 0.87650001 6.1082026e-39
0.087799996 -0.11372191 0.87800014 5.3749507e-39
0.09281715 -0.11372191 0.87800014 9.8889675e-39
0.097834289 -0.11388915 0.87800008 7.6791702e-39
0.10285144 -0.11372191 0.87800014 6.2014604e-39
0.1078062 -0.11365667 0.87750006 6.2007387e-39
0.11246763 -0.11414 0.87800002 1.6978331e-38
0.09302859 -0.19024763 0.88000005 1.1556085e-38
0.096380956 -0.19024763 0.88000005 1.1925581e-38
0.10355429 -0.1911124 0.88400006 2.2402385e-38
0.10679905 -0.19089621 0.88300002 2.0934429e-38
0.11113143 -0.1911124 0.88400006 1.6232437e-38
0.084647626 -0.18521906 0.88000005 1.0440732e-38
0.087790474 -0.18689525 0.88000005 1.4590956e-38
0.093447626 -0.18815239 0.88000005 1.8633884e-38
0.098295011 -0.18715835 0.88025004 2.1578428e-38
0.10299286 -0.18689953 0.88100004 2.3049989e-38
0.1076362 -0.18703811 0.88066673 2.2406761e-38
0.1120909 -0.18737906 0.88114291 1.5224062e-38
0.11508001 -0.18731999 0.88200009 1.2354548e-38
0.084647626 -0.18354286 0.88000005 1.025384e-38
0.10811429 -0.18354288 0.88000005 2.2957773e-38
0.11320715 -0.18280905 0.88050008 1.3286196e-38
0.11508001 -0.18396001 0.88200003 1.1891061e-38
0.07970953 -0.11075334 0.88100004 8.8596857e-39
0.083018579 -0.11111001 0.88050008 6.1085473e-39
0.088000014 -0.11146668 0.88000005 5.6490629e-39
0.093028575 -0.11146668 0.88000005 9.246119e-39
0.098101728 -0.11151659 0.88040012 7.3039123e-39
0.10308572 -0.11146668 0.88000005 6.1096235e-39
0.10817572 -0.11111001 0.88050008 7.6712011e-39
0.11288263 -0.1114131 0.88125002 1.816791e-38
0.11534096 -0.11028953 0.88400006 1.9358903e-38
0.082946405 -0.10839293 0.88228583 6.9340046e-39
0.087582856 -0.10748998 0.88230777 7.4000582e-39
0.092587635 -0.10787715 0.88220006 8.7815493e-39
0.097673342 -0.1075903 0.88260001 8.5953574e-39
0.10227048 -0.10746252 0.88218182 7.2156179e-39
0.10672839 -0.10706247 0.88240004 5.189182e-39
0.11193176 -0.10772287 0.88366669 1.7341043e-38
0.11534096 -0.10776381 0.88400006 1.8991564e-38
0.076873347 -0.11066382 0.88700002 1.4390735e-38
0.077863812 -0.10748573 0.88866675 1.4208851e-38
0.081266098 -0.10660896 0.88700002 7.3010172e-39
0.093768574 -0.10559525 0.88700002 9.3343504e-39
0.095458105 -0.10559525 0.88700002 9.7953089e-39
0.11235335 -0.10559525 0.88700002 1.8169348e-38
0.11573239 -0.10559525 0.88700002 1.899156e-38
0.077893339 -0.10329334 0.88900006 1.448614e-38
0.08229167 -0.10259977 0.88850003 6.9361668e-39
0.087075882 -0.10229174 0.88766664 6.8468886e-39
0.092171758 -0.10231736 0.88788897 7.4922721e-39
0.097293653 -0.10236858 0.88833332 8.2298273e-39
0.10229303 -0.10229176 0.8876667 6.8464963e-39
0.10728476 -0.10221621 0.88700002 6.6635834e-39
0.11223811 -0.10251477 0.88774997 1.8811835e-38
0.11573239 -0.10390572 0.88700002 1.9174155e-38
0.087206677 -0.099060014 0.88900012 6.5699164e-39
0.092286676 -0.099060014 0.88900012 7.3956539e-39
0.10329334 -0.099060006 0.88900006 6.3855293e-39
0.10786535 -0.098382674 0.88900006 8.4138556e-39
0.11091334 -0.098213345 0.88900006 1.9086585e-38
0.078068577 -0.10098001 0.89100003 1.3752164e-38
0.080614291 -0.10098001 0.89100003 6.202573e-39
0.079182863 -0.099617146 0.89400005 1.0618593e-38
0.082943581 -0.099107862 0.89325005 6.0131357e-39
0.087402865 -0.097585723 0.89100003 6.8450571e-39
0.092494294 -0.097585723 0.89100003 8.8693729e-39
0.097750008 -0.09859857 0.8925001 7.8580936e-39
0.10233787 -0.098092154 0.89175004 7.212046e-39
0.10607143 -0.097585723 0.89100003 5.9152241e-39
0.074405722 -0.10006286 0.89800006 1.411563e-38
0.076686352 -0.10063303 0.89800012 1.5407071e-38
0.078210011 -0.097870007 0.89750004 1.2553293e-38
0.082505152 -0.097195439 0.89680004 4.9118104e-39
0.087893337 -0.096426681 0.89600009 6.6599442e-39
0.093013339 -0.096426681 0.89600009 9.2381947e-39
0.098133348 -0.096426681 0.89600009 8.4109633e-39
0.10325335 -0.096426681 0.89600009 6.7543104e-39
0.10752001 -0.096426673 0.89600003 8.3191432e-39
0.11008 -0.096426673 0.89600003 1.4122447e-38
0.083813339 -0.094931431 0.89800006 5.3749479e-39
0.088023499 -0.094005726 0.89733338 6.5681325e-39
0.093117148 -0.093970478 0.89700001 9.8900885e-39
0.097581342 -0.093478478 0.89720005 8.1354751e-39
0.10177334 -0.094076201 0.89800012 7.0312505e-39
0.10656267 -0.094247244 0.89800006 7.8553163e-39
0.11032572 -0.094931431 0.89800006 1.5598274e-38
0.077743433 -0.095935062 0.90100002 1.365714e-38
0.081519052 -0.09524858 0.90100002 3.9027269e-39
0.07850001 -0.092927434 0.9018001 1.2090511e-38
0.083287492 -0.092364229 0.90157145 5.5590085e-39
0.0871263 -0.090906493 0.90220016 6.1100453e-39
0.091918103 -0.091058098 0.90200007 1.0809521e-38
0.096663825 -0.090826474 0.90140003 7.3085884e-39
0.10215175 -0.09099143 0.90133333 6.2943889e-39
0.1075762 -0.091383547 0.90157145 1.0437146e-38
0.11085811 -0.091950797 0.90233344 1.6049919e-38
0.097106993 -0.088514611 0.90233344 5.6519524e-39
0.10234001 -0.088580005 0.90300006 5.8326778e-39
0.10750001 -0.08815001 0.90300006 1.0528264e-38
0.11094001 -0.088580005 0.90300006 1.6415465e-38
0.076531433 -0.092529535 0.90800005 1.3197989e-38
0.081019051 -0.090500005 0.90500003 7.0269261e-39
0.082568169 -0.087503955 0.90714294 7.2127705e-39
0.087083824 -0.087083817 0.9053334 7.7648947e-39
0.092258416 -0.087083817 0.9053334 9.3304547e-39
0.097395241 -0.086190484 0.90500009 7.7670457e-39
0.10273667 -0.086331919 0.9065001 6.9361415e-39
0.10781068 -0.086074673 0.90560007 1.1077835e-38
0.11137001 -0.086331911 0.90650004 1.6597331e-38
0.083881907 -0.083881907 0.90800005 8.5986616e-39
0.087557152 -0.082368582 0.90800005 8.5985762e-39
0.092275128 -0.082333937 0.90762502 8.4113038e-39
0.097718105 -0.083881907 0.90800011 8.2294615e-39
0.10204192 -0.083881907 0.90800005 7.9517676e-39
0.10896 -0.083881907 0.90800005 1.4392215e-38
0.11155429 -0.083881907 0.90800005 1.6597671e-38
0.077133335 -0.091000006 0.91000003 1.3104408e-38
0.078561909 -0.088110954 0.91150004 1.0157302e-38
0.080600008 -0.086666673 0.91000003 7.7608743e-39
0.079126671 -0.084343813 0.91300005 6.4640469e-39
0.082448043 -0.082449667 0.91128576 7.2120334e-39
0.085800007 -0.080600008 0.91000003 7.7616072e-39
0.094466671 -0.080600008 0.91000003 8.2233014e-39
0.098041907 -0.081555247 0.91100001 7.6759094e-39
0.10292154 -0.082092963 0.91120005 7.4889832e-39
0.10685021 -0.082029536 0.91214293 9.1435159e-39
0.11093334 -0.081466675 0.91000003 1.6408992e-38
0.084343813 -0.079126671 0.91300005 7.0265239e-39
0.08753334 -0.078866675 0.91000003 8.0425115e-39
0.092837155 -0.078953341 0.91100001 8.5920531e-39
0.096517146 -0.079126671 0.91300005 7.3041996e-39
0.075814292 -0.091500007 0.91500002 1.3742552e-38
0.076577723 -0.087741911 0.91580003 1.2919572e-38
0.077422626 -0.082657866 0.91600001 9.8813963e-39
0.081042863 -0.081042863 0.91500002 6.3844643e-39
0.079473339 -0.079473339 0.91700006 5.7416033e-39
0.082888044 -0.077654026 0.91614294 6.2932861e-39
0.088014297 -0.076685719 0.91500008 8.4109605e-39
0.092934296 -0.076893151 0.91540003 1.0348801e-38
0.097486362 -0.077115566 0.91666669 7.3978203e-39
0.10210572 -0.07766889 0.91633332 6.2022059e-39
0.10734192 -0.077668898 0.91633332 1.1166418e-38
0.11083271 -0.077668898 0.91633338 1.5855102e-38
0.083840005 -0.074233338 0.91700006 6.4769276e-39
0.088206671 -0.074233338 0.91700006 8.8755386e-39
0.092864454 -0.07365112 0.91700006 9.1445851e-39
0.095193341 -0.074233338 0.91700006 7.85894e-39
0.074233338 -0.068120003 0.91700006 9.6048206e-39
0.075980008 -0.068120003 0.91700006 7.4904364e-39
0.074638098 -0.077272385 0.92200005 1.172104e-38
0.077845722 -0.077845722 0.921 8.7750501e-39
0.081485718 -0.076228574 0.92000002 5.9263238e-39
0.078785151 -0.072818667 0.92119998 6.4776927e-39
0.082743183 -0.072509527 0.92100012 6.7531838e-39
0.08720649 -0.071764953 0.92119998 7.862816e-39
0.091690294 -0.071703248 0.92040008 1.0159412e-38
0.097377971 -0.072813071 0.92114288 6.6631658e-39
0.10289253 -0.073314294 0.92114288 6.1096823e-39
0.10765443 -0.073314294 0.92114288 1.1164275e-38
0.079028577 -0.069369525 0.92200005 8.0381899e-39
0.082540959 -0.069369525 0.92200005 8.2272461e-39
0.086931437 -0.069369525 0.92200011 8.3234298e-39
0.077523813 -0.073119044 0.92500007 7.9492285e-39
0.099547625 -0.071357146 0.92500007 7.857676e-39
0.10219048 -0.071357146 0.92500007 7.8548833e-39
0.10835715 -0.071357146 0.92500007 1.2724387e-38
0.11011905 -0.071357146 0.92500007 1.2631838e-38
0.074880958 -0.066071436 0.92500007 8.7754242e-39
0.07781747 -0.066658735 0.92500007 7.2145739e-39
0.081928581 -0.066952392 0.92500013 7.7680868e-39
0.087277785 -0.067000002 0.92566675 6.9390969e-39
0.092566676 -0.067880958 0.92566669 7.3078668e-39
0.097879685 -0.067897253 0.9258889 7.5837194e-39
0.1026943 -0.068167768 0.92614299 7.4893798e-39
0.10695952 -0.067703336 0.9262501 1.0792609e-38
0.11023811 -0.068787619 0.92600006 1.2906278e-38
0.074880958 -0.06430953 0.92500007 8.4052082e-39
0.077608578 -0.064379051 0.92600006 6.1111116e-39
0.081664287 -0.064007148 0.92700005 1.1263948e-38
0.086520009 -0.064448573 0.92700005 7.7677729e-39
0.099762864 -0.064448573 0.92700005 7.9503537e-39
0.10329429 -0.064448573 0.92700005 7.5743573e-39
0.10594286 -0.064448573 0.92700005 9.4125582e-39
0.078913338 -0.062065717 0.93100005 8.0497969e-39
0.082832001 -0.061901715 0.93120015 1.2282108e-38
0.088019595 -0.062435925 0.9308573 8.4138346e-39
0.09308932 -0.062944554 0.93088901 8.7804703e-39
0.097498417 -0.062929526 0.9306668 9.514797e-39
0.10188844 -0.062398378 0.93028593 7.8552616e-39
0.10628572 -0.061999999 0.93000007 9.8713966e-39
