# .PCD v0.7 - Point Cloud Data file format
VERSION 0.7
FIELDS x y z rgb
SIZE 4 4 4 4
TYPE F F F F
COUNT 1 1 1 1
WIDTH 545
HEIGHT 1
VIEWPOINT 0 0 0 1 0 0 0
POINTS 545
DATA ascii
0.016860001 -0.1501343 0.84300005 1.4950006e-38
0.024888573 -0.1501343 0.84300005 9.990521e-39
0.028100003 -0.1501343 0.84300011 9.7142648e-39
0.032917149 -0.1501343 0.84300011 9.5345539e-39
0.036931433 -0.1501343 0.84300005 1.127874e-38
0.052185722 -0.1501343 0.84300011 1.3024746e-38
0.055397145 -0.1501343 0.84300005 1.3118365e-38
0.016324764 -0.14745811 0.84300011 1.5684724e-38
0.023684287 -0.14812715 0.84300005 1.017493e-38
0.028300716 -0.14712358 0.84299999 1.0449686e-38
0.032917146 -0.14692286 0.84299999 1.0079843e-38
0.036770862 -0.14724402 0.84300005 9.3405175e-39
0.043621909 -0.14585239 0.84300011 8.2377768e-39
0.04756929 -0.14672215 0.84299999 9.434504e-39
0.052185718 -0.14692287 0.84299999 9.8951066e-39
0.056544088 -0.14692287 0.84300005 1.0082355e-38
0.029705716 -0.14371143 0.84300005 8.6053739e-39
0.033318575 -0.14331001 0.84300005 6.5745715e-39
0.036663815 -0.1431762 0.84300011 3.5310858e-39
0.042872574 -0.14306916 0.84300005 5.3724746e-39
0.047597963 -0.14256451 0.84300005 7.5808159e-39
0.052185722 -0.14290859 0.84300005 4.3644127e-39
0.055397145 -0.14371143 0.84300005 5.2860243e-39
0.028266668 -0.15587048 0.84800005 2.0660363e-38
0.031497143 -0.15587048 0.84800005 2.2407361e-38
0.046034288 -0.15587048 0.84800005 2.3233781e-38
0.050880004 -0.15587048 0.84800005 2.2774428e-38
0.018138573 -0.15237144 0.84650004 1.3021094e-38
0.022334894 -0.15239517 0.84581828 1.1279442e-38
0.028166667 -0.15290478 0.84500015 1.8180015e-38
0.033015717 -0.15299574 0.84550011 1.9927049e-38
0.038053744 -0.15255988 0.84500015 1.9373899e-38
0.042652383 -0.15210001 0.84500015 1.8545968e-38
0.047480959 -0.15210003 0.84500015 1.8545988e-38
0.052309528 -0.15290478 0.84500015 2.0477818e-38
0.05739072 -0.15243763 0.84575009 1.8913722e-38
0.062076669 -0.15156525 0.84650004 1.6433808e-38
0.066983812 -0.151564 0.84740013 1.8272663e-38
0.071794286 -0.1516543 0.84700006 1.7628337e-38
0.077046864 -0.15134782 0.84800005 1.1922664e-38
0.082377151 -0.15102477 0.84800005 1.3098572e-38
0.017543811 -0.14662765 0.84500009 1.3474212e-38
0.021929763 -0.14666788 0.84500015 8.7862493e-39
0.026557144 -0.14566192 0.84500003 8.6007958e-39
0.039030954 -0.14686906 0.84500003 8.0530423e-39
0.042115878 -0.14780796 0.84500015 1.0166325e-38
0.045871433 -0.14888096 0.84500003 1.1915151e-38
0.058747623 -0.14727144 0.84500003 9.9897937e-39
0.061966673 -0.14727142 0.84500015 1.0358586e-38
0.066795237 -0.14727145 0.84500015 1.0634108e-38
0.072428584 -0.14727145 0.84500021 1.0541205e-38
0.078061908 -0.14727144 0.84500015 1.1004641e-38
0.082085714 -0.14727145 0.84500015 1.3375158e-38
0.016926033 -0.14266571 0.84633338 1.2089073e-38
0.022328401 -0.14268009 0.84554553 5.1891315e-39
0.027640002 -0.14214076 0.8453334 8.227602e-39
0.032673337 -0.14147715 0.84500009 1.1353558e-38
0.038360324 -0.14190637 0.84500015 6.9347164e-39
0.042250004 -0.14123572 0.84500003 8.4030488e-39
0.046676196 -0.14083335 0.84500003 1.6051274e-38
0.052309528 -0.14083335 0.84500003 4.3640288e-39
0.057339285 -0.14224169 0.84500015 5.9295384e-39
0.061991114 -0.14249845 0.84533346 6.2050491e-39
0.066875555 -0.14261016 0.84600002 5.9302825e-39
0.072323635 -0.14281802 0.8463636 6.1128955e-39
0.077793717 -0.14238192 0.84560013 6.8457914e-39
0.082085714 -0.14244288 0.84500015 1.3191153e-38
0.01857524 -0.1397181 0.84800005 4.1667666e-39
0.021805715 -0.1397181 0.84800005 6.0138503e-39
0.027459048 -0.13891049 0.84800005 1.438997e-38
0.033292931 -0.13835254 0.84671432 1.6507266e-38
0.038131297 -0.13835254 0.84671432 1.7153335e-38
0.042736515 -0.13788381 0.84666669 1.6511997e-38
0.047575239 -0.13788445 0.84666675 1.4761313e-38
0.052097913 -0.13887429 0.84680003 2.7074011e-39
0.05730715 -0.1388281 0.84750009 5.0976926e-39
0.06218667 -0.13891049 0.84800005 3.7198351e-39
0.066628575 -0.13931429 0.84800005 5.0065493e-39
0.072685719 -0.1397181 0.84800005 5.9256512e-39
0.078031793 -0.13852394 0.84687501 6.9347739e-39
0.082689285 -0.13781549 0.84500015 1.1065287e-38
0.046034288 -0.13487239 0.84800005 1.5504745e-38
0.082377151 -0.13487239 0.84800005 1.3835058e-38
0.018706668 -0.16510668 0.85400003 1.5415707e-38
0.022366667 -0.16551335 0.85400003 1.4687493e-38
0.026840001 -0.16592002 0.85400003 1.6977587e-38
0.032045335 -0.16543202 0.85400003 2.2125055e-38
0.047173336 -0.16510668 0.85400003 1.6050183e-38
0.017893335 -0.16266668 0.85400003 1.4858583e-38
0.021942224 -0.16254035 0.85333341 1.413506e-38
0.026786987 -0.16234891 0.85233343 1.8639356e-38
0.032515716 -0.16257145 0.85350007 2.286593e-38
0.037901338 -0.162504 0.85400003 2.3233997e-38
0.04341105 -0.1624282 0.85360003 2.1947045e-38
0.047931116 -0.16247652 0.85300004 2.1487141e-38
0.052805401 -0.16247652 0.8530001 2.1212347e-38
0.057691813 -0.16170172 0.85320008 2.2405908e-38
0.062598102 -0.16080153 0.85360003 2.3233579e-38
0.067426354 -0.16139208 0.85300004 2.2405221e-38
0.072548576 -0.16196145 0.85350007 2.0477378e-38
0.076929808 -0.16210042 0.85285729 1.5237411e-38
0.080331437 -0.1614743 0.85200006 1.468028e-38
0.017844129 -0.1581673 0.85166669 1.3846582e-38
0.021891428 -0.15810604 0.85133344 1.1646812e-38
0.026947621 -0.15844905 0.85100007 1.5970684e-38
0.033062227 -0.15846625 0.85133344 2.2222965e-38
0.038097776 -0.15806477 0.85111117 2.3141724e-38
0.042960428 -0.15806477 0.85111117 2.2774039e-38
0.048020959 -0.15824667 0.85100013 2.3142115e-38
0.052883815 -0.15824667 0.85100001 2.2866283e-38
0.057357859 -0.15788786 0.85124999 2.3233578e-38
0.062602863 -0.15772542 0.85366672 2.30499e-38
0.067647085 -0.15792355 0.85285729 2.3417593e-38
0.072034292 -0.15787104 0.85257155 2.2130422e-38
0.077333346 -0.15811858 0.85250014 1.2843897e-38
0.081056766 -0.15805259 0.85280007 1.3478137e-38
0.017000001 -0.15461905 0.85000002 1.4670198e-38
0.062333342 -0.15461907 0.85000008 2.341725e-38
0.067190483 -0.15421429 0.85000002 2.2682933e-38
0.072047621 -0.15461907 0.85000008 2.1945678e-38
0.077228576 -0.15397143 0.85000002 1.146275e-38
0.08179462 -0.15387017 0.85033333 1.2920287e-38
0.013778096 -0.14102191 0.85100007 1.7059033e-38
0.016190477 -0.14004762 0.85000002 1.4114479e-38
0.070428573 -0.14004762 0.85000002 6.018518e-39
0.013794286 -0.13794287 0.85200006 1.7150516e-38
0.017034287 -0.13709483 0.85177785 9.602657e-39
0.021874288 -0.13691556 0.85066664 9.237501e-39
0.027203813 -0.13625199 0.85085714 1.4298651e-38
0.032431748 -0.13594225 0.85133338 1.3926298e-38
0.037758861 -0.13596535 0.85080004 1.4211128e-38
0.042904764 -0.13519049 0.85000008 1.4108909e-38
0.04857143 -0.13519049 0.85000002 1.4660045e-38
0.052886263 -0.13643783 0.85057145 8.3097321e-39
0.057543814 -0.13615906 0.85100001 7.9479771e-39
0.06240667 -0.13615906 0.85100007 9.1444268e-39
0.067472391 -0.13676667 0.85100007 7.4866052e-39
0.072160639 -0.13702287 0.85133344 6.2915597e-39
0.07669878 -0.1363924 0.85028571 5.647621e-39
0.080142863 -0.13519049 0.85000002 1.0340249e-38
0.017544763 -0.13280573 0.85400003 5.2777903e-39
0.021941587 -0.13409525 0.85333341 1.2552287e-38
0.026151622 -0.13303545 0.85280007 1.5668636e-38
0.032605991 -0.13332328 0.85285729 1.5309169e-38
0.038172957 -0.13336077 0.85280001 1.4758866e-38
0.04302191 -0.13312477 0.85233343 1.5495016e-38
0.047912385 -0.13317716 0.85266674 1.4112318e-38
0.052804768 -0.13322954 0.8530001 1.19897e-38
0.057368007 -0.13342361 0.85320008 8.5023028e-39
0.062576517 -0.13409525 0.85333341 1.1537888e-38
0.067506671 -0.13420001 0.85400003 1.0157476e-38
0.072301917 -0.13322954 0.8530001 1.0797963e-38
0.077084459 -0.1322616 0.85200006 5.4628864e-39
0.081554294 -0.13311164 0.85120004 1.3195453e-38
0.037500955 -0.16549334 0.85600007 2.3412217e-38
0.044022858 -0.16549334 0.85600007 1.6327483e-38
0.039946668 -0.16386287 0.85600007 2.1759546e-38
0.041577145 -0.16386287 0.85600007 2.0111424e-38
0.062773339 -0.1622324 0.85600007 2.3417569e-38
0.015489525 -0.13206857 0.85600007 1.2981193e-38
0.022011429 -0.13206859 0.85600007 1.2740998e-38
0.027718097 -0.13206857 0.85600007 1.5589737e-38
0.031794287 -0.13166097 0.85600007 1.4486999e-38
0.037664004 -0.13157944 0.85600007 1.3292751e-38
0.043207623 -0.13125335 0.85600013 1.2648409e-38
0.048099052 -0.13125335 0.85600013 1.5495912e-38
0.052990481 -0.13125335 0.85600013 1.5405539e-38
0.058289528 -0.13166097 0.85600007 8.2267865e-39
0.062797152 -0.1321197 0.85633343 9.4256744e-39
0.067717463 -0.1321708 0.85666674 9.7893926e-39
0.072611444 -0.13135557 0.85666674 1.4022293e-38
0.017977145 -0.12992573 0.85800004 5.1776983e-39
0.02247143 -0.12951715 0.85800004 1.2188509e-38
0.026965719 -0.12910859 0.85799998 1.1438286e-38
0.031868577 -0.12910858 0.85799998 1.1812421e-38
0.037079621 -0.1295383 0.85760003 1.005832e-38
0.042267431 -0.12909029 0.85680008 9.6841327e-39
0.048590954 -0.12944144 0.85750002 1.7340882e-38
0.051984768 -0.12928002 0.85733336 1.8167407e-38
0.056883812 -0.12873524 0.85733336 1.1909453e-38
0.064554289 -0.12992573 0.85800004 3.8140205e-39
0.067822866 -0.12992573 0.85800004 8.138834e-39
0.073090963 -0.12944144 0.85750002 1.5767838e-38
0.077599049 -0.12905811 0.85766667 4.2607615e-39
0.054876193 -0.13022858 0.86000001 1.8619847e-38
0.059790481 -0.13022858 0.86000001 3.1632884e-39
0.062247623 -0.13022858 0.86000001 1.6978581e-39
0.018039685 -0.12709874 0.86100006 4.9050981e-39
0.021921907 -0.12682049 0.86050004 9.9728912e-39
0.027028574 -0.12613335 0.86000007 1.3924613e-38
0.031942859 -0.12613335 0.86000007 1.2365524e-38
0.037073098 -0.12678406 0.86025006 1.2725407e-38
0.042019866 -0.126526 0.86028588 1.4113718e-38
0.047300786 -0.12685645 0.86036366 1.7065751e-38
0.053255782 -0.12699401 0.86028582 1.7800104e-38
0.058029633 -0.1268999 0.8608889 1.5773286e-38
0.063147731 -0.12711513 0.86111116 1.4111286e-38
0.068033651 -0.12704952 0.86066669 1.5586001e-38
0.072754048 -0.12685691 0.86075002 1.6044027e-38
0.077900007 -0.12627907 0.86100006 5.3638538e-39
0.018060952 -0.12396382 0.86200005 4.8071222e-39
0.022165716 -0.12396382 0.86200011 1.2180826e-38
0.027091432 -0.12314287 0.86200011 1.5856715e-38
0.032017142 -0.12314287 0.86200011 1.3283907e-38
0.036532383 -0.12355334 0.86200005 1.5672744e-38
0.0414581 -0.12355335 0.86200005 1.5406601e-38
0.046794288 -0.12330706 0.86200011 1.4756183e-38
0.05139162 -0.12330705 0.86200011 1.5583456e-38
0.056645717 -0.12396382 0.86200011 1.5498774e-38
0.06485524 -0.12396382 0.86200005 1.660039e-38
0.068686359 -0.12341651 0.86200011 1.5861021e-38
0.073064767 -0.12396382 0.86200011 1.5033093e-38
0.018165715 -0.12137748 0.86700004 4.9961601e-39
0.022268575 -0.12206383 0.86600012 1.1630536e-38
0.027567049 -0.12066191 0.86660004 1.5953926e-38
0.03185695 -0.12066191 0.86660004 1.5767758e-38
0.037400957 -0.12175906 0.86500007 1.4939854e-38
0.04234381 -0.12175906 0.86500007 1.4660055e-38
0.046957143 -0.12151191 0.86500007 1.4658194e-38
0.052311905 -0.12151191 0.86500007 1.4021886e-38
0.056887306 -0.12201715 0.86566681 1.4481027e-38
0.061691623 -0.12255734 0.86600012 1.4760845e-38
0.066504769 -0.12229177 0.86566681 1.383635e-38
0.071727306 -0.12201716 0.86566675 1.6322367e-38
0.077022783 -0.12210675 0.86790913 5.7272119e-39
0.080232859 -0.12241668 0.86849999 1.0443289e-38
0.019035239 -0.11834953 0.86900002 1.2959068e-40
0.022087213 -0.1187041 0.8681429 1.0897677e-38
0.027066534 -0.11783715 0.86871433 1.4296239e-38
0.032815877 -0.11802763 0.86866677 1.5864958e-38
0.037205186 -0.11822721 0.86811113 1.6049373e-38
0.042143811 -0.11816667 0.86766672 1.5128935e-38
0.047101907 -0.11733875 0.86766684 1.6142675e-38
0.051935326 -0.11762279 0.86809099 1.6051241e-38
0.057047725 -0.11822719 0.86811113 1.6788032e-38
0.062344577 -0.11890115 0.8682 1.6420341e-38
0.066960007 -0.11903906 0.86800003 1.7335826e-38
0.071920007 -0.11903906 0.86800003 1.7059926e-38
0.076140955 -0.11834953 0.86900002 8.5758695e-39
0.018091621 -0.11668401 0.87140006 5.6354115e-39
0.022728954 -0.11596745 0.87100011 1.2644318e-38
0.027374288 -0.11530381 0.87100005 1.2827944e-38
0.031936668 -0.11571857 0.87100005 1.3284951e-38
0.037328579 -0.11530381 0.87100005 1.1168447e-38
0.042305719 -0.11530381 0.87100005 1.1168902e-38
0.053919051 -0.11530381 0.87100005 1.2280599e-38
0.057237148 -0.11530381 0.87100005 1.2092218e-38
0.062214285 -0.11613335 0.87100017 1.3473751e-38
0.067191437 -0.11613333 0.87100017 1.4397421e-38
0.072223179 -0.11622159 0.87166679 1.5127443e-38
0.077408582 -0.11652668 0.87128592 7.8505729e-39
0.082248583 -0.11714065 0.87233341 1.8817243e-38
0.019122858 -0.11390572 0.87300003 1.367373e-40
0.023280002 -0.11390572 0.87300003 1.4760486e-38
0.026605716 -0.11390572 0.87300003 1.5582666e-38
0.038245715 -0.11390572 0.87300003 1.4293701e-38
0.043183811 -0.11377525 0.87200004 1.4202652e-38
0.047310002 -0.1132943 0.87150007 1.5402229e-38
0.052301273 -0.11373176 0.87166679 1.4298424e-38
0.057368577 -0.11390572 0.87300003 1.4020713e-38
0.017528573 -0.11310953 0.87650001 8.6688317e-39
0.022538573 -0.11241318 0.87650007 1.2370939e-38
0.027778508 -0.11218668 0.87628585 1.7243957e-38
0.032537147 -0.11262667 0.87600011 1.6230528e-38
0.037279464 -0.11207811 0.87542868 1.632346e-38
0.042302731 -0.11213239 0.87585717 1.5865379e-38
0.047597717 -0.11172801 0.87680006 1.6053715e-38
0.052560002 -0.11179334 0.87600011 1.5775015e-38
0.057598576 -0.11185667 0.87650013 1.5868637e-38
0.062571436 -0.11262667 0.87599999 1.5314057e-38
0.067603499 -0.11266952 0.87633336 1.5586664e-38
0.072720326 -0.11284223 0.87766677 1.4113678e-38
0.077457026 -0.11294798 0.87687504 6.7500169e-39
0.082719371 -0.11279873 0.87733346 1.9366113e-38
0.034283813 -0.10954096 0.87800002 1.3283578e-38
0.037628576 -0.10870477 0.87800014 1.2001433e-38
0.042227622 -0.10912287 0.87800002 1.2829385e-38
0.047662862 -0.10954096 0.87800002 1.4301652e-38
0.052680001 -0.10954096 0.87800002 1.4947795e-38
0.057936061 -0.1083464 0.87800014 1.420849e-38
0.062296193 -0.10912287 0.87800002 1.5502111e-38
0.067731433 -0.10954096 0.87800002 1.6142783e-38
0.082782865 -0.10954096 0.87800002 1.9641614e-38
0.014280001 -0.11088001 0.88200003 1.7802361e-38
0.017190002 -0.11111001 0.88050008 1.0614243e-38
0.020952383 -0.11146668 0.88000005 7.4964325e-39
0.07961905 -0.11146668 0.88000005 1.4673827e-38
0.013470476 -0.10860572 0.88400006 1.8256142e-38
0.017983621 -0.10756611 0.88240004 8.5888091e-39
0.022671111 -0.1074762 0.88166666 7.6754862e-39
0.027709525 -0.10747587 0.88166666 9.9707136e-39
0.032344978 -0.10766224 0.880889 1.0249805e-38
0.037714288 -0.1064381 0.88000005 8.9640726e-39
0.04309829 -0.10715697 0.88040012 9.6090343e-39
0.047641911 -0.10682715 0.88150007 1.0710027e-38
0.0528 -0.10727619 0.88000005 1.1999718e-38
0.056990482 -0.1064381 0.88000005 1.1353682e-38
0.063464761 -0.10679683 0.88066673 1.1811463e-38
0.067988575 -0.10659683 0.88133335 1.1257909e-38
0.073038578 -0.10745572 0.88150001 1.0246214e-38
0.077863052 -0.10789925 0.88100004 7.9529279e-39
0.082133338 -0.1072762 0.88000005 1.9367534e-38
0.019363811 -0.10355429 0.88400006 4.2717911e-39
0.022731431 -0.10355429 0.88400006 7.8602264e-39
0.033293612 -0.10348627 0.88342863 1.1267908e-38
0.03781778 -0.10336995 0.8824445 1.0070471e-38
0.042853098 -0.10355739 0.88225007 7.9514019e-39
0.048381433 -0.10391572 0.88350004 1.0066848e-38
0.052980006 -0.10427716 0.88300008 1.0337695e-38
0.05838 -0.10457906 0.88200003 9.1377748e-39
0.062749714 -0.10413259 0.88320011 9.2346522e-39
0.07408762 -0.10355429 0.88400006 4.0838504e-39
0.078727081 -0.10348627 0.88342863 1.2188151e-38
0.082225911 -0.10374897 0.88280004 1.8905117e-38
0.013020001 -0.1063663 0.88780004 1.8073178e-38
0.016050477 -0.10559525 0.88700002 1.4656134e-38
0.013170477 -0.10258926 0.88814288 1.7336311e-38
0.017544288 -0.10209048 0.88775003 1.0521306e-38
0.022834286 -0.10148478 0.88800001 1.1545187e-38
0.027877148 -0.10221621 0.88700002 1.2648347e-38
0.032523334 -0.10094906 0.88700002 1.2281004e-38
0.038014289 -0.10052668 0.88700002 1.0255229e-38
0.043108098 -0.10100572 0.88750005 8.6914795e-39
0.048206355 -0.10148542 0.88800001 1.0806249e-38
0.052976575 -0.10172325 0.88860005 1.1174331e-38
0.057507623 -0.10211881 0.88800001 9.5166018e-39
0.062032577 -0.10124781 0.88740009 1.0712988e-38
0.066947386 -0.102005 0.88700002 9.7935601e-39
0.071613334 -0.10203334 0.88725007 8.5924315e-39
0.076535434 -0.10120249 0.88700002 5.6497916e-39
0.081097148 -0.10052668 0.88700002 1.9547595e-38
0.01778 -0.098213345 0.88900006 1.1993541e-38
0.022860002 -0.099060014 0.88900012 1.3571049e-38
0.027940003 -0.098213337 0.88900006 1.3294109e-38
0.032982863 -0.098101929 0.88800001 1.1820751e-38
0.038057148 -0.098101914 0.88800001 9.8882192e-39
0.043180004 -0.098213345 0.88900006 8.8758651e-39
0.047836669 -0.098636672 0.88900006 9.8864732e-39
0.052493334 -0.099060006 0.88900006 1.1817193e-38
0.055033337 -0.099060006 0.88900006 1.1540591e-38
0.062230002 -0.098636672 0.88900006 9.5152047e-39
0.066886678 -0.098213337 0.88900006 1.006802e-38
0.07196667 -0.098213345 0.88900006 1.0066174e-38
0.076960012 -0.098101914 0.88800001 7.8574672e-39
0.081097148 -0.09799239 0.88700002 2.01951e-38
0.013577144 -0.098434299 0.89100003 1.5491695e-38
0.017820001 -0.098434299 0.89100003 1.1996854e-38
0.022950001 -0.096898586 0.8925001 1.5133736e-38
0.028097145 -0.096211433 0.89400005 1.4951084e-38
0.033205718 -0.096211433 0.89400005 1.3658543e-38
0.038228575 -0.095996201 0.89200008 1.2187309e-38
0.043277144 -0.095888577 0.89100003 1.0989137e-38
0.047857147 -0.096561909 0.89200008 9.6077549e-39
0.05182191 -0.096844777 0.89200008 1.1640362e-38
0.057138216 -0.097494654 0.89212501 1.1085023e-38
0.061731435 -0.096761152 0.89280003 9.7057099e-39
0.067262866 -0.096211433 0.89400005 9.8904767e-39
0.072371438 -0.096211433 0.89400005 1.0172415e-38
0.077480011 -0.096211433 0.89400005 8.6876091e-39
0.080885723 -0.096211433 0.89400005 2.0382679e-38
0.028948573 -0.094508581 0.89400005 1.6420843e-38
0.033205718 -0.094508581 0.89400005 1.5593218e-38
0.03746286 -0.094508581 0.89400005 1.4674473e-38
0.041720003 -0.094508581 0.89400005 1.4119154e-38
0.046828575 -0.094508581 0.89400005 1.0714727e-38
0.051937148 -0.094508581 0.89400005 1.1456283e-38
0.055342861 -0.094508581 0.89400005 1.1459192e-38
0.070668578 -0.094508581 0.89400005 1.0900259e-38
0.079182863 -0.093657151 0.89400005 1.3387787e-38
0.081453346 -0.093940966 0.89400005 1.9455373e-38
0.013653334 -0.096426673 0.89600003 1.5489547e-38
0.017920002 -0.096426681 0.89600009 1.4762004e-38
0.013683811 -0.094076194 0.89800006 1.5673928e-38
0.017960001 -0.094076201 0.89800012 1.6418325e-38
0.023285955 -0.093355477 0.89725012 1.6785361e-38
0.027933607 -0.092583962 0.89657146 1.6043836e-38
0.033280004 -0.092160009 0.89600003 1.5955913e-38
0.037546668 -0.092160001 0.89600003 1.4301791e-38
0.041813336 -0.092160009 0.89600003 1.4488365e-38
0.046933338 -0.092160009 0.89600003 1.4859178e-38
0.05205334 -0.092160009 0.89600003 1.1353976e-38
0.057419054 -0.092850961 0.89650005 1.0069397e-38
0.062339682 -0.093081273 0.89666665 9.5173011e-39
0.067480214 -0.09310434 0.89688897 8.8730247e-39
0.072807387 -0.092876434 0.89675003 8.134389e-39
0.077165723 -0.092769533 0.89600003 8.6868692e-39
0.081066675 -0.091306672 0.89600003 1.8992265e-38
0.029933335 -0.089800008 0.89800006 1.5209715e-38
0.032499049 -0.08894477 0.89800006 1.4840917e-38
0.036775239 -0.088944778 0.89800012 1.4196238e-38
0.041860007 -0.088844769 0.89700007 1.4105524e-38
0.046585239 -0.089322388 0.89750004 1.4758523e-38
0.052169528 -0.089115821 0.89800006 1.3656679e-38
0.057300955 -0.089800015 0.89800012 9.426099e-39
0.062432386 -0.089800015 0.89800012 8.7814793e-39
0.069274291 -0.089800008 0.89800006 7.5833593e-39
0.07269524 -0.089800015 0.89800012 6.480606e-39
0.078133337 -0.089075819 0.89760011 1.2184894e-38
0.081066675 -0.089600004 0.89600003 1.8900789e-38
0.013231048 -0.090907238 0.90220004 1.4935305e-38
0.01803397 -0.091024771 0.90166664 1.4475409e-38
0.02275143 -0.090579063 0.90150005 1.5584266e-38
0.02745905 -0.090100005 0.90100002 1.5211141e-38
0.066931427 -0.090100005 0.90100002 8.0439058e-39
0.013175874 -0.087081909 0.90233344 1.5117541e-38
0.018060001 -0.086860001 0.903 1.3545472e-38
0.02295905 -0.087295383 0.90242863 1.4197267e-38
0.027489526 -0.087621912 0.90200007 1.4381312e-38
0.031554155 -0.086313076 0.90242869 1.3919994e-38
0.036939051 -0.085903808 0.90200007 1.2535596e-38
0.042093337 -0.085903816 0.90200013 1.3179145e-38
0.047462143 -0.086547859 0.90200007 1.3089533e-38
0.052409668 -0.086285584 0.90214288 1.4019844e-38
0.057301912 -0.087239876 0.9018572 1.1633385e-38
0.062710486 -0.087621912 0.90200007 8.6899955e-39
0.067864768 -0.087621912 0.90200007 7.8605963e-39
0.073019058 -0.08762192 0.90200007 6.1125522e-39
0.077700004 -0.08714477 0.90150005 1.1721405e-38
0.01460381 -0.084185719 0.90200007 1.4839173e-38
0.036980003 -0.083420008 0.90300006 1.2531678e-38
0.040420003 -0.083420008 0.90300006 1.3173484e-38
0.024133336 -0.085328579 0.90500003 1.2719659e-38
0.027580954 -0.085328579 0.90500003 1.3087727e-38
0.058609527 -0.085328579 0.90500003 1.3838195e-38
0.06291905 -0.085328579 0.90500009 7.9560136e-39
0.068090484 -0.085328579 0.90500009 7.4025105e-39
0.073261909 -0.085328579 0.90500009 6.2965833e-39
0.077571437 -0.085328579 0.90500003 1.2271344e-38
0.080157146 -0.085328579 0.90500003 1.6326544e-38
0.014093969 -0.081969529 0.90600008 1.5947616e-38
0.018130001 -0.082878582 0.9065001 1.3453652e-38
0.022956384 -0.083023809 0.90620005 1.2900138e-38
0.027116954 -0.082733348 0.90680009 1.2623911e-38
0.031960953 -0.082060002 0.90700012 1.3269223e-38
0.037123337 -0.081151918 0.90650004 1.3270323e-38
0.042518809 -0.08179906 0.9065001 1.3177088e-38
0.047457147 -0.081969529 0.90600014 1.2257574e-38
0.052634288 -0.081969529 0.90600002 1.0978078e-38
0.057832699 -0.081999689 0.90633339 1.3660405e-38
0.063058101 -0.082060009 0.90700012 1.1172439e-38
0.067725316 -0.082280688 0.90671444 7.5862109e-39
0.072270796 -0.082060017 0.90700001 6.7560775e-39
0.077257715 -0.082788765 0.90740007 1.0711219e-38
0.080290005 -0.082878575 0.90650004 1.6325472e-38
0.037184767 -0.078693345 0.90800011 1.4195127e-38
0.042373337 -0.078693338 0.90800005 1.3455094e-38
0.04756191 -0.078693345 0.90800011 1.1608314e-38
0.052750479 -0.078693345 0.90800011 8.858248e-39
0.057939053 -0.078693345 0.90800011 1.1083939e-38
0.063127622 -0.078693345 0.90800011 1.1171028e-38
0.078693338 -0.078693338 0.90800005 1.5863388e-38
0.018200003 -0.080600008 0.91000003 1.2812652e-38
0.022533335 -0.080600008 0.91000003 1.3177807e-38
0.026866667 -0.080600008 0.91000003 1.2991245e-38
0.077133343 -0.080600008 0.91000003 1.0068727e-38
0.080600008 -0.080600008 0.91000003 1.6418026e-38
0.014733334 -0.078866675 0.91000003 1.4568955e-38
0.018260002 -0.079126671 0.91300005 1.2072202e-38
0.022607621 -0.079126671 0.91300005 1.3452212e-38
0.026866671 -0.078866675 0.91000003 1.3452919e-38
0.032119527 -0.078127146 0.91149998 1.3453645e-38
0.037389528 -0.077387623 0.91300005 1.2719288e-38
0.042873181 -0.077054456 0.91250008 1.2625685e-38
0.048171621 -0.076692007 0.91300005 1.0865021e-38
0.052953817 -0.076390952 0.9115001 9.4106833e-39
0.058194287 -0.076433338 0.91200006 1.043599e-38
0.062502861 -0.076390952 0.91150004 8.2272489e-39
0.067086786 -0.077073455 0.91187501 7.4936565e-39
0.071512699 -0.077880636 0.91200006 7.3989232e-39
0.076518103 -0.079126671 0.91300005 7.7670863e-39
0.066953339 -0.073909529 0.91300005 8.9644496e-39
0.014814286 -0.076685719 0.91500002 1.244382e-38
0.017428573 -0.076685719 0.91500002 1.0409453e-38
0.021785717 -0.076685727 0.91500008 1.1977788e-38
0.027014289 -0.076685727 0.91500008 1.2066763e-38
0.032242861 -0.075814292 0.91500008 1.0871126e-38
0.037471432 -0.075814292 0.91500008 1.1148739e-38
0.040957145 -0.075814292 0.91500002 1.216433e-38
0.046185717 -0.075814292 0.91500002 1.1513613e-38
0.073490486 -0.076395243 0.91500008 6.9365129e-39
0.077557147 -0.076685719 0.91500008 1.1170054e-38
0.014825081 -0.072380006 0.91566676 1.2439191e-38
0.017454604 -0.072433345 0.91633338 1.08722e-38
0.021833336 -0.072486669 0.91699994 1.1608617e-38
0.027053652 -0.072432704 0.91633332 1.16987e-38
0.032273758 -0.072397567 0.91588891 1.1421405e-38
0.037508257 -0.072397567 0.91588891 1.1516423e-38
0.04270995 -0.072345719 0.91522229 1.234727e-38
0.047987204 -0.072415143 0.91611111 1.0779598e-38
0.053206403 -0.072893754 0.9158572 1.0246209e-38
0.056973975 -0.072380006 0.9156667 1.1169304e-38
0.06217429 -0.072644293 0.91624999 7.8552406e-39
0.067100003 -0.073025718 0.91500008 9.6076722e-39
0.072586432 -0.072585002 0.91550004 1.0066845e-38
0.077613659 -0.072379999 0.9156667 1.2274249e-38
0.014846668 -0.068993337 0.91700006 1.2805767e-38
0.051695243 -0.070971437 0.92000002 9.5940544e-39
0.058704767 -0.070971437 0.92000002 7.6637069e-39
0.060457148 -0.070971437 0.92000002 7.387752e-39
0.067466676 -0.070971444 0.92000002 1.0249467e-38
0.070971437 -0.070971437 0.92000002 1.1906762e-38
0.027660001 -0.068930477 0.92200005 1.1794441e-38
0.032489531 -0.069369525 0.92200011 1.1700476e-38
0.037717149 -0.068416201 0.92100012 1.1795543e-38
0.043237556 -0.068050623 0.92114294 1.2533068e-38
0.047640637 -0.068099052 0.92066669 9.2237935e-39
0.052373659 -0.067880958 0.92166674 9.3281818e-39
0.056841668 -0.067814052 0.92175001 6.7442575e-39
0.062344767 -0.068667047 0.92200005 6.9278935e-39
0.067613333 -0.068491437 0.92200005 1.0887302e-38
0.072881907 -0.068491429 0.92200005 1.1445831e-38
0.078093983 -0.067563184 0.92133331 1.3377677e-38
0.04653905 -0.064100958 0.92200005 8.4955359e-39
0.077799246 -0.06339848 0.92200005 1.3378054e-38
0.017625082 -0.067857146 0.92533344 1.0690294e-38
0.02202381 -0.067833342 0.92500007 1.1885914e-38
0.026957145 -0.066776201 0.92500013 1.2069961e-38
0.03259524 -0.066952385 0.92500013 1.1795162e-38
0.037880957 -0.066071436 0.92500007 1.2443051e-38
0.042285718 -0.066071436 0.92500007 1.2813962e-38
0.048452385 -0.066071436 0.92500007 7.6665403e-39
0.05109524 -0.066071436 0.92500007 8.1314617e-39
0.059023812 -0.066071436 0.92500007 6.3772477e-39
0.062547624 -0.066511914 0.92500007 7.7590989e-39
0.067833334 -0.066071436 0.92500007 1.2731594e-38
0.073119059 -0.066071436 0.92500007 1.0711167e-38
0.018540001 -0.064448573 0.92700005 1.1151264e-38
0.022071429 -0.063565724 0.92700005 1.2070341e-38
0.027574051 -0.062868811 0.92650008 1.1794838e-38
0.032665718 -0.06268286 0.92700005 1.1426764e-38
0.03790826 -0.062591434 0.92566681 7.0125487e-39
0.042980477 -0.062817618 0.92575008 6.1903299e-39
0.04732826 -0.062026035 0.92600006 7.6683032e-39
0.052013654 -0.062591434 0.92566681 6.7395982e-39
0.057317358 -0.062606461 0.9258889 4.9925756e-39
0.062411837 -0.063167483 0.92671442 7.9488936e-39
0.067930482 -0.063519374 0.92633343 1.5036133e-38
0.072727494 -0.06289538 0.92642868 8.8633627e-39
0.076324768 -0.061325721 0.92650008 1.0520737e-38
0.052088574 -0.059151433 0.92700005 7.853112e-39
0.057385717 -0.058710001 0.92700005 7.477117e-39
0.060917147 -0.059151433 0.92700005 7.2148864e-39
0.016828572 -0.064066671 0.93000007 1.1059441e-38
0.063771427 -0.061114289 0.93000007 8.962733e-39
0.068200015 -0.061114293 0.93000007 1.1914076e-38
