# .PCD v0.7 - Point Cloud Data file format
VERSION 0.7
FIELDS x y z
SIZE 4 4 4
TYPE F F F
COUNT 1 1 1
WIDTH 1449
HEIGHT 1
VIEWPOINT 0 0 0 1 0 0 0
POINTS 1449
DATA ascii
0.86518002 -0.62618005 1.6730002
0.87155336 -0.62618005 1.6730001
0.72633249 -0.61343336 1.6730002
0.85880673 -0.61502671 1.6730001
0.86836672 -0.61980671 1.6730001
0.87155336 -0.61980671 1.6730001
0.72656006 -0.60387343 1.6730002
0.72656006 -0.59431338 1.6730002
0.73134005 -0.59112668 1.6730001
0.72735673 -0.58555007 1.6730001
0.73134011 -0.58475339 1.6730001
0.72815341 -0.5720067 1.6730001
0.7329334 -0.57519341 1.6730002
0.72815341 -0.56404006 1.6730001
0.7329334 -0.56563342 1.6730002
0.86836672 -0.56404006 1.6730001
0.87155336 -0.56404006 1.6730001
0.72735673 -0.55607337 1.6730001
0.73213673 -0.55687004 1.6730001
0.86677337 -0.55607343 1.6730002
0.87155336 -0.55607337 1.6730001
0.72815341 -0.54651332 1.6730001
0.73270577 -0.54423714 1.6730002
0.85801005 -0.54651338 1.6730001
0.86546981 -0.54535466 1.6730002
0.87155336 -0.54492003 1.6730001
0.72815341 -0.53376675 1.6730001
0.7329334 -0.53376675 1.6730002
0.86836672 -0.53536004 1.6730001
0.87155336 -0.53536004 1.6730001
0.72815341 -0.52420676 1.6730001
0.7329334 -0.52420676 1.6730002
0.72815341 -0.51783335 1.6730001
0.73412836 -0.51504505 1.6730002
0.7329334 -0.50508672 1.6730002
0.72815341 -0.49552673 1.6730001
0.73213673 -0.49632338 1.6730001
0.72815341 -0.48596674 1.6730001
0.73407149 -0.48505622 1.6730002
0.72815341 -0.47481337 1.6730001
0.73423702 -0.47466847 1.6730002
0.7361201 -0.46366 1.6730002
0.74090004 -0.46366006 1.6730001
0.73543721 -0.45455527 1.6730002
0.74169672 -0.4533034 1.6730001
0.7361201 -0.44454002 1.6730002
0.74217474 -0.44517738 1.6730002
0.7361201 -0.43498001 1.6730002
0.74090004 -0.43498003 1.6730001
0.7361201 -0.42542005 1.6730002
0.74090004 -0.42542002 1.6730001
0.73492503 -0.41586003 1.6730002
0.74090004 -0.41586003 1.6730001
0.73612005 -0.40948668 1.6730001
0.7428121 -0.40502539 1.6730002
0.74437648 -0.39471215 1.6730002
0.75046003 -0.3951467 1.6730001
0.74408674 -0.38399336 1.6730002
0.75046003 -0.38718003 1.6730001
0.74499726 -0.3748886 1.6730002
0.75205338 -0.3712467 1.6730001
0.74568009 -0.36487338 1.6730002
0.75173473 -0.36423603 1.6730002
0.74647677 -0.35611001 1.6730001
0.75364673 -0.35531336 1.6730002
0.066388898 -0.34469113 1.6730001
0.75364673 -0.34535503 1.6730002
0.76002008 -0.34416002 1.6730001
-0.24271779 -0.33513114 1.6730001
0.062936671 -0.33699 1.6730001
0.75364673 -0.33619335 1.6730002
0.76002008 -0.33619335 1.6730001
-0.2542505 -0.32526764 1.6730002
-0.24696669 -0.32982001 1.6730001
0.049393337 -0.32344669 1.6730001
0.055766672 -0.32663339 1.6730001
0.75501245 -0.32526767 1.6730002
0.76002008 -0.32822669 1.6730001
-0.25652668 -0.3138867 1.6730001
0.046206668 -0.31707335 1.6730001
0.75577116 -0.31601113 1.6730001
0.76002008 -0.3138867 1.6730001
-0.25652668 -0.30273336 1.6730001
0.039833337 -0.30592 1.6730001
0.043020003 -0.30432668 1.6730001
0.74621123 -0.30220225 1.6730001
0.75046003 -0.30273336 1.6730001
0.83650005 -0.30114001 1.6730001
0.84446669 -0.30114001 1.6730001
0.046206668 -0.29158002 1.6730001
0.74727339 -0.29636002 1.6730001
0.75173473 -0.29412937 1.6730002
0.84287339 -0.29795337 1.6730001
-0.26290002 -0.28680003 1.6730001
-0.25971335 -0.28202003 1.6730001
0.049393337 -0.28839335 1.6730001
0.054173335 -0.28520668 1.6730001
0.74727339 -0.28361335 1.6730001
0.75205344 -0.28520668 1.6730002
0.76002008 -0.28839335 1.6730001
-0.26290002 -0.27883336 1.6730001
-0.25891668 -0.27485001 1.6730001
0.057360005 -0.27405334 1.6730001
0.065326668 -0.27405334 1.6730001
0.75404513 -0.27524835 1.6730002
0.76002014 -0.27564669 1.6730001
-0.26290002 -0.26290002 1.6730001
-0.25843868 -0.26672402 1.6730002
0.055766672 -0.26529002 1.6730001
0.74727339 -0.26927334 1.6730001
0.75273633 -0.2660867 1.6730002
0.83411008 -0.26847667 1.6730001
-0.26481202 -0.25334001 1.6730002
-0.25865114 -0.25758892 1.6730001
0.049393337 -0.25652668 1.6730001
0.05394572 -0.2542505 1.6730002
0.75364679 -0.25493336 1.6730002
0.82375342 -0.25493336 1.6730001
0.83534133 -0.25305033 1.6730002
0.84606004 -0.25015336 1.6730001
-0.26449335 -0.24696669 1.6730001
-0.25971335 -0.24059334 1.6730001
0.055766672 -0.24484226 1.6730001
0.062140003 -0.24218668 1.6730001
0.75524008 -0.24378002 1.6730002
0.76002014 -0.24378002 1.6730001
0.823116 -0.24186802 1.6730002
0.8352254 -0.24378002 1.6730002
0.84478539 -0.24250536 1.6730002
-0.26927334 -0.23740669 1.6730001
-0.25971335 -0.23262668 1.6730001
0.05470445 -0.23475114 1.6730002
0.062140003 -0.23740669 1.6730001
0.75470895 -0.23528224 1.6730002
0.76081669 -0.23342335 1.6730001
0.81610537 -0.23485735 1.6730002
0.82375336 -0.23422003 1.6730002
0.83437562 -0.23368892 1.6730002
0.8460601 -0.23422003 1.6730002
-0.25652668 -0.22147335 1.6730001
0.04514445 -0.22253558 1.6730001
0.75683337 -0.22784668 1.6730001
0.76356083 -0.22430594 1.6730002
0.81578672 -0.22784668 1.6730001
0.82415169 -0.22505835 1.6730002
0.83437568 -0.22359779 1.6730002
0.84606004 -0.22465999 1.6730002
0.85402668 -0.22306669 1.6730001
-0.25971335 -0.21191335 1.6730001
0.045410004 -0.21589668 1.6730001
0.75683337 -0.21828668 1.6730001
0.76229632 -0.21464479 1.6730002
0.82566541 -0.21573737 1.6730002
0.83490676 -0.21541868 1.6730002
0.84606016 -0.21549834 1.6730002
0.85402668 -0.21828668 1.6730001
-0.25758892 -0.20554003 1.6730001
0.044613332 -0.20554 1.6730002
0.76480001 -0.20554002 1.6730002
0.81738007 -0.20235334 1.6730001
0.82694006 -0.20713335 1.6730001
0.83604491 -0.20645051 1.6730002
0.84685671 -0.20793 1.6730001
0.85562003 -0.20872667 1.6730001
-0.25652668 -0.19916669 1.6730001
0.046206668 -0.19534269 1.6730002
0.055766672 -0.19598001 1.6730001
0.76639342 -0.19643526 1.6730002
0.81525558 -0.1949178 1.6730002
0.82375336 -0.19598001 1.6730002
0.83490676 -0.19598001 1.6730002
0.84606016 -0.19757335 1.6730002
0.8534956 -0.19810447 1.6730001
-0.25334001 -0.18482669 1.6730001
0.046206672 -0.18733051 1.6730002
0.053217333 -0.18514535 1.6730002
0.75683337 -0.18323335 1.6730001
0.76241004 -0.18482667 1.6730002
0.79666674 -0.18323335 1.6730002
0.80492318 -0.18439215 1.6730002
0.81419331 -0.18642002 1.6730002
0.82446152 -0.18606594 1.6730002
0.83490676 -0.18642001 1.6730002
0.8460601 -0.18468185 1.6730002
0.85522163 -0.18283503 1.6730002
-0.25652668 -0.17048667 1.6730001
0.052580003 -0.17048667 1.6730001
0.75683343 -0.17367336 1.6730001
0.76161337 -0.17367336 1.6730002
0.79698533 -0.17367335 1.6730002
0.80463344 -0.17367335 1.6730002
0.81525564 -0.17367336 1.6730001
0.84765339 -0.17367333 1.6730002
0.85516483 -0.1732181 1.6730002
-0.25334001 -0.16411334 1.6730001
0.047481339 -0.16347602 1.6730002
0.053376667 -0.16331667 1.6730001
0.75683337 -0.16730002 1.6730001
0.76391488 -0.16340518 1.6730002
0.77276671 -0.16092667 1.6730001
0.79826003 -0.16730002 1.6730001
0.80554396 -0.16456859 1.6730002
0.81379497 -0.16451168 1.6730002
0.8226912 -0.1662378 1.6730001
0.84924674 -0.16570668 1.6730001
0.8560183 -0.16451167 1.6730002
0.86358672 -0.16092667 1.6730001
-0.25334001 -0.15296 1.6730001
0.039833337 -0.15455334 1.6730001
0.044613339 -0.15455335 1.6730002
0.76639336 -0.15455334 1.6730002
0.77555501 -0.15495166 1.6730002
0.78870004 -0.15774001 1.6730001
0.79507339 -0.15415502 1.6730002
0.80463344 -0.15455334 1.6730002
0.81419343 -0.15614668 1.6730002
0.85721338 -0.15535 1.6730001
-0.25493336 -0.14499334 1.6730001
0.043816667 -0.14579001 1.6730001
0.76494485 -0.14528304 1.6730002
0.77595335 -0.14539169 1.6730002
0.78596866 -0.14408287 1.6730002
0.79507345 -0.14499335 1.6730002
0.80463344 -0.14499335 1.6730002
0.81419331 -0.14499336 1.6730002
0.85753202 -0.14435601 1.6730002
-0.25461468 -0.13479601 1.6730002
0.044613335 -0.13623001 1.6730001
0.75683337 -0.13224667 1.6730001
0.76523465 -0.13514364 1.6730002
0.77595335 -0.13503501 1.6730002
0.7855134 -0.13543335 1.6730002
0.79507339 -0.13543335 1.6730002
0.80463344 -0.13543335 1.6730002
0.81379497 -0.13583167 1.6730002
0.82056671 -0.13702667 1.6730001
0.85522163 -0.13503501 1.6730002
-0.25334001 -0.12906002 1.6730001
0.044613335 -0.12587334 1.6730001
0.75555867 -0.12651068 1.6730002
0.76480007 -0.12587333 1.6730002
0.77595335 -0.12587334 1.6730002
0.7855134 -0.12587334 1.6730002
0.79547173 -0.12627168 1.6730002
0.80463344 -0.12587334 1.6730002
0.81339675 -0.12826334 1.6730001
0.84924674 -0.12587334 1.6730001
0.85561997 -0.12587334 1.6730002
0.86358672 -0.12746668 1.6730001
-0.25440225 -0.11525112 1.6730001
0.043020003 -0.11631334 1.6730001
0.75683337 -0.11950001 1.6730001
0.76480007 -0.11631334 1.6730002
0.77595335 -0.11631335 1.6730002
0.78551346 -0.11676858 1.6730002
0.79507345 -0.11631335 1.6730002
0.80543005 -0.11790667 1.6730001
0.84924674 -0.11312667 1.6730001
0.85470951 -0.11676858 1.6730002
-0.25493336 -0.10516001 1.6730001
0.038771115 -0.10409778 1.6730002
0.043020003 -0.10516001 1.6730001
0.7663933 -0.10516002 1.6730002
0.77595341 -0.10516 1.6730002
0.7855134 -0.10472547 1.6730002
0.79436529 -0.10639927 1.6730002
0.84924674 -0.10569112 1.6730001
0.85561997 -0.10559455 1.6730002
0.86358672 -0.10038 1.6730001
-0.25334001 -0.09400668 1.6730001
0.037708893 -0.094537787 1.6730002
0.043020003 -0.094006673 1.6730001
0.76639336 -0.097193338 1.6730001
0.77595335 -0.094006673 1.6730002
0.78591174 -0.09440501 1.6730002
0.7934801 -0.094006673 1.6730002
0.85653049 -0.094461925 1.6730002
0.86358672 -0.092413343 1.6730001
-0.25121558 -0.084446669 1.6730001
0.039036669 -0.085243337 1.6730001
0.77754676 -0.086040005 1.6730001
0.7855134 -0.087633342 1.6730001
0.79188675 -0.087633342 1.6730001
0.84924674 -0.087633342 1.6730001
0.85653049 -0.084901914 1.6730002
0.86358678 -0.084446669 1.6730002
-0.25015336 -0.07488668 1.6730001
-0.24696669 -0.074886672 1.6730001
0.043020003 -0.073293343 1.6730001
0.76958007 -0.073293343 1.6730001
0.77635169 -0.074488342 1.6730002
0.7855134 -0.073293343 1.6730002
0.85753202 -0.07552401 1.6730002
0.86358678 -0.074886672 1.6730002
-0.25015336 -0.066920005 1.6730001
0.045569338 -0.064689338 1.6730002
0.77489114 -0.06638889 1.6730002
0.7823267 -0.066920005 1.6730001
0.85880673 -0.068513341 1.6730001
0.86358672 -0.066920005 1.6730001
0.038240001 -0.054173335 1.6730001
0.043020003 -0.057360005 1.6730001
0.77276671 -0.058953337 1.6730001
0.84924674 -0.052580003 1.6730001
0.85625738 -0.05385467 1.6730002
0.86358678 -0.055766672 1.6730002
-0.25015336 -0.047800004 1.6730001
0.038558669 -0.046844002 1.6730002
0.79507339 -0.046206668 1.6730001
0.85561997 -0.046206668 1.6730002
0.86358678 -0.046206668 1.6730002
-0.25015336 -0.033460002 1.6730001
0.039036669 -0.035850003 1.6730001
0.85698575 -0.036646672 1.6730002
0.86358672 -0.035053335 1.6730002
0.043020003 -0.023900002 1.6730001
0.85880673 -0.025493335 1.6730001
0.86358678 -0.023900002 1.6730002
0.043816671 -0.013543334 1.6730001
0.85721338 -0.014340001 1.6730002
0.86358678 -0.014340001 1.6730002
0.044082224 -0.0069044451 1.6730001
0.85721338 -0.0047800005 1.6730002
0.86358678 -0.004780001 1.6730002
-0.24696669 0.0047800005 1.6730001
0.85753202 0.0041426667 1.6730002
0.86358678 0.0047800005 1.6730002
-0.24271779 0.014340001 1.6730001
0.038771115 0.016464446 1.6730001
0.85880679 0.014340001 1.6730001
0.86358672 0.011153334 1.6730001
-0.24059334 0.027086668 1.6730001
0.038240001 0.023103336 1.6730001
0.85880673 0.023900002 1.6730001
0.86358672 0.025493335 1.6730001
-0.24059334 0.035053335 1.6730001
0.039833337 0.035053335 1.6730001
0.86358672 0.030273335 1.6730001
-0.24165557 0.046206675 1.6730001
0.038558669 0.046844002 1.6730002
-0.24218667 0.055766672 1.6730001
0.034256667 0.054970004 1.6730001
-0.24059336 0.065326676 1.6730001
0.033991113 0.065326668 1.6730002
-0.24271779 0.074886672 1.6730001
0.035053335 0.07488668 1.6730002
-0.24696669 0.081260003 1.6730001
0.027086668 0.087633342 1.6730001
0.032397781 0.083384447 1.6730002
-0.24696669 0.095600009 1.6730001
0.027086668 0.092413336 1.6730001
0.031335559 0.095068894 1.6730001
0.031335559 0.10409778 1.6730002
0.027086668 0.11631334 1.6730001
0.030273335 0.11790667 1.6730001
0.025493335 0.12587336 1.6730002
-0.24271779 0.13543335 1.6730001
0.026290001 0.13623001 1.6730001
-0.24059334 0.14340001 1.6730001
-0.23740669 0.14658669 1.6730001
0.025493335 0.14340001 1.6730001
-0.24059334 0.15614668 1.6730001
-0.2374067 0.15455334 1.6730001
0.021775559 0.15667778 1.6730001
-0.23581336 0.16411334 1.6730002
0.020713335 0.16252001 1.6730001
-0.23294535 0.17431067 1.6730002
0.020713335 0.17367335 1.6730001
-0.23209558 0.18376446 1.6730002
0.017526668 0.18004668 1.6730001
0.022625336 0.1876947 1.6730002
-0.23103337 0.19598001 1.6730001
0.022989525 0.19598001 1.6730002
-0.2331578 0.20554003 1.6730001
0.015933335 0.20235334 1.6730001
0.020713335 0.20235334 1.6730001
-0.23262668 0.21510002 1.6730002
0.011153334 0.21669334 1.6730001
-0.23294535 0.22466002 1.6730002
0.011153334 0.22625335 1.6730001
0.85880673 0.22784668 1.6730001
0.86358672 0.22784668 1.6730001
-0.23262668 0.23422003 1.6730002
-0.22784668 0.23740669 1.6730001
0.011153335 0.23422003 1.6730001
-0.23209557 0.24165557 1.6730001
-0.22784668 0.24378002 1.6730001
0.0079666674 0.24537335 1.6730001
0.011153335 0.24378002 1.6730001
-0.22784668 0.25493336 1.6730001
0.0079666674 0.25812 1.6730001
0.011790667 0.25461468 1.6730002
-0.23103335 0.26290002 1.6730001
-0.22705002 0.26688337 1.6730001
0.0079666674 0.26290002 1.6730001
0.014340002 0.2660867 1.6730002
-0.22545668 0.27644336 1.6730001
0.013884762 0.27473623 1.6730002
-0.23103335 0.28839335 1.6730001
-0.22625335 0.28520668 1.6730001
0.0079666674 0.28680003 1.6730001
0.012215557 0.28414446 1.6730001
0.86358672 0.28361335 1.6730001
-0.22466001 0.29317337 1.6730001
-0.21722446 0.29689115 1.6730001
0.0079666674 0.29636002 1.6730001
-0.21510002 0.30273336 1.6730001
0.011153334 0.30592 1.6730001
-0.21191335 0.3138867 1.6730001
0.0066920007 0.31452402 1.6730002
-0.21350668 0.32185334 1.6730001
-0.0015933334 0.32663336 1.6730001
0.0015933334 0.32185334 1.6730001
-0.21510002 0.33619335 1.6730001
0.0047800005 0.33619338 1.6730001
0.011153334 0.33938003 1.6730001
0.011153334 0.34575337 1.6730001
-0.21191335 0.35690671 1.6730001
-0.21191335 0.36487335 1.6730001
-0.20872667 0.36806002 1.6730001
-0.011153334 0.36806002 1.6730001
-0.0047800005 0.36806002 1.6730001
0.0047800005 0.36274892 1.6730001
0.012746667 0.36487335 1.6730002
-0.21191335 0.37284005 1.6730001
-0.20793 0.37523004 1.6730001
-0.013277779 0.37443337 1.6730001
-0.0056904769 0.3744334 1.6730002
0.011153334 0.37284005 1.6730001
-0.20554 0.38240004 1.6730002
-0.19598001 0.38718003 1.6730001
-0.012428001 0.38463068 1.6730002
-0.0051783337 0.38359502 1.6730002
-0.19534267 0.39164135 1.6730002
-0.18642001 0.39674002 1.6730002
-0.021988003 0.39737734 1.6730002
-0.014340001 0.39514667 1.6730002
-0.0047800005 0.39514673 1.6730002
-0.19279334 0.40311337 1.6730001
-0.18442835 0.4059017 1.6730002
-0.17447001 0.40709668 1.6730001
-0.16331667 0.40709671 1.6730001
-0.15774001 0.40789336 1.6730001
-0.023900002 0.40311337 1.6730001
-0.0037177783 0.40523785 1.6730001
-0.18323335 0.4137356 1.6730001
-0.16092667 0.41267335 1.6730001
-0.15774001 0.41426671 1.6730001
0.014340001 0.45728669 1.6730001
-0.081260003 0.46525335 1.6730001
-0.013702667 0.46493468 1.6730002
-0.0047800005 0.46206671 1.6730002
0.004780001 0.46259782 1.6730001
0.014340001 0.46047336 1.6730001
0.094006673 0.4668467 1.6730001
0.10516001 0.4668467 1.6730001
0.33300668 0.4668467 1.6730001
0.34575334 0.4668467 1.6730001
0.79401124 0.46472225 1.6730001
0.80304003 0.46366003 1.6730001
0.81100672 0.46525335 1.6730001
-0.074886672 0.4716267 1.6730001
-0.065326676 0.47428223 1.6730001
-0.055766672 0.47640669 1.6730001
-0.04541 0.47720337 1.6730001
-0.035736192 0.47731718 1.6730002
-0.023900002 0.47640666 1.6730002
-0.015933335 0.47003338 1.6730001
0.11472 0.4716267 1.6730001
0.12906002 0.47640669 1.6730001
0.13702667 0.47322002 1.6730001
0.14499335 0.47428223 1.6730001
0.15455335 0.47640669 1.6730001
0.16411334 0.47640669 1.6730001
0.17367336 0.47640669 1.6730001
0.18429558 0.47746894 1.6730001
0.19438668 0.47800004 1.6730001
0.20554003 0.47640669 1.6730001
0.21350668 0.47322002 1.6730001
0.22306669 0.47322002 1.6730001
0.23422001 0.47322005 1.6730001
0.24059334 0.47322002 1.6730001
0.25440225 0.47534448 1.6730001
0.2660867 0.4716267 1.6730001
0.27564669 0.47003338 1.6730001
0.28361335 0.47003338 1.6730001
0.29317337 0.47322002 1.6730001
0.30273336 0.47322002 1.6730001
0.31548002 0.47640669 1.6730001
0.32472134 0.47322002 1.6730002
0.33619338 0.47003338 1.6730001
0.34575337 0.47003338 1.6730001
0.35372001 0.47003338 1.6730001
0.36699781 0.47109562 1.6730001
0.3712467 0.47322002 1.6730001
0.38558668 0.4716267 1.6730001
0.3951467 0.47322002 1.6730001
0.40630004 0.47322005 1.6730001
0.41586003 0.47322002 1.6730001
0.42542002 0.47322005 1.6730001
0.43577668 0.47401667 1.6730001
0.44499528 0.47413051 1.6730002
0.45346269 0.47513205 1.6730002
0.46286339 0.47481337 1.6730001
0.47481337 0.47561002 1.6730001
0.48676336 0.47481334 1.6730001
0.49393338 0.47322002 1.6730001
0.50508666 0.47109562 1.6730001
0.51305336 0.47322002 1.6730001
0.52261341 0.47322002 1.6730001
0.53695339 0.47322002 1.6730001
0.54492003 0.4716267 1.6730001
0.55607343 0.47003338 1.6730001
0.56882006 0.47322002 1.6730001
0.57519341 0.47322005 1.6730001
0.58475339 0.47003338 1.6730001
0.59431338 0.47003338 1.6730001
0.60228002 0.4716267 1.6730001
0.61980671 0.47322002 1.6730001
0.6293667 0.47322002 1.6730001
0.63574004 0.47322005 1.6730001
0.64530009 0.47322005 1.6730001
0.65167338 0.47322002 1.6730001
0.66442007 0.47322002 1.6730001
0.68832004 0.47800004 1.6730001
0.73505783 0.47587559 1.6730002
0.74408674 0.47800002 1.6730002
0.75046003 0.47800004 1.6730001
0.77914006 0.47640669 1.6730001
0.78551346 0.47640672 1.6730002
0.79188675 0.4716267 1.6730001
0.81100672 0.47003338 1.6730001
0.73213673 0.48517001 1.6730001
0.74461788 0.48543561 1.6730002
0.75046003 0.48278004 1.6730001
0.71754694 -0.64518386 1.6810001
0.72202957 -0.64518386 1.6810001
0.71802717 -0.63557816 1.6810001
0.72202957 -0.63557816 1.6810001
0.72523153 -0.62597233 1.681
0.72416419 -0.61743402 1.6810001
0.72385925 -0.60584617 1.6810001
0.72523153 -0.59395337 1.6810001
0.72763288 -0.58514816 1.6810001
0.73163527 -0.58114576 1.6810001
0.72736609 -0.5726074 1.6810001
0.73163527 -0.57474196 1.6810001
0.71882766 -0.56353533 1.6810001
0.72563177 -0.56473601 1.681
0.72483122 -0.5551303 1.681
0.72683239 -0.54592478 1.6810001
0.73163527 -0.54592478 1.6810001
0.72683239 -0.53631902 1.6810001
0.72736609 -0.52617973 1.6810001
0.72843337 -0.51390576 1.6810001
0.73163527 -0.51390576 1.6810001
0.72843337 -0.50430006 1.6810001
0.73163527 -0.50590098 1.6810001
0.72843337 -0.49469432 1.6810001
0.72843337 -0.47228098 1.6810001
0.72843337 -0.46907908 1.6810001
0.73323625 -0.46587718 1.6810001
0.72843337 -0.45306957 1.6810001
0.73291606 -0.45563108 1.6810001
0.72843337 -0.44186288 1.6810001
0.73323619 -0.44506478 1.681
0.72843337 -0.43706003 1.6810001
0.73483723 -0.43385813 1.6810001
0.72843337 -0.42585337 1.6810001
0.73483717 -0.42585337 1.6810001
0.73323625 -0.41544718 1.6810001
0.73643816 -0.40824288 1.6810001
0.74230832 -0.40504098 1.6810001
0.73803908 -0.39543527 1.6810001
0.74124098 -0.39543527 1.6810001
0.73803914 -0.38582954 1.6810001
0.74124098 -0.38582954 1.6810001
0.73803908 -0.37942573 1.6810001
0.74230832 -0.37729114 1.6810001
0.74444288 -0.36448354 1.6810001
0.74764478 -0.35381049 1.6810001
0.75404865 -0.35060859 1.6810001
0.068840958 -0.34260383 1.6810001
0.072843336 -0.34500527 1.6810001
0.73803908 -0.34580573 1.6810001
0.74398553 -0.34466222 1.6810001
0.75084674 -0.34420478 1.6810001
-0.24814764 -0.33459908 1.6810001
0.065639049 -0.33459908 1.6810001
0.73643816 -0.33780098 1.6810001
0.75191402 -0.33459911 1.6810001
-0.2617557 -0.32499337 1.6810001
-0.25615239 -0.32819527 1.6810001
0.049629528 -0.32179144 1.6810001
0.057634287 -0.32659429 1.6810001
0.064038098 -0.32819527 1.6810001
0.75324816 -0.32419285 1.6810001
-0.262236 -0.31538767 1.6810001
0.043225717 -0.31218573 1.6810001
0.75404871 -0.31493026 1.6810001
-0.27376288 -0.30498147 1.6810001
-0.26415715 -0.30578196 1.681
0.75404871 -0.30898386 1.6810001
-0.27184173 -0.29553583 1.6810001
-0.2657581 -0.2961762 1.6810001
0.048028573 -0.29457524 1.6810001
0.052831434 -0.29297429 1.6810001
0.75084674 -0.29297429 1.6810001
-0.27056098 -0.28496954 1.6810001
-0.26671872 -0.28464934 1.6810001
0.058434766 -0.28496954 1.6810001
0.065105401 -0.28230131 1.6810001
0.74764478 -0.28336859 1.6810001
0.75191402 -0.28336859 1.6810001
-0.27056098 -0.27056098 1.6810001
-0.26575813 -0.27376288 1.6810001
0.065639049 -0.27330548 1.6810001
0.07204286 -0.27216193 1.6810001
0.74684429 -0.27296239 1.6810001
0.75084674 -0.27536383 1.6810001
-0.27136147 -0.26335669 1.6810001
-0.26655859 -0.26495761 1.6810001
0.056033336 -0.26095524 1.6810001
0.065639049 -0.26287636 1.6810001
0.74764478 -0.26415715 1.6810001
0.75084674 -0.26415718 1.6810001
-0.27416313 -0.25495169 1.681
-0.26735908 -0.25615239 1.6810001
0.059235241 -0.25775334 1.6810001
0.064358287 -0.25583223 1.6810001
0.75084674 -0.25455144 1.6810001
-0.27429652 -0.24547938 1.6810001
-0.26629177 -0.24281113 1.6810001
0.059235241 -0.24494573 1.6810001
0.064571753 -0.24494573 1.6810001
0.75404871 -0.24494573 1.6810001
0.84050006 -0.24174383 1.6810001
-0.27312252 -0.23598039 1.6810001
-0.26575813 -0.23534003 1.6810001
0.058167942 -0.23427272 1.6810001
0.06350445 -0.23534003 1.6810001
0.75404865 -0.23453954 1.6810001
0.83729815 -0.23534003 1.6810001
0.8415674 -0.23640732 1.6810001
-0.27056098 -0.22413334 1.6810001
-0.26415718 -0.22573431 1.681
0.049629532 -0.22573429 1.6810001
0.056433577 -0.22613454 1.681
0.062437147 -0.22413334 1.6810001
0.75511593 -0.2268016 1.6810001
0.76045245 -0.22413334 1.6810001
0.83729815 -0.22893621 1.6810001
0.84210098 -0.22893621 1.6810001
-0.27056098 -0.21612859 1.6810001
-0.26455739 -0.21652883 1.681
-0.25775334 -0.21933049 1.6810001
0.049629528 -0.21452764 1.6810001
0.057634287 -0.21612859 1.6810001
0.062437147 -0.21772954 1.6810001
0.75618327 -0.21826319 1.6810001
0.76045245 -0.21612859 1.6810001
0.84370196 -0.21612859 1.6810001
-0.27056098 -0.20972477 1.6810001
-0.26415715 -0.20492192 1.681
0.049629528 -0.20492192 1.6810001
0.057100642 -0.20438825 1.681
0.062437147 -0.20492192 1.6810001
0.75725055 -0.20438826 1.6810001
0.76182473 -0.20423581 1.6810001
-0.262236 -0.19435564 1.6810001
-0.25775334 -0.19371526 1.6810001
0.049629528 -0.19371524 1.6810001
0.055392958 -0.19435564 1.6810001
0.062437147 -0.19691716 1.6810001
0.75725055 -0.19371526 1.6810001
0.76258707 -0.19371526 1.6810001
-0.2617557 -0.18330908 1.6810001
-0.25775334 -0.18410954 1.6810001
0.056033336 -0.18250859 1.6810001
0.75725055 -0.18410954 1.6810001
0.76045245 -0.18410954 1.6810001
0.81648576 -0.18090764 1.6810001
0.82449055 -0.18170813 1.6810001
0.83569717 -0.18090764 1.6810001
0.84210098 -0.18090764 1.6810001
-0.2625562 -0.17450383 1.6810001
-0.25775334 -0.17610477 1.6810001
0.054966033 -0.17450383 1.6810001
0.75725055 -0.17450383 1.6810001
0.81680602 -0.17386344 1.6810001
0.82540542 -0.17496124 1.6810001
0.83409631 -0.17450382 1.681
0.8437019 -0.17450382 1.681
-0.2625562 -0.1648981 1.6810001
-0.25775334 -0.1648981 1.6810001
0.057634287 -0.1648981 1.6810001
0.75645006 -0.16409762 1.6810001
0.76045245 -0.16329715 1.6810001
0.82449055 -0.16249667 1.6810001
0.83409625 -0.16489811 1.681
0.8437019 -0.16489811 1.681
0.85202694 -0.16361734 1.6810001
-0.262236 -0.15465201 1.6810001
-0.25775334 -0.15529239 1.6810001
0.049629532 -0.15529239 1.6810001
0.055633102 -0.15529239 1.681
0.75564957 -0.15849429 1.6810001
0.76285386 -0.15609287 1.6810001
0.81648576 -0.15209049 1.6810001
0.82540542 -0.15483499 1.6810001
0.83623087 -0.157427 1.6810001
0.84050006 -0.15849429 1.6810001
0.85559481 -0.15483499 1.6810001
-0.26415715 -0.14568667 1.681
-0.25775334 -0.14568667 1.6810001
0.048348766 -0.14504631 1.6810001
0.05496604 -0.14675398 1.6810001
0.75532943 -0.14504629 1.6810001
0.76205343 -0.14488621 1.6810001
0.77966386 -0.14248477 1.6810001
0.82609153 -0.14568669 1.6810001
0.85559481 -0.14614411 1.6810001
-0.26415715 -0.13608097 1.681
-0.25775334 -0.13928287 1.6810001
0.048829053 -0.13608097 1.6810001
0.052831434 -0.13608097 1.6810001
0.75564957 -0.13608098 1.6810001
0.76151979 -0.13821557 1.6810001
0.77966386 -0.13928287 1.6810001
0.82577133 -0.13480021 1.6810001
0.85250723 -0.13528049 1.6810001
-0.26232749 -0.1246456 1.6810001
-0.25638109 -0.12418817 1.6810001
0.048562225 -0.123807 1.6810001
0.053471815 -0.12583487 1.6810001
0.75369292 -0.12469641 1.681
0.79567337 -0.12327334 1.6810001
0.81680602 -0.12263296 1.6810001
0.82449055 -0.12540795 1.681
0.84610343 -0.12567477 1.6810001
0.8511731 -0.12434065 1.6810001
-0.26324233 -0.11366763 1.6810001
-0.25775334 -0.11206667 1.6810001
0.048028573 -0.11366762 1.6810001
0.052831434 -0.11366763 1.6810001
0.75618327 -0.11580223 1.6810001
0.76151979 -0.11366763 1.6810001
0.78926963 -0.11366763 1.6810001
0.80688012 -0.11366763 1.6810001
0.81528503 -0.11366761 1.681
0.8212887 -0.11366763 1.6810001
0.85090625 -0.11446811 1.6810001
-0.2637569 -0.10446215 1.681
-0.25775334 -0.10726382 1.6810001
0.048028573 -0.10406192 1.6810001
0.052831434 -0.10566287 1.6810001
0.76365441 -0.10406192 1.6810001
0.79887527 -0.10086001 1.6810001
0.80527914 -0.1036045 1.6810001
0.81408435 -0.10566287 1.6810001
0.854375 -0.10406192 1.6810001
-0.26095527 -0.094456196 1.6810001
-0.25775334 -0.094456196 1.6810001
0.046427622 -0.094913617 1.6810001
0.052831434 -0.097658105 1.6810001
0.76525533 -0.094456196 1.6810001
0.77197933 -0.093815818 1.6810001
0.78606766 -0.091254294 1.6810001
0.80487883 -0.094856434 1.681
0.81168294 -0.096057147 1.6810001
0.85650957 -0.092855245 1.6810001
-0.26095524 -0.086451434 1.6810001
-0.25647259 -0.084210098 1.6810001
0.046027385 -0.084450245 1.681
0.052831434 -0.081648573 1.6810001
0.76525533 -0.086451434 1.6810001
0.77390045 -0.084530294 1.681
0.78660131 -0.08378318 1.6810001
0.79567337 -0.084450245 1.681
0.85394806 -0.084210098 1.6810001
-0.2553519 -0.076045245 1.6810001
0.047342453 -0.075702183 1.6810001
0.052831434 -0.075244769 1.6810001
0.76365435 -0.075244769 1.6810001
0.77197933 -0.076525532 1.6810001
0.78766859 -0.078446671 1.6810001
0.79620707 -0.076312073 1.6810001
0.85597599 -0.074177466 1.6810001
-0.25615239 -0.065639049 1.6810001
0.048562229 -0.067773655 1.6810001
0.053631909 -0.064838573 1.6810001
0.76365435 -0.068840958 1.6810001
0.77280265 -0.065181635 1.6810001
0.78660131 -0.064571753 1.6810001
0.79567337 -0.065639049 1.681
0.80207717 -0.062437147 1.6810001
0.8574245 -0.06609647 1.6810001
0.86531478 -0.063237622 1.6810001
-0.2558322 -0.055392958 1.6810001
0.047342457 -0.055575926 1.6810001
0.052831434 -0.054432385 1.6810001
0.77606177 -0.056433577 1.681
0.78606766 -0.056033339 1.681
0.79567337 -0.056033339 1.681
0.80421185 -0.05496604 1.6810001
0.85650957 -0.057634287 1.6810001
0.86291337 -0.059235241 1.6810001
-0.25295049 -0.043225713 1.6810001
0.046136539 -0.04526329 1.681
0.052831434 -0.049629528 1.6810001
0.77806294 -0.049629528 1.6810001
0.78561026 -0.045512792 1.6810001
0.79538232 -0.044681132 1.681
0.80367821 -0.046427622 1.6810001
0.85193551 -0.045512799 1.6810001
-0.25455147 -0.03362 1.6810001
0.045512799 -0.03316259 1.6810001
0.052831434 -0.030418098 1.6810001
0.77966386 -0.030418098 1.6810001
0.78446674 -0.03362 1.6810001
0.79567337 -0.03362 1.681
0.85704327 -0.03362 1.6810001
-0.25455147 -0.024014287 1.6810001
0.048028573 -0.02401429 1.6810001
0.054432385 -0.020812383 1.6810001
0.77966386 -0.020812383 1.6810001
0.79727435 -0.027216192 1.6810001
0.85971153 -0.02401429 1.6810001
0.86291337 -0.020812383 1.6810001
-0.25295049 -0.014408572 1.6810001
0.048348766 -0.015048953 1.6810001
0.053631909 -0.015209049 1.6810001
0.77966392 -0.014408573 1.6810001
0.78286576 -0.011206667 1.6810001
0.85544223 -0.012273969 1.6810001
-0.25134954 -0.0048028575 1.6810001
0.047494926 -0.0037355558 1.6810001
0.052831434 -0.0048028575 1.6810001
0.77966386 -0.0064038099 1.6810001
0.85490865 -0.0048028575 1.6810001
-0.25134954 0.0048028575 1.6810001
0.044506479 0.0048028575 1.6810001
0.054432385 0.0016009525 1.6810001
0.85650963 0.0048028575 1.6810001
-0.24734715 0.015209049 1.6810001
0.044026196 0.014408572 1.6810001
0.85891098 0.013608096 1.6810001
-0.2462265 0.023373907 1.6810001
0.042425238 0.024014287 1.6810001
0.85971153 0.024014287 1.6810001
0.86291337 0.024014287 1.6810001
-0.24654669 0.03362 1.6810001
0.044026192 0.03362 1.6810001
0.86611527 0.034153655 1.6810001
-0.24494573 0.043225717 1.6810001
0.043225717 0.044826671 1.6810001
0.86771625 0.043225717 1.6810001
-0.24494573 0.059235241 1.6810001
0.036821906 0.057634287 1.6810001
0.04130457 0.055392958 1.6810001
0.86771619 0.05763429 1.6810001
-0.24494573 0.065639049 1.6810001
0.036821906 0.062437147 1.6810001
0.042158417 0.066172704 1.6810001
0.86703014 0.065639049 1.6810001
-0.24494573 0.07204286 1.6810001
0.04162477 0.075244769 1.6810001
0.035754606 0.086985081 1.6810001
0.040824287 0.084850483 1.6810001
0.86651546 0.084450245 1.681
0.034687303 0.093922548 1.6810001
0.040023811 0.094456196 1.6810001
0.86703002 0.094913617 1.6810001
-0.24654669 0.10566287 1.6810001
0.03602143 0.10486239 1.6810001
0.86651552 0.10366167 1.681
0.034534834 0.11366762 1.6810001
0.8665154 0.11406786 1.681
0.03169886 0.12583487 1.6810001
0.86718255 0.12505217 1.681
-0.24494573 0.13928287 1.6810001
0.031218573 0.13608097 1.6810001
0.86675566 0.13544059 1.6810001
-0.24414527 0.14648716 1.6810001
0.02561524 0.14888859 1.6810001
0.031218573 0.14568667 1.6810001
-0.24414527 0.15449192 1.6810001
0.025935432 0.15465201 1.6810001
0.030418098 0.15369144 1.6810001
-0.24254429 0.16489811 1.6810001
0.023213811 0.16569857 1.6810001
-0.24174385 0.17450383 1.6810001
-0.23854193 0.17450383 1.6810001
0.022733526 0.17450382 1.6810001
-0.24174383 0.18250859 1.6810001
-0.23774144 0.18491 1.6810001
0.024929119 0.18365212 1.6810001
0.86771619 0.18410954 1.6810001
-0.23694098 0.19371526 1.6810001
0.027216192 0.19371524 1.6810001
0.031218573 0.19291478 1.6810001
0.86771625 0.19371526 1.6810001
-0.24174383 0.20812382 1.6810001
-0.23747462 0.20385462 1.6810001
0.016009524 0.20812382 1.6810001
0.024014287 0.20492193 1.6810001
0.030418098 0.20011906 1.6810001
0.86771619 0.20011906 1.6810001
-0.24254429 0.21692906 1.6810001
-0.23854193 0.21612859 1.6810001
0.016009524 0.21612859 1.6810001
0.020812383 0.21452764 1.6810001
0.86771619 0.21612859 1.6810001
-0.24334478 0.22573428 1.6810001
-0.23854193 0.22573429 1.6810001
0.01334127 0.224667 1.6810001
0.86291337 0.22573429 1.6810001
-0.24174383 0.23534001 1.6810001
-0.23854193 0.23534003 1.6810001
0.014408573 0.23213811 1.6810001
-0.24174383 0.24174383 1.6810001
-0.23640732 0.24601305 1.6810001
0.015475875 0.24708033 1.6810001
0.86703014 0.24448833 1.6810001
-0.23534001 0.25455144 1.681
0.016329715 0.25455147 1.6810001
0.021612858 0.25455144 1.6810001
0.86771619 0.25455144 1.6810001
-0.23480639 0.26362351 1.6810001
0.016009524 0.26095524 1.6810001
0.020812383 0.26415715 1.6810001
0.86675566 0.26607829 1.6810001
-0.23373908 0.27376288 1.6810001
-0.22893621 0.27536383 1.6810001
0.023373907 0.27312252 1.6810001
0.86703014 0.27422032 1.6810001
-0.23453954 0.28496954 1.681
-0.22893621 0.28336859 1.6810001
0.015323402 0.28474084 1.6810001
0.020812383 0.28657049 1.6810001
0.86611527 0.281234 1.6810001
-0.23534001 0.2961762 1.681
-0.22653477 0.29857767 1.6810001
0.012807619 0.2961762 1.6810001
-0.23341887 0.30514154 1.6810001
-0.22573429 0.30578196 1.681
-0.21853001 0.30658239 1.6810001
0.013608096 0.30498144 1.6810001
-0.22381316 0.31474727 1.6810001
-0.21772954 0.31538767 1.6810001
0.011206667 0.31538767 1.6810001
-0.22333287 0.32419288 1.6810001
-0.21804972 0.32499337 1.6810001
0.0057176868 0.32545081 1.6810001
0.011206667 0.32499334 1.6810001
-0.22253239 0.33459911 1.6810001
-0.21804972 0.33459908 1.6810001
0.0048028575 0.33299813 1.6810001
0.012273969 0.33673367 1.6810001
-0.22253239 0.34100288 1.6810001
-0.21804972 0.34484515 1.6810001
0.015209049 0.34500524 1.6810001
-0.21772954 0.35381049 1.6810001
0.014408573 0.35381049 1.6810001
-0.22253239 0.36021432 1.6810001
-0.21676898 0.36405662 1.6810001
0.0054432387 0.36853927 1.6810001
0.014408573 0.36021432 1.6810001
-0.21452764 0.37622383 1.6810001
-0.011206667 0.37782478 1.6810001
-0.0016009525 0.37622383 1.6810001
0.0048028571 0.3762238 1.681
0.01334127 0.37835845 1.6810001
-0.21292669 0.38422859 1.6810001
-0.20652287 0.38903147 1.6810001
-0.0016009525 0.38903144 1.6810001
0.003888028 0.38537213 1.6810001
0.011206667 0.38262764 1.6810001
-0.23213811 0.39703622 1.6810001
-0.22573429 0.39863718 1.6810001
-0.20535854 0.39572638 1.681
-0.1953162 0.39863718 1.6810001
0.0024014288 0.39463478 1.6810001
-0.22573429 0.40183908 1.6810001
-0.20332097 0.40366873 1.6810001
-0.19478256 0.40557462 1.6810001
-0.18571049 0.40824288 1.6810001
-0.021879686 0.4071756 1.6810001
-0.014408573 0.40664196 1.6810001
-0.0058701592 0.40610832 1.6810001
0.0026682541 0.40290639 1.6810001
-0.1953162 0.41144478 1.6810001
-0.18539031 0.41528708 1.6810001
-0.17397016 0.41411304 1.6810001
-0.16596541 0.41518033 1.6810001
-0.01280762 0.4130457 1.6810001
-0.0080047622 0.41144478 1.6810001
-0.17450382 0.42105049 1.6810001
-0.077646196 0.46667767 1.6810001
-0.017610477 0.46907908 1.6810001
0.27376288 0.46907908 1.6810001
0.28336859 0.46907911 1.6810001
0.33780098 0.46907908 1.6810001
0.34260383 0.46907908 1.6810001
0.35060859 0.46907908 1.6810001
0.37782478 0.46907908 1.6810001
0.38422859 0.46907908 1.6810001
0.41784859 0.46907908 1.6810001
0.44986764 0.46907908 1.6810001
0.50750196 0.46907908 1.6810001
0.51070386 0.46907908 1.6810001
0.73803908 0.46907908 1.6810001
0.787135 0.46587718 1.6810001
0.79674071 0.4680118 1.6810001
0.80591947 0.46651754 1.6810001
0.81541842 0.46587715 1.6810001
0.82256937 0.46523681 1.6810001
-0.073643818 0.47228098 1.6810001
-0.064571753 0.47334832 1.6810001
-0.056673717 0.47420213 1.6810001
-0.044826671 0.47548288 1.6810001
-0.03362 0.47548288 1.6810001
-0.024014287 0.47388193 1.6810001
0.11686953 0.47228098 1.6810001
0.12540795 0.47548288 1.6810001
0.13287906 0.47548288 1.6810001
0.14888859 0.47548288 1.6810001
0.15529239 0.47868478 1.6810001
0.16489811 0.47548288 1.6810001
0.17450382 0.47548288 1.6810001
0.18090764 0.47548288 1.6810001
0.19211429 0.47868478 1.6810001
0.20588247 0.47548285 1.6810001
0.21612859 0.47228098 1.6810001
0.22573429 0.47228098 1.6810001
0.24654669 0.47548288 1.6810001
0.25615239 0.47548288 1.6810001
0.26415718 0.47228098 1.6810001
0.28977239 0.47228098 1.6810001
0.2961762 0.47228098 1.6810001
0.30898383 0.47548288 1.6810001
0.31538767 0.47548288 1.6810001
0.32499337 0.47228098 1.6810001
0.36181527 0.47228098 1.6810001
0.37622386 0.47228098 1.6810001
0.38582954 0.47228098 1.6810001
0.39543527 0.47228098 1.6810001
0.40504098 0.47228098 1.6810001
0.41464671 0.47228098 1.6810001
0.43385813 0.47228098 1.6810001
0.44346386 0.47228098 1.6810001
0.45707196 0.47308147 1.6810001
0.46587718 0.47334832 1.6810001
0.47548288 0.47548288 1.6810001
0.48829052 0.47548288 1.6810001
0.49629527 0.47228098 1.6810001
0.50269914 0.47228098 1.6810001
0.51550674 0.47228098 1.6810001
0.52564609 0.47334832 1.6810001
0.53631908 0.47548288 1.6810001
0.54752576 0.47228098 1.6810001
0.56673717 0.47228098 1.6810001
0.58114576 0.47228098 1.6810001
0.63717914 0.47228098 1.6810001
0.64518392 0.47228098 1.6810001
0.65478957 0.47388193 1.6810001
0.66279435 0.47548288 1.6810001
0.68360674 0.47868478 1.6810001
0.73643816 0.47548288 1.6810001
0.74764478 0.47548288 1.6810001
0.75191402 0.4744156 1.6810001
0.77646196 0.47548288 1.6810001
0.7839331 0.4744156 1.6810001
0.79674071 0.47334832 1.6810001
0.80527914 0.47388196 1.6810001
0.81488484 0.47468239 1.6810001
0.82342327 0.47334832 1.6810001
0.68360674 0.48348767 1.6810001
0.73163527 0.48668957 1.6810001
0.73803908 0.49309337 1.6810001
0.70830864 -0.66141146 1.6980001
0.71477717 -0.66141146 1.6980001
0.70830864 -0.65494293 1.6980002
0.71602654 -0.65529615 1.6943637
0.70830864 -0.64524001 1.6980002
0.71598977 -0.64565307 1.6940002
0.70723057 -0.63445908 1.6980002
0.71577591 -0.63564962 1.6940002
0.72267622 -0.63254291 1.6900001
0.70830858 -0.62583435 1.6980001
0.71682829 -0.62593836 1.6949233
0.72267622 -0.62610483 1.6900001
0.71768486 -0.61596984 1.6953335
0.72267622 -0.61483812 1.6900001
0.71752375 -0.60535538 1.6958183
0.72396386 -0.60292763 1.6900002
0.71683192 -0.59516799 1.6968572
0.72455096 -0.59336537 1.6935556
0.70992577 -0.58055431 1.6980001
0.71639436 -0.58378863 1.6980001
0.72651362 -0.58396769 1.6949233
0.73233336 -0.58103812 1.6900001
0.70992577 -0.57570291 1.6980001
0.71639431 -0.57408577 1.6980001
0.72456908 -0.57445526 1.6922859
0.70992577 -0.56761718 1.6980001
0.71762103 -0.5646069 1.6948
0.72267622 -0.56172383 1.6900001
0.71796012 -0.55453837 1.6956002
0.723481 -0.55448097 1.6900001
0.70992577 -0.54821146 1.6980001
0.71695125 -0.54538828 1.6965456
0.72417086 -0.54469275 1.6926668
0.71731842 -0.53573644 1.6980002
0.72395337 -0.53530765 1.6930001
0.71962869 -0.52557147 1.6980002
0.72545594 -0.52594286 1.6940001
0.71962869 -0.5158686 1.6980002
0.7262969 -0.51639855 1.6953335
0.73244959 -0.51545429 1.6940001
0.71962869 -0.50616574 1.6980002
0.72609717 -0.5061658 1.6980001
0.73250771 -0.50637436 1.696
0.71962863 -0.49808002 1.6980001
0.72609717 -0.49646288 1.6980001
0.73250765 -0.49507338 1.6960001
0.72825336 -0.48622096 1.6980002
0.73246616 -0.48485309 1.6945717
0.72803777 -0.473176 1.6980002
0.73250771 -0.47487432 1.696
0.72803777 -0.46347317 1.6980002
0.73302734 -0.46500322 1.6953335
0.7277143 -0.4544172 1.6980002
0.73244953 -0.45576477 1.694
0.7287764 -0.44473395 1.6945717
0.73233336 -0.44905716 1.6900001
0.72924465 -0.4361231 1.6948
0.73470342 -0.43492493 1.6922859
0.72872007 -0.42625019 1.6953335
0.73522228 -0.42443812 1.6966667
0.72933149 -0.41884002 1.6980001
0.73365861 -0.41422239 1.6940002
0.7367177 -0.40552041 1.6964
0.74268997 -0.40437299 1.6916001
0.7373383 -0.39596346 1.6956002
0.74199051 -0.39433336 1.6900001
0.7374925 -0.38570657 1.6958183
0.74226862 -0.38002861 1.6980001
0.74351388 -0.37417504 1.6926668
0.73822576 -0.36304858 1.6980001
0.74368352 -0.36523238 1.6924002
0.078866675 -0.35248575 1.6900001
0.084802866 -0.35131148 1.6960001
0.73791254 -0.35333717 1.6966667
0.74467486 -0.35542285 1.6914549
0.077980325 -0.34524953 1.694
0.085304283 -0.34485573 1.6980001
0.73741722 -0.34445149 1.6980002
0.74461716 -0.34565905 1.696
0.75164765 -0.3428286 1.6900001
0.069209531 -0.33478099 1.6900001
0.075772069 -0.33584321 1.6926668
0.083282858 -0.33555719 1.6980001
0.7360462 -0.33491927 1.6956002
0.74524051 -0.33549106 1.6908891
0.75245243 -0.33558574 1.6900001
-0.27351686 -0.32187366 1.6926668
-0.26798573 -0.32351431 1.6900001
0.05543302 -0.32399368 1.6953335
0.066631034 -0.32669091 1.6945714
0.074981503 -0.32783377 1.6957145
0.73822582 -0.32423717 1.6980001
0.7457943 -0.32561973 1.6942668
0.75331372 -0.32644954 1.6913335
-0.2816667 -0.31063813 1.6900001
-0.27661192 -0.31537762 1.6960001
-0.26771748 -0.3160032 1.6900001
0.045871429 -0.31305242 1.6900001
0.050131433 -0.31534287 1.6980001
0.73580003 -0.31857717 1.6980001
0.74590725 -0.31534287 1.6980001
0.75326288 -0.3153761 1.6957144
-0.28247145 -0.30339527 1.6900001
-0.27522859 -0.30420002 1.6900002
0.047480956 -0.30339527 1.6900001
0.051748574 -0.30402288 1.6980001
0.73903435 -0.30240574 1.6980001
0.74596506 -0.3061021 1.6980002
0.75326514 -0.30564001 1.6980002
-0.2832762 -0.29454291 1.6900003
-0.27764288 -0.29373813 1.6900001
0.049895242 -0.29776192 1.6900001
0.057033528 -0.29546556 1.6916001
0.066146672 -0.29363054 1.694
0.074388579 -0.29270288 1.6980001
0.74658102 -0.29593718 1.6980002
0.75299567 -0.29570481 1.6966667
-0.28375736 -0.28568879 1.6948003
-0.27683812 -0.28488576 1.6900003
0.067063503 -0.28703177 1.6900001
0.075772077 -0.28533527 1.6926668
0.082474291 -0.28461719 1.6980001
0.74651247 -0.28485823 1.6962223
0.75197148 -0.28946859 1.6980001
-0.28557962 -0.27311322 1.6968572
-0.27563098 -0.27563098 1.6900003
0.076567352 -0.27568847 1.6900003
0.084587306 -0.27459154 1.6971111
0.7459209 -0.27518913 1.6968572
-0.28579953 -0.26442766 1.6930001
-0.27716002 -0.26621526 1.6900002
0.059552386 -0.26557148 1.6900001
0.065990478 -0.26718098 1.6900001
0.07564763 -0.26557148 1.6900003
0.08530429 -0.26399857 1.6980001
0.74802864 -0.2652804 1.6964
0.75197148 -0.26359433 1.6980002
-0.28482431 -0.25540859 1.6920002
0.059552386 -0.25430477 1.6900001
0.067600004 -0.2543048 1.6900001
0.076107197 -0.2552861 1.6936365
0.084414862 -0.25518519 1.6980002
0.75261617 -0.2544986 1.694
-0.28482431 -0.24614429 1.6920002
-0.27415559 -0.24518415 1.6900001
0.059552386 -0.24947621 1.6900001
0.068404764 -0.24706192 1.6900001
0.075579435 -0.24448572 1.6956002
0.7474435 -0.24354172 1.6980002
0.75362808 -0.24583487 1.6934286
-0.28327623 -0.23499049 1.6900003
-0.27630162 -0.23230796 1.6900003
0.067197621 -0.23378333 1.6900003
0.075927831 -0.23424192 1.6962223
0.74659497 -0.23477109 1.6958183
0.75261366 -0.23538044 1.6911432
-0.28465384 -0.22385812 1.6910002
-0.27683812 -0.22372383 1.6900003
0.049895242 -0.22050478 1.6900001
0.054187305 -0.22157779 1.6900001
0.067600012 -0.22372381 1.6900003
0.075810164 -0.22419623 1.6935556
0.082474291 -0.22478287 1.6980002
0.74744719 -0.22492048 1.6960001
0.75370008 -0.22345193 1.6910002
-0.28492934 -0.21432629 1.6957145
-0.27683812 -0.21406671 1.6900003
0.054723814 -0.21406668 1.6900001
0.066910215 -0.21406668 1.6900003
0.075730592 -0.2142902 1.6917779
0.082474291 -0.2183143 1.6980001
0.7474435 -0.21572688 1.6980002
0.75503248 -0.21457335 1.6940001
0.7629143 -0.21406668 1.6900001
-0.28494057 -0.20667088 1.6980002
-0.27537504 -0.20451538 1.6908891
-0.26879048 -0.20119049 1.6900001
0.053114288 -0.20601906 1.6900001
0.067600012 -0.20440954 1.6900003
0.075558573 -0.2052543 1.697
0.74679661 -0.20537715 1.6980002
0.75540447 -0.204822 1.6958183
0.76148957 -0.20812002 1.694
-0.27502415 -0.19644254 1.6953335
-0.26798573 -0.19394763 1.6900001
0.059552386 -0.19314286 1.6900001
0.066474766 -0.19457859 1.6920002
0.074388579 -0.1956743 1.6980002
0.7474435 -0.19502746 1.6980002
0.75562799 -0.19536829 1.6953335
0.76774293 -0.19797145 1.6900001
-0.27407584 -0.18497716 1.6948
-0.26750287 -0.18573907 1.6900002
0.059552386 -0.18509525 1.6900001
0.066169113 -0.18558034 1.6944444
0.074065149 -0.1866183 1.6980002
0.74873722 -0.18597144 1.6980002
0.75503242 -0.18553334 1.6940001
0.7613048 -0.18509525 1.6900001
-0.2756443 -0.17555286 1.6949999
-0.26879048 -0.17543811 1.6900001
0.058747623 -0.17543811 1.6900001
0.066269845 -0.17617461 1.6971111
0.07277143 -0.17950287 1.6980001
0.74873722 -0.17626858 1.6980002
0.75503242 -0.17585334 1.6940001
-0.27623746 -0.16503154 1.6943637
-0.26879048 -0.16578096 1.6900001
0.059552386 -0.16900001 1.6900001
0.066505909 -0.16560648 1.6948
0.073849529 -0.16117525 1.6980002
0.74873722 -0.16333145 1.6980002
0.75457549 -0.16551636 1.6949233
-0.28300002 -0.15686287 1.6980001
-0.27572286 -0.15478572 1.6930001
-0.26798573 -0.1569286 1.6900001
0.059552386 -0.15612382 1.6900001
0.065629058 -0.15581381 1.6910002
0.074388579 -0.15362859 1.6980002
0.7474435 -0.15298174 1.6980002
0.75507975 -0.15453596 1.6950911
0.76291436 -0.1545143 1.6900001
0.83663052 -0.15548001 1.6900002
0.84607309 -0.15505081 1.6900003
0.85304761 -0.15612383 1.6900003
-0.27484843 -0.14467087 1.6916002
0.05826477 -0.14260383 1.6900002
0.066124454 -0.14513843 1.6933335
0.074388579 -0.14392573 1.6980002
0.74792862 -0.14473429 1.6980001
0.75303239 -0.14409487 1.6924002
0.7613048 -0.14968573 1.6900001
0.83695245 -0.14485715 1.6900003
0.84500003 -0.14485715 1.6900004
0.85304761 -0.14485715 1.6900003
-0.2746833 -0.13423103 1.6922859
-0.26879048 -0.13037144 1.6900001
0.05826477 -0.13423429 1.6900002
0.066169105 -0.13394351 1.6944444
0.073580004 -0.13503143 1.6980001
0.74866003 -0.13326001 1.6960001
0.75316828 -0.13478559 1.6934286
0.83695245 -0.13359049 1.6900003
0.84500009 -0.13359049 1.6900003
0.85251117 -0.13573653 1.6900001
-0.27531856 -0.12375097 1.6930001
-0.26798573 -0.1247381 1.6900001
0.057942864 -0.12393335 1.6900003
0.06620381 -0.12432446 1.6953332
0.074065149 -0.12387315 1.6980002
0.74863434 -0.12647557 1.6953334
0.75288522 -0.12314859 1.694
0.82890481 -0.12071429 1.6900001
0.83626264 -0.12347348 1.6900003
0.8445977 -0.12393333 1.6900003
0.85143816 -0.12071429 1.6900001
-0.27552149 -0.11439642 1.6917779
-0.26879048 -0.1142762 1.6900001
0.05794286 -0.1142762 1.6900003
0.06620381 -0.11463683 1.6953332
0.074388579 -0.11481716 1.6980002
0.7553733 -0.11451832 1.6935556
0.7629143 -0.11105715 1.6900001
0.82890481 -0.1142762 1.6900001
0.83534288 -0.1142762 1.6900003
0.84500003 -0.11427621 1.6900003
0.85143822 -0.11427619 1.6900001
-0.28300002 -0.10673144 1.6980001
-0.27537507 -0.10467239 1.6908891
-0.26879048 -0.10140001 1.6900001
0.057293337 -0.10422777 1.6911432
0.065861434 -0.10545477 1.697
0.07277143 -0.10673144 1.6980001
0.75778294 -0.10548826 1.6953335
0.76273721 -0.1046898 1.6911432
0.81683338 -0.1038143 1.6900001
0.82608819 -0.10421667 1.6900003
0.83494049 -0.10461906 1.6900003
0.8443867 -0.10514525 1.6920002
0.853737 -0.10397797 1.6945714
-0.27547956 -0.095587149 1.694
-0.26718098 -0.094961911 1.6900003
0.049895242 -0.091742866 1.6900001
0.056804292 -0.094668098 1.6920002
0.065378785 -0.095411435 1.6980002
0.75844014 -0.095411442 1.6980002
0.76330191 -0.095213331 1.6944444
0.81683338 -0.094157152 1.6900001
0.825055 -0.09468817 1.6934286
0.83562523 -0.095359795 1.6971111
0.84532297 -0.095359795 1.6971111
0.85505903 -0.095186681 1.6940001
-0.27275813 -0.085708573 1.6980002
-0.26557145 -0.084660962 1.6900002
0.049895242 -0.088523813 1.6900001
0.056839526 -0.085862391 1.6930001
0.065898575 -0.08530429 1.6980001
0.07277143 -0.084091432 1.6980001
0.75844008 -0.087325722 1.6980001
0.76338565 -0.085142866 1.6932003
0.77096194 -0.082085721 1.6900001
0.80765909 -0.085948579 1.6900002
0.8164798 -0.085126802 1.6957144
0.82636005 -0.085708588 1.6980001
0.83606291 -0.085708573 1.6980001
0.84576577 -0.085708573 1.6980001
0.85304528 -0.085104287 1.694
-0.27087143 -0.076814286 1.6980001
-0.26396194 -0.07564763 1.6900003
-0.25913334 -0.074038103 1.6900001
0.057253066 -0.07564763 1.6900003
0.066302858 -0.076005727 1.6980001
0.07277143 -0.079240002 1.6980001
0.76302522 -0.075755052 1.6924002
0.77096194 -0.075647622 1.6900001
0.80556673 -0.07484287 1.6900001
0.81665719 -0.07600572 1.6980001
0.82636005 -0.076005727 1.6980001
0.83606291 -0.076410003 1.6980001
0.84576583 -0.07600572 1.6980001
0.8544957 -0.076184385 1.6948003
-0.27006286 -0.066302866 1.6980002
-0.26396197 -0.065990485 1.6900003
0.05826477 -0.06663429 1.6900002
0.066236831 -0.06623514 1.6962222
0.07277143 -0.063068576 1.6980001
0.75714636 -0.065655999 1.6980002
0.76443702 -0.065868236 1.6943637
0.77096194 -0.065990485 1.6900001
0.80798101 -0.065990478 1.6900001
0.8175813 -0.066764906 1.6980002
0.82636005 -0.066302866 1.6980001
0.8367098 -0.066949718 1.6980002
0.84576577 -0.066302858 1.6980001
0.85590643 -0.065953434 1.6965456
-0.27006286 -0.05983429 1.6980001
-0.26458859 -0.054847624 1.694
-0.25913334 -0.059552386 1.6900001
0.057253063 -0.056793205 1.6900003
0.066253342 -0.054939687 1.6966667
0.75628382 -0.055521917 1.6980001
0.76499301 -0.055216387 1.6953336
0.77310801 -0.055260323 1.6900003
0.80959052 -0.059552386 1.6900001
0.81667048 -0.054818098 1.6930001
0.82636005 -0.056240637 1.6980001
0.83929718 -0.05983429 1.6980001
0.84684384 -0.055521913 1.6980001
0.85472536 -0.055724766 1.6960001
-0.26500446 -0.043631118 1.6966667
-0.25806034 -0.045066677 1.6900003
0.049895242 -0.040238097 1.6900001
0.056625985 -0.044627711 1.6900004
0.066302858 -0.044067144 1.6980001
0.75520575 -0.046897147 1.6980001
0.76607144 -0.044846192 1.697
0.77450383 -0.045220956 1.6960001
0.78236699 -0.043840766 1.6924002
0.79188579 -0.043457143 1.6900001
0.80798101 -0.040238097 1.6900001
0.81699175 -0.043591753 1.6953335
0.82312578 -0.04204572 1.6980001
0.84770632 -0.044309717 1.6980002
0.85223925 -0.043085448 1.6934286
-0.27006286 -0.033960003 1.6980001
-0.26521146 -0.033960003 1.6980002
-0.25913334 -0.033800006 1.6900001
0.049895242 -0.035409525 1.6900001
0.05673572 -0.034202382 1.6900003
