# .PCD v0.7 - Point Cloud Data file format
VERSION 0.7
FIELDS x y z
SIZE 4 4 4
TYPE F F F
COUNT 1 1 1
WIDTH 284
HEIGHT 1
VIEWPOINT 0 0 0 1 0 0 0
POINTS 284
DATA ascii
-0.10591668 -0.068331912 0.71750003
-0.10073036 -0.068746231 0.71753335
-0.094459653 -0.068543218 0.71612501
-0.1065362 -0.062709734 0.7165556
-0.1008314 -0.063363291 0.71536666
-0.093240738 -0.063452452 0.7146154
-0.086850449 -0.062875554 0.71647614
-0.10629918 -0.057157267 0.71662503
-0.10149737 -0.055920899 0.7145862
-0.093857028 -0.056451123 0.71413344
-0.086067341 -0.055968575 0.71639389
-0.10120664 -0.048514146 0.71674067
-0.093683168 -0.049141154 0.7143237
-0.08590699 -0.048479054 0.71499991
-0.10706954 -0.039585203 0.7177273
-0.10132936 -0.041760176 0.71618509
-0.09365429 -0.041359998 0.7144286
-0.085787646 -0.04125154 0.71648479
-0.078912154 -0.040370081 0.71841663
-0.074296668 -0.038689051 0.71900004
-0.11298572 -0.035607621 0.71900004
-0.10826702 -0.033769011 0.71699995
-0.10111117 -0.033865981 0.71515161
-0.093601972 -0.034209296 0.71454567
-0.086311683 -0.033761341 0.71473342
-0.078784086 -0.033383884 0.71535712
-0.073111624 -0.033482417 0.71746665
-0.10671462 -0.025511747 0.71750009
-0.10115088 -0.025974153 0.71763873
-0.094157606 -0.027388291 0.71794111
-0.085943095 -0.026033109 0.71717644
-0.078345403 -0.025886476 0.71533322
-0.072741278 -0.025808573 0.71766663
-0.11572477 -0.015749525 0.71900004
-0.10861784 -0.01833974 0.71809083
-0.10085028 -0.018399904 0.71549994
-0.093776591 -0.017752066 0.71873331
-0.086119339 -0.018453047 0.71763325
-0.078496993 -0.018429335 0.71671993
-0.0734808 -0.01897723 0.71863633
-0.11504 -0.014380001 0.71900004
-0.10822216 -0.011402776 0.71899998
-0.10100486 -0.01091786 0.71658307
-0.093559816 -0.010930032 0.71706659
-0.08602374 -0.010923308 0.71686089
-0.078487568 -0.011038559 0.71662062
-0.074500643 -0.010938413 0.71766675
-0.10110773 -0.0035141555 0.7181378
-0.093485802 -0.0036488618 0.71695644
-0.085831463 -0.003670688 0.71799994
-0.078767903 -0.0038132153 0.71762502
-0.074296668 -0.005135715 0.71900004
-0.1061381 0.00068476197 0.71900004
-0.10085566 0.0017608168 0.71899998
-0.096551433 0.00068476197 0.71900004
-0.085771181 0.0035477069 0.71890903
-0.080117151 0.0018260321 0.71900004
-0.092271678 0.010956192 0.71899992
-0.087567121 0.010380779 0.7178182
-0.091529846 0.016206034 0.71900004
-0.088676676 0.016091906 0.71900004
-0.11387277 -0.069042288 0.72640008
-0.10941096 -0.068809055 0.72250003
-0.08465334 -0.068137154 0.72266674
-0.07946869 -0.068759695 0.72277784
-0.074950479 -0.068074293 0.72200006
-0.11511506 -0.063250527 0.72611541
-0.10973629 -0.064591177 0.72218186
-0.084394075 -0.065183498 0.72044456
-0.078321442 -0.063596033 0.72203213
-0.073995478 -0.063669764 0.72275007
-0.11563642 -0.056084719 0.72703993
-0.10962727 -0.055885598 0.72337502
-0.082971431 -0.057600003 0.72000003
-0.078830592 -0.056254949 0.72256255
-0.12011144 -0.045822859 0.72900003
-0.11545843 -0.049009245 0.72743481
-0.10885838 -0.048916675 0.72340012
-0.10491429 -0.04731429 0.72000003
-0.078487486 -0.048908837 0.72186208
-0.072050311 -0.047892559 0.72481251
-0.12187953 -0.04209286 0.72850007
-0.11621653 -0.041345656 0.72346669
-0.11006239 -0.041904818 0.72127789
-0.077942863 -0.043885719 0.72000003
-0.071007334 -0.041490421 0.72081244
-0.064534843 -0.040011127 0.72378951
-0.12227273 -0.03236381 0.72309095
-0.11619536 -0.033441413 0.72043496
-0.1113143 -0.031314291 0.72000003
-0.069421597 -0.033679876 0.72173345
-0.063760549 -0.033979125 0.72492868
-0.12844287 -0.028465716 0.72900003
-0.12389993 -0.026300479 0.72676677
-0.11627342 -0.026143432 0.72240001
-0.11048704 -0.026401112 0.72105569
-0.093329966 -0.024215827 0.72015405
-0.088457152 -0.024685716 0.72000003
-0.069084205 -0.026326988 0.72106683
-0.063521713 -0.02609962 0.72391421
-0.12826668 -0.015946668 0.72800004
-0.12359592 -0.018620247 0.72639126
-0.11600148 -0.0186479 0.72070849
-0.10994287 -0.019428574 0.72000003
-0.093942873 -0.019611431 0.72000009
-0.069978952 -0.018225566 0.72000015
-0.063532948 -0.018662531 0.72386211
-0.1283724 -0.01179562 0.72860008
-0.12399358 -0.011091746 0.72800004
-0.11627705 -0.010754185 0.72210717
-0.11118369 -0.0095020421 0.72000003
-0.070705339 -0.010981715 0.72080004
-0.064277045 -0.011120034 0.72353578
-0.12191302 -0.0037748152 0.72777784
-0.11663376 -0.0034505145 0.72464013
-0.10915093 -0.0034332948 0.7208001
-0.10491429 -0.0006857143 0.72000003
-0.09462858 -0.0006857143 0.72000003
-0.089371443 -0.0011428572 0.72000003
-0.076800004 -0.0006857143 0.72000003
-0.070993997 -0.0031732603 0.72161543
-0.064153343 -0.0033010261 0.72676927
-0.12150001 0.0041657146 0.72900003
-0.11653949 0.0034477329 0.72404003
-0.1093208 0.0035495237 0.72116679
-0.1019143 0.004885714 0.72000015
-0.093828574 0.003542857 0.72000015
-0.087771446 0.0030857145 0.72000003
-0.07845746 0.0039353385 0.72031593
-0.071432106 0.0034351428 0.72123325
-0.064436749 0.00317381 0.72691667
-0.12195506 0.011653335 0.72840011
-0.11655373 0.01103435 0.72413325
-0.10879904 0.011105876 0.7223714
-0.10102329 0.010873363 0.72064507
-0.095744506 0.010975784 0.72028583
-0.084146947 0.011853063 0.72000015
-0.078878678 0.010975178 0.7202
-0.071619995 0.011022381 0.72316676
-0.065042101 0.010818382 0.7281
-0.12217864 0.017960848 0.72844452
-0.1163346 0.01880677 0.72553569
-0.10841203 0.018439967 0.72299993
-0.10130417 0.018607771 0.72359991
-0.094399661 0.018855155 0.72109109
-0.086111873 0.018902639 0.72069252
-0.078545541 0.018672151 0.72237933
-0.071375407 0.018336976 0.72704351
-0.065151565 0.017551837 0.72885722
-0.11509706 0.023880286 0.72890007
-0.10863685 0.025945865 0.72869235
-0.10166015 0.026280832 0.72613347
-0.093790203 0.026204605 0.72411114
-0.086117826 0.026346995 0.72559381
-0.078612782 0.026191371 0.72594112
-0.071899392 0.026556382 0.72843999
-0.11424858 0.034174286 0.72900003
-0.10868032 0.034214869 0.72804344
-0.10161943 0.033871081 0.72584003
-0.093742415 0.033775117 0.72373331
-0.086263552 0.033816226 0.72463995
-0.07883697 0.033885527 0.72613335
-0.071627535 0.033607539 0.72827274
-0.067345716 0.031937145 0.72900003
-0.11316858 0.038880002 0.72900003
-0.10803805 0.040022925 0.72873336
-0.10151866 0.041115068 0.72622216
-0.094059654 0.041355219 0.72542864
-0.086331725 0.040933121 0.72653848
-0.078971863 0.041017335 0.72677416
-0.0742682 0.040952384 0.72880006
-0.10044591 0.048452932 0.72842103
-0.09373714 0.048629951 0.72735989
-0.086325251 0.048743598 0.72830319
-0.078640752 0.048038553 0.72788894
-0.090951435 0.054154288 0.72900003
-0.08633174 0.054297592 0.7287693
-0.080731444 0.053898416 0.72866672
-0.12183334 -0.046296671 0.73100001
-0.11904858 -0.050821908 0.73100001
-0.13018763 -0.031328574 0.73100001
-0.12983954 -0.027847623 0.73100001
-0.059257146 -0.023005717 0.73200005
-0.060568575 -0.017404763 0.73100001
-0.05851201 -0.018806288 0.73139995
-0.1307683 -0.0098962858 0.73189998
-0.12508222 -0.011139048 0.73100007
-0.060966402 -0.01064177 0.73100007
-0.058721773 -0.011707349 0.73528582
-0.13546763 -0.0056152386 0.73700005
-0.13036494 -0.0037331271 0.73300022
-0.12521829 -0.0032300435 0.73154545
-0.06091667 -0.0045252382 0.73100001
-0.057603471 -0.0027935379 0.73378581
-0.052214291 -0.001392381 0.73100001
-0.12923861 0.0035044446 0.73550004
-0.12468047 0.0033139288 0.73237509
-0.061032705 0.0046412703 0.73100007
-0.057493575 0.0013961906 0.73399997
-0.1292944 0.010141646 0.73672742
-0.12526165 0.010760953 0.73242873
-0.062493932 0.011489524 0.731125
-0.1293602 0.020692 0.73900002
-0.12513855 0.019452298 0.7318182
-0.070593722 0.020746477 0.73100001
-0.063343443 0.019014377 0.73166674
-0.058999527 0.018962383 0.73750001
-0.12919934 0.025638778 0.73900002
-0.1235122 0.026160955 0.73359269
-0.11670597 0.027714241 0.73115003
-0.11139049 0.029240003 0.73100001
-0.068416543 0.02601221 0.73100007
-0.063651815 0.026129633 0.73270398
-0.059040196 0.026005715 0.73799998
-0.12928145 0.033243336 0.73874998
-0.12409026 0.033862047 0.73521441
-0.11732274 0.034056429 0.73162502
-0.11139049 0.031328574 0.73100001
-0.068922862 0.036201909 0.73100007
-0.063539796 0.033828396 0.73381495
-0.058885403 0.03307905 0.73900002
-0.12285902 0.041369259 0.73761123
-0.11648628 0.041153654 0.73238105
-0.11070963 0.042473625 0.73110002
-0.070345335 0.04109383 0.73132008
-0.063855082 0.041214522 0.7355001
-0.1219433 0.048115384 0.73828584
-0.11565671 0.048438177 0.7346155
-0.10841771 0.048844922 0.73265636
-0.10305953 0.050833501 0.73116672
-0.093985721 0.052214291 0.73100007
-0.077999286 0.05223215 0.73124999
-0.071103893 0.048799079 0.73197234
-0.065306433 0.04865298 0.73637509
-0.12055252 0.056003138 0.73900002
-0.11641928 0.056212049 0.73578274
-0.10862097 0.05639948 0.73110032
-0.10102457 0.05643509 0.73156011
-0.09427309 0.056600712 0.73134798
-0.086129971 0.057870485 0.73105884
-0.078410998 0.056750912 0.73154557
-0.071318425 0.056639876 0.7342
-0.065987542 0.056534898 0.73781824
-0.13212001 0.06361334 0.73400003
-0.12035143 0.061935242 0.73900002
-0.11556164 0.063556015 0.73700023
-0.1083134 0.063592859 0.73372
-0.10112454 0.06346564 0.73228002
-0.094012327 0.063589014 0.73246169
-0.086310148 0.063332669 0.73186237
-0.07865902 0.063585818 0.73242325
-0.071369492 0.063688293 0.73596555
-0.066121921 0.064013153 0.73859996
-0.10155722 0.07073918 0.73540002
-0.093614623 0.070745334 0.73406446
-0.085926436 0.071056969 0.73268974
-0.078417793 0.070721924 0.73520017
-0.070963189 0.070966229 0.73776013
-0.066861913 0.068973333 0.73900002
-0.13515525 0.021936191 0.74300003
-0.13267525 0.021877144 0.74100006
-0.1322466 0.026295414 0.74254549
-0.13168065 0.033030476 0.74333334
-0.061314289 0.03312381 0.74000001
-0.059552383 0.03312381 0.74000001
-0.13019319 0.04096251 0.74357897
-0.12592787 0.043035477 0.74075001
-0.060892861 0.044610001 0.74349999
-0.12899461 0.049122706 0.7421667
-0.12550554 0.04960705 0.74200004
-0.061422735 0.048715435 0.74133325
-0.058066983 0.049715031 0.74455559
-0.12898003 0.056161307 0.74300003
-0.12423012 0.05624735 0.74133325
-0.062412888 0.056145307 0.74352378
-0.057773121 0.055808138 0.746077
-0.13021658 0.063444205 0.74429995
-0.12424525 0.064232484 0.74307996
-0.11816509 0.066482544 0.74000001
-0.062210567 0.063873164 0.74343473
-0.058719844 0.064871281 0.7458334
-0.063365348 0.07155031 0.74225003
-0.058260001 0.070289217 0.74300003
-0.056636475 0.064409666 0.75142854
