# .PCD v0.7 - Point Cloud Data file format
VERSION 0.7
FIELDS x y z
SIZE 4 4 4
TYPE F F F
COUNT 1 1 1
WIDTH 317
HEIGHT 1
VIEWPOINT 0 0 0 1 0 0 0
POINTS 317
DATA ascii
-0.016086668 -0.10583334 0.88900006
-0.013516191 -0.10559525 0.88700002
-0.016086668 -0.10160001 0.88900006
-0.011276297 -0.10120235 0.88800001
-0.003386667 -0.10075334 0.88900006
0.00084666675 -0.10244668 0.88900006
-0.009964617 -0.095152311 0.88900006
-0.003386667 -0.094826669 0.889
0.003191282 -0.094240524 0.88900006
-0.0098777786 -0.084948905 0.88900006
-0.0039254548 -0.085513338 0.88900006
-0.0098777795 -0.078834072 0.88900006
-0.0034312285 -0.07856176 0.88900006
0.00084666675 -0.077046677 0.88900012
-0.016086668 -0.068580002 0.88900006
-0.0099906679 -0.070950679 0.88900006
-0.003628572 -0.07148286 0.88900006
0.0042333337 -0.070781343 0.88900006
0.0091016665 -0.070061669 0.889
-0.016086668 -0.06519334 0.88900012
-0.010712175 -0.063720867 0.88900006
-0.0038946669 -0.062484004 0.88900006
0.0045155566 -0.062935561 0.88900006
0.0083457148 -0.064709529 0.88900006
-0.0093133338 -0.056914821 0.88900006
-0.003265715 -0.055759057 0.88900006
0.003386667 -0.053340003 0.88900006
-0.0076200003 -0.049106669 0.88900006
-0.0047977786 -0.049388893 0.88900006
0.0042333337 -0.044873338 0.88900012
-0.0076200003 -0.034713335 0.88900006
0.00084666675 -0.033020001 0.88900006
0.0042622229 -0.10658731 0.89533341
0.0076971436 -0.10604953 0.89800006
-0.025453335 -0.1009572 0.89611763
-0.01938298 -0.10116287 0.89450002
-0.014425715 -0.097585723 0.89100003
0.0036828576 -0.10118952 0.89200002
0.0094013866 -0.10029213 0.89727277
-0.024991961 -0.094741382 0.89800006
-0.01861302 -0.09407118 0.89633334
-0.01196156 -0.092522085 0.89127266
-0.0033942861 -0.090797149 0.89100003
0.0033942859 -0.090797149 0.89100003
0.011092667 -0.093833916 0.89569998
-0.02309143 -0.086379051 0.89800006
-0.017933208 -0.086238489 0.89653337
-0.011978703 -0.087844163 0.89236367
-0.0022062859 -0.088421158 0.89099997
0.0035487397 -0.086371943 0.89170581
0.010252699 -0.08608254 0.89688885
0.017389843 -0.083528265 0.89800012
-0.024772912 -0.077731229 0.89688897
-0.01875161 -0.078404941 0.89481246
-0.013947757 -0.078711845 0.89142859
-0.0025457144 -0.082311437 0.89100003
0.0037137503 -0.079040192 0.89118737
0.011089811 -0.078463718 0.8955
0.018218094 -0.078281604 0.89666671
0.023040002 -0.075946674 0.89600003
-0.031643812 -0.067563817 0.89800006
-0.026269725 -0.071255699 0.89573687
-0.018877337 -0.071594678 0.89279997
-0.014086287 -0.071789153 0.89099997
-0.001697143 -0.068734288 0.89100003
0.0019800002 -0.071845725 0.89099997
0.012336986 -0.072177626 0.89333338
0.01898106 -0.071266778 0.89677769
0.02416048 -0.071412392 0.89800012
-0.031643812 -0.063287623 0.89800006
-0.026238693 -0.063671157 0.8933751
-0.019128405 -0.063380517 0.89152932
-0.014425715 -0.061097145 0.89100003
-0.002885143 -0.064661153 0.89099991
0.0017 -0.064602859 0.89250004
0.012091854 -0.063280001 0.89255553
0.018443028 -0.063664772 0.89694113
0.026084766 -0.063287623 0.89800012
-0.031643812 -0.056445718 0.89800006
-0.026409624 -0.056218293 0.89440012
-0.01871518 -0.056141615 0.89318746
-0.012428832 -0.055190396 0.89154541
-0.0042428575 -0.056854289 0.89100003
0.0033942859 -0.056854285 0.89099991
0.011069904 -0.056181718 0.89379996
0.018790713 -0.05636739 0.89674997
-0.031643812 -0.048748579 0.89800006
-0.026458969 -0.048647165 0.89616001
-0.018775716 -0.048643149 0.89610004
-0.011903619 -0.048453052 0.89260006
-0.0015759185 -0.048853476 0.89099997
0.0033942859 -0.049217146 0.89099985
0.011076306 -0.048554562 0.89444011
0.01880019 -0.048704766 0.89719993
0.027367622 -0.045327622 0.89800006
-0.025934609 -0.041552383 0.89773333
-0.018800242 -0.04101738 0.89724994
-0.010895374 -0.041011561 0.89271426
-0.0033947148 -0.041600145 0.89144993
0.0032536138 -0.041078493 0.89311767
0.011089429 -0.040937241 0.8955
0.018807026 -0.041035116 0.89762497
0.026227305 -0.040766347 0.898
0.031643815 -0.04190667 0.89800012
-0.024797622 -0.034202699 0.89783335
-0.018786432 -0.034151189 0.89649999
-0.011241855 -0.033988725 0.89342105
-0.0034087501 -0.034086373 0.89481252
0.0035754924 -0.034088511 0.89333344
0.011075001 -0.034069385 0.89435005
0.01876631 -0.034117028 0.895625
0.026502099 -0.034707051 0.8976
-0.024588099 -0.028222859 0.89800012
-0.018756418 -0.027001124 0.89752936
-0.01109463 -0.026455386 0.8960799
-0.0034117145 -0.026445433 0.89569998
0.0034126674 -0.026450384 0.89589995
0.011091126 -0.026445637 0.89576
0.018353503 -0.026799219 0.89752936
0.024801906 -0.028222859 0.89800006
-0.016249524 -0.01881524 0.89800006
-0.01109562 -0.018772952 0.89600009
-0.0034090478 -0.018756907 0.89524996
0.0034158342 -0.018780835 0.89637494
0.010937144 -0.018947775 0.89789474
-0.010952729 -0.011029438 0.89709103
-0.003414762 -0.011095908 0.89629996
0.0034180004 -0.011105622 0.8969
0.0096345413 -0.011230733 0.89786667
-0.0094019063 -0.0048419051 0.89733338
-0.0025653974 -0.0034190479 0.89766669
0.0034180954 -0.0034164288 0.89724994
0.0087661911 -0.0038485718 0.89800012
-0.0022236193 0.0015394287 0.89800006
0.0033259264 0.0019955556 0.89800006
0.0076971436 0.00085523818 0.89800006
-0.016249524 0.0094076199 0.89800006
0.012626032 -0.1064327 0.90366668
0.013263176 -0.10199906 0.90166676
-0.030033335 -0.096964769 0.90100002
-0.02630035 -0.092320956 0.90136367
-0.021452382 -0.090958104 0.90100002
0.011155238 -0.090100005 0.90100002
0.016376192 -0.090500005 0.90500003
-0.025943559 -0.085841089 0.90193331
-0.021452382 -0.085809529 0.90100002
0.013740318 -0.086733028 0.90166676
0.016327938 -0.086798422 0.90233338
-0.032567829 -0.078523614 0.90321428
-0.026855104 -0.080073886 0.90128577
0.020594288 -0.078086674 0.90100002
-0.039865851 -0.069980413 0.90714294
-0.034079961 -0.071714245 0.90204769
0.025881771 -0.069797151 0.90157151
-0.040495247 -0.063758105 0.90466666
-0.035209209 -0.063546047 0.90166676
0.021452382 -0.064357147 0.90100002
0.025838204 -0.063403703 0.90100002
0.030033335 -0.062640958 0.90100002
-0.040505797 -0.056549896 0.90492308
-0.035209209 -0.056676194 0.90166676
0.025750717 -0.056649521 0.90125
0.031140238 -0.056909766 0.90200001
-0.040437084 -0.048795175 0.90335715
-0.03519829 -0.048933908 0.90140003
0.025565505 -0.049318001 0.90144444
0.030060003 -0.04895715 0.9018001
-0.04032347 -0.041575938 0.90436363
-0.033890057 -0.041047413 0.90211105
-0.027173018 -0.039758414 0.90100002
0.028317144 -0.043762859 0.90100002
0.030033335 -0.043762859 0.90100002
-0.039668046 -0.033519898 0.90766674
-0.033539627 -0.033536118 0.90292001
-0.028317144 -0.033465721 0.90100002
0.024922859 -0.03151048 0.90233344
0.030100003 -0.030100003 0.90300006
-0.039779052 -0.027672384 0.90800005
-0.033596098 -0.025837431 0.90439999
-0.026288919 -0.025040779 0.90100002
-0.019164128 -0.023740638 0.90100002
0.021452382 -0.024884766 0.90100002
0.02591867 -0.025689846 0.90113342
0.030055558 -0.026049843 0.90166676
-0.033674572 -0.018993048 0.90650004
-0.025754645 -0.018885834 0.901375
-0.019736191 -0.018878095 0.90100002
0.01458762 -0.016303811 0.90100002
0.018892501 -0.018890359 0.90162498
0.025826076 -0.0189375 0.90387499
0.031037623 -0.018964048 0.90525013
-0.042303339 -0.0086319055 0.90650004
-0.03126381 -0.011916001 0.90680009
-0.025806809 -0.011179381 0.90315002
-0.01889162 -0.011162668 0.90160006
-0.012299366 -0.011727302 0.90100002
0.013386287 -0.01098362 0.90100002
0.018914286 -0.011173523 0.90260011
0.025902573 -0.01122162 0.90650016
0.030760821 -0.010500683 0.90800011
-0.042949848 -0.0043238099 0.90800011
-0.030266669 -0.0051885718 0.90800005
-0.025860952 -0.0034471434 0.90499997
-0.018908452 -0.003437262 0.90237498
-0.011461459 -0.0031808966 0.90123528
-0.0060066669 -0.0034323812 0.90100002
0.012749366 -0.003150159 0.90233326
0.01899131 -0.0034508337 0.90625
0.026009377 -0.0037916484 0.90800011
0.032342102 -0.0019024763 0.90800011
-0.030266669 0.0025942861 0.90800011
-0.025883041 0.0034516072 0.90581244
-0.018934643 0.0034436907 0.90362495
-0.011173143 0.0034375244 0.90240002
-0.0039784415 0.0042904769 0.90100002
0.0035549665 0.0052711572 0.90100008
0.011370778 0.0035788978 0.90352631
0.019010479 0.0034558335 0.90725005
0.025078097 0.0029401907 0.90800011
0.030266669 0.0025942859 0.90800005
-0.025604127 0.010932171 0.90611106
-0.019039551 0.011260103 0.90215796
-0.011157753 0.011157297 0.90124023
-0.003436571 0.011175239 0.90240002
0.0034408574 0.011184095 0.90309995
0.011210782 0.011210248 0.90532017
0.01857738 0.010586191 0.90724999
0.024213336 0.0086476197 0.90800005
-0.024325853 0.018152246 0.90757155
-0.018948395 0.018947678 0.9041875
-0.011176572 0.018916763 0.90280002
-0.0034416672 0.018935237 0.90374994
0.0034441671 0.01893774 0.90387493
0.011218763 0.018981051 0.9059
0.017006984 0.018448256 0.90800011
-0.018135874 0.025905399 0.9066667
-0.011202193 0.025852958 0.90480006
-0.0034450004 0.025843576 0.90449989
0.0034469049 0.025850713 0.90474993
0.011219763 0.02588786 0.90605003
0.016776381 0.025424004 0.90800011
-0.016691588 0.033096354 0.9065001
-0.011204763 0.033614278 0.90500015
-0.0034477622 0.033620138 0.90515006
0.0034547623 0.033683714 0.90680009
0.011240875 0.033721711 0.90788031
0.017171701 0.032490343 0.90800011
-0.016430477 0.041508574 0.90800005
-0.011223334 0.041442852 0.90650004
-0.0036278102 0.041416258 0.90720004
0.0025942861 0.038914289 0.90800011
0.011241905 0.038914289 0.90800005
-0.0077828579 0.047561906 0.90800005
-0.0047561908 0.046264768 0.90800005
-0.040733337 -0.071933337 0.91000003
-0.039866671 -0.024266668 0.91000003
-0.039917029 -0.01908917 0.911125
-0.040593263 -0.01170403 0.91276926
-0.035433784 -0.010807874 0.91039997
0.032066669 -0.011266667 0.91000003
-0.040207941 -0.003759471 0.91122216
-0.034257095 -0.0032815342 0.91183335
0.025711112 -0.0020222226 0.91000003
0.03354723 -0.0043394445 0.91091669
-0.039510667 0.0029609527 0.91380006
-0.034461007 0.0036244816 0.91123527
0.026411086 0.0037061474 0.91054547
0.030400001 0.0037669844 0.91200006
-0.038689211 0.0090187304 0.91633338
-0.033253744 0.011140544 0.91300005
-0.028600002 0.013866668 0.91000003
0.020800002 0.013866668 0.91000003
0.026477445 0.011935893 0.91143751
0.031907622 0.011603335 0.91366667
-0.038426667 0.020086668 0.917
-0.033089757 0.019155238 0.91425002
-0.027251856 0.01974074 0.90999997
0.020293718 0.019427622 0.91060001
0.026093753 0.019135417 0.9131875
0.031114286 0.018612381 0.91600007
-0.039257146 0.026169525 0.91600007
-0.033968478 0.026129434 0.91450018
-0.026021255 0.02602054 0.91068745
-0.021666668 0.026000001 0.91000003
0.020134808 0.026290653 0.9119091
0.02615631 0.026155123 0.91537499
0.030566668 0.0262 0.91700006
-0.03968776 0.034211844 0.91442859
-0.033993714 0.033992805 0.91524023
-0.026075481 0.033894524 0.91254997
-0.020057147 0.034047626 0.90999997
0.020105131 0.034526967 0.91161543
0.026030758 0.033421684 0.9164117
0.030566668 0.032313336 0.91700006
-0.038426667 0.040173337 0.91700006
-0.032655999 0.040863436 0.91679996
-0.026140179 0.041822203 0.91481251
-0.019967146 0.041670956 0.91149998
-0.00086666673 0.04246667 0.91000003
0.003666667 0.042200007 0.90999997
0.011277945 0.041774593 0.91078937
0.019157978 0.04179715 0.91425002
0.026196511 0.041041486 0.91688877
-0.038552381 0.013142858 0.92000002
-0.039428573 0.018400002 0.92000002
-0.041180953 0.026285715 0.92000002
-0.040321913 0.042427056 0.92040008
-0.034171432 0.043809529 0.92000002
0.036158096 0.070552379 0.92600006
0.03988497 0.070586331 0.92478591
0.071685314 0.062262453 0.9358573
0.028526668 0.073988572 0.93600005
0.03420794 0.073472701 0.93700004
0.028317148 0.077115245 0.93500006
0.033910479 0.076744765 0.93700016
0.031333335 0.074304767 0.94000006
0.034717716 0.080769151 0.94440001
