# .PCD v0.7 - Point Cloud Data file format
VERSION 0.7
FIELDS x y z
SIZE 4 4 4
TYPE F F F
COUNT 1 1 1
WIDTH 257
HEIGHT 1
VIEWPOINT 0 0 0 1 0 0 0
POINTS 257
DATA ascii
-0.10629382 -0.1224281 0.99650013
-0.10121763 -0.12202715 0.99325001
-0.092770487 -0.1214889 0.99400008
-0.086837821 -0.12124708 0.99571437
-0.079553336 -0.12184151 0.99614298
-0.10697888 -0.11542426 0.99563652
-0.10020241 -0.11566775 0.99311787
-0.093922056 -0.11633056 0.9930771
-0.087093338 -0.11549334 0.9940002
-0.079430126 -0.11523715 0.995875
-0.073113337 -0.11299334 0.99700004
-0.10539715 -0.11014477 0.99700004
-0.099842936 -0.10868707 0.99525017
-0.09384346 -0.10825796 0.99376941
-0.086958103 -0.10832572 0.9940002
-0.079671644 -0.10840008 0.99592859
-0.073531672 -0.10958644 0.99625003
-0.10634667 -0.097800955 0.99700004
-0.09976016 -0.10007381 0.99600005
-0.093720011 -0.10034667 0.99400014
-0.086914688 -0.10066117 0.99368429
-0.080014378 -0.10025659 0.99625009
-0.063618101 -0.097800955 0.99700004
-0.1067818 -0.093018696 0.99662513
-0.1004231 -0.093792155 0.9947502
-0.093720004 -0.093720011 0.99400002
-0.086452655 -0.093896069 0.99442881
-0.077928036 -0.093516737 0.99614286
-0.071214296 -0.0911543 0.9970001
-0.06551715 -0.094002865 0.99700004
-0.11299334 -0.085457146 0.99700004
-0.10803899 -0.08623831 0.99507159
-0.10121834 -0.08702834 0.99325013
-0.094521321 -0.08696226 0.99250013
-0.087093346 -0.087093338 0.9940002
-0.079520017 -0.087093331 0.9940002
-0.071776338 -0.085914947 0.99469244
-0.067416199 -0.085457146 0.99700004
-0.11299334 -0.080709532 0.99700004
-0.10808493 -0.078689374 0.99550015
-0.10093283 -0.079391584 0.99330783
-0.094361149 -0.079485595 0.99280018
-0.087093331 -0.079520017 0.9940002
-0.079604261 -0.079268463 0.99435312
-0.072164148 -0.078850545 0.99470609
-0.064708978 -0.077525169 0.99675006
-0.057920955 -0.075012386 0.99700004
-0.11299334 -0.06931524 0.99700004
-0.10792859 -0.071440518 0.99607706
-0.10053602 -0.071757346 0.99400026
-0.094009981 -0.072163805 0.9940002
-0.086398594 -0.071842 0.99463171
-0.078335389 -0.07209973 0.99614292
-0.071141914 -0.073354609 0.99600005
-0.065476581 -0.071929336 0.99640018
-0.057446197 -0.070739523 0.99700004
-0.11394286 -0.063618109 0.9970001
-0.10818483 -0.064532094 0.99643749
-0.10051686 -0.064481013 0.99568754
-0.092981905 -0.064517625 0.99625003
-0.085864097 -0.06443198 0.99699998
-0.1134681 -0.058395717 0.99700004
-0.10792922 -0.058553968 0.99700004
-0.10021793 -0.057920963 0.99700004
-0.09338668 -0.056882866 0.99550009
-0.08466588 -0.056496665 0.99699998
-0.078080088 -0.056314077 0.99699998
-0.073113337 -0.055072386 0.99700004
-0.073113337 -0.052223813 0.99700004
-0.10963335 -0.12298192 1.001
-0.078285716 -0.1224762 1
-0.073333338 -0.12095239 1
-0.11064334 -0.11636049 1.0015
-0.076190487 -0.11809525 1
-0.073333338 -0.11809525 1
-0.114715 -0.10706738 1.0037501
-0.10919369 -0.10850851 1.0019287
-0.10285715 -0.10666668 1
-0.077142864 -0.10723811 1
-0.072595239 -0.10603143 1.003
-0.12064 -0.099520013 1.0080001
-0.11553742 -0.10110382 1.0040911
-0.10900947 -0.1015126 1.0015001
-0.10333334 -0.10238096 1
-0.076326542 -0.10190477 1
-0.070807628 -0.10096686 1.0020001
-0.065714292 -0.098095246 1
-0.12209064 -0.093863681 1.0071429
-0.11644516 -0.093496963 1.0038003
-0.11066002 -0.09378273 1.0004287
-0.070158735 -0.094709009 1
-0.063308723 -0.092947558 1.0013847
-0.058269527 -0.090747625 1.003
-0.12313849 -0.086560383 1.0054001
-0.11737906 -0.085885726 1.0020001
-0.062982678 -0.085892685 1.0020626
-0.058443815 -0.086228579 1.006
-0.12294296 -0.078235462 1.0058888
-0.11659297 -0.078044765 1.0018002
-0.061411981 -0.079116195 1.0008572
-0.058211431 -0.079207622 1.0020001
-0.12306477 -0.070432961 1.0048002
-0.11680111 -0.070869118 1.0017145
-0.082857147 -0.067619056 1
-0.077568963 -0.06804058 1.0006001
-0.071265191 -0.069145612 1.0006667
-0.061960485 -0.069584668 1.0009
-0.056190483 -0.067619056 1
-0.12768 -0.060480002 1.008
-0.12325691 -0.063060716 1.0032501
-0.11772425 -0.063471332 1.0013335
-0.0904762 -0.060000002 1
-0.086031757 -0.061269846 1
-0.077919818 -0.063060768 1.0002
-0.070646726 -0.063011616 1.0024376
-0.063092142 -0.063091069 1.0037502
-0.055682488 -0.062954485 1.0046002
-0.11725058 -0.055519454 1.0022501
-0.10897961 -0.055102043 1
-0.10190477 -0.055047628 1
-0.092380963 -0.056190483 1
-0.088571437 -0.057142861 1
-0.069986485 -0.056448389 1.0012001
-0.063161075 -0.055508099 1.0048752
-0.055527322 -0.055524938 1.0051876
-0.050627623 -0.057314292 1.003
-0.12 -0.034560002 1.008
-0.11602683 -0.034519527 1.0068334
-0.11476605 -0.027491748 1.007
-0.10935856 -0.026858332 1.0072502
-0.10160761 -0.02683905 1.0065002
-0.093881682 -0.026821787 1.0058752
-0.086131789 -0.026795238 1.0048753
-0.078402922 -0.026771493 1.0039377
-0.07078696 -0.02678697 1.0044377
-0.066141434 -0.02684143 1.0065
-0.11505738 -0.019177383 1.00675
-0.1093456 -0.01918393 1.0071251
-0.10157567 -0.019166015 1.0061877
-0.093805671 -0.019145299 1.0050627
-0.086004652 -0.019112619 1.0033752
-0.078373641 -0.019114228 1.0035627
-0.070861906 -0.01915024 1.0055002
-0.066174291 -0.019179048 1.007
-0.1149981 -0.01192381 1.0074285
-0.10930526 -0.011504999 1.0067501
-0.1015253 -0.011494584 1.0056877
-0.093789041 -0.011483215 1.0048752
-0.085971437 -0.011462856 1.0030001
-0.078358106 -0.011466071 1.0033752
-0.071173847 -0.011574859 1.0072001
-0.066240005 -0.01152 1.008
-0.10880001 -0.0054400004 1.008
-0.10148072 -0.0040269843 1.0071336
-0.093976557 -0.0038348814 1.006875
-0.086052686 -0.00382256 1.0039377
-0.078358464 -0.003823095 1.0033752
-0.07089714 -0.0038339288 1.0060002
-0.065803438 -0.0032624768 1.0072001
-0.10118401 0.0017280001 1.008
-0.093668588 0.0017828573 1.008
-0.086162291 0.0036474925 1.0074669
-0.078580059 0.0038339882 1.0061877
-0.070907503 0.0038332148 1.0061252
-0.065661438 0.0023957144 1.0065
-0.092736006 0.011904 1.0080001
-0.086337388 0.011511191 1.0072502
-0.078592509 0.011502261 1.0063752
-0.071607627 0.010869524 1.0070002
-0.098880008 0.022080002 1.008
-0.093120009 0.019200005 1.0080001
-0.086077839 0.01877878 1.0074288
-0.078938015 0.018056279 1.0074546
-0.072000004 0.017760003 1.008
-0.098880015 0.025920002 1.0080001
-0.096000008 0.025920002 1.008
-0.083520003 0.024000002 1.008
-0.12853502 -0.032856431 1.01475
-0.1244562 -0.033766668 1.013
-0.12959486 -0.026151432 1.0170001
-0.12359234 -0.027034467 1.0138124
-0.11778954 -0.026318099 1.0110002
-0.062646195 -0.026985241 1.0120001
-0.056000184 -0.027033754 1.0138125
-0.12946573 -0.019371431 1.0170002
-0.1236377 -0.01931875 1.0141875
-0.11843143 -0.019257145 1.011
-0.06269215 -0.019289766 1.0127501
-0.05620458 -0.01950743 1.0140001
-0.12913144 -0.01219543 1.0164002
-0.12359127 -0.011586608 1.0138125
-0.1180463 -0.010976572 1.011
-0.068362862 -0.01059143 1.011
-0.063267767 -0.011579594 1.0131429
-0.056743521 -0.011526815 1.0151539
-0.128535 -0.0038650001 1.0147501
-0.12361144 -0.0038628576 1.0140001
-0.11591983 -0.003662667 1.0125999
-0.10907797 -0.0028885719 1.0110002
-0.10495143 -0.00096285722 1.011
-0.062476628 -0.0041197408 1.0120909
-0.056052148 -0.0038650006 1.01475
-0.049807146 -0.0014500001 1.0155001
-0.12869334 0.0041961907 1.0160002
-0.12384003 0.0038725005 1.0158751
-0.11608126 0.0038705361 1.0156876
-0.10891096 0.003857143 1.012
-0.10232546 0.0048142863 1.0109999
-0.09468095 0.005456191 1.011
-0.089545719 0.0067400006 1.011
-0.062837154 0.0043385723 1.0125
-0.056671873 0.0040964843 1.0165386
-0.049755435 0.0044548577 1.0164001
-0.12844001 0.0086914292 1.0140001
-0.12275366 0.010866667 1.0166669
-0.11605965 0.011604643 1.0155001
-0.10835316 0.011781716 1.0140001
-0.1014189 0.011335386 1.0112307
-0.096606672 0.010912381 1.0110002
-0.069325715 0.013480001 1.011
-0.063652679 0.011574466 1.0126874
-0.057630006 0.011380714 1.0170001
-0.049397148 0.0087171439 1.0170001
-0.12882 0.020340001 1.0170001
-0.12378345 0.019565145 1.0170002
-0.11599483 0.019332681 1.0149375
-0.10813948 0.01931018 1.0138125
-0.10121454 0.018988337 1.0137501
-0.097248577 0.019578097 1.011
-0.088582858 0.022145716 1.011
-0.078376584 0.021760574 1.011
-0.070366077 0.02072536 1.012125
-0.064122871 0.019033471 1.0135715
-0.05843715 0.017757146 1.0170001
-0.12397715 0.02518286 1.0170001
-0.11608692 0.026120715 1.0157502
-0.10796687 0.026846861 1.0140001
-0.10180984 0.027298732 1.0116668
-0.094104283 0.027103066 1.0112143
-0.086954877 0.027185716 1.0122
-0.079027332 0.026986612 1.0119375
-0.071381077 0.027010716 1.012875
-0.065087147 0.026375001 1.01625
-0.13114287 -0.019428574 1.0200001
-0.054076195 0.0029142862 1.0200002
-0.051485717 0.0038857148 1.0200001
-0.12879573 0.013660001 1.0245
-0.1253143 0.01224 1.0200001
-0.055047628 0.011009525 1.0200001
-0.051485717 0.010685715 1.0200001
-0.12909287 0.018507143 1.023
-0.061200004 0.02137143 1.0200001
-0.058285717 0.019914286 1.0200001
-0.12920001 0.024285715 1.0200001
-0.12337144 0.028171431 1.0200002
-0.061775718 0.025782861 1.0215
-0.059257146 0.024285715 1.0200001
