# .PCD v0.7 - Point Cloud Data file format
VERSION 0.7
FIELDS x y z
SIZE 4 4 4
TYPE F F F
COUNT 1 1 1
WIDTH 226
HEIGHT 1
VIEWPOINT 0 0 0 1 0 0 0
POINTS 226
DATA ascii
-0.01050762 -0.12322572 1.003
-0.00288 -0.11424001 1.008
-0.0030931218 -0.10845651 1.0077778
0.0014400001 -0.10800001 1.008
-0.0086400006 -0.10464001 1.008
-0.0038386905 -0.10172155 1.0076251
0.001344 -0.102336 1.008
-0.010169144 -0.092278875 1.0072
-0.0038391664 -0.094068699 1.0078751
0.0016000001 -0.096320018 1.0080001
-0.011581715 -0.086568654 1.0077336
-0.0038353573 -0.086301789 1.0068753
0.003039524 -0.085876673 1.0075002
0.0092800008 -0.086720012 1.0080001
-0.020160001 -0.077760004 1.008
-0.013632001 -0.078912005 1.008
-0.0032290909 -0.079680003 1.0080001
0.0036449526 -0.078849025 1.0072002
0.0086400006 -0.079680011 1.0080001
-0.013440001 -0.070080012 1.008
-0.0023980953 -0.070046194 1.0074999
0.0038399999 -0.071040012 1.0080001
0.0099200001 -0.06976001 1.008
-0.0026376192 -0.062129527 1.0074999
0.0043733334 -0.06410668 1.008
0.0086400006 -0.066240005 1.008
-0.0086400006 -0.054720003 1.008
-0.004224 -0.05702401 1.0080001
0.0024960001 -0.057792004 1.008
-0.024214288 -0.1243 1.0170001
-0.019557908 -0.12373508 1.0166001
-0.011966859 -0.12218573 1.0134
-0.0033807147 -0.12271501 1.01325
0.0038653575 -0.12365895 1.014375
0.010864287 -0.12192144 1.0140001
0.018770859 -0.12131486 1.0158001
-0.030025717 -0.11526 1.0170001
-0.026151428 -0.11590572 1.0170001
-0.01936768 -0.11620662 1.0168126
-0.011562859 -0.11563073 1.0117499
-0.0042243958 -0.11596728 1.0114615
0.0038550003 -0.11563038 1.01175
0.011398287 -0.11610154 1.0142
0.01910286 -0.11698911 1.0167274
-0.030025717 -0.10848001 1.0170001
-0.026151432 -0.11041715 1.0170002
-0.019364644 -0.10844 1.0166252
-0.011554288 -0.10880288 1.0109999
-0.0048142863 -0.10976572 1.011
0.0050575002 -0.10908393 1.0113751
0.011186534 -0.10797472 1.0148572
-0.030994289 -0.10073143 1.0170001
-0.026366668 -0.099978104 1.0170001
-0.019368036 -0.10071341 1.0168126
-0.011746859 -0.10187029 1.0109999
0.0049929875 -0.10185532 1.0115454
0.011794479 -0.10072821 1.0150001
0.019086376 -0.099742651 1.0137693
0.024119049 -0.099368587 1.013
-0.031478573 -0.092982858 1.0170001
-0.026143493 -0.093921281 1.0166668
-0.019325241 -0.093720965 1.0145
-0.012167015 -0.095147796 1.0109999
0.0043714289 -0.093863308 1.0112307
0.011349233 -0.093822651 1.0123847
0.01930167 -0.093605489 1.01325
0.025145717 -0.092842869 1.0155001
-0.032915719 -0.086160481 1.0165002
-0.02702661 -0.086866617 1.0134375
-0.019310895 -0.086898401 1.0138125
-0.01059143 -0.083768576 1.011
0.006258572 -0.088101439 1.011
0.012072749 -0.086583093 1.0109999
0.019295359 -0.08681751 1.012875
0.024960574 -0.08648973 1.0158001
-0.032931432 -0.079422861 1.0170001
-0.027012501 -0.079101443 1.012875
-0.019234288 -0.079192393 1.0132
-0.010591431 -0.078866757 1.0109999
-0.0051994291 -0.076836005 1.011
0.0067400006 -0.076065719 1.011
0.012220881 -0.078732088 1.0109999
0.019302145 -0.079130009 1.01325
0.025129288 -0.077796429 1.0147501
-0.03341572 -0.071674287 1.0170002
-0.026832573 -0.071355633 1.0134
-0.019271787 -0.071302868 1.0117499
-0.010398858 -0.071829163 1.011
-0.0052957148 -0.07221429 1.011
0.012525144 -0.072064005 1.0116
0.019305181 -0.071422689 1.0134375
0.026095003 -0.071515962 1.01475
0.030025717 -0.068768576 1.0170001
-0.032138962 -0.064013772 1.0170002
-0.0260881 -0.063768104 1.0145
-0.019314287 -0.063737147 1.0140001
-0.011554287 -0.063548572 1.0109999
-0.0050550005 -0.064752147 1.011
0.003166531 -0.062611431 1.0114287
0.011781716 -0.063544013 1.0140001
0.019341966 -0.063819118 1.0153126
0.026130393 -0.064313255 1.0161819
0.032196742 -0.064812258 1.0157144
-0.031962864 -0.056177147 1.0170002
-0.026121195 -0.056107383 1.0157502
-0.019314287 -0.056011435 1.0140001
-0.011746859 -0.055909924 1.0109999
-0.0032128575 -0.053625248 1.0115001
0.0044750655 -0.055000782 1.0131818
0.011588573 -0.056011435 1.0140001
0.019330716 -0.056052864 1.01475
0.025164288 -0.056136433 1.01625
-0.032260884 -0.048503086 1.0170002
-0.026108336 -0.048345011 1.0152501
-0.01932143 -0.048302863 1.014375
-0.011554287 -0.048142858 1.0109999
-0.0038528575 -0.048177145 1.01175
0.0038623221 -0.048276614 1.0138125
0.011588573 -0.048285719 1.0140001
0.019333752 -0.048329469 1.0149375
0.026652453 -0.048061438 1.0150715
0.030025717 -0.049397144 1.0170001
-0.030800575 -0.042036004 1.0170001
-0.026120719 -0.04062834 1.0157502
-0.019317681 -0.04056697 1.0141876
-0.011563394 -0.040475897 1.0119374
-0.0038562503 -0.040507328 1.0126874
0.0038596431 -0.040530723 1.01325
0.011588573 -0.040560003 1.0140001
0.019157525 -0.040567435 1.0158001
0.026482573 -0.040596288 1.0149001
-0.025720952 -0.033684768 1.0170001
-0.019360892 -0.032911964 1.0164376
-0.011597145 -0.033274699 1.0148573
-0.0041426537 -0.033267558 1.014643
0.0038600003 -0.033767622 1.013
0.011814727 -0.033509675 1.0142307
0.018394029 -0.033529095 1.0164547
0.025182858 -0.035837144 1.0170001
-0.01840286 -0.026151428 1.0170001
-0.011588573 -0.026626127 1.0140001
-0.0035893882 -0.026637146 1.0144286
0.0038628576 -0.027040003 1.0140001
0.011406478 -0.026867051 1.0148001
0.017434288 -0.027120002 1.0170001
-0.017434288 -0.019371429 1.0170001
-0.011588573 -0.019314287 1.0140001
-0.0038628576 -0.019314287 1.0140001
0.0038628576 -0.019314287 1.0140001
0.010460261 -0.019598443 1.0150909
-0.017849391 -0.01259143 1.0170002
-0.011179593 -0.011868165 1.0144286
-0.0038637505 -0.011590537 1.0141876
0.0038641077 -0.011590894 1.0141876
0.0095473481 -0.01203796 1.0170002
-0.0038653575 -0.0038635719 1.0143751
-0.026807349 -0.12347592 1.0208572
-0.030114288 -0.1156 1.0200001
-0.026228573 -0.11754286 1.0200002
-0.03020286 -0.10619715 1.023
-0.026228575 -0.10685714 1.0200001
0.014571429 -0.10977144 1.0200001
-0.025580954 -0.10329525 1.0200002
-0.041012146 -0.090807863 1.02525
-0.034838289 -0.093229152 1.0218
0.02821286 -0.091447145 1.0215001
-0.040346377 -0.085876048 1.0255384
-0.03594286 -0.085485719 1.0200001
0.027073065 -0.084549807 1.0204287
-0.040492471 -0.078228571 1.0232728
-0.03594286 -0.078685723 1.0200002
0.027005717 -0.079074286 1.0200001
-0.040363304 -0.071505725 1.0220771
-0.03594286 -0.072857149 1.0200001
-0.040547147 -0.064647153 1.0240715
-0.034777146 -0.063920006 1.0200001
0.028171431 -0.062171429 1.0200001
0.030114288 -0.061200004 1.0200001
-0.045925718 -0.05374286 1.026
-0.040975533 -0.056579825 1.0243125
-0.035995714 -0.05642572 1.0215001
0.028171431 -0.056342859 1.0200001
-0.040470209 -0.048534296 1.022143
-0.035978097 -0.048292384 1.0210001
-0.040973037 -0.04097268 1.0243124
-0.034066234 -0.040255845 1.0219092
0.022342859 -0.041771431 1.0200001
0.024321429 -0.040861428 1.0215001
0.03020286 -0.040920004 1.023
-0.040004767 -0.033173814 1.0244999
-0.033123396 -0.033119109 1.0228126
-0.027523812 -0.030761905 1.0200002
0.021565717 -0.031668574 1.0200001
0.026447147 -0.032474 1.0209001
0.031713434 -0.033078 1.0215001
-0.039790716 -0.026607146 1.02525
-0.033136908 -0.0263131 1.0232501
-0.026228575 -0.026228575 1.0200001
-0.022342859 -0.026228573 1.0200002
0.020424645 -0.025771787 1.021125
0.026314924 -0.026313653 1.0233332
0.030757859 -0.026850715 1.02525
-0.039818577 -0.018321428 1.026
-0.033194471 -0.019524824 1.0250624
-0.026274048 -0.019462146 1.0217501
-0.02137143 -0.019428574 1.0200001
0.014182858 -0.018845716 1.0200001
0.01946 -0.019457147 1.0215
0.026326431 -0.019500718 1.0237499
0.030291431 -0.019542858 1.026
-0.045925718 -0.010748572 1.026
-0.040621229 -0.012982042 1.026
-0.033188578 -0.0117125 1.0248749
-0.026254287 -0.011668572 1.0210001
-0.020615876 -0.010901587 1.0200001
-0.014571429 -0.0097142868 1.0200001
-0.044142861 -0.073571436 1.0300001
-0.046104766 -0.065723814 1.0300001
-0.044142861 -0.062780961 1.0300001
-0.044142861 -0.051990479 1.0300001
-0.044142861 -0.033352382 1.0300001
-0.042180955 -0.023052381 1.0300001
0.032371432 -0.024523811 1.0300001
-0.046239052 -0.020660002 1.033
-0.042573337 -0.01981524 1.0300001
0.030409526 0.006866667 1.0300001
