# .PCD v0.7 - Point Cloud Data file format
VERSION 0.7
FIELDS x y z
SIZE 4 4 4
TYPE F F F
COUNT 1 1 1
WIDTH 204
HEIGHT 1
VIEWPOINT 0 0 0 1 0 0 0
POINTS 204
DATA ascii
-0.015008572 -0.078574292 0.92700005
-0.015008572 -0.06268286 0.92700005
-0.0099300006 -0.062004287 0.92675006
-0.0038845718 -0.06268286 0.92700005
-0.015008572 -0.05650286 0.92700005
-0.011293906 -0.058054101 0.92640013
-0.005297143 -0.058268577 0.92700005
-0.015154287 -0.11410382 0.93600005
-0.015170477 -0.10887048 0.93700004
-0.010912308 -0.10823436 0.93684638
-0.0062466669 -0.10887048 0.93700004
-0.016190343 -0.10185892 0.93700016
-0.01096354 -0.10185891 0.93700027
-0.0049718376 -0.10160396 0.93700016
-0.015170477 -0.093700007 0.9370001
-0.010755539 -0.093606085 0.93700016
-0.0042388099 -0.093923107 0.93700022
0.00089238101 -0.090130486 0.93700004
-0.024986669 -0.082991436 0.93700004
-0.018451907 -0.084870689 0.93521458
-0.010678752 -0.085435897 0.93443769
-0.0035632143 -0.085543931 0.93562514
0.0020811644 -0.085311644 0.93633336
-0.025681041 -0.078172818 0.93563652
-0.01901778 -0.07813482 0.93111122
-0.010641429 -0.07804738 0.93125015
-0.0035585121 -0.078313872 0.93443763
0.0035617857 -0.078342386 0.93475014
0.0098066675 -0.078446671 0.93600011
-0.026536889 -0.071055874 0.93493354
-0.018623717 -0.070941254 0.93110007
-0.010645238 -0.070972629 0.93150014
-0.0035552974 -0.071082562 0.93293762
0.0035549998 -0.071048334 0.93250012
0.0097904773 -0.071199045 0.93450016
-0.031233335 -0.062466674 0.93700004
-0.026726609 -0.064135894 0.93531263
-0.019268235 -0.064064547 0.93200016
-0.0113 -0.065356672 0.93050015
-0.0029546036 -0.065271437 0.9303335
0.0035498217 -0.063852325 0.93118769
0.010080001 -0.064102136 0.93584639
-0.031233335 -0.056220002 0.9370001
-0.026911164 -0.056485668 0.93483353
-0.019276192 -0.056673057 0.93235314
-0.01024898 -0.054787759 0.93000019
-0.002952381 -0.05609525 0.93000025
0.0037014037 -0.056215797 0.93384224
0.0089220954 -0.05620724 0.93680012
-0.031233337 -0.04908096 0.93700004
-0.026482858 -0.048509736 0.93366677
-0.018633224 -0.048798099 0.93159992
-0.010639619 -0.048764389 0.93100017
-0.0035491425 -0.04881781 0.9320001
0.0034092434 -0.048371825 0.93547076
0.0092212707 -0.047296196 0.93700004
-0.026742022 -0.040999047 0.93587518
-0.018636288 -0.040816769 0.93170005
-0.010651547 -0.040835235 0.93212515
-0.0035577973 -0.040918514 0.93406266
0.0035662497 -0.04098554 0.93556267
0.010836055 -0.042961769 0.93700016
0.016490001 -0.042788573 0.93599999
-0.026771432 -0.033910476 0.93700022
-0.018678956 -0.033792865 0.93380016
-0.010658453 -0.033760238 0.93287516
-0.0035623813 -0.03384643 0.93525016
0.0031858506 -0.034138646 0.93628585
-0.02677143 -0.02677143 0.93700022
-0.018729286 -0.026752144 0.93635017
-0.010685716 -0.026714282 0.93500018
-0.003564405 -0.026746551 0.93612516
0.0022805291 -0.027465504 0.93700016
-0.025432859 -0.021863334 0.93700004
-0.018220633 -0.01898372 0.93642873
-0.010685715 -0.018700002 0.93500012
-0.0035644767 -0.018722953 0.93610018
0.0016856088 -0.018343387 0.93700016
-0.016338732 -0.010990794 0.93566674
-0.010689344 -0.010689584 0.93543768
-0.0035658337 -0.010700595 0.93637514
0.0013385715 -0.011154763 0.93700004
0.012195874 -0.010411113 0.93700004
-0.0046241563 -0.0036506499 0.93700022
0.0026771431 -0.004461905 0.93700004
-0.015170477 0.01695524 0.93700004
-0.010836055 0.017465172 0.93700027
-0.025327533 -0.11433326 0.94663638
-0.019285955 -0.11345692 0.94175005
-0.0018000001 -0.1125 0.94500005
0.0027009526 -0.11261906 0.9460001
-0.025080385 -0.10843201 0.94720006
-0.018679569 -0.10921811 0.94209099
-0.0028684766 -0.10892506 0.94210017
0.0035873817 -0.10858501 0.94225013
0.0080571435 -0.10742858 0.94000006
-0.023751432 -0.10131398 0.94699997
-0.019144924 -0.10109572 0.94216681
-0.0089523811 -0.10116191 0.94000006
-0.0024867724 -0.10215662 0.94000012
0.0035835241 -0.10123668 0.94070023
0.0083698416 -0.10193335 0.94166672
-0.031600002 -0.09118858 0.94800007
-0.026261022 -0.093450412 0.94607145
-0.019539051 -0.093032628 0.94106686
-0.0098476196 -0.095790483 0.94000006
-0.00089523813 -0.093104772 0.94000006
0.0037721915 -0.093495637 0.94213337
0.0081128571 -0.093745723 0.94650006
-0.033290166 -0.085272387 0.94466668
-0.027156195 -0.086459473 0.94142866
-0.020232383 -0.088270485 0.94000006
0.00551211 -0.086512662 0.94200009
0.0097294301 -0.085925438 0.94569999
-0.033472531 -0.078740671 0.94200021
-0.029184764 -0.079318106 0.94000006
-0.038761429 -0.06850715 0.94650006
-0.034301218 -0.071283236 0.94216675
-0.02954286 -0.074304767 0.94000006
-0.038740955 -0.063969523 0.9460001
-0.034479734 -0.063823134 0.94200015
-0.03896172 -0.055118289 0.94260007
-0.034830045 -0.055932309 0.94138473
0.012355596 -0.055924647 0.94337505
-0.039836671 -0.049720481 0.94350004
-0.034679711 -0.048192091 0.94107705
0.011125862 -0.048702866 0.94292313
0.015689144 -0.048154291 0.94680005
-0.034047622 -0.041214049 0.94075012
0.010649736 -0.039707515 0.94044453
0.016755715 -0.040092863 0.94250005
-0.038659051 -0.033260956 0.94400012
-0.034057025 -0.034053691 0.9410001
0.006266667 -0.032228574 0.94000006
0.010770597 -0.034097742 0.94225025
0.016718857 -0.034154858 0.94380009
-0.038740955 -0.026125718 0.9460001
-0.03426953 -0.026662691 0.9424119
0.0052435379 -0.025961908 0.94000012
0.010937295 -0.026270531 0.94436836
0.015900001 -0.027600002 0.94500011
-0.03882286 -0.018057145 0.94800007
-0.033957794 -0.018651031 0.94210535
-0.027192859 -0.018016672 0.9400003
-0.021485716 -0.017457142 0.94000006
0.0051284856 -0.019128487 0.94018191
0.0093825981 -0.018358704 0.94227284
-0.034204647 -0.010799287 0.94500005
-0.026861073 -0.010743929 0.94012523
-0.01982313 -0.010614968 0.9400003
0.0043311119 -0.010600953 0.94066679
0.010157223 -0.010750715 0.94091678
0.0036511121 -0.0035274294 0.94180012
0.009913248 -0.0041755852 0.94636363
-0.03882286 0.013542858 0.94800007
-0.033832148 0.011577383 0.94725007
-0.03882286 0.015348572 0.94800007
-0.032631841 0.017154288 0.94800007
-0.026727902 0.017833784 0.94464695
-0.019170932 0.0192532 0.9413811
-0.010444446 0.021784127 0.94000006
-0.0033199443 0.019352775 0.94123548
0.0032691075 0.018235181 0.94556248
-0.031600002 0.02618286 0.94800007
-0.026782589 0.026268028 0.94485712
-0.018666869 0.026799701 0.9428423
-0.010767263 0.026921552 0.94212502
-0.0035883933 0.026923036 0.94231266
0.0037506768 0.026319398 0.94610518
0.0093295248 0.02618286 0.94800013
-0.031600002 0.03250286 0.94800007
-0.025976844 0.034144666 0.94736844
-0.018031253 0.03426268 0.94668752
-0.010792145 0.034174293 0.94424999
-0.0035977983 0.034192443 0.94468743
0.0023063493 0.033571113 0.94700009
-0.032269847 -0.11369842 0.95000005
-0.029857146 -0.11400001 0.95000005
-0.033321302 -0.10884964 0.95027268
-0.029495239 -0.10802858 0.94999999
-0.03169167 -0.10141405 0.95075005
-0.028220695 -0.10111491 0.95027268
-0.032938574 -0.094577625 0.95183343
-0.029253971 -0.09620636 0.95000005
0.016337145 -0.053549528 0.95300007
-0.038904764 -0.029857146 0.95000005
-0.038904764 -0.01809524 0.95000005
-0.039809525 0.011761906 0.95000005
-0.039974701 0.018501772 0.95085722
-0.035700846 0.018806243 0.9503333
0.0063333339 0.019000001 0.95000005
0.011086605 0.018350607 0.95386678
0.015474049 0.018206906 0.95574999
-0.039181195 0.025516907 0.95675004
-0.035227351 0.026030617 0.95185721
0.010981489 0.026031848 0.9508124
0.01542143 0.024488097 0.95250005
-0.039736196 0.034003675 0.95757157
-0.0350421 0.034434229 0.9531334
-0.029857146 0.037095241 0.95000005
0.0053021773 0.035302453 0.95042861
0.0095635988 0.033726774 0.95133334
-0.041995786 0.026034152 0.96157146
-0.042100955 0.031118097 0.96100003
