# .PCD v0.7 - Point Cloud Data file format
VERSION 0.7
FIELDS x y z
SIZE 4 4 4
TYPE F F F
COUNT 1 1 1
WIDTH 298
HEIGHT 1
VIEWPOINT 0 0 0 1 0 0 0
POINTS 298
DATA ascii
0.012507811 -0.034701336 0.9248001
0.015008572 -0.032665715 0.92700005
0.015008572 -0.029134288 0.92700005
0.012445239 -0.038229048 0.93350005
0.012600001 -0.045900002 0.94500005
0.01217796 -0.041922458 0.94228578
0.044706669 -0.11404762 0.95800006
0.049633525 -0.11550744 0.95800012
0.056302946 -0.11567301 0.95772737
0.06251163 -0.11463239 0.9568001
0.049398918 -0.1097464 0.95800018
0.05651316 -0.10937984 0.9570626
0.062041909 -0.10857334 0.95800012
0.049572706 -0.10401144 0.95800012
0.056385152 -0.10224749 0.95800018
0.061129529 -0.10401143 0.95800006
0.044098418 -0.090933971 0.95800006
0.048721146 -0.090690665 0.95800012
0.053830478 -0.090325721 0.95800006
0.061129529 -0.090325721 0.95800006
0.036191113 -0.083634928 0.95800006
0.042577781 -0.085155562 0.95800012
0.049248219 -0.085730955 0.95762509
0.056385141 -0.08558134 0.95800018
0.063501723 -0.084851436 0.95800012
0.069340959 -0.08302667 0.95800006
0.037407622 -0.077552386 0.95800006
0.041969527 -0.078464784 0.95800012
0.049258396 -0.078448877 0.95781261
0.056545127 -0.078433335 0.95762515
0.063854709 -0.078448869 0.95781261
0.069210619 -0.07885579 0.95800018
0.036267146 -0.070481434 0.95800012
0.041969523 -0.071165711 0.95800012
0.048356198 -0.072280854 0.95800006
0.0567501 -0.07134819 0.95800018
0.063684203 -0.070983246 0.95800018
0.068428576 -0.070253342 0.95800006
0.036799368 -0.063866675 0.95800012
0.041969527 -0.063866675 0.95800012
0.049007896 -0.063475654 0.95800018
0.056697968 -0.063997023 0.95800018
0.063684203 -0.063805841 0.95800018
0.068428576 -0.063866675 0.95800006
0.036312763 -0.057844955 0.95800012
0.041969527 -0.056567624 0.95800012
0.049268574 -0.05656762 0.95800012
0.055857997 -0.056263495 0.95800006
0.066603817 -0.058392383 0.95800006
0.068428576 -0.059304766 0.95800006
0.036039051 -0.050180957 0.95800006
0.041969519 -0.049268574 0.95800012
0.049268577 -0.049268574 0.95800012
0.053830478 -0.052005719 0.95800006
0.015510477 -0.041969527 0.95800006
0.037407622 -0.039232384 0.95800006
0.042197619 -0.043110002 0.95800012
0.048173722 -0.042516958 0.95800012
0.036495239 -0.03467048 0.95800012
0.039232384 -0.03467048 0.95800006
0.046896387 -0.035217907 0.95800012
0.033977963 -0.11427022 0.96428573
0.040824022 -0.11351885 0.96211118
0.064740196 -0.113152 0.96280003
0.070030004 -0.11333572 0.96750003
0.033329908 -0.10846592 0.96679991
0.04128848 -0.10827849 0.96350002
0.048507623 -0.10708287 0.96100008
0.065683924 -0.10784244 0.96233338
0.071638495 -0.10846668 0.96679997
0.076360002 -0.10672001 0.96600002
0.033772312 -0.10145979 0.96646142
0.041282337 -0.10092282 0.96335012
0.04935246 -0.10004259 0.9610002
0.057293903 -0.098662674 0.96100008
0.064313851 -0.10059132 0.96193355
0.071692683 -0.10110162 0.96506244
0.077915885 -0.10017492 0.96500003
0.083720006 -0.098440006 0.96600002
0.033313144 -0.093694858 0.96640003
0.040665943 -0.093777537 0.96147078
0.049672473 -0.094435945 0.96100014
0.056927819 -0.093537338 0.96100026
0.064304583 -0.093614295 0.96180016
0.071651429 -0.093694285 0.96449995
0.079119995 -0.093840025 0.96599984
0.083720006 -0.093840003 0.96600002
0.027202144 -0.085760012 0.96824998
0.032693882 -0.086667754 0.96514291
0.039104905 -0.087497018 0.96128577
0.05949048 -0.088778101 0.96100003
0.064676836 -0.087557785 0.96100008
0.071860068 -0.086676806 0.96378583
0.079105169 -0.086463749 0.96581233
0.084508583 -0.086085722 0.96600008
0.020434696 -0.078970216 0.96900004
0.0258075 -0.079272851 0.96787488
0.032985359 -0.078802988 0.96212518
0.037524763 -0.081456199 0.96100003
0.072931118 -0.078424238 0.96122223
0.079005294 -0.079003148 0.96456248
0.085672162 -0.079220727 0.96724999
0.020302858 -0.07229048 0.96900004
0.025807504 -0.07189928 0.96787488
0.032223497 -0.071933337 0.96216679
0.050599594 -0.069950342 0.96100008
0.053999051 -0.068642862 0.96100003
0.066812389 -0.07413429 0.96100003
0.072022207 -0.071599789 0.9610002
0.078944944 -0.071598038 0.96381247
0.085094936 -0.072191432 0.96766663
0.02030286 -0.064599998 0.96899998
0.025777502 -0.064450011 0.96674991
0.0325698 -0.064094834 0.96142876
0.051253334 -0.066812389 0.96100003
0.055829529 -0.063151434 0.96100003
0.066812389 -0.064981908 0.96100003
0.072303817 -0.064066678 0.96100014
0.078943513 -0.064253993 0.96381253
0.085392743 -0.064149097 0.96599996
0.020405399 -0.056499369 0.96899998
0.025623193 -0.05683127 0.96705872
0.03233429 -0.056569889 0.96161562
0.037524763 -0.054914288 0.96100003
0.057660006 -0.057137012 0.96100008
0.063674428 -0.056483272 0.9610002
0.071612015 -0.056591935 0.96153361
0.078927979 -0.056899413 0.96362507
0.086296007 -0.057101343 0.9659999
0.021209287 -0.047953576 0.96825004
0.025936544 -0.048628878 0.9672631
0.032334287 -0.049243297 0.9616155
0.037524767 -0.049117785 0.96100008
0.056944322 -0.049253024 0.96126688
0.064187214 -0.049514823 0.96281266
0.071652055 -0.048683003 0.96455002
0.079121143 -0.048758287 0.9659999
0.085648201 -0.048809335 0.96699995
0.018782247 -0.040188778 0.96535707
0.025793396 -0.040533755 0.9673124
0.032863211 -0.041453492 0.96278965
0.041185718 -0.040662725 0.9610002
0.051266428 -0.040280238 0.96125001
0.05678134 -0.041212194 0.96160024
0.064183384 -0.041262332 0.96275008
0.071719818 -0.040456969 0.96543741
0.07921464 -0.040526431 0.96712488
0.086353078 -0.040342048 0.96899998
0.091080002 -0.037720002 0.96600002
0.01936743 -0.033754285 0.9684
0.026205102 -0.03331735 0.96792853
0.032458246 -0.032883741 0.96530777
0.04239415 -0.032579321 0.96171451
0.050152317 -0.032799784 0.96284634
0.056780834 -0.032968935 0.96162516
0.064166911 -0.032998808 0.96250021
0.071789645 -0.033131078 0.96637481
0.079350896 -0.033215892 0.96881241
0.086748578 -0.033618368 0.96899998
0.091362864 -0.03599143 0.96900004
0.01753429 -0.028608574 0.96900004
0.026006859 -0.025761906 0.9684
0.033094469 -0.025740776 0.96531242
0.04070488 -0.025891429 0.96494102
0.048921201 -0.025596092 0.96536827
0.056951791 -0.025718216 0.96450013
0.064375363 -0.025748927 0.96562487
0.071901798 -0.025809288 0.96787488
0.07918115 -0.02602458 0.96899998
0.086748578 -0.028608574 0.96900004
0.019687621 -0.019380003 0.96900004
0.026570912 -0.018860262 0.96818179
0.033120006 -0.018400002 0.96599984
0.040480006 -0.018400004 0.96599984
0.048767287 -0.018402431 0.96614981
0.057040002 -0.018400002 0.96599984
0.06440001 -0.0184 0.96599984
0.071888044 -0.018432323 0.96768737
0.078596681 -0.018918574 0.96899998
0.091362864 -0.018457144 0.96900004
0.028239429 -0.011628001 0.96900004
0.033150896 -0.011049108 0.96693736
0.04055858 -0.01106 0.96787488
0.048810434 -0.011052142 0.9670499
0.057051603 -0.011041609 0.96618736
0.064425364 -0.011043215 0.96637487
0.071741156 -0.011249715 0.96819997
0.076597147 -0.011997144 0.96900004
0.028608574 -0.0064600003 0.96900004
0.033209644 -0.0036892858 0.96862489
0.04060572 -0.0036914288 0.96899992
0.047988579 -0.0036914293 0.96899992
0.05618915 -0.0036857151 0.9671998
0.06458804 -0.0036905361 0.96881241
0.070005313 -0.0040869392 0.96900004
0.033991907 0.0032300006 0.96899998
0.040588934 0.0036892858 0.96862489
0.048223365 0.0035268911 0.96829402
0.056423463 0.0038351885 0.96789473
0.064599998 0.0036914293 0.96899992
0.069214292 0.0009228572 0.96900004
0.035376191 0.010459049 0.96900004
0.04060572 0.011074285 0.96899992
0.047979113 0.011072679 0.96881247
0.055986676 0.010766667 0.96899998
0.064204499 0.0090967361 0.96900004
0.03599143 0.021225715 0.96900004
0.039682861 0.017797958 0.96900004
0.048706349 0.017944444 0.96899998
0.05421786 0.018226428 0.96899998
0.03599143 0.023071431 0.96900004
0.038452383 0.023686668 0.96900004
0.045220003 0.026762858 0.96900004
0.028080001 -0.092262864 0.97200006
0.030548573 -0.097200006 0.97200006
0.024994288 -0.087202288 0.97200006
0.017588573 -0.076834291 0.97200006
0.018382041 -0.071280003 0.97200012
0.087942861 -0.072205722 0.97200006
0.017125715 -0.061560001 0.97200006
0.013914287 -0.054729529 0.97400004
0.016993864 -0.055516623 0.97333336
0.018026033 -0.04831852 0.97355568
0.019440001 -0.030548573 0.97200006
0.023142859 -0.032400001 0.97200006
0.087017149 -0.030548573 0.97200006
0.018977145 -0.025457148 0.97200006
0.023142859 -0.026845716 0.97200006
0.08238858 -0.023142859 0.97200006
0.087017149 -0.025523268 0.97200012
0.019448763 -0.017965335 0.97240013
0.024253717 -0.017588573 0.97200006
0.08192572 -0.017125716 0.97200006
0.087061904 -0.018522382 0.97250009
0.020736827 -0.01052254 0.97500008
0.024834633 -0.010859569 0.97236377
0.074982859 -0.0083314292 0.97200006
0.079908751 -0.011197749 0.9725455
0.08612749 -0.011081018 0.97520012
0.091000579 -0.010607428 0.97700006
0.021400955 -0.0037219052 0.97700006
0.025786605 -0.0035246355 0.97406679
0.073748574 -0.0033942861 0.972
0.078822874 -0.0037103179 0.97366679
0.085659325 -0.0035513174 0.9745295
0.090256199 -0.0046523814 0.97700012
0.026411157 0.0037180956 0.97557163
0.031011429 0.0050914288 0.97200006
0.071767941 0.0041669849 0.97233343
0.078105539 0.0035249528 0.9740001
0.085587569 0.0037217266 0.97681266
0.090256199 0.0027914287 0.97700012
0.026670257 0.010940441 0.97607702
0.032042291 0.011484191 0.97240013
0.058320004 0.013885715 0.97200006
0.063345313 0.013092247 0.97200012
0.071071036 0.011055799 0.97211772
0.078422457 0.011413198 0.97528583
0.084673345 0.0093047628 0.97700012
0.026961666 0.018595003 0.97625017
0.033157337 0.018339304 0.97253346
0.041451432 0.019028572 0.972
0.047211431 0.019175513 0.97200012
0.05670001 0.018745715 0.97200006
0.062957026 0.018517025 0.97212511
0.070418216 0.018532502 0.97287506
0.077426381 0.018373484 0.97584635
0.028047213 0.02565456 0.97700012
0.033194229 0.026150923 0.97366679
0.041229896 0.026418466 0.97200006
0.048329271 0.025861969 0.97213352
0.055586442 0.025940714 0.97275007
0.063054174 0.025963927 0.97362506
0.070541367 0.025988871 0.97456253
0.076609217 0.025743177 0.97700012
0.028844764 0.030705716 0.97700006
0.092117146 0.030705716 0.97700006
0.017733334 -0.04946667 0.98000002
0.017172381 -0.0090536512 0.98366678
0.01793351 -0.0036574898 0.98181814
0.018707503 0.0037407142 0.98237491
0.023333335 0.0037333337 0.98000002
0.090533338 0.0065333336 0.98000002
0.018856956 0.011388382 0.98019987
0.023333337 0.012133334 0.98000002
0.086480968 0.012328001 0.9806
0.090833582 0.011241191 0.98325008
0.018853335 0.018728893 0.97999984
0.023333335 0.018666668 0.98000002
0.081200004 0.019600002 0.98000002
0.085945845 0.018683217 0.9808749
0.090879768 0.018734526 0.9837501
0.019620264 0.025568491 0.9810909
0.02457778 0.026444444 0.97999996
0.080400012 0.026533334 0.98000008
0.085967384 0.02616334 0.98112488
0.091546677 0.026593747 0.9822858
0.090533338 0.030800002 0.98000002
