# .PCD v0.7 - Point Cloud Data file format
VERSION 0.7
FIELDS x y z
SIZE 4 4 4
TYPE F F F
COUNT 1 1 1
WIDTH 228
HEIGHT 1
VIEWPOINT 0 0 0 1 0 0 0
POINTS 228
DATA ascii
-0.011215921 -0.11383716 0.94757152
-0.011737145 -0.085255526 0.94800007
-0.011586668 -0.079752378 0.94800007
-0.0045142863 -0.079150483 0.94800013
-0.012640001 -0.07493715 0.94800007
-0.0099314293 -0.055074289 0.94800007
-0.033193067 -0.11545783 0.95671439
-0.026262477 -0.11500114 0.9508
-0.01809524 -0.114 0.94999993
-0.0081428578 -0.11309525 0.95000005
-0.0036273813 -0.11348215 0.95325005
-0.040829051 -0.10880143 0.95800012
-0.034605123 -0.10927144 0.95612502
-0.026317382 -0.10889702 0.95284998
-0.018141849 -0.10884876 0.95243752
-0.010873572 -0.10875499 0.95162499
-0.0036353569 -0.10911547 0.95475
0.00090761913 -0.10800667 0.95300007
-0.039232384 -0.10401143 0.95800006
-0.032881401 -0.10252713 0.95720017
-0.025420714 -0.10167953 0.95325005
-0.01816524 -0.10173404 0.95375001
-0.010899643 -0.10174702 0.95387501
-0.0036385118 -0.10191495 0.95543748
0.0021222224 -0.1003508 0.95500004
-0.040692195 -0.091055624 0.95800012
-0.033596832 -0.093006745 0.9568001
-0.025920847 -0.094202019 0.95311123
-0.018162979 -0.09445513 0.95362502
-0.010896726 -0.094449587 0.9535625
-0.0036366666 -0.094566435 0.95475
0.0034949372 -0.093504973 0.95515782
0.0081985723 -0.091093816 0.95650005
-0.046531431 -0.083939053 0.95800006
-0.041903395 -0.085626386 0.95643759
-0.034515657 -0.085379474 0.95368755
-0.026386945 -0.086341873 0.9526248
-0.018131312 -0.087031081 0.95187503
-0.010156297 -0.087993763 0.9503333
-0.003465042 -0.086790763 0.95217651
0.0036371425 -0.085451432 0.95450002
0.010021126 -0.085036717 0.95636368
-0.046531431 -0.079377145 0.95800006
-0.041886196 -0.07830096 0.95600009
-0.034493931 -0.078065842 0.95312506
-0.026205126 -0.078177199 0.95185709
-0.018103095 -0.078750141 0.95045006
-0.0087460335 -0.077507943 0.94999999
-0.0036229764 -0.078466788 0.95112497
0.0036257741 -0.07796102 0.95181251
0.010272895 -0.078320079 0.95361537
-0.046531431 -0.071165718 0.95800006
-0.041839231 -0.070940182 0.95493758
-0.034449887 -0.070712857 0.95187497
-0.026238097 -0.070571437 0.94999999
-0.018125417 -0.070695192 0.95168751
-0.010860357 -0.070600003 0.9503749
-0.0036260122 -0.070698395 0.95168746
0.0036192264 -0.070585184 0.95018739
0.0099876197 -0.070818104 0.95333338
-0.047313474 -0.064257696 0.95800018
-0.041819528 -0.063630722 0.95450002
-0.034477029 -0.063507624 0.95262504
-0.02625267 -0.063372485 0.95060009
-0.018140061 -0.063495308 0.95243752
-0.010857143 -0.06333334 0.94999987
-0.0036194052 -0.063357621 0.9503749
0.0036302384 -0.063480712 0.95225
0.010544082 -0.063509122 0.95657158
-0.046531431 -0.058392383 0.95800006
-0.041880835 -0.05644203 0.9558751
-0.034463454 -0.056229889 0.95225006
-0.026340766 -0.056319624 0.95380002
-0.018156905 -0.056287624 0.95325005
-0.010920319 -0.056167565 0.95019996
-0.0036215477 -0.056160603 0.95112497
0.0036365474 -0.056323573 0.95387501
0.010396001 -0.056531053 0.95740014
0.015510477 -0.053830478 0.95800006
-0.041896425 -0.049178101 0.95625007
-0.034434941 -0.048929106 0.95143747
-0.026337001 -0.049045291 0.95365
-0.018173156 -0.049067557 0.95406246
-0.010866786 -0.048894644 0.95074993
-0.0036286903 -0.049010001 0.95300001
0.003637976 -0.049107499 0.95487499
0.010492381 -0.048508264 0.95800012
0.015510477 -0.046531431 0.95800006
-0.040448889 -0.042273656 0.95800006
-0.033707526 -0.041902099 0.95650005
-0.025449881 -0.041809171 0.95437497
-0.018162204 -0.041773155 0.95356256
-0.010889167 -0.041743934 0.95287502
-0.0036372612 -0.041832265 0.95487499
0.0036479165 -0.041943274 0.95743763
0.010185636 -0.04165373 0.95775008
-0.040144764 -0.0337581 0.95800012
-0.03358639 -0.033584006 0.95737505
-0.025488526 -0.033677667 0.95574999
-0.018211622 -0.033692952 0.95620006
-0.010910382 -0.033640858 0.95469999
-0.0036433812 -0.0336871 0.95605004
0.0036486671 -0.033735808 0.95740014
0.010465547 -0.033436082 0.95800006
0.01629252 -0.033758096 0.95800018
-0.039962292 -0.026824003 0.95800012
-0.033753384 -0.025542239 0.9578501
-0.025537383 -0.025535598 0.95762509
-0.018243512 -0.02554113 0.95781261
-0.010914286 -0.025466667 0.95499998
-0.003641845 -0.025511133 0.95668757
0.0028892066 -0.026002858 0.95800012
0.011860953 -0.027827621 0.95800006
0.015510477 -0.027371431 0.95800006
-0.032585036 -0.018638641 0.95800018
-0.025546668 -0.018247617 0.95800012
-0.018330563 -0.01932589 0.95800012
-0.01092125 -0.018201251 0.95568752
-0.0036461311 -0.018235654 0.95743763
0.0020528573 -0.018019525 0.95800012
-0.032541588 -0.013077462 0.95800006
-0.025546668 -0.013685715 0.95800006
-0.016422858 -0.010948572 0.95800006
-0.011064831 -0.01067667 0.95692873
-0.0047443812 -0.010766095 0.95800012
0.00091238099 -0.010036191 0.95800006
-0.010188255 -0.003801587 0.95800012
-0.0045619053 -0.0030689179 0.95800012
0.00091238099 -0.00091238099 0.95800006
-0.011131049 0.0034670476 0.95800018
-0.0036495239 0.00091238099 0.95800006
0.00091238099 0.00091238099 0.95800006
0.019138096 0.00091142859 0.95700014
-0.011695066 0.010367967 0.95800012
-0.040288027 -0.11537267 0.96142882
-0.035694286 -0.11715049 0.96100003
-0.039721336 -0.099577919 0.96100008
-0.034779049 -0.099760965 0.96100008
-0.047184289 -0.092077628 0.96200007
-0.041896928 -0.09442573 0.96115404
-0.035694286 -0.09610001 0.96100003
-0.054280005 -0.084640011 0.96600002
-0.049458101 -0.086092383 0.96166682
-0.055157863 -0.079058573 0.96525002
-0.050081544 -0.07853663 0.96146166
-0.054923341 -0.071797632 0.96650004
-0.050434455 -0.071524292 0.96283358
-0.05472286 -0.064200006 0.96300018
-0.051019795 -0.063849635 0.96233338
-0.055602103 -0.05651734 0.96340007
-0.04989491 -0.056571089 0.96250015
0.011898096 -0.056744765 0.96100008
0.016779367 -0.056134611 0.96100008
-0.055751622 -0.048509344 0.96600002
-0.049582921 -0.049255181 0.96300012
0.012355715 -0.051710956 0.96100003
0.016605034 -0.049815107 0.96100008
-0.056238096 -0.040563814 0.96799994
-0.049326837 -0.040865138 0.96305573
-0.043382287 -0.040453527 0.96100008
0.013368191 -0.041936576 0.96140003
0.015575239 -0.042146668 0.96200001
-0.056735311 -0.033436131 0.96749997
-0.04959286 -0.033058457 0.96424991
-0.043931432 -0.032948576 0.96100003
0.013728572 -0.034779049 0.96100003
0.016474286 -0.032033335 0.96100003
-0.05537143 -0.028608574 0.96900004
-0.047412384 -0.02611143 0.96766675
-0.042629737 -0.025333019 0.96144456
0.0059490479 -0.024253812 0.96100003
0.010682223 -0.024871908 0.96133351
-0.047680955 -0.017841907 0.96900004
-0.041416492 -0.018176293 0.96184242
-0.035694286 -0.017389525 0.96100008
-0.018121717 -0.015925145 0.96100008
0.0052626198 -0.018533573 0.96100003
0.011019047 -0.018360954 0.96400011
0.015656192 -0.017496191 0.96700001
-0.052602861 -0.0092285722 0.96900004
-0.048850715 -0.01106024 0.96775001
-0.041198384 -0.010986571 0.96130019
-0.033034362 -0.010493994 0.96146166
-0.02563159 -0.010069048 0.96116686
-0.018914921 -0.010982858 0.96100014
-0.010067619 -0.012813333 0.96100003
-0.0018304763 -0.011287938 0.96100008
0.0038440006 -0.011043875 0.96100026
0.011048036 -0.011045894 0.96656239
0.016611429 -0.011074287 0.96899998
-0.052602861 -0.0009228572 0.96900004
-0.048116006 -0.0035030481 0.96779996
-0.040653225 -0.003831597 0.96364707
-0.033051074 -0.0036715483 0.96400005
-0.025654048 -0.0036645241 0.96200019
-0.018338574 -0.003666905 0.9627502
-0.013270954 -0.0032033338 0.96100003
-0.0016474288 -0.0049422863 0.96100008
0.0038493341 -0.0038466672 0.96180016
0.011046964 -0.0036830364 0.96656233
0.016572857 -0.0036878574 0.96675003
-0.04106582 0.0038114791 0.96268433
-0.033000715 0.0036659522 0.96250021
-0.02563357 0.0036614286 0.96125025
-0.018307026 0.0036610719 0.9611252
-0.008237143 0.0064066672 0.96100003
-0.0036609527 0.0045761908 0.96100014
0.0038485718 0.0038473019 0.96180022
0.011038036 0.0036808935 0.96581239
0.01708254 0.0044012708 0.96666664
-0.060171433 -0.045360003 0.97200006
-0.06023334 -0.025945716 0.97300005
-0.055442866 -0.025230395 0.97463644
-0.050173718 -0.024624003 0.97200006
-0.054760482 -0.018562384 0.97450012
-0.050297149 -0.019131429 0.97200006
-0.054999053 -0.011481716 0.9722001
-0.05478546 -0.0039553256 0.97200006
-0.054173972 0.025692489 0.97511125
-0.05004048 0.025945716 0.97300005
0.015737144 0.030548573 0.97200006
-0.060666669 -0.023333335 0.98000002
-0.058800004 -0.023333335 0.98000002
-0.060759529 -0.020566192 0.98150003
-0.058800004 -0.018666668 0.98000002
-0.060852386 0.01778762 0.98300004
-0.058177784 0.01928889 0.98000002
-0.056933336 0.027066668 0.98000002
