# .PCD v0.7 - Point Cloud Data file format
VERSION 0.7
FIELDS x y z
SIZE 4 4 4
TYPE F F F
COUNT 1 1 1
WIDTH 273
HEIGHT 1
VIEWPOINT 0 0 0 1 0 0 0
POINTS 273
DATA ascii
-0.016593335 -0.06113334 0.91700006
-0.011353333 -0.062006667 0.91699994
-0.0049488894 -0.060842227 0.91700006
-0.01024182 -0.05676667 0.91699994
-0.0054146671 -0.057116002 0.917
-0.0026485715 -0.10064574 0.92700005
0.001589143 -0.10011601 0.92700005
-0.008828572 -0.091817141 0.92700005
-0.0035314285 -0.093582869 0.92700005
0.0014714285 -0.093582869 0.92700005
-0.015597144 -0.084460005 0.92700005
-0.010334287 -0.086076751 0.92628586
-0.0035296432 -0.086486079 0.92662507
0.0020600001 -0.086225726 0.92700005
-0.017509798 -0.078982458 0.92585725
-0.011429049 -0.07911744 0.92300016
-0.0035207744 -0.0792384 0.92443758
0.0035245838 -0.079291254 0.9250626
0.0097059868 -0.07701239 0.92642868
-0.017591907 -0.071241431 0.92350006
-0.011411888 -0.071100287 0.92168021
-0.0035163809 -0.071240298 0.92350006
0.0035196671 -0.071277581 0.92395002
0.010251071 -0.070864163 0.92575014
-0.018468693 -0.063316792 0.92337501
-0.011401271 -0.06517715 0.92066669
-0.0031728942 -0.063653789 0.92138469
0.0035138098 -0.063247509 0.92237502
0.010199321 -0.063698649 0.92528588
-0.01791217 -0.056666248 0.92488891
-0.012790053 -0.055163596 0.92266667
-0.0026344594 -0.055681735 0.92272735
0.0035238098 -0.056380954 0.92500013
0.0097114295 -0.056502864 0.92700005
-0.037962861 -0.048557147 0.92700005
-0.017263267 -0.049267355 0.92614299
-0.01145238 -0.049333338 0.92500001
-0.0035238098 -0.049333334 0.92500013
0.0035775353 -0.04909227 0.92535305
0.0092069404 -0.049566127 0.92700011
-0.017507758 -0.040178776 0.92571437
-0.011443581 -0.041369226 0.92416
-0.0035216671 -0.041385483 0.92455006
0.003482857 -0.041265015 0.92605269
-0.017639048 -0.033512384 0.92600006
-0.011442955 -0.033441912 0.9241001
-0.0035252383 -0.033493094 0.92550009
0.002487706 -0.033775501 0.92663646
-0.016413907 -0.025943432 0.9266001
-0.011268421 -0.026570374 0.92510533
-0.003531429 -0.026485715 0.92700005
0.0014714287 -0.028545719 0.92700005
-0.015985504 -0.018535979 0.92677784
-0.010992431 -0.018876845 0.92531586
-0.003669925 -0.018720154 0.92668426
0.0028692856 -0.016112143 0.92700005
-0.01571486 -0.011830287 0.92700005
-0.01033932 -0.011977008 0.92671442
-0.0033754064 -0.010850364 0.92676479
0.0024278574 -0.011477144 0.92700005
-0.0029428573 -0.0055914288 0.92700005
0.00088285719 -0.0061800005 0.92700005
-0.008828572 0.011477144 0.92700005
-0.0061800005 0.011477144 0.92700005
-0.016028572 -0.11309049 0.93500006
0.011583176 -0.11317112 0.93566674
-0.016930001 -0.10869525 0.93550003
-0.010878024 -0.10786207 0.93361557
-0.0038429631 -0.10670859 0.93111122
0.0035574608 -0.10755732 0.9333334
0.010688096 -0.10866788 0.93525016
0.016740778 -0.10830096 0.93418193
-0.017734075 -0.10193239 0.93611115
-0.010666966 -0.10130494 0.93306267
-0.0062000002 -0.10097143 0.93000007
0.0044297837 -0.10123326 0.93018204
0.010671965 -0.10135923 0.9335627
0.016925398 -0.10154953 0.93533349
-0.016142996 -0.093160138 0.93414295
-0.011231508 -0.094570719 0.93091691
0.0047828578 -0.093885727 0.93000025
0.010671429 -0.094239064 0.93350017
0.017227327 -0.093821339 0.93684632
-0.024643179 -0.084628575 0.93533343
-0.018934559 -0.087018386 0.93371451
-0.012400001 -0.089457147 0.93000007
0.0054408172 -0.087179594 0.93000019
0.010807521 -0.08639431 0.93315798
0.017277263 -0.086157039 0.93625021
-0.032125719 -0.077637151 0.93700016
-0.026335716 -0.078324169 0.93325019
-0.021015584 -0.079150654 0.93000025
0.011334815 -0.079336092 0.93133342
0.017453335 -0.078215115 0.93628597
-0.031828258 -0.070795566 0.93700016
-0.026717737 -0.071239643 0.93500018
-0.021257143 -0.070857152 0.93000019
0.013285715 -0.069971435 0.93000007
0.017801849 -0.071186729 0.9343127
-0.032091908 -0.064184293 0.93599993
-0.026663035 -0.063982688 0.93306267
-0.021552384 -0.064361915 0.93000019
0.013285715 -0.062000003 0.93000007
0.01762883 -0.064268455 0.93466687
-0.031519689 -0.056793656 0.93666667
-0.026879154 -0.056413651 0.93366688
-0.021383675 -0.056306127 0.93000019
0.013305715 -0.055879433 0.93140012
0.016932381 -0.056140006 0.93566692
-0.03316924 -0.047616478 0.93630022
-0.026480423 -0.048503712 0.93355572
-0.020650992 -0.048320442 0.93030792
0.01125286 -0.047957301 0.93250024
0.016932381 -0.048120007 0.9356668
-0.031233335 -0.043726668 0.93700004
-0.026727321 -0.040974829 0.93531269
-0.020966776 -0.041048467 0.93022239
0.01065756 -0.040839702 0.93218768
0.016781215 -0.04126104 0.9362728
-0.026743393 -0.033871133 0.9359377
-0.021275003 -0.033683572 0.93075013
0.0058457144 -0.033125717 0.93000013
0.010656549 -0.03373393 0.93212515
0.015935376 -0.034037963 0.93700016
-0.026194202 -0.027652731 0.93663645
-0.020410158 -0.02661762 0.93166685
0.0040197806 -0.026094506 0.93000025
0.010664643 -0.026652379 0.93287516
0.016058812 -0.026765002 0.93675005
-0.024391748 -0.018442541 0.93700016
-0.020437654 -0.018655682 0.93286693
0.0039857146 -0.020223811 0.93000025
0.010678858 -0.018681053 0.93410009
0.01552743 -0.020167811 0.9370001
-0.019651176 -0.010267938 0.93480027
-0.010628572 -0.0079714293 0.93000007
0.0046528573 -0.0097471438 0.93050015
0.010514541 -0.010866668 0.93533355
-0.01869162 -0.0035596192 0.93420023
-0.010628573 -0.0035428572 0.93000025
-0.0038971433 -0.0023028573 0.93000025
0.0037302864 -0.0033725719 0.93200022
0.0098104775 -0.0035669846 0.93633354
-0.018493183 0.0035097247 0.93363178
-0.010628572 0.0035428572 0.93000025
-0.003545119 0.0035475004 0.93087518
0.0035585715 0.0035571426 0.93337518
0.0092193661 0.0032718522 0.93677789
-0.01779619 0.010675238 0.93400019
-0.010881634 0.010502042 0.93000031
-0.0033685719 0.010587874 0.93166685
0.0035666663 0.010692143 0.9355002
0.0098161912 0.00892381 0.93700004
-0.017334005 0.018798431 0.93458843
-0.010648382 0.018635904 0.93160021
-0.0035470952 0.018641954 0.93205023
0.0035676192 0.018720003 0.93600017
0.0080314288 0.019632382 0.93700004
-0.017098788 0.026173424 0.93590915
-0.010685716 0.026714284 0.93500018
-0.0035602383 0.0267125 0.93487519
0.0031854422 0.026492793 0.93614304
-0.018083811 -0.10796572 0.94000006
-0.018949207 -0.10011746 0.94000024
-0.024171431 -0.091314293 0.94000006
-0.020441271 -0.093552381 0.94000024
0.018800002 -0.095790483 0.94000006
-0.024171431 -0.088628575 0.94000006
0.021674288 -0.08544191 0.94040006
0.024171431 -0.083257146 0.94000006
0.021792065 -0.079404771 0.94033337
0.02511796 -0.079728574 0.94671428
-0.034198098 -0.072872393 0.94000006
0.022380954 -0.071619049 0.94000006
0.025796887 -0.070177667 0.94581825
0.022098415 -0.063306674 0.94066668
0.026129527 -0.063066676 0.94600004
-0.033481907 -0.054967623 0.94000006
0.021115649 -0.056690618 0.94057149
0.026262324 -0.056012679 0.94668752
0.031600002 -0.056880005 0.94800007
-0.033720639 -0.050431751 0.94000006
0.021384491 -0.048017964 0.94114286
0.025699768 -0.048689291 0.94675004
0.034308575 -0.046045717 0.94800007
-0.032356463 -0.040797282 0.94000012
0.020258669 -0.040695239 0.94119996
0.024484526 -0.041905485 0.94625008
-0.032535244 -0.033728044 0.9402222
0.019449949 -0.034007832 0.9424445
0.0253426 -0.035016887 0.94718182
-0.032773145 -0.027221143 0.94020003
-0.028110478 -0.024887621 0.94000006
0.019860003 -0.026442224 0.94300008
0.02257143 -0.027085716 0.94800007
-0.032730639 -0.018378891 0.94150007
-0.027880274 -0.018927893 0.9400003
0.018639663 -0.018118301 0.94464308
0.02257143 -0.020765716 0.94800007
-0.038495239 -0.0089523811 0.94000006
-0.033635836 -0.010765596 0.94187504
-0.026868694 -0.010746311 0.94037527
0.013428573 -0.0080571435 0.94000006
0.01763007 -0.011063132 0.94557148
-0.038700003 -0.0063000005 0.94500005
-0.032815918 -0.0045048981 0.94585729
-0.026899409 -0.0035854767 0.94137514
0.013428573 -0.0035809528 0.94000006
0.018017266 -0.0036020239 0.94562495
0.034148335 -0.0026964287 0.94375002
-0.031500001 0.0035985718 0.94500005
-0.026893515 0.0035856552 0.94118762
-0.022380954 0.0044761905 0.94000006
0.01267347 0.0039687078 0.94085717
0.017836193 0.0035420959 0.94560009
-0.032419529 0.010507144 0.94550002
-0.026908159 0.010764226 0.94168764
-0.022380954 0.010742858 0.94000006
0.010906531 0.011031022 0.94271433
0.01697143 0.010577664 0.94690913
-0.032373883 0.018444084 0.94800007
-0.026738841 0.018451856 0.94266671
-0.021709524 0.018576192 0.94000006
0.01132432 0.01838756 0.94333333
0.015348572 0.017154288 0.94800013
-0.027123602 0.026417995 0.9422223
-0.020789418 0.027553441 0.94000012
0.006266667 0.02864762 0.94000006
0.010948686 0.026696809 0.94364715
0.027323812 -0.076542862 0.94999999
0.02714286 -0.073285721 0.95000005
0.028999526 -0.05346524 0.95150006
0.032371752 -0.054154605 0.95300007
0.029551813 -0.049494289 0.95180005
0.032500956 -0.049336333 0.9517144
0.028726192 -0.040940478 0.94999993
0.032571431 -0.041619051 0.94999993
0.026251905 -0.034096036 0.95050001
0.03166667 -0.037095241 0.95000005
0.025642639 -0.02591854 0.95369232
-0.047395244 -0.017316192 0.95700002
-0.043140322 -0.017316192 0.95700014
-0.037407622 -0.016422858 0.95800006
0.025402246 -0.018014219 0.95250005
-0.047443815 -0.013685715 0.95800006
-0.044706669 -0.013685715 0.95800006
-0.034510206 -0.010469388 0.94999999
0.020809526 -0.00904762 0.95000005
0.026114838 -0.010740904 0.9523685
0.032896955 -0.011452 0.95419997
-0.038904764 -0.0036190478 0.95000005
-0.035486776 -0.0029153442 0.94999993
0.026301956 -0.0036277622 0.95224994
0.03166667 -0.00452381 0.95000005
-0.035224766 0.0037141128 0.95272732
0.020809526 0.00452381 0.95000005
0.025426546 0.0036333338 0.95337498
0.030037858 0.0036430955 0.95574999
-0.035345186 0.010974181 0.95155555
0.020460764 0.011408572 0.95060009
0.025317462 0.010746796 0.95613343
0.030716827 0.0088196835 0.95800006
-0.03591492 0.017806351 0.95066667
0.018759049 0.018338829 0.95176929
0.024448922 0.017983986 0.95718193
0.018298322 0.025761627 0.95205879
-0.040290955 -0.016482383 0.96149999
-0.040551569 -0.012725716 0.96457148
0.028372383 0.013728572 0.96100003
0.031751111 0.011906351 0.96166676
0.028018096 0.018862668 0.96140003
0.030856196 0.017720003 0.96233338
-0.041657146 -0.0083314292 0.97200006
