# .PCD v0.7 - Point Cloud Data file format
VERSION 0.7
FIELDS x y z
SIZE 4 4 4
TYPE F F F
COUNT 1 1 1
WIDTH 306
HEIGHT 1
VIEWPOINT 0 0 0 1 0 0 0
POINTS 306
DATA ascii
-0.0094880965 -0.10701762 0.92675006
-0.0035304767 -0.106787 0.92666674
0.0026485715 -0.10638428 0.92700005
-0.010468164 -0.10102411 0.92700011
-0.0035298811 -0.10057823 0.92637509
0.0035310718 -0.10063253 0.92687505
0.0079457145 -0.099762864 0.92700005
0.018540001 -0.10241143 0.92700005
-0.0083871428 -0.09490715 0.92700005
-0.0035313095 -0.09356989 0.92687505
0.0029202199 -0.093786597 0.92700011
0.0083871428 -0.093141437 0.92700005
-0.0094907153 -0.085416436 0.92700005
-0.0035310714 -0.086508676 0.92687505
0.0033548572 -0.086461149 0.92700011
0.0079457145 -0.089168578 0.92700005
-0.018126374 -0.078276858 0.92669243
-0.011045663 -0.078983128 0.92372227
-0.0033695798 -0.079076931 0.92558831
0.003528334 -0.079350494 0.92575008
0.010815 -0.078132868 0.92700005
0.015008572 -0.075042859 0.92700005
-0.018672749 -0.07109151 0.92684627
-0.011426211 -0.071181267 0.92272025
-0.0036568923 -0.071098901 0.92405272
0.0035238096 -0.071357138 0.92500001
0.010532157 -0.070807002 0.92594129
0.015008572 -0.069745719 0.92700005
-0.017657144 -0.063565716 0.92700005
-0.011429287 -0.063288152 0.92295009
-0.0035164882 -0.063312687 0.92331254
0.0035238098 -0.063428581 0.92500013
0.010582976 -0.063487746 0.92587513
0.015008572 -0.063565716 0.92700005
-0.017026534 -0.056124497 0.92700011
-0.011259799 -0.056486476 0.9244737
-0.0035236313 -0.056368995 0.92481261
0.0035238098 -0.056380961 0.92500013
0.010215919 -0.056755114 0.92700011
0.015008572 -0.059151433 0.92700005
-0.023837144 -0.047674291 0.92700005
-0.018035512 -0.048052657 0.92700005
-0.01057143 -0.049333334 0.92500013
-0.0035236313 -0.049336962 0.92506266
0.003668522 -0.048691984 0.92605269
0.008828572 -0.048557144 0.92700005
-0.023837144 -0.043260004 0.92700005
-0.017988214 -0.040721785 0.92700005
-0.01057143 -0.041404773 0.92500001
-0.0035277146 -0.041452099 0.92610008
0.0035312704 -0.041780483 0.92683339
0.0079457145 -0.043260004 0.92700005
-0.016421145 -0.033901718 0.92700005
-0.010573572 -0.033485718 0.92525011
-0.0031301298 -0.033147275 0.92700005
0.0026485715 -0.033254288 0.92700005
-0.015891429 -0.029134288 0.92700005
-0.010589405 -0.026474169 0.92662507
-0.0039728573 -0.027368573 0.92700005
0.00088285719 -0.029134288 0.92700005
-0.010853951 -0.019059326 0.92700005
-0.0061800005 -0.019422859 0.92700005
-0.012654288 -0.012654288 0.92700005
-0.016062859 -0.11333239 0.93700004
-0.016934285 -0.1080488 0.93588895
-0.012234287 -0.10761867 0.93080008
0.0053176191 -0.10811573 0.93050009
0.010643572 -0.10820381 0.93125015
0.016607145 -0.10695 0.93000019
-0.01801612 -0.10225818 0.93492329
-0.011528572 -0.098420009 0.93100005
0.011014015 -0.10114409 0.9304288
0.016494192 -0.10073381 0.93110007
-0.015467938 -0.093105093 0.93700016
-0.011393096 -0.093635172 0.93191683
0.0062000002 -0.09300001 0.93000007
0.011384445 -0.094167948 0.93133348
0.018509926 -0.094228618 0.93478954
-0.031233335 -0.082991436 0.93700004
-0.026465081 -0.084895395 0.93666685
-0.018707683 -0.086396724 0.93520015
-0.011745952 -0.087978818 0.93075013
0.0062000002 -0.087685719 0.93000007
0.010816382 -0.086698294 0.93080026
0.018839089 -0.086475611 0.93445837
0.025176194 -0.084885232 0.93574995
-0.026715355 -0.078352034 0.93487513
-0.020592857 -0.080378585 0.93000019
0.0097428579 -0.082371436 0.93000007
0.018659147 -0.078523718 0.9327001
0.025482437 -0.07922361 0.93700016
-0.031233335 -0.07139048 0.93700004
-0.026654284 -0.071067736 0.93275011
-0.0217 -0.07041429 0.93000007
0.019296192 -0.07126002 0.93323553
0.024451241 -0.070855051 0.9370001
-0.032831606 -0.06395819 0.9362728
-0.02663238 -0.0639081 0.93200016
-0.021257143 -0.063771434 0.93000019
0.01955881 -0.063993812 0.93325019
0.024986668 -0.06425143 0.93700016
0.034776829 -0.062124133 0.93633336
0.038290478 -0.063223816 0.93500006
-0.032885857 -0.05633837 0.9368574
-0.026797591 -0.056563985 0.93229431
-0.02073524 -0.056710865 0.93040019
0.013285715 -0.054914288 0.93000007
0.019096367 -0.056222696 0.93436372
0.025369117 -0.058004774 0.93700016
0.031233335 -0.059789527 0.93700004
-0.032621488 -0.048486039 0.93700016
-0.027170351 -0.048827499 0.93220025
-0.021257143 -0.051371433 0.93000007
0.011816668 -0.04874143 0.93050021
0.018449353 -0.048457235 0.93436372
0.025482437 -0.047692806 0.93700016
-0.031828258 -0.040454607 0.93700016
-0.026843367 -0.040703941 0.93313348
-0.020814287 -0.0403 0.93000007
0.0030114285 -0.03879429 0.93000013
0.01082254 -0.040619884 0.9312669
0.018711237 -0.040978856 0.93540013
0.02528413 -0.041644447 0.93700016
-0.031998236 -0.034292929 0.93700016
-0.026669284 -0.033774287 0.93325019
-0.020725716 -0.033302858 0.93000025
-0.0044285716 -0.034542859 0.93000013
0.0037534069 -0.033768352 0.93123096
0.010670001 -0.033778217 0.93337518
0.018720286 -0.033870388 0.93590015
0.024689209 -0.034802862 0.93700004
-0.031233337 -0.027663812 0.93700004
-0.026720835 -0.026716072 0.93512517
-0.018914236 -0.026298465 0.93083352
-0.0031000001 -0.025685715 0.93000019
0.0037260954 -0.026433146 0.93133354
0.010669108 -0.026666606 0.93331271
0.018100338 -0.026911767 0.93641198
-0.031233335 -0.01695524 0.93700004
-0.026765903 -0.018735809 0.93680018
-0.018664649 -0.018660992 0.93299991
-0.0091523826 -0.01564762 0.93000007
-0.0028786906 -0.018380597 0.93012524
0.0035496668 -0.018631386 0.9316501
0.010688715 -0.018702241 0.93515015
0.015963707 -0.019136617 0.93700016
-0.025655955 -0.010708572 0.93700016
-0.018693857 -0.010676048 0.93445027
-0.010182711 -0.010179195 0.93276936
-0.0035519048 -0.010654286 0.93250012
0.0035547619 -0.010661785 0.9331252
0.010694286 -0.010690357 0.9355002
0.015170477 -0.010708572 0.93700004
-0.01874 -0.0035695245 0.93700022
-0.010685715 -0.0035619047 0.93500018
-0.0035619049 -0.0035619047 0.93500018
0.0035619049 -0.0035619049 0.93500018
0.010701667 -0.0035661908 0.93625015
0.015170477 -0.004461905 0.93700004
-0.018739998 0.003569524 0.93700022
-0.010679464 0.0035585123 0.93443763
-0.0035606548 0.0035606546 0.93481266
0.0035664283 0.0035652381 0.93575019
0.0094592385 0.0032125711 0.93700022
-0.024689209 0.011006033 0.93700004
-0.01855213 0.010661603 0.93700016
-0.010666787 0.010664287 0.93312514
-0.0035531551 0.010665893 0.93331265
0.003567619 0.010697142 0.93600023
0.0080314288 0.0080314288 0.93700004
-0.024094289 0.01695524 0.93700004
-0.01859127 0.01859127 0.93700022
-0.010685716 0.018700002 0.93500012
-0.0035629526 0.018714575 0.93570012
0.0035695236 0.018740002 0.93700022
0.0080314288 0.015170477 0.93700004
-0.018145081 0.025284128 0.93700016
-0.010699525 0.026751669 0.93625015
-0.0046241563 0.026852557 0.93700022
-0.011244001 0.032839622 0.93700022
-0.0048188576 0.03194724 0.9370001
-0.017009525 -0.10921906 0.94000006
-0.019417146 -0.099066675 0.94088894
-0.024793971 -0.092906356 0.94099998
-0.019883307 -0.093324326 0.94040024
-0.03312381 -0.083257146 0.94000006
-0.024171431 -0.088628575 0.94000006
-0.038761429 -0.077521436 0.94650006
-0.03406655 -0.078884296 0.94125021
0.02856354 -0.078003548 0.94142866
-0.038761429 -0.073918581 0.94650006
-0.034831781 -0.072023816 0.94209099
0.027959486 -0.071974032 0.94145465
0.033460002 -0.070515431 0.94440001
-0.036107939 -0.064158738 0.94000006
0.028655481 -0.064475 0.94025004
0.033489179 -0.065103725 0.94109106
-0.039019048 -0.056160819 0.9402858
-0.036406353 -0.05610159 0.94000006
0.02762403 -0.055453192 0.94030797
0.032478333 -0.054875955 0.94075
-0.038556673 -0.048418574 0.94150007
-0.035681635 -0.04795919 0.94000012
0.028555105 -0.049042728 0.94114292
0.034100182 -0.048456971 0.94218767
0.039640956 -0.04775238 0.9460001
-0.035361048 -0.041638386 0.94230002
0.027764192 -0.040839624 0.94040012
0.034047857 -0.041213334 0.94075024
0.039175242 -0.04336191 0.94200009
-0.035655666 -0.033856086 0.94377786
0.027388211 -0.033869818 0.94161552
0.03420322 -0.03419679 0.94500005
0.038669288 -0.03416786 0.94424999
-0.03882286 -0.026182858 0.94800007
-0.034936808 -0.026454763 0.94392878
0.022380954 -0.025961906 0.94000006
0.027007431 -0.02609962 0.94510001
0.033228338 -0.026010714 0.94725007
0.03966143 -0.027947145 0.94650006
-0.038700003 -0.018000001 0.94500005
-0.034107838 -0.018747091 0.94233334
0.020378571 -0.018585717 0.94050026
0.027040895 -0.018025538 0.94631249
0.034100223 -0.0186822 0.94800007
-0.03882286 -0.0099314293 0.94800013
-0.03421402 -0.010544492 0.94528568
-0.027976194 -0.010742858 0.94000006
0.019531559 -0.010929398 0.94066679
0.026578754 -0.010473395 0.9459374
0.032803811 -0.0093295248 0.94800007
-0.034238752 -0.0036037501 0.94593751
-0.026865004 -0.0035814287 0.94025016
0.018552825 -0.0033786085 0.94138473
0.026140431 -0.0036041432 0.94635004
0.033405721 -0.0036114294 0.94800007
-0.034159169 0.0035930956 0.94375002
-0.026861073 0.0035817861 0.94012523
0.01283651 0.0041793655 0.94033337
0.017973276 0.0035935123 0.94343746
0.026175039 0.003561805 0.94768423
0.032631841 0.0027085717 0.94800007
-0.03364696 0.010571648 0.94300008
-0.027344031 0.010676192 0.94015402
-0.022380954 0.011638096 0.94000006
0.010930413 0.010930413 0.94066685
0.017967086 0.010780894 0.94318759
0.025309676 0.01019143 0.94638461
0.031600002 0.0090285726 0.94800007
-0.031901147 0.017482858 0.94620007
-0.027218156 0.018928513 0.94081265
-0.022380954 0.022380954 0.94000006
0.010753335 0.018815767 0.94077802
0.018013753 0.018012682 0.94556248
0.02334531 0.017670207 0.94800007
0.031600002 0.017154288 0.94800007
-0.032058775 0.026395103 0.94628584
-0.027081739 0.02665462 0.94217658
-0.019288313 0.028077923 0.94000024
-0.0012533333 0.026678098 0.94000006
0.0035823812 0.026865002 0.94025016
0.010936528 0.026673 0.94276476
0.017739685 0.025854923 0.94699997
-0.031600002 0.03250286 0.94800007
-0.026976073 0.034165602 0.94400007
-0.018808 0.034034293 0.94040024
-0.0098476205 0.035809524 0.94000006
-0.0030128141 0.034948405 0.94090927
0.0035922029 0.034108158 0.94243765
0.010804824 0.034208037 0.94518745
0.016251432 0.034308571 0.94800001
-0.031600002 0.03882286 0.94800007
-0.0107525 0.041221071 0.94087511
-0.0035930364 0.041334938 0.94343758
0.0035987503 0.041376609 0.94443756
0.016070858 0.040267434 0.94800007
0.041619051 -0.047952384 0.95000005
-0.038904764 -0.023523811 0.95000005
0.035964292 -0.026464287 0.94999993
0.041129906 -0.028808003 0.95120013
-0.038904764 -0.020809526 0.95000005
0.035285719 -0.015380954 0.95000005
-0.03902762 -0.013614287 0.95300007
-0.034380954 -0.012666667 0.95000005
0.029857146 -0.013571429 0.95000005
0.035134815 -0.012182434 0.95133334
0.03902762 -0.011799049 0.95300007
-0.038904764 -0.0036190478 0.95000005
-0.038904764 0.0033174609 0.95000005
0.026238097 0.00452381 0.95000005
-0.038904764 0.0081428578 0.95000005
-0.037095241 0.0081428578 0.95000005
0.027827077 0.012038778 0.95128584
0.031716667 0.012688097 0.95150006
-0.034222286 0.01865124 0.95060009
0.027827842 0.018344764 0.95200008
0.032809801 0.018287076 0.95314288
-0.035446271 0.025791667 0.95024991
0.020809526 0.028952383 0.95000005
0.025451278 0.025733083 0.9524737
0.031370241 0.025460714 0.95475
-0.039232384 0.035582859 0.95800006
-0.034913681 0.034776673 0.95378572
0.019929407 0.034422737 0.95112503
0.02568455 0.034072064 0.95544446
0.030865295 0.033293862 0.9563334
