# .PCD v0.7 - Point Cloud Data file format
VERSION 0.7
FIELDS x y z
SIZE 4 4 4
TYPE F F F
COUNT 1 1 1
WIDTH 298
HEIGHT 1
VIEWPOINT 0 0 0 1 0 0 0
POINTS 298
DATA ascii
-0.0043238099 -0.075234294 0.90800011
0.0060533336 -0.066586673 0.90800005
-0.0093098413 -0.10676034 0.91633338
-0.0040638098 -0.10590859 0.91400003
0.0034883334 -0.10628548 0.9147501
0.010105714 -0.10642193 0.917
-0.017175559 -0.099268898 0.91700006
-0.011160149 -0.10106443 0.91605258
-0.003474107 -0.1007759 0.91218752
0.0034826193 -0.1009481 0.91375005
0.01134781 -0.10124039 0.91639996
0.016593335 -0.10130668 0.91700006
-0.010953017 -0.094387837 0.91577774
-0.0034779168 -0.093925305 0.9131875
0.0034850002 -0.094062157 0.9145
0.01116747 -0.094160676 0.91678941
0.016593335 -0.091700003 0.91700006
-0.017466668 -0.08296667 0.91700006
-0.010870996 -0.086162522 0.91636366
-0.0034857143 -0.086271435 0.91500014
0.0034857143 -0.086271428 0.91500014
0.011349599 -0.086423196 0.91659993
0.018332001 -0.087119438 0.91660005
-0.017975429 -0.078183629 0.91619998
-0.011314428 -0.078306064 0.91355008
-0.003275458 -0.078841031 0.91276926
0.0034845239 -0.078385971 0.9145
0.011328953 -0.078429334 0.91500014
0.017903335 -0.077945009 0.91699994
-0.024162224 -0.069575563 0.91700006
-0.019194286 -0.071535245 0.91599995
-0.011301905 -0.071270108 0.91260004
-0.0034713093 -0.071212389 0.91187501
0.0034759524 -0.071272738 0.91262501
0.011302809 -0.071283579 0.91275007
0.019204287 -0.071574286 0.91649991
0.031731114 -0.071322232 0.91700006
-0.02576334 -0.063098341 0.91699988
-0.019192288 -0.063677065 0.91590005
-0.011295238 -0.06428048 0.91210002
-0.0034666667 -0.064133339 0.90999991
0.0032933333 -0.063960008 0.90999997
0.011523896 -0.06383232 0.9113636
0.018844986 -0.064130709 0.9165293
0.026324766 -0.065250486 0.917
-0.025326669 -0.055893332 0.91699994
-0.019134793 -0.055770099 0.91593331
-0.011292267 -0.056450371 0.91192001
-0.0034693812 -0.056395777 0.91104996
0.0034748574 -0.05645315 0.912
0.011102195 -0.056323644 0.91478264
0.017591432 -0.05676667 0.917
-0.024162224 -0.049488895 0.917
-0.018906508 -0.048861116 0.91616666
-0.01131581 -0.048735432 0.91380006
-0.0034747026 -0.048682444 0.91281253
0.0034857143 -0.048800007 0.91500002
0.011345714 -0.048864003 0.91619998
0.017175559 -0.048324447 0.917
-0.023580004 -0.042793334 0.91700006
-0.019358264 -0.041231316 0.9165293
-0.011417923 -0.041459393 0.91563636
-0.0034825001 -0.041798692 0.91437501
0.0034857143 -0.041828573 0.91500002
0.011511247 -0.041673154 0.91614288
0.016942671 -0.041396003 0.917
-0.018185275 -0.034287255 0.91592306
-0.0112653 -0.033715993 0.91595662
-0.0033511277 -0.034191225 0.91563165
0.0034885712 -0.034006294 0.9156
0.011196507 -0.033876352 0.91600007
0.016593335 -0.030566668 0.91700006
-0.017466668 -0.02794667 0.91700006
-0.011168372 -0.026334791 0.91689461
-0.0034933335 -0.026200004 0.91699988
0.0032551517 -0.027232125 0.91699994
0.011850341 -0.02694409 0.91685706
0.017175559 -0.028237781 0.91700006
-0.017466668 -0.019213334 0.91699994
-0.011135001 -0.018776668 0.91699988
-0.0036680007 -0.019388001 0.91699994
0.013973335 -0.021833334 0.91700006
-0.017757779 -0.012808891 0.917
-0.008733334 -0.011790002 0.91700006
-0.0032551517 -0.012782425 0.91699994
0.0026200002 -0.0096066669 0.91700006
-0.004366667 0.004366667 0.91700006
-0.004366667 0.0078600002 0.91700006
-0.014095239 -0.11364286 0.92500007
-0.018626587 -0.10867104 0.92391676
-0.013324156 -0.10906148 0.92145461
0.014019048 -0.10689525 0.92000002
-0.019367527 -0.10138067 0.92410004
-0.014895239 -0.10426667 0.92000002
0.01664762 -0.099009529 0.92000002
-0.023837144 -0.090934291 0.92700005
-0.019167727 -0.093756095 0.92388898
-0.01489524 -0.092000008 0.92000002
0.014895239 -0.097257152 0.92000002
0.01664762 -0.096380964 0.92000002
-0.025992749 -0.085988939 0.92638475
-0.01960592 -0.086571105 0.92350012
-0.014895239 -0.087619051 0.92000002
0.018886583 -0.085660972 0.92036372
0.023747144 -0.084432863 0.92350006
-0.032146879 -0.078459896 0.92333341
-0.026324822 -0.078971498 0.92131251
-0.021320637 -0.079441279 0.92000002
0.020596432 -0.079536431 0.92025006
0.026210673 -0.0789802 0.9234668
0.030733336 -0.07639429 0.92200005
-0.033523917 -0.071342967 0.9224211
-0.026762344 -0.072331876 0.92015386
0.02627877 -0.071710154 0.92152941
0.032054644 -0.069819175 0.92212498
-0.033216927 -0.06348113 0.92200005
-0.028038098 -0.066590481 0.92000002
0.021320637 -0.061625402 0.92000002
0.026309367 -0.062848739 0.92083335
0.032968916 -0.062927566 0.92135721
-0.037880953 -0.053738099 0.92500007
-0.033362623 -0.056182861 0.92175001
-0.028914288 -0.056076191 0.92000002
-0.020152383 -0.056952383 0.92000002
0.020547088 -0.055407625 0.92022216
0.026335957 -0.056182154 0.92175001
0.033068035 -0.056076191 0.92414302
-0.037921906 -0.049384765 0.92600006
-0.033523872 -0.048909638 0.92194122
-0.027512385 -0.048716187 0.92000002
-0.020152383 -0.04906667 0.92000002
0.020507623 -0.049428385 0.92019999
0.026350599 -0.0491881 0.92224997
0.033466849 -0.049317922 0.92468756
0.037962861 -0.048557147 0.92700005
-0.032845899 -0.041549589 0.9258126
-0.026785886 -0.040922251 0.92117649
-0.020152383 -0.044685718 0.92000002
0.020045083 -0.041081533 0.92040008
0.02637505 -0.041316196 0.92310011
0.033482384 -0.041406583 0.92510003
-0.031749524 -0.033512384 0.92600012
-0.026347682 -0.033370424 0.92206252
-0.021203812 -0.032068573 0.92000002
-0.0061333338 -0.030666668 0.92000002
0.019464131 -0.033489782 0.92053342
0.026428573 -0.033476193 0.92500013
0.033495482 -0.033495355 0.92550009
0.037962861 -0.032665715 0.92700005
-0.033265106 -0.026080478 0.92607152
-0.02633887 -0.026337439 0.92181253
-0.019871907 -0.025715079 0.92050004
-0.014895239 -0.023657145 0.92000002
0.0040304768 -0.024007622 0.92000002
0.010222223 -0.024533335 0.92000002
0.019766008 -0.025835756 0.92076927
0.026450476 -0.026448812 0.92575014
0.033322275 -0.027078465 0.92638475
0.037880953 -0.027309526 0.92500007
-0.032992624 -0.01842667 0.92687505
-0.026360538 -0.019329349 0.92256254
-0.021040481 -0.019286668 0.92050004
-0.012266668 -0.021028573 0.92000002
-0.00087619055 -0.01664762 0.92000002
0.0035047624 -0.019276196 0.92000002
0.011105291 -0.018994609 0.92055553
0.019342143 -0.019336669 0.9230001
0.026478002 -0.018533621 0.92670006
0.031959429 -0.016421143 0.92700005
-0.031782858 -0.011477144 0.92700005
-0.026436383 -0.011454381 0.9252001
-0.019928981 -0.010778097 0.92114288
-0.0118966 -0.011310841 0.92038101
-0.0037968259 -0.0096380962 0.91999996
0.0035508778 -0.011482708 0.91999996
0.011412954 -0.01141044 0.92168021
0.019377908 -0.011449239 0.92480004
0.026479287 -0.010590953 0.92675006
0.031782858 -0.011477144 0.92700005
-0.026006082 -0.0040057874 0.92684627
-0.01936405 -0.0035192859 0.92400002
-0.011411717 -0.0035107627 0.92170012
-0.0035072621 -0.0035058334 0.92037505
0.0035064288 -0.0035057147 0.92025
0.011430812 -0.003515667 0.92305011
0.018797437 -0.0037317954 0.92623091
0.026485715 -0.0061800005 0.92700005
0.036197145 -0.0026485715 0.92700005
-0.018783594 0.0033227841 0.9255386
-0.01142824 0.0035156668 0.92304993
-0.0034509213 0.0034514291 0.9210667
0.0035080956 0.0035066672 0.92050004
0.011451095 0.0035236669 0.92484999
0.018796047 0.0037324545 0.92615396
0.036197145 0.0061800005 0.92700005
-0.018382791 0.011203744 0.92535734
-0.01142404 0.011421525 0.92260015
-0.0034641107 0.011601254 0.92184216
0.0035188575 0.011432478 0.92310011
0.010841047 0.010841046 0.92540008
0.018417463 0.010415176 0.92673343
-0.019279527 0.01927655 0.92525005
-0.011422954 0.019332102 0.92260009
-0.003520417 0.019370418 0.92443764
0.0035244052 0.019383455 0.92512512
0.010785503 0.01892106 0.92644459
0.016244574 0.017480571 0.92700005
-0.017402511 0.026546583 0.92627287
-0.011066137 0.026246559 0.92544448
-0.0035238101 0.026428573 0.92500013
0.0035266669 0.026443809 0.92550015
0.010214694 0.02635592 0.92685723
0.015008572 0.025602859 0.92700005
-0.016774286 0.033548575 0.92700005
-0.010592142 0.033539999 0.92675006
-0.0035276194 0.033514284 0.92600012
0.0024266667 0.032419525 0.9262501
0.0097114295 0.031782858 0.92700005
0.00088285719 0.037962861 0.92700005
0.010594286 0.037962861 0.92700005
-0.022142859 -0.1054 0.93000007
-0.021552384 -0.10244763 0.93000007
-0.024622858 -0.093708582 0.93000013
-0.038085718 -0.068200007 0.93000007
-0.038457148 -0.063976385 0.93040007
-0.038085718 -0.058457147 0.93000007
-0.040204607 -0.046410643 0.93116683
-0.039665531 -0.041266672 0.93380016
-0.036314286 -0.039857145 0.93000007
0.041136056 -0.04011048 0.93600017
0.045511432 -0.038372383 0.93700004
-0.038522672 -0.033552002 0.9320001
-0.035428572 -0.033657145 0.93000019
0.041369125 -0.035514157 0.93557155
0.04640381 -0.036587622 0.93700004
-0.038795084 -0.027246509 0.93283343
-0.035428572 -0.029228574 0.93000007
0.033657145 -0.023914287 0.93000007
-0.035871431 -0.019042859 0.93000007
0.031708576 -0.020725716 0.93000013
-0.038905874 -0.010986509 0.93550009
-0.034254126 -0.010334762 0.9301669
0.031885717 -0.0079714293 0.93000007
-0.038372383 -0.004461905 0.93700004
-0.033710357 -0.0035464286 0.93137521
-0.028638098 -0.0014761905 0.93000007
0.022142861 -0.0026571429 0.93000007
0.026575649 -0.003163402 0.93014312
0.032977462 -0.0031053971 0.93166679
-0.033638544 0.003381016 0.9343335
-0.026582979 0.0035441665 0.93037522
-0.022142861 0.004428572 0.93000007
0.022142861 0.0026571429 0.93000007
0.026596548 0.0035455951 0.93087518
0.032812543 0.003545556 0.93116683
-0.033236194 0.010623445 0.93538481
-0.026597977 0.010638929 0.93087518
-0.022142859 0.010628573 0.93000007
0.021552384 0.01269524 0.93000007
0.026609702 0.010645417 0.93131268
0.032820877 0.010646905 0.93141687
-0.033331197 0.018170478 0.9363752
-0.026606619 0.018623289 0.93115008
-0.022142859 0.015942859 0.93000007
0.020150606 0.019323433 0.93066692
0.026694715 0.018686146 0.93425006
0.033744007 0.018914737 0.93626332
-0.032599263 0.026058944 0.93633348
-0.026604824 0.026602324 0.93106276
-0.021383675 0.026951022 0.93000019
0.013285715 0.027457144 0.93000007
0.019021908 0.026705079 0.93122238
0.026758334 0.026757859 0.93650013
0.033667106 0.025716798 0.93700022
-0.032125715 0.032571904 0.93700004
-0.026674286 0.033786431 0.93350017
-0.021285955 0.03370405 0.9312501
0.0046511907 0.03477405 0.93025017
0.01116 0.03472 0.93000025
0.018648097 0.033733424 0.93210024
0.026592953 0.034088958 0.93700027
0.033018101 0.034802862 0.93700016
-0.041921429 -0.0098792082 0.94316667
-0.040137555 -0.004490477 0.94242865
-0.038495239 0.00089523813 0.94000006
-0.038522542 0.018813334 0.94066668
-0.036296193 0.021060955 0.94100004
-0.038618099 0.026039049 0.94300002
-0.035753608 0.027807485 0.94185716
0.034618672 0.02923505 0.94160002
0.038761429 0.028847143 0.94650006
-0.038495239 0.031333335 0.94000006
0.02954286 0.031333335 0.94000006
0.034681149 0.031801142 0.94320011
-0.044333335 -0.0081428578 0.95000005
-0.04071429 0.025333334 0.95000005
0.04071429 0.029857146 0.95000005
0.039809525 0.03166667 0.95000005
