# .PCD v0.7 - Point Cloud Data file format
VERSION 0.7
FIELDS x y z
SIZE 4 4 4
TYPE F F F
COUNT 1 1 1
WIDTH 729
HEIGHT 1
VIEWPOINT 0 0 0 1 0 0 0
POINTS 729
DATA ascii
-0.045524005 -0.062181909 0.59900004
-0.042215236 -0.062752381 0.59900004
-0.039362859 -0.061040957 0.59900004
-0.04549548 -0.057618104 0.59900004
-0.042215232 -0.0576181 0.59900004
-0.037958607 -0.056915972 0.59900004
-0.03337286 -0.05619191 0.59900004
-0.042025078 -0.053307824 0.59900004
-0.037651431 -0.053624757 0.59900004
-0.033658098 -0.05419524 0.59900004
-0.042785719 -0.045828257 0.59900004
-0.047312632 -0.042068955 0.59853333
-0.042763159 -0.041981019 0.59768748
-0.037403714 -0.041395903 0.59869999
-0.032062624 -0.041895241 0.59850001
-0.047210753 -0.037681118 0.59894121
-0.042329308 -0.037703421 0.59823531
-0.037623152 -0.037624106 0.59856248
-0.032492425 -0.037623003 0.59855002
-0.051685143 -0.03069162 0.59900004
-0.047650002 -0.032665756 0.59886366
-0.042531971 -0.032326583 0.59821737
-0.037600957 -0.032473616 0.59819996
-0.032678921 -0.03233292 0.59834772
-0.052413385 -0.02734625 0.59818757
-0.047780722 -0.027303576 0.5972501
-0.042575479 -0.027248433 0.59605002
-0.037513155 -0.027283987 0.59681261
-0.032488473 -0.027360186 0.59850007
-0.052306533 -0.022904763 0.59826672
-0.047751315 -0.02273774 0.59687507
-0.04256843 -0.022702526 0.59595001
-0.037477858 -0.022714287 0.59625006
-0.032471716 -0.022788761 0.59820008
-0.051813532 -0.017840885 0.5987857
-0.047840856 -0.017653903 0.59800005
-0.042657763 -0.017630629 0.59719998
-0.037556764 -0.017638383 0.59750009
-0.032498851 -0.017674474 0.59868002
-0.050772384 -0.013691429 0.59900004
-0.047669999 -0.012711768 0.59892857
-0.042714294 -0.012529524 0.59799993
-0.037647318 -0.012548988 0.59893751
-0.03300612 -0.013039456 0.59900004
-0.046045583 -0.0088831307 0.59900004
-0.04219738 -0.0085530952 0.59875005
-0.038547896 -0.0087201372 0.59900004
-0.051111434 -0.066042863 0.60300004
-0.04996286 -0.066617146 0.60300004
-0.03503143 -0.066042863 0.60300004
-0.033281431 -0.065988101 0.60250008
-0.028186668 -0.065577149 0.60400003
-0.051593658 -0.06230773 0.60266674
-0.04808617 -0.062478047 0.60068429
-0.037523817 -0.062476192 0.60000008
-0.032631092 -0.062404271 0.60112005
-0.028713811 -0.062023811 0.60300004
-0.052204128 -0.057365086 0.60233337
-0.048401978 -0.057018097 0.60007685
-0.037142858 -0.058285721 0.60000002
-0.032369766 -0.057380956 0.60025001
-0.028130636 -0.057412539 0.60283345
-0.052156627 -0.05299091 0.6030001
-0.047481298 -0.052627753 0.60065001
-0.042530615 -0.051510207 0.59999996
-0.037737742 -0.051460363 0.600375
-0.032413334 -0.052339826 0.60082352
-0.028442383 -0.052574769 0.60333341
-0.057523809 -0.045443814 0.60400003
-0.052172236 -0.047224104 0.6030001
-0.047518104 -0.047517493 0.60112005
-0.042110179 -0.047900181 0.60056251
-0.037785575 -0.047519289 0.6011501
-0.032706246 -0.047627244 0.60252005
-0.057358734 -0.042492572 0.60346675
-0.052688032 -0.042379711 0.60131246
-0.048978735 -0.043643493 0.60033333
-0.041378412 -0.043286983 0.6006667
-0.03809524 -0.043619052 0.59999996
-0.034285717 -0.043428574 0.60000002
-0.027633274 -0.042314418 0.60200006
-0.023798477 -0.041274671 0.60360003
-0.060400005 -0.036815241 0.60400003
-0.057525516 -0.037452936 0.60305268
-0.052638806 -0.037761196 0.60075009
-0.04971429 -0.036571428 0.60000002
-0.027492203 -0.037805062 0.60143757
-0.023423275 -0.037219945 0.60356253
-0.061028846 -0.031623404 0.60371435
-0.057250258 -0.032285102 0.60217655
-0.052874155 -0.03320343 0.60039997
-0.030285716 -0.034285717 0.60000002
-0.027459141 -0.032609999 0.60070002
-0.022979764 -0.03217357 0.60325009
-0.061963622 -0.027475238 0.60353339
-0.057275835 -0.027491666 0.60137504
-0.027436605 -0.02743732 0.60018748
-0.022383815 -0.027552476 0.60270011
-0.018982857 -0.02703619 0.60400003
-0.062070049 -0.022413956 0.60345
-0.057244442 -0.022325004 0.60105002
-0.054285716 -0.020571429 0.60000002
-0.027432855 -0.022289621 0.6001001
-0.022376649 -0.022379545 0.60251999
-0.018982857 -0.022434289 0.60400003
-0.061821636 -0.017404901 0.60342866
-0.057304829 -0.017190062 0.60168755
-0.054075241 -0.016805144 0.6002
-0.027442442 -0.017151134 0.60031247
-0.02250381 -0.017309723 0.6026842
-0.060766827 -0.013034762 0.60383338
-0.057435304 -0.012634941 0.60306257
-0.052880269 -0.012422177 0.60071433
-0.04971429 -0.011428572 0.60000002
-0.031428576 -0.011428572 0.59999996
-0.027498156 -0.012603393 0.60156256
-0.02346532 -0.01293008 0.60341674
-0.057000641 -0.0077813342 0.60373336
-0.052757144 -0.0074537145 0.60209996
-0.047963068 -0.0068601063 0.60033333
-0.042320956 -0.0057185721 0.60049999
-0.037250116 -0.0067279134 0.60030758
-0.032624651 -0.0074387435 0.60100013
-0.027555522 -0.0074624768 0.60280001
-0.024303813 -0.0079095243 0.60400003
-0.056181591 -0.0026844444 0.60400003
-0.052840654 -0.0022964883 0.60306257
-0.047602382 -0.002293048 0.60219997
-0.042413272 -0.0022920833 0.6018126
-0.037396144 -0.0022026568 0.60215801
-0.032325491 -0.0023980956 0.60294122
-0.027716892 -0.0023380956 0.60380006
-0.051579688 0.0017257144 0.60400003
-0.047288571 0.0021974791 0.60335296
-0.042497143 0.0022971432 0.60300004
-0.037328579 0.0022971432 0.60299999
-0.032192621 0.0022998808 0.60362506
-0.028314497 0.0017257144 0.60400003
-0.046923 0.0056702043 0.60400003
-0.042418834 0.0065026376 0.6037693
-0.03741762 0.0071604769 0.60359091
-0.032780547 0.0058333329 0.60385716
-0.056793813 -0.065486193 0.6085
-0.053675562 -0.065217145 0.60600001
-0.027080955 -0.065109529 0.60500002
-0.061190002 -0.06177 0.60900003
-0.057876129 -0.062505536 0.60768753
-0.054206908 -0.062281191 0.60550004
-0.026548095 -0.062331431 0.60600001
-0.02287643 -0.062261552 0.60812503
-0.061389249 -0.057335526 0.60810006
-0.057924323 -0.057650592 0.60711765
-0.054738101 -0.05761905 0.60500002
-0.025928574 -0.05761905 0.60500002
-0.02334803 -0.057921361 0.60642856
-0.061253335 -0.053523812 0.60866666
-0.057532888 -0.052699387 0.60729414
-0.054434698 -0.051963411 0.6052857
-0.026366074 -0.052011553 0.60512501
-0.024060424 -0.053317361 0.60633337
-0.060750004 -0.046286196 0.60750008
-0.057771832 -0.047949608 0.6065833
-0.054295242 -0.048070479 0.60519999
-0.02769048 -0.04730643 0.60574996
-0.023968857 -0.047358576 0.60790002
-0.017950477 -0.045744766 0.60800004
-0.061954603 -0.042393815 0.60700005
-0.059347622 -0.043214288 0.60500002
-0.025971429 -0.044440001 0.60600001
-0.022063049 -0.043166161 0.60646665
-0.018071171 -0.042308234 0.60854554
-0.065486193 -0.035930954 0.6085
-0.062741786 -0.037551686 0.60659999
-0.020689948 -0.037729733 0.60533333
-0.018454287 -0.03697513 0.60766673
-0.066438526 -0.031835768 0.60777783
-0.06316635 -0.032768469 0.60600001
-0.020166667 -0.032266669 0.60500002
-0.017448191 -0.032244004 0.60673332
-0.066500798 -0.027755877 0.60716665
-0.063957147 -0.029385716 0.60500002
-0.016911136 -0.027832307 0.60592306
-0.01398245 -0.028049663 0.60814285
-0.066541143 -0.022565143 0.60753334
-0.016727051 -0.022495432 0.60566658
-0.013968572 -0.02233704 0.60833341
-0.066600882 -0.017373255 0.60808343
-0.064062864 -0.016160002 0.60600001
-0.020166667 -0.015557144 0.60500002
-0.017328631 -0.017329346 0.60656255
-0.014105398 -0.01777651 0.60866666
-0.066277467 -0.012946456 0.60866672
-0.063140571 -0.012466287 0.60600007
-0.020907976 -0.012256073 0.60562503
-0.017482033 -0.012851684 0.60786664
-0.014500001 -0.013920001 0.60900003
-0.065961555 -0.0075384523 0.60887504
-0.062446296 -0.0075156195 0.60710001
-0.059136767 -0.0065702857 0.60519999
-0.021624427 -0.0072990474 0.60600001
-0.018051635 -0.0077012926 0.60864294
-0.065540001 -0.0040600002 0.60900003
-0.062409274 -0.0024308572 0.60786664
-0.058484383 -0.0020760002 0.6056
-0.025928574 -0.0017285715 0.60500002
-0.022533288 -0.0023110001 0.60675001
-0.019140001 -0.0040600002 0.60900003
-0.06140453 0.0023176193 0.60825002
-0.057756964 0.0023112502 0.60643756
-0.053390861 0.0029986673 0.60539997
-0.026764218 0.0030474835 0.6052857
-0.023242095 0.0021977781 0.60713345
-0.061324008 0.0061441911 0.60860002
-0.057650998 0.0076878797 0.60809094
-0.052339762 0.0073555694 0.60621744
-0.047380585 0.0084655695 0.60500002
-0.042885035 0.0093013626 0.60500002
-0.037068259 0.0097952392 0.60500002
-0.031988062 0.0083861556 0.60561538
-0.027738577 0.0075148577 0.60680002
-0.02407065 0.0070064068 0.60836363
-0.056232672 0.012174383 0.6087001
-0.052056488 0.0127253 0.6073125
-0.047316074 0.01269524 0.60587502
-0.042704228 0.012696726 0.60593742
-0.037510809 0.012697667 0.60595
-0.032369226 0.012717443 0.60693753
-0.027930858 0.012633336 0.60846674
-0.055100005 0.01682 0.60900003
-0.052022099 0.017263621 0.60826671
-0.04742875 0.01735268 0.6073125
-0.042796314 0.017350955 0.60725003
-0.037616145 0.017362239 0.60764992
-0.032426193 0.017372146 0.60799998
-0.028415956 0.017397858 0.60891676
-0.051620003 0.020300001 0.60900003
-0.047540814 0.02261148 0.60875005
-0.042721227 0.022698916 0.60814273
-0.037576988 0.022508809 0.60858339
-0.032640789 0.022341065 0.60882366
-0.029580003 0.020880003 0.60900003
-0.046980005 0.026100002 0.60900003
-0.042505715 0.026431432 0.60900003
-0.037700001 0.026100002 0.60900003
-0.034220003 0.026100002 0.60900003
-0.05935429 -0.065755241 0.611
-0.061100002 -0.06459143 0.611
-0.022694288 -0.064009525 0.611
-0.060844764 -0.051124129 0.61233336
-0.059936196 -0.051789526 0.611
-0.062811241 -0.046730481 0.61180001
-0.066633217 -0.041698929 0.61237502
-0.064379819 -0.043424767 0.61120003
-0.01604143 -0.041123815 0.61250007
-0.014619049 -0.040933337 0.61400002
-0.066500485 -0.038500004 0.61250007
-0.016464762 -0.037740003 0.61199999
-0.014117825 -0.037174154 0.61400002
-0.015737144 -0.034388572 0.61200005
-0.013526755 -0.032627013 0.61272722
-0.069416672 -0.025666192 0.61250007
-0.012266668 -0.027843811 0.61333334
-0.071049683 -0.021802383 0.61316663
-0.069331676 -0.022141192 0.61175007
-0.012273334 -0.022792699 0.61366671
-0.071550161 -0.017968362 0.61299998
-0.069275007 -0.017463572 0.61125004
-0.013038413 -0.017320318 0.61300009
-0.070727386 -0.01285881 0.61375004
-0.06889306 -0.012578504 0.61228567
-0.01571143 -0.011056191 0.611
-0.014004525 -0.012840715 0.61274999
-0.070756197 -0.009940953 0.61400002
-0.068488665 -0.007797922 0.61272722
-0.015922541 -0.0071838102 0.61166668
-0.014601192 -0.0081759524 0.61325002
-0.066591576 -0.0020824492 0.61257142
-0.06459143 -0.00058190478 0.611
-0.017500136 -0.0023331975 0.61257142
-0.066078097 0.00058476196 0.61400002
-0.064153932 0.0023332143 0.61237502
-0.020619432 0.0026796192 0.61160004
-0.018348953 0.0021036193 0.61359996
-0.063453652 0.0080530159 0.6127333
-0.021554695 0.0079900688 0.6117143
-0.019297143 0.0076019047 0.61400002
-0.062142517 0.013012721 0.61307138
-0.058493458 0.01324131 0.61112499
-0.025254671 0.01315105 0.611
-0.022158276 0.012829942 0.61231256
-0.019297143 0.011110477 0.61400002
-0.061309446 0.017516905 0.6130833
-0.057480738 0.017607326 0.61153847
-0.054117147 0.019202858 0.611
-0.025619168 0.017468216 0.61137503
-0.022873508 0.017355066 0.61299998
-0.060675375 0.02195048 0.61342859
-0.057149831 0.022160299 0.61231256
-0.052526012 0.022524105 0.61123079
-0.031422857 0.023858096 0.611
-0.027126618 0.022272645 0.61183333
-0.023559367 0.021807939 0.61333334
-0.060230479 0.025144763 0.61400002
-0.056883808 0.027091073 0.61337495
-0.052466385 0.027399624 0.61210012
-0.047786608 0.028066864 0.61140001
-0.042389527 0.028692387 0.611
-0.037116561 0.028341619 0.61115384
-0.032460954 0.027876671 0.61137503
-0.027628699 0.027276311 0.61273921
-0.02397524 0.025144763 0.61400002
-0.055942226 0.031382222 0.61400002
-0.05255935 0.032703754 0.61318743
-0.047838751 0.032670539 0.61256248
-0.042541526 0.032634951 0.61190015
-0.037306491 0.032643508 0.61206257
-0.032672502 0.032674048 0.61262506
-0.028638955 0.032146573 0.61369997
-0.051876742 0.036505852 0.61400002
-0.047877446 0.037367798 0.61306244
-0.042590097 0.037340194 0.61259997
-0.037363693 0.037364881 0.61300004
-0.032970004 0.037227962 0.61349994
-0.04686724 0.041374668 0.61359996
-0.042776383 0.041140955 0.61359996
-0.03625524 0.040348575 0.61400002
-0.068528578 -0.03924286 0.61500001
-0.012313333 -0.036940638 0.61566669
-0.011362857 -0.032917142 0.61500001
-0.0099733341 -0.032266669 0.61600006
-0.07180921 -0.02602254 0.61633337
-0.069700003 -0.027528573 0.61500001
-0.011299168 -0.027443692 0.61637503
-0.0095998421 -0.027430004 0.6171667
-0.073640957 -0.022551239 0.61660004
-0.011370095 -0.021920955 0.61540002
-0.0099733341 -0.022293335 0.61600006
-0.075741433 -0.016439524 0.61650002
-0.073767893 -0.016997008 0.61542863
-0.011635782 -0.017328028 0.61528575
-0.0099733341 -0.017600002 0.61600006
-0.073334612 -0.012906667 0.61600006
-0.012076763 -0.012663429 0.61559999
-0.0099895243 -0.01292762 0.61700004
-0.072102226 -0.0079138102 0.61549997
-0.069700003 -0.0052714287 0.61500001
-0.012321849 -0.0074905884 0.61617643
-0.0099895243 -0.0094019054 0.61700004
-0.072101429 -0.0021160953 0.61750007
-0.069170959 -0.0023447622 0.61550009
-0.015814288 -0.0005857143 0.61500001
-0.012743027 -0.002452381 0.61652946
-0.072009183 0.0023026841 0.61836362
-0.068070613 0.0023472111 0.61614287
-0.016204765 0.0027333337 0.61500001
-0.012752268 0.0023157427 0.61694115
-0.0099895243 0.0017628573 0.61700004
-0.071028195 0.0069497144 0.61839998
-0.067883708 0.0076948148 0.61622226
-0.017090408 0.0074574831 0.61578572
-0.012867552 0.0066456459 0.61821431
-0.070115559 0.012373969 0.61866665
-0.066829525 0.012802349 0.61660004
-0.017412502 0.012859286 0.61725008
-0.014738096 0.010021905 0.61900002
-0.066117257 0.017460953 0.61800003
-0.063842863 0.017571431 0.61500001
-0.020754287 0.017940572 0.61559999
-0.017635537 0.017637085 0.61731255
-0.065973811 0.022383813 0.61850005
-0.063153766 0.022485398 0.61588889
-0.021460857 0.02251743 0.61570007
-0.017760318 0.022231681 0.61753345
-0.071631439 0.027008098 0.61650002
-0.065887615 0.026284572 0.61879998
-0.062236872 0.027472608 0.61682361
-0.058864292 0.028992858 0.61500001
-0.025185715 0.029285716 0.61500001
-0.022304021 0.02758868 0.61633325
-0.019045556 0.026900163 0.61849999
-0.061840575 0.03203943 0.61839998
-0.057796046 0.033161759 0.61584622
-0.026373714 0.033407621 0.61540002
-0.022587823 0.032582246 0.61721432
-0.060720958 0.035960954 0.61900002
-0.057629827 0.037635177 0.61743754
-0.053339157 0.038229316 0.61544448
-0.031042859 0.038657144 0.61500001
-0.027582621 0.03756262 0.61624998
-0.02308104 0.037541818 0.61854547
-0.057084847 0.042371511 0.6179167
-0.052811909 0.042249169 0.61612505
-0.048241589 0.043163497 0.61522222
-0.041604765 0.043279596 0.61528575
-0.0376749 0.042447828 0.61535704
-0.032836132 0.042219475 0.61568755
-0.027627667 0.042326055 0.61725003
-0.023777461 0.042249206 0.61900002
-0.056684885 0.04667322 0.618375
-0.052741539 0.047323767 0.61683327
-0.047535885 0.047536045 0.61620015
-0.042243578 0.047524046 0.61605012
-0.037567578 0.047547862 0.61635011
-0.032875337 0.047411878 0.61699992
-0.027537547 0.046993688 0.61799997
-0.023777461 0.045786351 0.61900002
-0.052187495 0.052344196 0.61846668
-0.047191542 0.052792437 0.61711758
-0.042308696 0.052886076 0.61699998
-0.037622623 0.052907735 0.61724997
-0.032497395 0.052202057 0.61805272
-0.027924765 0.050548386 0.61860001
-0.046551161 0.056652654 0.61871433
-0.042588055 0.057051945 0.61872727
-0.037973065 0.056497145 0.6188572
-0.034781907 0.056004766 0.61900002
-0.075824767 -0.026657145 0.62200004
-0.073809527 -0.02657143 0.62
-0.010054287 -0.0059152385 0.62100005
-0.073809527 0.0035428572 0.62
-0.071447626 0.0053142859 0.62
-0.011464953 0.0081537142 0.62060004
-0.070720002 0.014857144 0.62400001
-0.069085717 0.014761906 0.62
-0.012860852 0.012302756 0.62126309
-0.07095772 0.017709713 0.62400001
-0.068675108 0.017992655 0.62085718
-0.014157824 0.017211158 0.62314284
-0.070635006 0.022556432 0.62325001
-0.068606675 0.022474287 0.62099999
-0.015942859 0.024209525 0.62
-0.014821431 0.022527143 0.6225
-0.070644446 0.027111113 0.62333339
-0.068035766 0.027590392 0.62118191
-0.016916286 0.027329048 0.62110007
-0.014425875 0.027272226 0.6225
-0.067156345 0.031868279 0.62230778
-0.063701674 0.03355024 0.62074995
-0.020666668 0.033657145 0.62
-0.01787664 0.032169189 0.62211764
-0.014857144 0.030902859 0.62400001
-0.06647487 0.037392579 0.62320006
-0.062818281 0.037973594 0.62106669
-0.020916192 0.038170289 0.62040007
-0.018388061 0.03737092 0.62284625
-0.066236429 0.041880716 0.62375003
-0.062794402 0.042652149 0.62199998
-0.059638098 0.042514287 0.62
-0.02164143 0.042694382 0.62090003
-0.019348573 0.042378288 0.62320006
-0.062598102 0.047164984 0.62323087
-0.058995724 0.047758576 0.62100005
-0.022178171 0.047686305 0.62169236
-0.019611429 0.046354286 0.62400001
-0.061574925 0.051873654 0.6236667
-0.058014832 0.052093759 0.62156254
-0.054126989 0.054126989 0.61999995
-0.031000001 0.054619052 0.62
-0.026999841 0.052820161 0.62083334
-0.023526246 0.051998422 0.62277782
-0.060617149 0.055268575 0.62400001
-0.056653854 0.057285599 0.62266672
-0.052026432 0.057937145 0.62074995
-0.047697358 0.058719575 0.61999995
-0.042160001 0.059401907 0.62
-0.037593652 0.058850791 0.61999995
-0.032410327 0.058068678 0.62115782
-0.027435357 0.057320014 0.62287503
-0.024365716 0.055862859 0.62400001
-0.055977978 0.062362984 0.62362504
-0.052151557 0.062818699 0.62225002
-0.047315001 0.062693097 0.62099993
-0.042582154 0.062693097 0.62099999
-0.037873939 0.062730841 0.62137502
-0.032603104 0.062838145 0.62244999
-0.028094558 0.061706807 0.62385714
-0.051807728 0.066854715 0.6236667
-0.047448218 0.067614175 0.62274998
-0.042677388 0.067572974 0.62237501
-0.037475489 0.067683019 0.62252635
-0.032970738 0.067185111 0.62327284
-0.047146667 0.071116202 0.62400001
-0.042601559 0.071759313 0.62363642
-0.037890479 0.07138782 0.62360007
-0.033874288 0.070720002 0.62400001
-0.010135239 0.0041733338 0.62600005
-0.0089285718 0.0041666669 0.625
-0.011309525 0.014880953 0.625
-0.072350718 0.018162144 0.62524998
-0.011879914 0.018501906 0.62663645
-0.012066794 0.022583365 0.62733334
-0.008985715 0.020966668 0.62900001
-0.0125166 0.027503541 0.62585717
-0.070946671 0.032195717 0.62600005
-0.069680005 0.032756191 0.62533337
-0.013121746 0.032211114 0.62633336
-0.071702458 0.036835242 0.62814289
-0.069159053 0.036964528 0.62600005
-0.016274128 0.037907463 0.62516665
-0.013801686 0.0371885 0.62592304
-0.070328191 0.042532384 0.62900001
-0.068140864 0.043078952 0.62650001
-0.017189957 0.043114807 0.62636364
-0.014469525 0.041735049 0.62780005
-0.070088573 0.047324765 0.62900001
-0.067415796 0.047727544 0.62641668
-0.064484142 0.049007941 0.625
-0.01791421 0.047776755 0.62708336
-0.067103595 0.052368149 0.62722224
-0.06396991 0.052653152 0.62539995
-0.021348299 0.052648436 0.62514287
-0.018529367 0.052604925 0.62766665
-0.065660961 0.057079684 0.62866664
-0.062203947 0.057516873 0.62628573
-0.058928575 0.058333337 0.625
-0.02559524 0.058928575 0.625
-0.022388438 0.057378914 0.6257143
-0.018791428 0.057214666 0.62840003
-0.065296195 0.062500633 0.62900001
-0.062029026 0.062307682 0.62729412
-0.058242578 0.063006774 0.62529999
-0.026692729 0.063403219 0.62536359
-0.022682918 0.062085655 0.62681252
-0.019015834 0.061839644 0.62887502
-0.065296195 0.065296195 0.62900001
-0.062041193 0.067347392 0.62787503
-0.057235479 0.067966431 0.62600005
-0.052976195 0.068962589 0.625
-0.030968575 0.068489216 0.62533331
-0.027426252 0.067973524 0.62606251
-0.022955356 0.067075118 0.62812501
-0.019768573 0.065296195 0.62900001
-0.061174694 0.072297417 0.62885714
-0.057384413 0.072925128 0.62762505
-0.052434169 0.072691903 0.62562501
-0.047857147 0.073452391 0.625
-0.043214288 0.074166678 0.625
-0.037023813 0.073690489 0.625
-0.032060575 0.072824247 0.62573332
-0.027508633 0.072961375 0.6279375
-0.023534015 0.071457818 0.62900001
-0.056748699 0.077112265 0.62887502
-0.052549995 0.077629171 0.62700003
-0.047666676 0.077459179 0.62562501
-0.0429128 0.077482097 0.62581259
-0.037545003 0.077474542 0.62575001
-0.032221965 0.077574834 0.62656254
-0.028416298 0.077396832 0.62888891
-0.0523949 0.082394764 0.6282143
-0.047786132 0.082431845 0.62718755
-0.042537194 0.082529165 0.62721056
-0.037201464 0.082309693 0.6270588
-0.032426096 0.082445018 0.62819999
-0.029353335 0.081470482 0.62900001
-0.05176327 0.086671293 0.62885714
-0.047890656 0.087401018 0.62856257
-0.042511903 0.087420009 0.62870002
-0.036895148 0.086608671 0.62890005
-0.03318724 0.086143062 0.62900001
-0.047085144 0.090935439 0.62900001
-0.043217007 0.090969667 0.62900001
-0.0090142861 0.022836192 0.63100004
-0.072715245 0.033052385 0.63100004
-0.011427144 0.03368048 0.63150001
-0.073747054 0.037654482 0.63160002
-0.011057779 0.036391746 0.63333333
-0.072620749 0.041620955 0.63133335
-0.012180382 0.042815816 0.63319999
-0.07140746 0.047938574 0.63183337
-0.015440319 0.047726035 0.63166672
-0.013119406 0.046598934 0.63337499
-0.071631618 0.05255853 0.63299996
-0.069146037 0.053513657 0.63133335
-0.015593016 0.052670266 0.63244444
-0.01388762 0.050720003 0.634
-0.070864961 0.057585716 0.63380003
-0.068310961 0.058070578 0.63249999
-0.01602181 0.05806924 0.63249999
-0.07064572 0.060984764 0.634
-0.067796275 0.062471356 0.63274997
-0.016621336 0.062757716 0.63240004
-0.066866003 0.067466184 0.63249999
-0.064301908 0.069109529 0.63100004
-0.021033335 0.069109529 0.63100004
-0.018363733 0.067440078 0.63225001
-0.066273473 0.072133884 0.63342857
-0.063576192 0.072594054 0.63125002
-0.021938929 0.072729886 0.63112503
-0.019287026 0.072329409 0.63287503
-0.062739879 0.077189535 0.6322
-0.058442622 0.078874998 0.63100004
-0.026642224 0.078524448 0.63100004
-0.022864705 0.077021964 0.63181257
-0.01991524 0.07664413 0.63366669
-0.062439878 0.081816874 0.63299996
-0.057559323 0.08273048 0.6314286
-0.054686669 0.084133342 0.63100004
-0.030648574 0.084734291 0.63100004
-0.027424831 0.082881309 0.63192856
-0.023258317 0.08175385 0.6336922
-0.061789844 0.085942231 0.634
-0.058014445 0.087690637 0.63305557
-0.053656619 0.08840286 0.63144445
-0.037659686 0.089141279 0.63100004
-0.032069013 0.088340014 0.63100004
-0.027709704 0.087654822 0.63256258
-0.024152383 0.085740961 0.634
-0.057004217 0.092189804 0.63385719
-0.052855637 0.092913225 0.63276464
-0.047794368 0.093185008 0.63125002
-0.041817751 0.093201995 0.63136363
-0.037273809 0.092584044 0.63125002
-0.032495834 0.092676915 0.6318751
-0.028489646 0.092104889 0.63312501
-0.051323812 0.096609533 0.634
-0.046732388 0.097410195 0.63346153
-0.042229228 0.097731479 0.63343751
-0.037411354 0.097150087 0.63358325
-0.033440191 0.09645848 0.63380003
-0.042870481 0.1008362 0.634
-0.011042977 0.047653217 0.63537508
-0.0090821432 0.047227859 0.63575006
-0.074167237 0.052389335 0.63520002
-0.011861429 0.052305382 0.63650006
-0.0091214292 0.052296668 0.63850003
-0.076071434 0.055380005 0.63900006
-0.073371284 0.057738177 0.63507706
-0.012226499 0.057152331 0.63641179
-0.0082591837 0.056597151 0.639
-0.072590165 0.06260968 0.63516682
-0.069547623 0.064709529 0.63500005
-0.015119049 0.064104766 0.63500005
-0.012531862 0.061784159 0.63772732
-0.0091285724 0.060248576 0.63900006
-0.076071434 0.065117151 0.63900006
-0.072474524 0.067102306 0.63858336
-0.069437146 0.068225339 0.63620007
-0.015768414 0.067930005 0.63683331
-0.013687382 0.06600453 0.63875008
-0.071202859 0.072420001 0.63900006
-0.068850584 0.072887629 0.63600004
-0.017067757 0.072697148 0.63685715
-0.067674153 0.077463135 0.63685715
-0.018384552 0.077787519 0.63644445
-0.066722177 0.08251375 0.63771433
-0.064709529 0.08345715 0.63500005
-0.021569842 0.083658732 0.63500005
-0.019054711 0.08194869 0.63633341
-0.065699771 0.087600723 0.63875008
-0.063235365 0.087591082 0.63537508
-0.022406669 0.087538831 0.63592315
-0.019988572 0.085405722 0.63600004
-0.065117151 0.09128572 0.63900006
-0.062270392 0.09189152 0.63590914
-0.058661908 0.093392529 0.63500005
-0.027047349 0.093068041 0.63514292
-0.023061728 0.092259347 0.63731253
-0.061434075 0.097118102 0.63866669
-0.057284359 0.097174712 0.63600004
-0.052389342 0.098728396 0.63520008
-0.048582543 0.09938255 0.63500005
-0.037495241 0.099785723 0.63500005
-0.032425143 0.098486483 0.63520014
-0.02773531 0.09733858 0.63707149
-0.024700191 0.096976392 0.63880002
-0.056693237 0.10129091 0.63855559
-0.052046761 0.10249057 0.63745457
-0.047081079 0.10275374 0.63540012
-0.04229302 0.10293049 0.63500011
-0.037639808 0.10275412 0.63540012
-0.032634065 0.10239056 0.63730776
-0.028439289 0.10113572 0.63875002
-0.0085333344 0.059123814 0.64000005
-0.010383493 0.06291429 0.6413334
-0.0091714291 0.062979691 0.64200002
-0.074666664 0.067657143 0.64000005
-0.012072382 0.067407623 0.64200008
-0.075653657 0.07075841 0.64233333
-0.073041908 0.0723636 0.64088893
-0.015500953 0.07238058 0.64080006
-0.01236019 0.072339244 0.64260006
-0.071739048 0.077967428 0.64160001
-0.015874406 0.077545598 0.64112508
-0.012375493 0.077076957 0.64333338
-0.072252549 0.082761809 0.64258832
-0.068675429 0.083069719 0.64040005
-0.016650476 0.08285556 0.64233339
-0.012524082 0.082326278 0.64371437
-0.072277755 0.087211438 0.64363647
-0.067976296 0.088111527 0.6407001
-0.020145716 0.08912953 0.64100003
-0.017757989 0.087162651 0.64300007
-0.012354286 0.086830489 0.64400005
-0.070533335 0.090773344 0.64400005
-0.067335531 0.09289524 0.64138466
-0.064000003 0.094476193 0.64000005
-0.020122144 0.092683099 0.64025009
-0.018376764 0.092496388 0.64320004
-0.066647999 0.096237719 0.64200002
-0.063440479 0.09821064 0.64050007
-0.021995647 0.097765453 0.64157152
-0.017991113 0.096906669 0.64400005
-0.013493335 0.095066674 0.64400005
-0.061640218 0.10214624 0.64222229
-0.027102862 0.10365943 0.64100003
-0.024333334 0.10186553 0.64200008
-0.0079857148 0.064500004 0.64500004
-0.010852382 0.069004767 0.64500004
-0.0089714285 0.067224383 0.64520001
-0.07600572 0.073138416 0.64533335
-0.010459049 0.070752382 0.64600003
-0.0092428578 0.071478099 0.64700001
-0.07608477 0.077319048 0.64740002
-0.074328579 0.077400006 0.64500004
-0.015357144 0.084157147 0.64500004
-0.073100008 0.089071438 0.64500004
-0.015602859 0.087597147 0.64500004
-0.014128572 0.087228574 0.64500004
-0.071647622 0.091803446 0.64520001
-0.01597143 0.092142873 0.64500004
-0.012807143 0.092419066 0.6455
-0.070889294 0.097397864 0.64725
-0.068332978 0.098187514 0.64637494
-0.016192699 0.096133024 0.64566666
-0.066960685 0.10127497 0.64671433
-0.021937622 0.10230937 0.64583331
-0.019042859 0.10012858 0.64500004
-0.072428577 0.097190484 0.65000004
-0.016714286 0.098428577 0.65000004
