# .PCD v0.7 - Point Cloud Data file format
VERSION 0.7
FIELDS x y z
SIZE 4 4 4
TYPE F F F
COUNT 1 1 1
WIDTH 731
HEIGHT 1
VIEWPOINT 0 0 0 1 0 0 0
POINTS 731
DATA ascii
-0.042785715 -0.061801594 0.59900004
-0.042785715 -0.055906668 0.59900004
-0.046647396 -0.042083587 0.59900004
-0.042448387 -0.041916572 0.59853339
-0.037309144 -0.041530665 0.59900004
-0.032317936 -0.042013809 0.59883332
-0.046208575 -0.038507145 0.59900004
-0.042215232 -0.037651427 0.59900004
-0.037651427 -0.037651427 0.59900004
-0.033118412 -0.037909016 0.5988667
-0.046371561 -0.031946667 0.59900004
-0.042198237 -0.032503951 0.59875
-0.037641663 -0.032509286 0.59885001
-0.03321439 -0.03220021 0.59900004
-0.05223931 -0.027219864 0.59900004
-0.047875769 -0.027357915 0.59843755
-0.042619005 -0.027276147 0.59665
-0.037540238 -0.027303338 0.59725004
-0.032505523 -0.027373713 0.5988
-0.051809605 -0.022974633 0.59900004
-0.047841072 -0.022780597 0.59800005
-0.042611673 -0.022725098 0.59655005
-0.037524406 -0.022742622 0.59700006
-0.033005416 -0.023025652 0.59881252
-0.051228762 -0.019053906 0.59900004
-0.04738491 -0.017794939 0.59868419
-0.042528532 -0.017807538 0.59817398
-0.037626185 -0.017671902 0.59860003
-0.033943333 -0.017874921 0.59900004
-0.045980386 -0.013805524 0.59900004
-0.042215236 -0.012550475 0.59900004
-0.037895918 -0.012713469 0.59900004
-0.034228574 -0.013691429 0.59900004
-0.041644763 -0.0096980957 0.59900004
-0.038792383 -0.0096980957 0.59900004
-0.051685721 -0.066042863 0.60300004
-0.048584577 -0.066502288 0.60300004
-0.03503143 -0.066042863 0.60300004
-0.03388286 -0.066042863 0.60300004
-0.027611431 -0.065001912 0.60400003
-0.052112386 -0.06216985 0.60350007
-0.047525808 -0.062411278 0.60120016
-0.042159047 -0.061678465 0.60007685
-0.037639868 -0.062499911 0.60099995
-0.03257703 -0.062386069 0.60187501
-0.028767088 -0.062319264 0.60277784
-0.052282464 -0.05745263 0.60325009
-0.047481872 -0.05720491 0.60065001
-0.042204086 -0.057306122 0.59999996
-0.037714295 -0.057142857 0.60000002
-0.03262224 -0.057233769 0.60095006
-0.028490476 -0.057173867 0.60233337
-0.052097779 -0.052767619 0.60333341
-0.04754144 -0.05269314 0.60140002
-0.042303339 -0.052592617 0.60025001
-0.037765063 -0.052641008 0.60081261
-0.032640956 -0.052683521 0.60130006
-0.028522432 -0.052896615 0.60300004
-0.056948572 -0.045443814 0.60400003
-0.052281987 -0.047015477 0.60325009
-0.047584657 -0.047584277 0.60196006
-0.042483956 -0.047608983 0.60152638
-0.037200719 -0.047674287 0.6024999
-0.032169808 -0.047680855 0.60320008
-0.021283811 -0.046594288 0.60400003
-0.057250615 -0.042383678 0.60371435
-0.052764345 -0.042441491 0.60218751
-0.049360957 -0.042691112 0.60033339
-0.041785717 -0.044073336 0.60100007
-0.038285717 -0.043428574 0.59999996
-0.034343809 -0.044073336 0.60100007
-0.02750363 -0.042405177 0.60168755
-0.023954606 -0.041586034 0.60366672
-0.060400005 -0.035664767 0.60400003
-0.05756025 -0.037475843 0.60342103
-0.052688271 -0.037796725 0.60131258
-0.048190478 -0.037142862 0.59999996
-0.030742859 -0.036914285 0.60000002
-0.027408235 -0.037660114 0.60182369
-0.023575988 -0.036966737 0.60378581
-0.06075016 -0.031812701 0.60366672
-0.05726124 -0.032291599 0.60229421
-0.052620806 -0.032602049 0.60055006
-0.048675332 -0.033298705 0.59999996
-0.030775513 -0.033387758 0.59999996
-0.027570326 -0.032514188 0.6011579
-0.022984762 -0.0321806 0.60337508
-0.061517149 -0.027596192 0.60366672
-0.057257921 -0.027483271 0.60118759
-0.054285716 -0.028571431 0.60000002
-0.027441964 -0.027442915 0.60031247
-0.022385765 -0.027554715 0.60275
-0.018982857 -0.027036192 0.60400003
-0.061335023 -0.022685494 0.60361546
-0.057292432 -0.022342812 0.60154998
-0.053959183 -0.021795919 0.59999996
-0.03066667 -0.021333337 0.59999996
-0.027452905 -0.022305669 0.60055
-0.022387659 -0.022390172 0.60280001
-0.018982857 -0.024160001 0.60400003
-0.060783494 -0.017640635 0.60400003
-0.057399824 -0.017218869 0.60268754
-0.052913919 -0.016845642 0.60038459
-0.049333334 -0.015809527 0.60000002
-0.031324677 -0.017090909 0.59999996
-0.027459463 -0.017162561 0.6006875
-0.022637354 -0.017346773 0.60266674
-0.060400005 -0.014380953 0.60400003
-0.05748304 -0.012645893 0.60356253
-0.052710056 -0.012603154 0.60156256
-0.047896765 -0.01215492 0.6001333
-0.036000002 -0.011428572 0.60000002
-0.032142859 -0.012285715 0.60000002
-0.027492559 -0.012600536 0.60143763
-0.023804447 -0.013082541 0.60311115
-0.056741435 -0.0079549216 0.60383338
-0.052809335 -0.0074610487 0.60270005
-0.047495741 -0.0074372953 0.60084003
-0.042423815 -0.0070298603 0.60052949
-0.037618574 -0.0071789962 0.60050005
-0.032652043 -0.0074451049 0.60152
-0.027672382 -0.0075897747 0.60336846
-0.02473524 -0.0092038102 0.60400003
-0.055798098 -0.0040266667 0.60400003
-0.052566085 -0.0026084248 0.60346162
-0.047657907 -0.0022964764 0.60289997
-0.04247953 -0.0022954764 0.60275006
-0.037316006 -0.0022958096 0.60280007
-0.032192741 -0.0022989286 0.60362506
-0.028761908 -0.0023009526 0.60400003
-0.050620958 0.0011504763 0.60400003
-0.047054477 0.0021859049 0.60400003
-0.042518992 0.0022989882 0.60331255
-0.037377618 0.0023004762 0.6038
-0.032213338 0.0023009526 0.60400003
-0.029049525 0.0014380955 0.60400003
-0.04630667 0.0054647624 0.60400003
-0.042567622 0.0057523809 0.60400003
-0.037226129 0.0062454422 0.60400003
-0.033363812 0.0057523809 0.60400003
-0.056793813 -0.065486193 0.6085
-0.053646039 -0.065181278 0.6056667
-0.060900003 -0.060900003 0.60900003
-0.05764449 -0.062357288 0.60785723
-0.054615814 -0.062699243 0.60620004
-0.026558571 -0.062357146 0.60625005
-0.023036851 -0.062160376 0.60823083
-0.061174292 -0.056869525 0.60842854
-0.057919115 -0.057645269 0.60705882
-0.054760721 -0.057643577 0.60525
-0.026465308 -0.057961639 0.60600007
-0.023161061 -0.057453863 0.60799998
-0.061253335 -0.053523809 0.60866672
-0.057435244 -0.052802186 0.60770589
-0.054458257 -0.052147146 0.60616672
-0.026902599 -0.051972035 0.60572726
-0.023740714 -0.05327167 0.60799998
-0.061430003 -0.047521666 0.6085
-0.057818815 -0.047701035 0.60708338
-0.054349147 -0.04811867 0.60580003
-0.027704466 -0.047330778 0.60606253
-0.023689438 -0.047009788 0.6066364
-0.019077145 -0.045669526 0.60700005
-0.061909053 -0.042428572 0.60750008
-0.059396669 -0.043827146 0.60549998
-0.021851093 -0.043126464 0.60607147
-0.018078944 -0.04214159 0.60800004
-0.062077735 -0.037458245 0.60653841
-0.021016883 -0.037999049 0.60536361
-0.018576192 -0.03734741 0.60744447
-0.065836675 -0.032050323 0.60816669
-0.063140765 -0.03255105 0.60600007
-0.020166667 -0.032266669 0.60500002
-0.018024677 -0.032215502 0.60699993
-0.066564687 -0.027782621 0.60775
-0.064010009 -0.02768 0.60549998
-0.017206412 -0.027756894 0.60633337
-0.014492065 -0.027245715 0.60866672
-0.066591755 -0.022582859 0.60800004
-0.063703403 -0.022004083 0.60571426
-0.017122172 -0.022318361 0.60605556
-0.013905905 -0.022597905 0.60840005
-0.065939426 -0.018193524 0.60839999
-0.063151143 -0.017085619 0.60610002
-0.020183334 -0.016146192 0.60549998
-0.017328991 -0.017329346 0.6065625
-0.014248952 -0.017493142 0.60820001
-0.062538609 -0.012600064 0.60686666
-0.021347014 -0.012325715 0.60581821
-0.017492129 -0.012858352 0.60820007
-0.013920001 -0.014500001 0.60900003
-0.065540001 -0.0075400006 0.60900003
-0.062452149 -0.0075163334 0.60715002
-0.058783695 -0.0067713102 0.60512501
-0.025928574 -0.0051857145 0.60500002
-0.022312133 -0.0073540374 0.60617399
-0.018431431 -0.0079986667 0.60860002
-0.062135398 -0.002701429 0.60783339
-0.057805341 -0.0021916192 0.60573328
-0.054353971 -0.0009603175 0.60500002
-0.026504764 -0.0023047621 0.60500002
-0.022819208 -0.002442487 0.60750002
-0.019140001 -0.0040600002 0.60900003
-0.061253335 0.0019326987 0.60866666
-0.057822503 0.0023136907 0.60712498
-0.052915536 0.0025960121 0.60556245
-0.048976194 0.0040333336 0.60500002
-0.027198734 0.002595556 0.60550004
-0.02373627 0.0023161112 0.60791677
-0.060900003 0.0052200002 0.60900003
-0.057110589 0.0073404238 0.60844445
-0.052292302 0.0073581818 0.60699999
-0.04751756 0.0080045834 0.60568738
-0.042668015 0.0086492868 0.60541666
-0.037661906 0.0090619065 0.60500002
-0.03202768 0.0079363696 0.60593754
-0.02776348 0.007522048 0.60734999
-0.024050001 0.0063752383 0.6085
-0.055545907 0.011944382 0.60879999
-0.052088395 0.012733037 0.60768753
-0.047399104 0.012716965 0.60693753
-0.042757206 0.012712322 0.60668749
-0.03754824 0.012709573 0.6065501
-0.032392267 0.012726311 0.60737503
-0.028830716 0.012314525 0.6085
-0.052165162 0.016808651 0.60858345
-0.047482502 0.017372025 0.60799998
-0.042792324 0.017348751 0.60718751
-0.037615761 0.017362049 0.60764998
-0.032439407 0.01737893 0.6082499
-0.029580003 0.0174 0.60900003
-0.046834182 0.021452596 0.60877782
-0.042571604 0.022656884 0.60854554
-0.037612583 0.022117242 0.60857898
-0.032712005 0.021228002 0.60900009
-0.029580003 0.020300001 0.60900003
-0.042920001 0.026100002 0.60900003
-0.058772385 -0.065755241 0.611
-0.023314288 -0.065862864 0.61200005
-0.061732858 -0.061149053 0.61150002
-0.059936196 -0.064009525 0.611
-0.025021907 -0.06459143 0.611
-0.023276191 -0.06459143 0.611
-0.062263813 -0.058772385 0.611
-0.021530477 -0.057608575 0.611
-0.060926862 -0.051141333 0.61160004
-0.057608575 -0.050625719 0.611
-0.025021907 -0.051207624 0.611
-0.023276191 -0.052371431 0.611
-0.064009525 -0.045970481 0.611
-0.059936196 -0.049461909 0.611
-0.066441379 -0.042326879 0.61255556
-0.064397462 -0.04286699 0.611
-0.016930478 -0.040865719 0.61300004
-0.066424772 -0.037588842 0.61257142
-0.06459143 -0.037823811 0.611
-0.016342262 -0.037356552 0.61287504
-0.068082862 -0.030840954 0.611
-0.01595962 -0.03296914 0.61160004
-0.01437562 -0.032375239 0.61360008
-0.069416672 -0.025666192 0.61250007
-0.013413334 -0.028811812 0.61240005
-0.071200959 -0.02139562 0.61380005
-0.069388337 -0.022158334 0.61225003
-0.01228 -0.02397524 0.61400002
-0.071126834 -0.01773254 0.61383337
-0.068175249 -0.017109612 0.61181819
-0.070756197 -0.014619049 0.61400002
-0.067655005 -0.012830358 0.61237502
-0.01571143 -0.011056191 0.611
-0.014563492 -0.012232699 0.61166668
-0.067378096 -0.0079704765 0.61233336
-0.016433049 -0.0071090474 0.61190003
-0.014603176 -0.0087612709 0.61333334
-0.066456065 -0.0025844902 0.61285722
-0.06406191 -0.0011642858 0.61150002
-0.020366669 -0.0011638096 0.611
-0.01780016 -0.0022361907 0.61283332
-0.066078097 0.0011695239 0.61400002
-0.063838191 0.0025677143 0.61269999
-0.020965239 0.0023295241 0.61150002
-0.018696668 0.0023371431 0.6135
-0.062657043 0.0076562464 0.61282355
-0.05935429 0.0087285722 0.611
-0.025021907 0.0098923817 0.611
-0.021860123 0.0080157146 0.61212504
-0.019297143 0.0070171431 0.61400002
-0.061656673 0.012681429 0.61321431
-0.057643387 0.013180348 0.61136365
-0.026296511 0.013100319 0.61133337
-0.022167441 0.012835062 0.61256254
-0.060766194 0.017528573 0.6135
-0.057097629 0.017479287 0.61175007
-0.052393578 0.019210715 0.61125004
-0.026788576 0.017471431 0.61150002
-0.02267619 0.017227143 0.61316663
-0.060197782 0.021625081 0.61366671
-0.057202388 0.022181073 0.61287498
-0.052436318 0.022139881 0.61175007
-0.048630614 0.022860546 0.611
-0.035496194 0.023858096 0.611
-0.032198731 0.023470161 0.611
-0.027283913 0.022252634 0.61231583
-0.023949208 0.021613335 0.6133334
-0.056369875 0.026936797 0.61363637
-0.052509435 0.02742191 0.61260009
-0.047767289 0.027379576 0.61165011
-0.042392835 0.027987022 0.61152643
-0.037152912 0.027639158 0.6116668
-0.032645043 0.027400386 0.61210001
-0.028542588 0.026958231 0.61342859
-0.051774718 0.032286245 0.61388892
-0.047872741 0.032693692 0.61299998
-0.042563148 0.032650951 0.61220014
-0.037336614 0.032670654 0.61256248
-0.033117805 0.032579489 0.6133846
-0.02982286 0.030992383 0.61400002
-0.047182385 0.037245102 0.61378568
-0.04237387 0.037248261 0.61322218
-0.03738565 0.037135988 0.61335713
-0.033623811 0.035962861 0.61400002
-0.046196193 0.040348575 0.61400002
-0.042219814 0.040582482 0.61400002
-0.036840003 0.040348575 0.61400002
-0.015827145 -0.041033812 0.61550003
-0.014666667 -0.041066669 0.61600006
-0.013598764 -0.037164286 0.61549997
-0.012311429 -0.032832 0.61560011
-0.0099733341 -0.032266669 0.61600006
-0.070871435 -0.025185715 0.61500001
-0.011669313 -0.027448149 0.61611116
-0.0099895243 -0.027618099 0.61700004
-0.073167086 -0.02277725 0.61677778
-0.011377334 -0.02240324 0.61580002
-0.0097479997 -0.022433335 0.61660004
-0.076048575 -0.017096192 0.61900002
-0.073677048 -0.017508287 0.61690003
-0.011538941 -0.017406246 0.6161111
-0.0097028576 -0.017936192 0.61750007
-0.072913274 -0.012797968 0.61639994
-0.011526012 -0.0126303 0.61681253
-0.071521595 -0.0076269847 0.61611116
-0.069435477 -0.0061521432 0.61524999
-0.012111973 -0.0073568714 0.61690474
-0.071532384 -0.0023507939 0.61733335
-0.069006994 -0.0021498415 0.61577779
-0.015814288 -0.0021476194 0.61500001
-0.013063175 -0.0023147305 0.61793333
-0.071115382 0.001934966 0.6185714
-0.067914635 0.0024003463 0.61618185
-0.016403215 0.0023436907 0.61512494
-0.013642945 0.0021937666 0.61800003
-0.070667304 0.0068701594 0.61833334
-0.067010649 0.0076987129 0.61623532
-0.017245015 0.0076267305 0.6159333
-0.014333176 0.0066766669 0.61849999
-0.070115559 0.011195556 0.61866665
-0.067010775 0.012638512 0.6171875
-0.063842863 0.014057144 0.61500001
-0.017515238 0.012749748 0.61676472
-0.014738096 0.01061143 0.61900002
-0.06592048 0.017657621 0.61800003
-0.063309051 0.017585715 0.61550009
-0.02080119 0.018457858 0.61524999
-0.017633216 0.01763631 0.61725003
-0.014738096 0.018275239 0.61900002
-0.065794922 0.021997461 0.61866671
-0.062633045 0.022443445 0.61638463
-0.021888573 0.022432165 0.61607701
-0.01835472 0.022209439 0.61809093
-0.065437146 0.025939049 0.61900002
-0.062238995 0.027227227 0.61752939
-0.058548894 0.028200319 0.61544448
-0.026159221 0.028184677 0.61536354
-0.022462752 0.027362432 0.61711109
-0.019454287 0.025349526 0.61900002
-0.061690837 0.03150798 0.618375
-0.057576429 0.032901071 0.61687511
-0.053827353 0.033401497 0.61528575
-0.031042859 0.033385713 0.61500001
-0.027450677 0.032949124 0.61605263
-0.023070909 0.032493252 0.61827272
-0.057266738 0.03752828 0.61792308
-0.052795772 0.037543394 0.61593753
-0.049200002 0.038657144 0.61500001
-0.037485719 0.03924286 0.61500001
-0.032524448 0.037994925 0.61533332
-0.02761648 0.037608098 0.61699998
-0.023934668 0.037375811 0.61900002
-0.057010304 0.042235412 0.61827272
-0.052870423 0.042296257 0.61681253
-0.047695857 0.042522859 0.61558819
-0.042143121 0.042889614 0.61536366
-0.037569273 0.042339936 0.61573344
-0.032702018 0.042372834 0.61641175
-0.027530074 0.042274036 0.61784214
-0.056458287 0.046321906 0.61879998
-0.052967329 0.047081135 0.61793751
-0.047486749 0.047486905 0.61683327
-0.042271007 0.04755586 0.61645013
-0.037592243 0.047578625 0.61674994
-0.03234943 0.047055908 0.6175999
-0.027811715 0.046786003 0.61869997
-0.051483877 0.052073635 0.61868757
-0.047095716 0.05298334 0.61812508
-0.042342979 0.052929401 0.61749995
-0.037660241 0.052961558 0.61787504
-0.032909323 0.051343344 0.61864287
-0.028886668 0.050699051 0.61900002
-0.042092003 0.056476384 0.61900002
-0.038613811 0.056299526 0.61900002
-0.076171435 -0.023028573 0.62
-0.076171435 -0.017123811 0.62
-0.0082790479 -0.017447621 0.62100005
-0.0088714287 -0.014195239 0.62100005
-0.073809527 -0.00059047621 0.62
-0.010628572 -0.0035428572 0.62
-0.072333336 0.0026571429 0.62
-0.010854605 0.0025663492 0.62177777
-0.071447626 0.0064952383 0.62
-0.011987015 0.0072573167 0.62090915
-0.07049334 0.014219049 0.62199998
-0.069085717 0.014761906 0.62
-0.012918488 0.012503698 0.62158823
-0.070663333 0.016627144 0.62349999
-0.068606675 0.017742857 0.62099999
-0.014429207 0.01640635 0.62266666
-0.070720002 0.020800002 0.62400001
-0.068232812 0.022568043 0.62177777
-0.016189333 0.022808002 0.62039995
-0.014803573 0.022503573 0.62175
-0.070691667 0.027325954 0.62375003
-0.067772523 0.027412517 0.62185717
-0.017635556 0.027345268 0.6214667
-0.014841271 0.026714921 0.62333339
-0.066910304 0.031864766 0.62272733
-0.06324286 0.033217333 0.62060004
-0.021004083 0.032982316 0.61999995
-0.018396409 0.032093111 0.62315392
-0.066275105 0.036914289 0.62371433
-0.062869519 0.037720293 0.62170589
-0.059638098 0.038380954 0.62
-0.021758443 0.037985288 0.62054545
-0.018503571 0.037305634 0.62341672
-0.06596572 0.041005716 0.62400001
-0.062756069 0.042587813 0.62279999
-0.059401907 0.042868577 0.62
-0.022485716 0.042610008 0.62137496
-0.019590477 0.042149842 0.62333333
-0.061892506 0.047050841 0.62337506
-0.058570135 0.047704853 0.62118185
-0.025980955 0.047828574 0.61999995
-0.023236711 0.047284331 0.62272733
-0.060320005 0.052297145 0.62400001
-0.057666164 0.052012682 0.62223083
-0.054176193 0.052995242 0.61999995
-0.032003812 0.053851437 0.61999995
-0.026963128 0.052239738 0.62128574
-0.023930795 0.051818099 0.62299997
-0.060022861 0.055268575 0.62400001
-0.05636074 0.056907553 0.6229232
-0.05210435 0.058025185 0.62168753
-0.047267023 0.057902742 0.62037498
-0.042675328 0.05845714 0.61999995
-0.037495241 0.058358729 0.61999995
-0.032463815 0.057908438 0.62195235
-0.027615968 0.056648657 0.62307703
-0.024365716 0.055268575 0.62400001
-0.055862863 0.061805721 0.62400001
-0.052078735 0.062755562 0.62280005
-0.047400247 0.062805362 0.62212503
-0.042618107 0.062742859 0.62150002
-0.037704829 0.06284488 0.62147063
-0.032762244 0.062631704 0.62282354
-0.028525716 0.060617149 0.62400001
-0.050514288 0.06656 0.62400001
-0.047182783 0.067371063 0.6234616
-0.042690184 0.067593634 0.62256253
-0.03749118 0.067524359 0.6227895
-0.03306381 0.066722542 0.6236667
-0.046354286 0.070720002 0.62400001
-0.042780355 0.071300134 0.62387502
-0.038909763 0.070988812 0.62375003
-0.0089285718 0.0041666669 0.625
-0.010119048 0.005357143 0.625
-0.073224492 0.013927619 0.62799996
-0.01132762 0.014904763 0.62600005
-0.076079056 0.018570477 0.62900001
-0.072260723 0.018325478 0.62575006
-0.012295172 0.018361429 0.62764299
-0.071159765 0.023521669 0.62524998
-0.069642864 0.024404764 0.625
-0.01208597 0.022775872 0.62826669
-0.008985715 0.024560954 0.62900001
-0.012529796 0.027448712 0.62657148
-0.071439527 0.032240164 0.62683338
-0.069427058 0.032510858 0.62519997
-0.016369049 0.032738097 0.625
-0.013530002 0.031839523 0.62683338
-0.071501195 0.036199763 0.62825
-0.068661384 0.037446152 0.62590909
-0.016422587 0.038036738 0.62542862
-0.014330953 0.037023813 0.62700003
-0.070088573 0.041933335 0.62900001
-0.067578509 0.042832147 0.62608331
-0.06488096 0.044642862 0.625
-0.017592937 0.042943414 0.62624997
-0.014658811 0.04098643 0.62825
-0.06752374 0.047803894 0.62741667
-0.064162865 0.048085 0.62524998
-0.02107143 0.047976192 0.625
-0.018519841 0.047797624 0.6273334
-0.065931961 0.052386772 0.62744451
-0.062645286 0.052573767 0.62536359
-0.021812955 0.052686673 0.62580001
-0.018949101 0.052461274 0.62833333
-0.065515056 0.057131432 0.62880003
-0.062164452 0.057390865 0.62640005
-0.058630958 0.05803572 0.625
-0.025992066 0.05853175 0.625
-0.022550922 0.05739677 0.62646669
-0.018966353 0.057299051 0.62888891
-0.065296195 0.061701909 0.62900001
-0.062154762 0.062152389 0.6275
-0.057887111 0.063020155 0.62561542
-0.054166671 0.06488096 0.625
-0.030357145 0.064285725 0.625
-0.027104408 0.062997267 0.62550008
-0.02271899 0.062183753 0.62781256
-0.019369207 0.061901595 0.62900001
-0.061844196 0.067026928 0.62800002
-0.057275422 0.068013996 0.6264376
-0.052672654 0.068074435 0.62542862
-0.049007941 0.069246046 0.625
-0.035119049 0.069642864 0.625
-0.031557336 0.068474486 0.62519997
-0.027451193 0.068034403 0.62662506
-0.023012178 0.066899531 0.62878573
-0.060963817 0.071743242 0.62880003
-0.057407267 0.072954051 0.62787503
-0.052470177 0.072742693 0.62606257
-0.047789123 0.072874151 0.625
-0.042857148 0.073809534 0.625
-0.037135124 0.073005967 0.62512499
-0.032205835 0.072764881 0.62625003
-0.027519586 0.072989948 0.62818748
-0.024047485 0.071800135 0.62900001
-0.056383405 0.077259876 0.62885714
-0.052549645 0.077629298 0.62700003
-0.047690544 0.077497214 0.62593758
-0.042761855 0.077632666 0.62617648
-0.037443656 0.077430837 0.62615794
-0.032250483 0.077644885 0.62712502
-0.028668707 0.077277146 0.62900001
-0.05207983 0.08222875 0.62854552
-0.047842916 0.082530186 0.62793756
-0.042481102 0.082571492 0.62825
-0.037107918 0.082596131 0.62843752
-0.032646667 0.082286373 0.62853855
-0.029353335 0.080871433 0.62900001
-0.050919052 0.085663818 0.62900001
-0.04762429 0.086961746 0.62900007
-0.042743813 0.087143816 0.62900001
-0.037500385 0.085903443 0.62900001
-0.044529211 0.090855561 0.62900001
-0.010216191 0.01742762 0.63100004
-0.0090142861 0.01983143 0.63100004
-0.010216191 0.022235239 0.63100004
-0.0085335243 0.022475619 0.63100004
-0.074034289 0.034308575 0.63200003
-0.012028096 0.033680003 0.63150001
-0.073238932 0.037747025 0.63162506
-0.012030358 0.037295599 0.631625
-0.072544582 0.04186552 0.63160002
-0.015023811 0.043869525 0.63100004
-0.012193261 0.042334076 0.63292307
-0.071298331 0.047330882 0.63175005
-0.015710266 0.047266457 0.63177782
-0.013185307 0.04645225 0.63342857
-0.071830221 0.052324414 0.63281816
-0.068625726 0.053165853 0.63128573
-0.016051667 0.052873895 0.63208336
-0.013887619 0.051323812 0.634
-0.07064572 0.056154288 0.634
-0.06809172 0.057846952 0.63269997
-0.016145281 0.057963636 0.63218182
-0.0671281 0.062787525 0.63269997
-0.016714653 0.062651798 0.63207692
-0.066276073 0.06748084 0.63262498
-0.064301908 0.06850858 0.63100004
-0.021050002 0.068563342 0.63150001
-0.018668747 0.067069963 0.63236362
-0.065711431 0.070534289 0.63300002
-0.063401341 0.072423808 0.63160002
-0.022128383 0.072520576 0.63139999
-0.019517938 0.072036035 0.63383335
-0.06266804 0.077128865 0.63268751
-0.058442626 0.07842429 0.63100004
-0.02687701 0.078227483 0.63114291
-0.022753082 0.077173404 0.63206673
-0.019925715 0.075476192 0.634
-0.061892767 0.081799813 0.63339996
-0.057770479 0.082442999 0.63185722
-0.054223247 0.083799623 0.63120002
-0.031049209 0.084333658 0.63100004
-0.027577018 0.082575761 0.63226664
-0.023538442 0.081699304 0.63372719
-0.061387304 0.085539691 0.634
-0.057887625 0.087346122 0.63352942
-0.053072825 0.087971248 0.63180006
-0.048977621 0.089241438 0.63100004
-0.041465718 0.089541912 0.63100004
-0.037095156 0.08844927 0.63100004
-0.032460656 0.087765552 0.63118756
-0.027936699 0.087513082 0.63313329
-0.024756191 0.085137151 0.634
-0.056758098 0.091779053 0.634
-0.052702155 0.092739381 0.63313329
-0.047643308 0.092634685 0.63135302
-0.041964259 0.092706747 0.63126677
-0.037284706 0.092611752 0.63143766
-0.032653525 0.092662297 0.63260001
-0.028773813 0.091956355 0.63383335
-0.050116193 0.096609533 0.634
-0.046871435 0.097263344 0.63366657
-0.042420141 0.097515114 0.6337142
-0.037416514 0.097162873 0.63366657
-0.033813335 0.096005723 0.634
-0.010280953 0.044147622 0.63500005
-0.0090714293 0.044147622 0.63500005
-0.011240106 0.04772561 0.6361112
-0.0091047622 0.047549207 0.63733333
-0.073176198 0.053823814 0.63500005
-0.011698316 0.052255973 0.63630778
-0.0091178576 0.052275002 0.63824999
-0.072138965 0.057392813 0.63554555
-0.069547623 0.059871431 0.63500005
-0.012115417 0.056954354 0.63618761
-0.008874096 0.057256199 0.63819999
-0.072631642 0.062476128 0.63778573
-0.069575004 0.062920719 0.63525009
-0.012766549 0.061557736 0.63837504
-0.072176576 0.067308009 0.639
-0.069052383 0.067840472 0.63600004
-0.016013715 0.068066858 0.63700002
-0.071202859 0.071811438 0.63900006
-0.068006359 0.0728532 0.6364001
-0.017337715 0.072996959 0.63660002
-0.067593925 0.077588797 0.63761544
-0.018676365 0.07774286 0.63636369
-0.066536203 0.082349531 0.63860005
-0.064340316 0.082694612 0.63533336
-0.021193609 0.083310619 0.63585716
-0.01901746 0.08153905 0.63733339
-0.065725721 0.086417146 0.63900006
-0.062814288 0.08738286 0.63540006
-0.026004763 0.088295244 0.63500005
-0.022727085 0.087283522 0.63643765
-0.062224947 0.091943815 0.63680005
-0.058266599 0.092742465 0.63508344
-0.053823814 0.094947629 0.63500005
-0.030842859 0.094947629 0.63500005
-0.027083572 0.09290453 0.63550001
-0.023332383 0.092123397 0.63757145
-0.061044291 0.09633223 0.63883334
-0.05725912 0.097426057 0.63764286
-0.052131038 0.097909607 0.63525009
-0.047776192 0.099483341 0.63500005
-0.041123815 0.099785723 0.63500005
-0.037495241 0.099785723 0.63500005
-0.032618243 0.098135039 0.63515389
-0.027804321 0.097260453 0.63746679
-0.024647143 0.096458584 0.63900006
-0.056292862 0.10071857 0.63900006
-0.052290078 0.10214738 0.63841665
-0.047118824 0.10257789 0.63615394
-0.0424047 0.10276484 0.63546669
-0.037538812 0.10232643 0.63575011
-0.032662857 0.10247738 0.63784623
-0.028444882 0.10115536 0.63887501
-0.011254287 0.063081227 0.64128578
-0.0091857146 0.062464766 0.64300001
-0.075088575 0.067762867 0.64100003
-0.074361905 0.067047626 0.64000005
-0.012216548 0.067205235 0.6415
-0.0092000002 0.065626673 0.64400005
-0.075205721 0.070314288 0.64200002
-0.07283476 0.072467908 0.64049995
-0.015246033 0.072571754 0.64033341
-0.012224466 0.072142199 0.64193755
-0.071759269 0.077764988 0.6406154
-0.015798504 0.077251568 0.64157146
-0.012255953 0.077220716 0.64350003
-0.070981435 0.08260905 0.64250004
-0.068430617 0.083249934 0.64071429
-0.01692 0.082433663 0.64222223
-0.013616001 0.081328005 0.64400005
-0.070533335 0.086479999 0.64400005
-0.06741064 0.088180482 0.64150006
-0.020114288 0.088380955 0.64000005
-0.017863238 0.08773353 0.64239997
-0.066937558 0.092504628 0.64142853
-0.064000003 0.093866676 0.64000005
-0.020531112 0.093102239 0.64033335
-0.018303946 0.092221774 0.64371437
-0.066035822 0.097154297 0.64320004
-0.062870763 0.098271713 0.64090002
-0.022251563 0.097742319 0.64142859
-0.018706668 0.096600011 0.64400005
-0.061395396 0.10178143 0.64250004
-0.057690799 0.10307033 0.64100003
-0.02445524 0.10088572 0.64200008
-0.0087228576 0.067448571 0.64500004
-0.075908579 0.078994289 0.648
-0.07450144 0.078812867 0.64649999
-0.075908579 0.084548578 0.648
-0.073865719 0.083484009 0.64740002
-0.015774604 0.083791114 0.64533335
-0.011671429 0.082705207 0.64500004
-0.072818786 0.087368757 0.64645451
-0.015602859 0.086860001 0.64500004
-0.0129 0.087228589 0.64500004
-0.072059058 0.090533338 0.64666671
-0.01597143 0.092142873 0.64500004
-0.01301368 0.091988236 0.64509094
-0.067846663 0.097771741 0.64566672
-0.017200001 0.095828578 0.64500004
-0.014128572 0.095214292 0.64500004
-0.066672578 0.10117924 0.64700001
-0.077500008 0.079980008 0.65100002
-0.076940477 0.086246192 0.65150005
