# .PCD v0.7 - Point Cloud Data file format
VERSION 0.7
FIELDS x y z
SIZE 4 4 4
TYPE F F F
COUNT 1 1 1
WIDTH 721
HEIGHT 1
VIEWPOINT 0 0 0 1 0 0 0
POINTS 721
DATA ascii
-0.028988574 -0.01068 0.53400004
-0.030209145 -0.0082388576 0.53400004
-0.028346071 -0.0081351195 0.53387499
-0.024920002 -0.0091542862 0.53400004
-0.023481905 -0.050537147 0.53600001
-0.032281779 -0.046626922 0.53800005
-0.026993807 -0.046618033 0.53621435
-0.022316476 -0.047196664 0.53750002
-0.018993335 -0.04568667 0.53900003
-0.035860002 -0.041873336 0.53900003
-0.032224007 -0.04245181 0.53704
-0.027055237 -0.042369522 0.53600019
-0.02217404 -0.042596899 0.53717399
-0.018091558 -0.041760001 0.53866673
-0.035420001 -0.0385 0.53900003
-0.032262329 -0.0373808 0.53767997
-0.027094135 -0.037316155 0.53676009
-0.022192672 -0.037286337 0.53760862
-0.018019583 -0.03790018 0.53868753
-0.031718191 -0.033360288 0.53890002
-0.027015939 -0.032843914 0.53842109
-0.0226383 -0.032968644 0.53850007
-0.014886668 -0.030286668 0.53900003
-0.041880094 -0.027406763 0.53890002
-0.037597016 -0.026190793 0.53780007
-0.032344971 -0.025993813 0.53664297
-0.027117554 -0.026828483 0.53723824
-0.022303097 -0.026535597 0.53837508
-0.017439226 -0.02686506 0.53856254
-0.014190371 -0.026501061 0.53855562
-0.040553335 -0.022415556 0.53900003
-0.037464492 -0.022398729 0.53742856
-0.032160006 -0.022460951 0.53600013
-0.027055239 -0.022460952 0.53600013
-0.022463394 -0.022463752 0.5360626
-0.017810386 -0.022392703 0.53728575
-0.014109921 -0.022318969 0.53875005
-0.041452128 -0.017299222 0.53854555
-0.037230443 -0.01780544 0.53670841
-0.032160006 -0.017866665 0.53600019
-0.027059276 -0.017869562 0.53608012
-0.022460954 -0.017866667 0.53600013
-0.017981788 -0.01781393 0.5369584
-0.013948486 -0.017307967 0.53881824
-0.041772328 -0.012636863 0.53835297
-0.037302062 -0.012774514 0.53651994
-0.03215551 -0.012760229 0.53592014
-0.027136493 -0.01298922 0.53577286
-0.022682814 -0.01261788 0.53577286
-0.017867848 -0.012763014 0.53604013
-0.013562204 -0.012732085 0.53743756
-0.042059191 -0.0076939529 0.53855002
-0.037285145 -0.0076613701 0.53628004
-0.032583527 -0.007495428 0.53539997
-0.026932145 -0.0073064286 0.53525001
-0.022753211 -0.0075105606 0.53504336
-0.017855087 -0.007652876 0.53568012
-0.013366828 -0.0077368789 0.53761113
-0.042070672 -0.0025650482 0.53869998
-0.037279435 -0.002553334 0.53620011
-0.032160006 -0.0025523813 0.53600019
-0.027053067 -0.0025520385 0.53596014
-0.022456858 -0.002551524 0.53590018
-0.017867848 -0.0025524192 0.53604013
-0.013838413 -0.0025624761 0.53820008
-0.041195001 0.0016683335 0.53900003
-0.037333868 0.0025580954 0.53696001
-0.032160006 0.0025523808 0.53600019
-0.027055239 0.0025523815 0.53600019
-0.022460954 0.0025523813 0.53600013
-0.017886935 0.0025567242 0.53663999
-0.013923606 0.0024188436 0.53864294
-0.036837433 0.0063621909 0.53869998
-0.032252729 0.0076812184 0.53752005
-0.027102061 0.0076721148 0.53692007
-0.022334479 0.0074301912 0.53789997
-0.01785749 0.0063885716 0.53854549
-0.014373334 0.005646667 0.53900003
-0.031712573 0.011494668 0.53880006
-0.027195444 0.011729047 0.53878576
-0.023784444 0.011122224 0.53900003
-0.01396881 -0.050444528 0.54325002
-0.045074288 -0.045074288 0.54400003
-0.042215623 -0.046663433 0.54320008
-0.037457891 -0.047249105 0.54122221
-0.033428568 -0.048857141 0.54000002
-0.02059 -0.048902385 0.54050004
-0.017409842 -0.047494166 0.54086667
-0.013793494 -0.047333013 0.54316682
-0.045074288 -0.04248381 0.54400003
-0.042305067 -0.042793188 0.54273683
-0.03823984 -0.043046508 0.54094446
-0.016828708 -0.044020001 0.54014289
-0.012979962 -0.042729408 0.54162496
-0.0098438105 -0.042483814 0.54400003
-0.04204762 -0.037906192 0.54337513
-0.037901297 -0.037477408 0.54109091
-0.016800001 -0.036685716 0.54000002
-0.012965518 -0.037701312 0.54104167
-0.0098377792 -0.038833972 0.54366672
-0.041132145 -0.033371668 0.54325002
-0.037699353 -0.032534476 0.54223996
-0.032844827 -0.031745143 0.54053336
-0.02777143 -0.030685715 0.54000002
-0.02137723 -0.031573769 0.54027271
-0.017492192 -0.032411717 0.54020005
-0.01355177 -0.032923747 0.5413571
-0.046068098 -0.025880478 0.54350007
-0.043293972 -0.025906881 0.54044449
-0.037046142 -0.028688043 0.54111111
-0.032273684 -0.028713165 0.54099995
-0.027257144 -0.0288 0.54000002
-0.021857142 -0.0288 0.54000002
-0.018000003 -0.027874287 0.54000002
-0.012196033 -0.027229363 0.5411666
-0.0079702726 -0.026350681 0.54250008
-0.0046628574 -0.025904763 0.54400003
-0.046110481 -0.022278098 0.54400003
-0.043033596 -0.02210087 0.54081821
-0.011679561 -0.021895826 0.54046154
-0.0082582384 -0.022198336 0.54205
-0.046586197 -0.016908731 0.54350001
-0.044139791 -0.017689845 0.54100001
-0.011494603 -0.017671535 0.54044443
-0.0078466171 -0.017571529 0.54178941
-0.0046628574 -0.016060954 0.54400003
-0.050255243 -0.01191619 0.54400003
-0.047404978 -0.012683704 0.54233336
-0.044440009 -0.013267382 0.54100001
-0.011188215 -0.01324631 0.54012501
-0.0077232001 -0.012875048 0.54072005
-0.0043570073 -0.012480817 0.54285723
-0.050684974 -0.007536402 0.54366666
-0.047472857 -0.0077398093 0.54179996
-0.04474286 -0.0077142864 0.54000002
-0.01097143 -0.0073714294 0.54000002
-0.0077197719 -0.0077206106 0.54048002
-0.003994632 -0.0078491773 0.5429092
-0.050569844 -0.0034514291 0.54366672
-0.047490384 -0.002580381 0.542
-0.04474286 -0.0025714287 0.54000002
-0.011320287 -0.0025722857 0.54030001
-0.007734858 -0.0025784383 0.54160005
-0.0046577146 -0.0025872383 0.54339999
-0.047478646 0.00247604 0.54278946
-0.043394793 0.0029982638 0.54052943
-0.01146909 0.0027624241 0.54072726
-0.0077468194 0.0025833144 0.54240006
-0.0046600006 0.0015539684 0.54366666
-0.047017757 0.007614899 0.54335725
-0.042804532 0.0077367229 0.54147995
-0.037959177 0.008606921 0.54006666
-0.021085717 0.0095142862 0.54000002
-0.017280001 0.0089485701 0.54000002
-0.012739545 0.007905093 0.54078257
-0.0087919421 0.0072021978 0.54307699
-0.045592383 0.011398096 0.54400003
-0.042431101 0.012714048 0.54265004
-0.037616614 0.012883124 0.54104
-0.032811429 0.013748574 0.54000002
-0.027257144 0.014259742 0.54000002
-0.021885844 0.013094675 0.5401364
-0.017507909 0.01287543 0.54069996
-0.012987659 0.012819008 0.54195839
-0.0098438105 0.013470476 0.54400003
-0.041560959 0.017418733 0.54322225
-0.037696764 0.017557431 0.54219997
-0.032472957 0.017525811 0.54119992
-0.027287338 0.017505813 0.5406
-0.022160146 0.017523762 0.54114997
-0.017548276 0.017548634 0.54193747
-0.012987471 0.017291831 0.54326326
-0.0098438105 0.016060954 0.54400003
-0.040929526 0.020205716 0.54400003
-0.037657581 0.022146473 0.54287511
-0.032520004 0.022196192 0.54199988
-0.027358096 0.02219619 0.54199988
-0.022202287 0.022203201 0.54215997
-0.017612781 0.022078851 0.54310536
-0.014184763 0.020604953 0.54360008
-0.036895879 0.027025525 0.54360008
-0.032556001 0.027389066 0.54260004
-0.02740431 0.027404536 0.54292011
-0.022379009 0.027237976 0.54317403
-0.018748 0.026206288 0.54380006
-0.03238349 0.031003181 0.54355562
-0.027455021 0.031440075 0.54392314
-0.024350477 0.030567622 0.54400003
-0.011419049 -0.050347622 0.54500002
-0.045923136 -0.046515517 0.54528576
-0.043466192 -0.048662383 0.54550004
-0.011601164 -0.047849212 0.54544449
-0.009139481 -0.046933595 0.54699999
-0.04731435 -0.042114988 0.54593337
-0.0080936803 -0.041702863 0.5467273
-0.046132516 -0.038702317 0.546
-0.044119049 -0.037371434 0.54500002
-0.0072482796 -0.037847694 0.54669231
-0.051065717 -0.025968574 0.54900002
-0.048419684 -0.026031749 0.54666668
-0.0061360002 -0.028392002 0.546
-0.0033319998 -0.026966671 0.54659998
-0.051900603 -0.022131192 0.54837501
-0.048137259 -0.022369303 0.54623526
-0.0057137148 -0.022335809 0.54540002
-0.0026049525 -0.022411125 0.54727995
0.00052190479 -0.022441907 0.54800004
-0.052280545 -0.017161451 0.54761904
-0.04847445 -0.017572381 0.54533339
-0.0057095243 -0.017128572 0.54500002
-0.0028257144 -0.017376089 0.54763162
-0.055945717 -0.010980001 0.54900002
-0.052764699 -0.012469715 0.54706669
-0.0019611721 -0.012538316 0.5467692
0.0005209524 -0.01094 0.54700005
-0.055945717 -0.0083657149 0.54900002
-0.05352965 -0.0079445252 0.54700005
-0.0014847619 -0.0077254423 0.546
0.00081945583 -0.0076730619 0.54757148
-0.052611224 -0.0022321772 0.54692858
-0.0020792861 -0.0026021427 0.54624993
0.00052238099 -0.0031352381 0.54850006
-0.051582739 0.0026057144 0.54706669
-0.049309526 0.0046714288 0.54500002
-0.0023174027 0.00274684 0.5468182
0.00052190479 0.0026095239 0.54800004
-0.051053911 0.007815429 0.54699999
-0.049151588 0.0081347628 0.54516673
-0.0066656354 0.0083978577 0.54541671
-0.0033435295 0.0075800568 0.54776472
-0.050647862 0.012532144 0.54825008
-0.047658712 0.012702969 0.54635298
-0.0075771967 0.01238217 0.54672217
-0.0041047623 0.01201687 0.54857147
-0.050717145 0.01673143 0.54900002
-0.047464043 0.01721276 0.54764003
-0.043800123 0.017547499 0.54587501
-0.011419049 0.019204764 0.54500002
-0.0075323824 0.017344849 0.5473637
-0.0047057145 0.015162858 0.54900002
-0.046565078 0.022185272 0.54853332
-0.042777598 0.022498498 0.54668421
-0.039966669 0.02439524 0.54500002
-0.015571428 0.023876192 0.54500002
-0.012262746 0.022662411 0.5458824
-0.0078204963 0.022423239 0.54752016
-0.045837149 0.026840001 0.54900002
-0.042411018 0.027766461 0.5473913
-0.03896885 0.0279849 0.54557145
-0.020761907 0.029585715 0.54500002
-0.01673862 0.027865093 0.54584992
-0.012519096 0.027649576 0.54775006
-0.0089879055 0.026860669 0.54870003
-0.041761756 0.032534588 0.54773682
-0.037436906 0.032757949 0.54594994
-0.032871254 0.033651371 0.54568756
-0.027534766 0.034029212 0.54550004
-0.022257501 0.032825198 0.54562491
-0.0171928 0.03282579 0.54707998
-0.012625098 0.032532662 0.54835296
-0.0095857149 0.032417145 0.54900002
-0.041048892 0.036984131 0.54866672
-0.037543453 0.037543807 0.54750001
-0.032819904 0.037509717 0.54700005
-0.027603287 0.037499003 0.54685003
-0.022391811 0.037495911 0.54680002
-0.017225048 0.037584569 0.54809999
-0.012720715 0.036420241 0.54891664
-0.040260002 0.040260002 0.54900002
-0.037106849 0.042333785 0.54876184
-0.032614585 0.042157192 0.54831833
-0.027651392 0.042259544 0.54780012
-0.022438325 0.042268347 0.54792011
-0.01829458 0.041776929 0.54884613
-0.035868004 0.04590686 0.54900002
-0.032135606 0.046775606 0.54899991
-0.027875412 0.046745777 0.54858828
-0.022457907 0.045961522 0.54840004
-0.019345716 0.045488574 0.54900002
-0.0083809532 -0.03230159 0.55000001
-0.053952385 -0.022523811 0.55000001
0.00052380958 -0.020428572 0.55000001
-0.057007547 -0.016280368 0.55146164
-0.00052404765 -0.017292621 0.55024999
0.0017274831 -0.016737824 0.5517143
-0.060676198 -0.013190477 0.55400002
-0.057702959 -0.012672699 0.55188888
-0.00052380958 -0.014142858 0.55000001
0.0022380953 -0.012561666 0.55250007
-0.060676195 -0.00580381 0.55400002
-0.057899278 -0.007695687 0.55176479
0.0026341495 -0.0072940141 0.55271423
-0.057056889 -0.0027746321 0.55236363
0.0018391669 -0.0028886907 0.55112499
-0.05554381 0.0030192859 0.55150002
-0.053991623 0.0026205715 0.55039996
0.0011103704 0.0026280424 0.55188888
-0.05670213 0.0075799269 0.55323076
-0.053489633 0.0076420116 0.55122226
-0.0010479763 0.0083870254 0.55037504
0.00097850349 0.0071466672 0.5528571
-0.057158735 0.011080001 0.55399996
-0.053075004 0.012261192 0.55175006
-0.0018152384 0.012882198 0.55123085
0.00092309521 0.011734763 0.55374998
-0.052927494 0.017642288 0.55239999
-0.0027187881 0.017284418 0.5514546
0.00052761909 0.015828572 0.55400002
-0.051971871 0.022401759 0.55292308
-0.049160473 0.022955714 0.5503
-0.0040596542 0.022405975 0.55172724
-0.050915241 0.027436193 0.55400002
-0.048099164 0.027921347 0.55070591
-0.0071874158 0.028229048 0.55035722
-0.0042963265 0.02721007 0.55399996
-0.050123814 0.030074287 0.55400002
-0.047343276 0.032613277 0.55231249
-0.044523817 0.033000004 0.55000001
-0.0071179597 0.032226127 0.55085719
-0.0047485717 0.030601908 0.55400002
-0.047221109 0.037214238 0.55294442
-0.04349919 0.037584629 0.55028582
-0.011800239 0.03881548 0.55075002
-0.0082275141 0.036713444 0.55155557
-0.046442855 0.042109527 0.55344445
-0.04263052 0.042630199 0.55145836
-0.039285716 0.044000003 0.55000001
-0.016155398 0.04305302 0.55016673
-0.012282609 0.042483851 0.55247825
-0.045902859 0.045902859 0.55400002
-0.042538751 0.04730406 0.55284214
-0.037443455 0.04803995 0.55047375
-0.033008847 0.04917619 0.55014282
-0.027398929 0.049425356 0.55062503
-0.022551494 0.048774097 0.55066675
-0.017357405 0.047642946 0.5508182
-0.01293934 0.047175825 0.55369228
-0.040890481 0.050915241 0.55400002
-0.03746336 0.052496918 0.55252385
-0.03254649 0.052495293 0.55118757
-0.027839193 0.052529186 0.55155003
-0.022605527 0.052571706 0.55200005
-0.017897261 0.052380476 0.55274999
-0.036618877 0.057270646 0.55347061
-0.032217104 0.057499561 0.55304182
-0.027499681 0.057282358 0.55276197
-0.022654094 0.057428192 0.55320013
-0.018931746 0.05691313 0.55388886
-0.031692322 0.061942492 0.55399996
-0.027436195 0.062552184 0.55399996
-0.024195105 0.061731432 0.55399996
0.0042285714 -0.011100001 0.55500001
0.0035238096 -0.0075761904 0.55500001
0.0037931874 -0.002322125 0.55653846
0.005850953 -0.001594762 0.55850005
0.0030065079 0.002474762 0.55683339
-0.058973473 0.0070224488 0.55500001
0.0026552381 0.0079622231 0.55733335
-0.057590954 0.012622791 0.55549997
-0.05444286 0.01427143 0.55500001
0.0031824491 0.012648164 0.55671436
-0.057237007 0.017488049 0.55645001
-0.05444286 0.015328572 0.55500001
-0.00052904768 0.019046191 0.55550003
0.0026559865 0.016768506 0.55764288
-0.05700757 0.022943122 0.5559445
-0.054140814 0.023181634 0.55500001
-0.0015131977 0.022945445 0.55657154
0.0013309526 0.021561431 0.55900002
-0.056838181 0.027623415 0.55775005
-0.053268068 0.027631285 0.55546159
-0.0017526009 0.027707037 0.5570001
-0.05586667 0.031747304 0.55866671
-0.052557427 0.032416865 0.55645841
-0.0030254342 0.032245152 0.55717653
-0.05244771 0.037587147 0.5571667
-0.049157146 0.039114289 0.55500001
-0.0065207942 0.03895 0.55516666
-0.0037139684 0.037690606 0.55740005
-0.051355243 0.042317338 0.55820006
-0.048393968 0.042982966 0.55566669
-0.010042857 0.044400003 0.55500001
-0.0075217462 0.042609375 0.55538887
-0.0039279046 0.042476863 0.55750006
-0.050738577 0.047013495 0.55883336
-0.047882296 0.04744387 0.55605882
-0.044928573 0.049157146 0.55500001
-0.010646939 0.048100002 0.55500001
-0.0072956607 0.047372382 0.55611122
-0.0041917465 0.046706881 0.55800003
-0.047226168 0.052529696 0.55713046
-0.042761404 0.052526563 0.55511767
-0.015504763 0.052680954 0.55500001
-0.012171431 0.052393455 0.55568004
-0.0077149589 0.052391157 0.55764711
-0.0047914288 0.050576195 0.55900002
-0.046807799 0.057163045 0.55768752
-0.04237058 0.057729531 0.55610007
-0.039246432 0.05801072 0.55500001
-0.016587382 0.057957973 0.555125
-0.012327619 0.057588581 0.55652177
-0.0086120013 0.056671429 0.55820006
-0.045877144 0.061302386 0.55850005
-0.042482324 0.062660418 0.55756259
-0.037553381 0.0624111 0.55535012
-0.03312381 0.063604772 0.55500001
-0.021915385 0.062656052 0.55499995
-0.017468337 0.062467765 0.55585003
-0.012596303 0.062302191 0.55800009
-0.041734029 0.06707447 0.55854553
-0.037638973 0.067323774 0.55659997
-0.032348055 0.067252822 0.55529171
-0.027491115 0.067377359 0.55511117
-0.022753561 0.067207046 0.5556401
-0.017510628 0.067396037 0.55720007
-0.013886984 0.067310065 0.5584445
-0.04134826 0.071161591 0.55900002
-0.037300792 0.072179846 0.55772233
-0.032347731 0.07265082 0.55679995
-0.027569715 0.072637625 0.55670011
-0.022967577 0.072428703 0.55731815
-0.018612955 0.071795061 0.55840003
-0.036201909 0.075598098 0.55900002
-0.032451812 0.076608382 0.55860001
-0.027225425 0.077010475 0.55884618
-0.022774078 0.076248787 0.55900002
0.0058666673 -0.0016000001 0.56
0.0042074076 0.0027851856 0.56
0.0061333338 0.0018666668 0.56
0.0043496597 0.0072484356 0.56085718
0.0058745244 0.007476429 0.56075001
0.0048000002 0.010133334 0.56
-0.06026667 0.016533334 0.56
0.0031416931 0.019144658 0.56011111
0.0030041074 0.022623152 0.56056255
-0.059340958 0.028333336 0.56133336
0.0017382738 0.027259467 0.56118745
-0.057783179 0.032504443 0.56073338
-0.00088936515 0.033452224 0.56050003
0.0012153249 0.032806501 0.56136364
-0.056597028 0.037375838 0.56062502
-0.0010683334 0.037417859 0.56125003
0.0024258264 0.03770056 0.56217659
0.0058980957 0.038071431 0.56300002
-0.056386057 0.042518575 0.56307143
-0.053728033 0.042601768 0.56014282
-0.0011292064 0.04241069 0.56211114
0.0026902482 0.042503815 0.56491983
0.0059190481 0.044123814 0.565
-0.055501718 0.046912767 0.5636
-0.052978575 0.047710545 0.5610714
-0.0018029166 0.047943991 0.56168753
0.0024503181 0.047218785 0.56483334
0.0062777787 0.046096828 0.565
-0.055731297 0.052348983 0.565
-0.052480005 0.052476551 0.56225002
-0.049600001 0.054933336 0.56
-0.0058666673 0.05386667 0.56
-0.0028009524 0.052471768 0.56252944
0.0016142857 0.050042856 0.565
-0.055423815 0.057038099 0.565
-0.05250258 0.05732134 0.56250006
-0.049333334 0.058400005 0.56
-0.0069433767 0.058034122 0.56090909
-0.0032180957 0.057434481 0.56359994
-0.052244771 0.062216878 0.5638572
-0.048229136 0.062932327 0.5608235
-0.010350286 0.06327638 0.56019998
-0.007494715 0.062652156 0.56225008
-0.0031580357 0.062169705 0.5645625
-0.051706884 0.067488045 0.56488889
-0.047549799 0.067585267 0.56214291
-0.043682858 0.068339795 0.56011111
-0.011446735 0.067693673 0.56092852
-0.007516013 0.067658395 0.56381255
-0.0040058205 0.066305295 0.565
-0.0507962 0.071997151 0.565
-0.047311381 0.072559997 0.56347376
-0.042601652 0.072994165 0.56053334
-0.038933337 0.074133337 0.56
-0.016538858 0.07309296 0.56019998
-0.012160391 0.072544195 0.56195456
-0.0081838109 0.071510591 0.56455559
-0.047081023 0.077264145 0.56450003
-0.042139634 0.077412263 0.56191307
-0.037577033 0.077696696 0.56035298
-0.03253334 0.078933343 0.56
-0.027047619 0.079161905 0.56
-0.021866668 0.078400001 0.56
-0.017621489 0.077433914 0.56072003
-0.012478137 0.077474162 0.56313634
-0.0091476198 0.076409526 0.565
-0.046096828 0.081431754 0.565
-0.042579096 0.082470089 0.56395459
-0.037426554 0.082335964 0.56137502
-0.032561142 0.08273866 0.56048012
-0.027234973 0.082773864 0.56071997
-0.022536136 0.082446963 0.56105888
-0.017677143 0.082501523 0.5625
-0.012413742 0.082296833 0.56442863
-0.041971434 0.087231226 0.56499994
-0.037608005 0.087570764 0.56409997
-0.032658435 0.087803856 0.56215
-0.027323002 0.087866038 0.56255007
-0.022438746 0.087529279 0.56310529
-0.017733753 0.087598607 0.56428003
-0.013606123 0.086325862 0.565
-0.040715873 0.091296829 0.565
-0.037654463 0.092521973 0.56481254
-0.032751571 0.092347957 0.56375009
-0.027393434 0.092389241 0.56400007
-0.022575004 0.092450827 0.56437504
-0.018446464 0.092310287 0.56492859
-0.037263095 0.095915481 0.565
-0.032764021 0.096737571 0.56499994
-0.027329577 0.096772186 0.56499994
-0.022922857 0.096211433 0.565
-0.018833335 0.095242865 0.565
-0.06105588 0.043046352 0.56733334
-0.059348103 0.043161906 0.56650001
-0.060762264 0.047365122 0.56837505
-0.057860006 0.047652733 0.56681818
-0.057763651 0.050744608 0.56683332
-0.00053904764 0.053904764 0.56600004
0.001260635 0.052740429 0.56699997
-0.057213146 0.05656286 0.56780005
-0.00053942855 0.057717718 0.56640005
0.00090238109 0.057390958 0.56850004
-0.055915084 0.062589057 0.56816667
-0.054116514 0.063825078 0.56633335
-0.00080880953 0.063366435 0.56625003
0.0012183334 0.061993338 0.56850004
-0.056230098 0.066847622 0.56880003
-0.05396229 0.067452766 0.56659997
-0.0023432542 0.067899294 0.56808335
0.0010838096 0.065570481 0.56900001
-0.053066861 0.072842672 0.56739998
-0.0070135719 0.073240951 0.56650001
-0.004437143 0.071756385 0.56819999
-0.051734671 0.077401072 0.56779999
-0.049053337 0.07870096 0.56600004
-0.0072785998 0.077474803 0.56747061
-0.0048771431 0.075324766 0.56900001
-0.051226035 0.082339376 0.56816667
-0.04803041 0.082953945 0.56664282
-0.010250953 0.084166199 0.56650007
-0.0079052392 0.082374051 0.56762493
-0.05081296 0.086566105 0.56880003
-0.047568511 0.087567568 0.56756246
-0.044221673 0.088443093 0.56625003
-0.011749306 0.08790125 0.56676918
-0.0086596841 0.086963184 0.56833339
-0.046798274 0.092070654 0.56836373
-0.043066528 0.09260729 0.56665003
-0.016176034 0.09328302 0.5661667
-0.012625549 0.092341498 0.5678696
-0.0092123812 0.091040008 0.56900001
-0.046061907 0.09591715 0.56900001
-0.042725857 0.097346529 0.56784999
-0.037598781 0.098695926 0.56628573
-0.032235049 0.099292576 0.56600004
-0.027850794 0.099544138 0.56600004
-0.022332573 0.098824009 0.56639999
-0.017916735 0.09750995 0.56685722
-0.014265873 0.097153492 0.56883335
-0.041595154 0.10155118 0.5685454
-0.037280664 0.10265525 0.56730002
-0.032378573 0.10253299 0.566625
-0.027546812 0.10262749 0.56715
-0.02216843 0.10273664 0.56774998
-0.017530419 0.10227436 0.56856251
-0.040642861 0.10567144 0.56900001
-0.036895037 0.10673953 0.56850004
-0.032443099 0.10706261 0.56774998
-0.027836455 0.10702059 0.56816667
-0.022407534 0.10632737 0.56881827
-0.018424762 0.10567144 0.56900001
-0.035223812 0.11000668 0.56900001
-0.032189146 0.11022343 0.56900001
-0.029804764 0.11000668 0.56900001
0.0040420955 0.053626478 0.57340002
0.0060133338 0.054120004 0.574
-0.061040245 0.058860242 0.57225001
-0.058447052 0.058881342 0.57140005
0.0033678573 0.056671035 0.57308334
-0.061200868 0.06258893 0.57236362
-0.058266398 0.062383134 0.57100004
0.0031571432 0.063561149 0.57140005
0.0059819054 0.064169526 0.57100004
-0.061120003 0.066031434 0.57300001
-0.058189008 0.067580521 0.5710001
-0.00054380955 0.068520002 0.57100004
0.0029033865 0.067692801 0.57166672
0.0059819054 0.067432389 0.57100004
-0.05716788 0.072369576 0.57227784
-0.0020149583 0.072864488 0.57170582
0.0022919525 0.072298244 0.57335007
-0.055812262 0.077099174 0.573125
-0.05380572 0.078806348 0.57066673
-0.0027702043 0.077647582 0.57166678
0.0023688891 0.077626668 0.57399994
-0.055393528 0.081615627 0.57359999
-0.053695433 0.083103046 0.57180005
-0.0059766672 0.08367382 0.57050002
-0.0035791839 0.082435928 0.5721429
-0.052230004 0.087590478 0.57125008
-0.006971343 0.087877326 0.57118183
-0.0046944763 0.087016769 0.57319999
-0.05117441 0.092549175 0.57162505
-0.049066987 0.092702232 0.57033342
-0.010314287 0.093914293 0.57000005
-0.0072930162 0.092518806 0.57166672
-0.0049178572 0.091800719 0.57375002
-0.051181231 0.096831568 0.5725714
-0.048042282 0.097533606 0.57105565
-0.011639174 0.097873464 0.57113343
-0.0081791943 0.097030774 0.57261539
-0.050840002 0.10004 0.574
-0.047114626 0.10227599 0.57247061
-0.04316942 0.10366635 0.57055563
-0.015761269 0.10380763 0.57066673
-0.012522571 0.10237972 0.57179993
-0.0092933336 0.10277334 0.574
-0.046153575 0.10650785 0.57349998
-0.042572323 0.10789727 0.57160002
-0.038566034 0.10863493 0.57033342
-0.025514288 0.10857143 0.57000005
-0.022040637 0.10875874 0.57066673
-0.017256126 0.107976 0.57135719
-0.013743096 0.1070388 0.57341665
-0.041999146 0.11181325 0.57270002
-0.037550092 0.11232247 0.57140005
-0.032636736 0.11314219 0.57114291
-0.027635396 0.11262811 0.57083344
-0.022446129 0.11242326 0.57121748
-0.017449405 0.11234381 0.57262504
-0.014760001 0.11261335 0.574
-0.037205715 0.11610731 0.57355553
-0.03231651 0.11706731 0.57349998
-0.027506232 0.1172926 0.57323074
-0.022670081 0.11681119 0.5735833
-0.017842066 0.11561065 0.57349998
0.0043809526 0.05859524 0.57500005
0.0065714289 0.055309527 0.57500005
-0.062976196 0.062976196 0.57500005
-0.06138714 0.068511911 0.57550001
-0.061427023 0.072396562 0.57587504
-0.059690479 0.073380962 0.57500005
-0.061060578 0.077564575 0.5776
-0.05866899 0.077702187 0.57571441
0.0010952381 0.077579372 0.57500005
-0.060438734 0.081380956 0.57866669
-0.057577148 0.082747467 0.57666677
-0.0010185034 0.082522191 0.57600003
0.0014275238 0.082167909 0.57670003
-0.06000191 0.085323818 0.57800001
-0.056794085 0.087350957 0.57735723
-0.053940479 0.088440478 0.57500005
-0.0019682355 0.087590866 0.57629412
0.0020416249 0.087618545 0.57817656
-0.05630064 0.0922435 0.57766664
-0.053704381 0.092612386 0.57540005
-0.0029703812 0.092133239 0.57790005
0.00055142859 0.091537148 0.57900006
-0.056111973 0.096720144 0.57842863
-0.053660531 0.097981386 0.57688898
-0.0063002384 0.09834072 0.57525003
-0.0044017858 0.097687744 0.57787508
-0.052220583 0.10278806 0.57715386
-0.04946826 0.10423017 0.57500005
-0.007125841 0.10251187 0.57560003
-0.0044840821 0.10236001 0.57828569
-0.052022114 0.10715821 0.5776667
-0.048584294 0.10776111 0.57533336
-0.01150181 0.1078999 0.57509995
-0.0077994289 0.1075729 0.57686681
-0.0049542859 0.10569143 0.57800001
-0.050348572 0.11204533 0.57840002
-0.047134515 0.11219748 0.5766471
-0.043652698 0.11378827 0.57533336
-0.01209619 0.11229473 0.57582355
-0.0084763821 0.11207753 0.57800007
-0.046958625 0.11638466 0.57855558
-0.042703249 0.11769675 0.57700014
-0.038279999 0.11800446 0.57511109
-0.033404764 0.11883334 0.57500005
-0.021145144 0.11843657 0.57520002
-0.017495766 0.11821091 0.57611114
-0.012499882 0.11583608 0.57712507
-0.009374286 0.11580001 0.57900006
-0.060946036 0.082673021 0.58000004
-0.058804452 0.088666677 0.58066672
0.003314286 0.085619055 0.58000004
-0.060209528 0.091142863 0.58000004
-0.058728691 0.092722267 0.58037502
-0.001499592 0.093714289 0.58028567
0.00092095247 0.093038417 0.58033335
-0.058201812 0.097812869 0.58089995
-0.0018786032 0.097690798 0.58039993
0.0017625976 0.097714283 0.58145452
-0.057300884 0.10226997 0.58238465
-0.054709285 0.10278739 0.58025002
-0.0017430771 0.10254074 0.58053839
0.0011857144 0.10126001 0.58100003
-0.056786314 0.10704441 0.583125
-0.054081362 0.10792518 0.58028567
-0.0060761911 0.10992382 0.58000004
-0.0034339051 0.1077164 0.5818001
-0.05580445 0.11179429 0.58400005
-0.053042643 0.11243137 0.5815385
-0.0060915481 0.11327869 0.58162504
-0.0046212701 0.11073557 0.58233333
-0.050696384 0.1174804 0.58240002
-0.048117418 0.11843443 0.58071429
-0.012711143 0.11849191 0.58029997
-0.0079604778 0.11709477 0.58050001
-0.061242148 0.10346787 0.58724999
-0.059750166 0.10330699 0.58633333
-0.060936194 0.10621905 0.58700001
-0.05860072 0.10771191 0.58600003
-0.056925721 0.11217715 0.58600003
