# .PCD v0.7 - Point Cloud Data file format
VERSION 0.7
FIELDS x y z
SIZE 4 4 4
TYPE F F F
COUNT 1 1 1
WIDTH 627
HEIGHT 1
VIEWPOINT 0 0 0 1 0 0 0
POINTS 627
DATA ascii
-0.032248255 -0.092442967 0.75244451
-0.027238576 -0.092470326 0.75266671
-0.023665717 -0.092511438 0.75300002
-0.036574285 -0.0863645 0.75299996
-0.032229211 -0.087376036 0.75200003
-0.027214644 -0.08737728 0.75200003
-0.023657858 -0.087463103 0.75275004
-0.037069872 -0.082281299 0.75245458
-0.032219052 -0.082337148 0.75177777
-0.02714286 -0.08214286 0.75000006
-0.022405716 -0.081952654 0.75199997
-0.017193573 -0.080956437 0.75225002
-0.037258156 -0.077380657 0.75231248
-0.032228574 -0.077348582 0.75199991
-0.027221492 -0.077368043 0.75218743
-0.022214524 -0.077391677 0.75241661
-0.017193573 -0.077374287 0.75224996
-0.013625715 -0.077451438 0.75300002
-0.040877145 -0.070997149 0.75300002
-0.037241906 -0.072335236 0.75199991
-0.032219473 -0.072314292 0.75177777
-0.027215242 -0.072335236 0.75199991
-0.022201905 -0.072335236 0.75199997
-0.017190238 -0.072343417 0.7520833
-0.013267144 -0.072072864 0.75300002
-0.045180004 -0.065977149 0.75300002
-0.042002477 -0.06708952 0.75260001
-0.037230242 -0.067299999 0.75174993
-0.032150317 -0.067158259 0.75016671
-0.027160959 -0.067189045 0.75050002
-0.022157619 -0.06718906 0.75050002
-0.01717744 -0.067283869 0.75156248
-0.012906311 -0.067400597 0.75287509
-0.045180004 -0.061674289 0.75300002
-0.042274609 -0.062336199 0.75233334
-0.037194286 -0.062225726 0.75099999
-0.032142859 -0.062142864 0.75000006
-0.02714286 -0.06214286 0.75000006
-0.022142857 -0.062142856 0.75000006
-0.01716016 -0.062212225 0.75083333
-0.01290254 -0.062364131 0.75266671
-0.045180004 -0.05952286 0.75300002
-0.042156022 -0.057531778 0.75254554
-0.037175361 -0.057190839 0.75062501
-0.032142859 -0.057142857 0.75000006
-0.027142864 -0.057142857 0.75000006
-0.022142857 -0.057142857 0.75000006
-0.017173216 -0.057246551 0.75137496
-0.012901787 -0.057342507 0.75262511
-0.041450862 -0.052638285 0.75300002
-0.037226353 -0.052258421 0.75166661
-0.032162327 -0.052172914 0.75044447
-0.027149366 -0.052154135 0.75016671
-0.022162542 -0.052187938 0.75066668
-0.017193098 -0.052298974 0.75225002
-0.013625715 -0.053068578 0.75300002
-0.037263993 -0.047295298 0.75243753
-0.032232303 -0.047273576 0.7520833
-0.027197862 -0.047235955 0.75149995
-0.022201905 -0.047268573 0.75199991
-0.017919224 -0.047764935 0.75263637
-0.013625715 -0.04948286 0.75300002
-0.035857148 -0.043745719 0.75300002
-0.031855784 -0.042508032 0.75285715
-0.02722794 -0.042273656 0.75233334
-0.022214605 -0.042279791 0.75244445
-0.019004287 -0.042670004 0.75300002
-0.031554289 -0.03944286 0.75300002
-0.026713574 -0.038546432 0.75300002
-0.023187621 -0.038964767 0.75300002
-0.021585556 -0.087063022 0.75550008
-0.017275082 -0.08710143 0.75583345
-0.012448334 -0.08714167 0.75774997
-0.0086628571 -0.08735048 0.75800002
-0.042480852 -0.082800649 0.75600004
-0.039547622 -0.084128574 0.75500005
-0.021571431 -0.084128574 0.75500005
-0.017257145 -0.083409525 0.75500005
-0.012244339 -0.08283715 0.75633335
-0.0086628571 -0.080853343 0.75800002
-0.04688381 -0.077175878 0.75733328
-0.042457223 -0.077717386 0.75558347
-0.011511905 -0.07770858 0.75550008
-0.008655238 -0.077177145 0.75733334
-0.04775605 -0.072601475 0.75707698
-0.04262536 -0.072839648 0.75537509
-0.011360953 -0.072911426 0.75500005
-0.0081042871 -0.072407149 0.75650001
-0.051805716 -0.066813715 0.75760001
-0.047652822 -0.0676874 0.75546163
-0.043861907 -0.069028579 0.75500005
-0.010785715 -0.067590483 0.75500005
-0.0075892312 -0.067326076 0.75638461
-0.051954608 -0.0627781 0.75766665
-0.047908284 -0.06272582 0.75530005
-0.010785715 -0.062557146 0.75500005
-0.0072036511 -0.062695242 0.75666666
-0.051544003 -0.058185529 0.75800002
-0.047626983 -0.057410225 0.75540006
-0.043861907 -0.055366669 0.75500005
-0.010785715 -0.057523813 0.75500005
-0.0076850797 -0.058132071 0.75666672
-0.047548175 -0.052588332 0.75641662
-0.043516908 -0.052147858 0.7552501
-0.011823403 -0.052333612 0.75571436
-0.0086476197 -0.052605081 0.75666666
-0.04726667 -0.047573883 0.75685722
-0.042457227 -0.047493577 0.75558347
-0.015675239 -0.046450481 0.75500005
-0.012114546 -0.04735247 0.75645453
-0.0090960003 -0.048078857 0.75800002
-0.046743337 -0.042772863 0.75799996
-0.042486884 -0.04248561 0.75611115
-0.037693243 -0.042152476 0.7553001
-0.033795241 -0.041704766 0.75500005
-0.016363336 -0.042257857 0.7552501
-0.012247514 -0.042511009 0.75655556
-0.0093847625 -0.042592388 0.75800008
-0.046201907 -0.039704766 0.75800002
-0.042451259 -0.03772641 0.75781816
-0.037456494 -0.037454467 0.75631261
-0.032500956 -0.036959052 0.75500005
-0.027863096 -0.036132146 0.75500005
-0.021977253 -0.036841594 0.75522232
-0.017284645 -0.037451193 0.75625014
-0.012394114 -0.037707709 0.75745451
-0.0093847625 -0.038982861 0.75800002
-0.041509524 -0.032846667 0.75800002
-0.037491437 -0.032442857 0.75700003
-0.03239524 -0.032395031 0.75588894
-0.027353652 -0.032392543 0.75583345
-0.022320002 -0.032400005 0.75600004
-0.017508917 -0.032592904 0.75745451
-0.012994287 -0.033929527 0.75800002
-0.041148573 -0.029598096 0.75800002
-0.037381969 -0.027470095 0.7577334
-0.032435399 -0.02738905 0.75683337
-0.027382264 -0.027381312 0.75662518
-0.022353495 -0.027401118 0.75716668
-0.018178876 -0.027629267 0.75799996
-0.036636665 -0.022559524 0.75799996
-0.03248572 -0.022379048 0.75799996
-0.027432382 -0.022379048 0.75799996
-0.022559524 -0.022559524 0.75799996
-0.018769525 -0.023100954 0.75800002
-0.036095239 -0.01949143 0.75800002
-0.032774478 -0.018913906 0.75800002
-0.027913652 -0.019010162 0.75799996
-0.0073507493 -0.082741775 0.76114291
-0.0057982542 -0.077567153 0.76116663
-0.0036333336 -0.076300003 0.76300001
-0.0055503179 -0.072637945 0.7601667
-0.0026644447 -0.072424449 0.76300001
-0.0050666672 -0.068761908 0.76000005
-0.0021744976 -0.067462541 0.76166672
0.00072666671 -0.06903334 0.76300001
-0.055953339 -0.062493335 0.76300001
-0.054464288 -0.062450953 0.76250005
-0.0026555555 -0.062553555 0.76077783
-0.053703815 -0.057331432 0.76200002
-0.0057904767 -0.056457147 0.76000005
-0.0029017462 -0.057317305 0.76183343
-0.057891116 -0.052077781 0.76300001
-0.052607264 -0.05278679 0.76187503
-0.0056946944 -0.052501772 0.76114291
-0.0029066668 -0.053773336 0.76300001
-0.058860004 -0.048686668 0.76300001
-0.052100275 -0.047540817 0.76128578
-0.049942862 -0.047771432 0.76000005
-0.0065228576 -0.047411431 0.76120007
-0.052241117 -0.042807464 0.76183337
-0.049580958 -0.04234286 0.76000005
-0.0065238099 -0.042779688 0.76133341
-0.050641723 -0.037871428 0.76179999
-0.047482338 -0.037470739 0.76063639
-0.044152383 -0.035466667 0.76000005
-0.010857143 -0.035466667 0.76000005
-0.0069383001 -0.037497491 0.76135731
-0.050140005 -0.033426668 0.76300001
-0.047165826 -0.032651961 0.76188892
-0.043573335 -0.032281909 0.76000005
-0.015200001 -0.031123811 0.76000005
-0.012102042 -0.0321698 0.76028579
-0.0083985031 -0.032869797 0.76214284
-0.046930671 -0.027605524 0.76280004
-0.042857494 -0.027320521 0.76036376
-0.039809525 -0.026780954 0.76000005
-0.015489524 -0.027070478 0.76000005
-0.012333174 -0.027570635 0.76183337
-0.0094466675 -0.027371114 0.76300001
-0.046506673 -0.022526667 0.76300001
-0.042774711 -0.022473544 0.7612223
-0.039460715 -0.022083096 0.76025009
-0.020990478 -0.020990478 0.76000005
-0.016660359 -0.022093691 0.76062506
-0.012560953 -0.022941906 0.76300001
-0.046361338 -0.018457334 0.76300001
-0.042855237 -0.017431749 0.7626667
-0.037896059 -0.017082451 0.7610001
-0.032370754 -0.016236873 0.76014292
-0.027215239 -0.016358096 0.76000011
-0.022454999 -0.017384209 0.7605834
-0.017819708 -0.017819706 0.76253861
-0.013806667 -0.018893335 0.76300001
-0.041904446 -0.012837779 0.76300001
-0.037763335 -0.01234524 0.76249999
-0.032609738 -0.012318943 0.76088899
-0.027528889 -0.012314923 0.76066679
-0.022479896 -0.012327725 0.76144451
-0.019256668 -0.012716668 0.76300001
-0.037780836 -0.0072651198 0.7628752
-0.03267175 -0.0072587314 0.76233339
-0.027568571 -0.007253096 0.76174998
-0.022501111 -0.0072582546 0.76216668
-0.019620001 -0.007993334 0.76300001
-0.038997781 -0.0031488892 0.76300001
-0.032118667 -0.0027613335 0.76300001
-0.027468001 -0.0023253334 0.76300001
-0.022708334 -0.0023616669 0.76300001
-0.027613334 0.00072666671 0.76300001
-0.023253335 0.00072666671 0.76300001
-0.0007285715 -0.072128579 0.76500005
0.0007285715 -0.070671432 0.76500005
0.0007285715 -0.066300005 0.76500005
-0.0007285715 -0.062657148 0.76500005
0.0007285715 -0.064842865 0.76500005
-0.057557147 -0.05755714 0.76499999
-0.0007285715 -0.057557147 0.76500005
0.00072952383 -0.056903813 0.76600003
-0.061462864 -0.052889287 0.76599997
-0.057395246 -0.052538097 0.76499999
-0.05464286 -0.051728576 0.76500005
-0.0018219049 -0.051761903 0.76549995
0.0014576192 -0.05249048 0.76550001
-0.060629528 -0.048211433 0.76700002
-0.057413101 -0.047205001 0.76550001
-0.05464286 -0.047357142 0.76500005
-0.0021857144 -0.047357146 0.76499999
0.0013114286 -0.047648571 0.76500005
-0.05678286 -0.042891115 0.76766676
-0.054408573 -0.04186267 0.76580006
-0.0021882539 -0.042330798 0.7663334
0.00073047623 -0.040906668 0.76700002
-0.053464651 -0.037040599 0.76637506
-0.0023736907 -0.037442259 0.76712501
0.00073142862 -0.03803429 0.76800001
-0.052854497 -0.032881379 0.76722229
-0.0056855245 -0.032510668 0.76540005
-0.0029233333 -0.032892857 0.76749998
-0.051714465 -0.027814722 0.76672727
-0.048814289 -0.027685717 0.76500005
-0.0067872531 -0.027771723 0.76584619
-0.0030302044 -0.028107757 0.76800007
-0.051674645 -0.022641072 0.76687509
-0.048814286 -0.022585714 0.76500005
-0.011657143 -0.021128573 0.76500005
-0.0075032045 -0.02277974 0.76709098
-0.051540636 -0.018099366 0.76699996
-0.047981638 -0.016757142 0.76499999
-0.015785715 -0.015785715 0.76500005
-0.012100382 -0.017202286 0.76540005
-0.0083666677 -0.018115241 0.76766676
-0.050834291 -0.012800001 0.76800001
-0.047385499 -0.012392487 0.76544452
-0.043471429 -0.012142858 0.76500005
-0.016575001 -0.012203572 0.76499999
-0.012402435 -0.012403704 0.76611114
-0.0091397632 -0.012430714 0.76775002
-0.047349181 -0.0075029437 0.76700002
-0.042985719 -0.0072857146 0.76500005
-0.01698132 -0.0071175825 0.76500005
-0.012409047 -0.0072998418 0.76650006
-0.0095085725 -0.0073142862 0.76800001
-0.046641145 -0.0024853335 0.76759994
-0.042497754 -0.0020549784 0.7657274
-0.036740817 -0.0019775513 0.76499999
-0.033514291 -0.0014571429 0.76500005
-0.028414287 -0.001457143 0.76500005
-0.021128573 -0.0007285715 0.76500005
-0.017496033 -0.0021865079 0.76550001
-0.012610596 -0.0023755955 0.76762503
-0.046080004 0.0021942859 0.76799995
-0.042355638 0.0021913492 0.7667501
-0.037157144 0.0021857144 0.76499999
-0.032785717 0.0021857144 0.76499999
-0.027685713 0.0024771425 0.76499999
-0.022385444 0.0026034017 0.76528579
-0.017531825 0.0021924602 0.76708341
-0.013409525 0.0012190477 0.76799995
-0.046080004 0.0051200003 0.76800001
-0.041676972 0.0068468405 0.76772732
-0.037218649 0.0072992858 0.76625007
-0.032807145 0.0072919037 0.76550001
-0.027699167 0.0072903577 0.76537508
-0.022621507 0.0072988099 0.76625007
-0.018145718 0.0068463203 0.76772732
-0.040960003 0.010971429 0.76800001
-0.037120003 0.012434286 0.76800007
-0.032881167 0.012422116 0.76722229
-0.027770156 0.012424126 0.76733345
-0.022650901 0.012421905 0.76722229
-0.018700002 0.012223266 0.76785719
-0.037302859 0.015360001 0.76800001
-0.032914288 0.015945144 0.76800001
-0.027480816 0.01598694 0.76800007
-0.022674287 0.016091429 0.76800007
-0.019017145 0.016091429 0.76800001
-0.047666669 -0.10633334 0.77000004
-0.049133338 -0.10486668 0.77000004
-0.060866669 -0.046200003 0.77000004
-0.058988258 -0.042098735 0.77100009
-0.062372386 -0.037717383 0.77275008
-0.058001477 -0.037442755 0.77088886
-0.00073333341 -0.035933334 0.77000004
0.00073333341 -0.035933334 0.77000004
-0.062085401 -0.034110162 0.77300006
-0.057491355 -0.032164469 0.77161545
-0.00073333341 -0.032266669 0.77000004
0.0007342858 -0.032308575 0.77100003
-0.056582436 -0.027188363 0.7715556
-0.053533338 -0.027133334 0.77000004
-0.0011014286 -0.026819527 0.77150005
0.00073523814 -0.027203811 0.77200001
-0.057142947 -0.022656018 0.77190912
-0.053533338 -0.022733334 0.77000004
-0.0051333336 -0.021266667 0.77000004
-0.0022019048 -0.022765717 0.77111107
0.00073523814 -0.022792382 0.77200001
-0.056341995 -0.017946191 0.77230006
-0.05304445 -0.01588889 0.77000004
-0.005973334 -0.016872382 0.77028573
-0.0023390478 -0.017849872 0.77218175
0.00073619053 -0.019140955 0.77300006
-0.055546671 -0.012874763 0.77250004
-0.05300229 -0.012185524 0.77079999
-0.0064216671 -0.012478811 0.77074999
-0.0030900955 -0.012802859 0.77260005
-0.05521429 -0.0080980957 0.77300006
-0.05218032 -0.007347778 0.77166671
-0.049133338 -0.0051333336 0.77000004
-0.0066118264 -0.0073481747 0.77158332
-0.0036809526 -0.0080980957 0.77300006
-0.05223259 -0.0022071959 0.77244449
-0.048766673 -0.0018333334 0.77000004
-0.011000001 -0.00073333341 0.77000004
-0.0082642864 -0.0023883334 0.77149999
-0.052240103 0.0022075132 0.77255559
-0.048400003 0.0022 0.77000004
-0.011977778 0.0026888892 0.77000004
-0.0088280961 0.002207143 0.77250004
-0.051692739 0.0068065487 0.77262509
-0.047862768 0.0075446768 0.77099997
-0.044146672 0.0083600013 0.77000004
-0.016280001 0.0083600003 0.77000004
-0.012474128 0.007339207 0.7705
-0.009271048 0.0069171437 0.77260005
-0.047622617 0.012319048 0.77225006
-0.042861525 0.012769716 0.77059996
-0.038866669 0.012466667 0.77000004
-0.015986668 0.012760001 0.77000004
-0.012496616 0.012497885 0.77188885
-0.0095704766 0.011779048 0.77300006
-0.047055237 0.017645715 0.77199996
-0.042576186 0.017617857 0.77075016
-0.037400004 0.017800001 0.77000004
-0.032120001 0.018626668 0.77000004
-0.027133336 0.019066667 0.77000004
-0.022733336 0.019066667 0.77000004
-0.017114447 0.018093178 0.7701667
-0.012636625 0.017451169 0.77227271
-0.047085878 0.022807779 0.77250004
-0.042639922 0.022790397 0.77191669
-0.037422013 0.022747302 0.77044445
-0.032266665 0.022733336 0.77000004
-0.027133334 0.022733333 0.77000004
-0.022746034 0.022747301 0.77044445
-0.017639128 0.022785796 0.77174997
-0.013398668 0.02252743 0.77300006
-0.046380002 0.026502859 0.77300006
-0.042676907 0.027224526 0.77258331
-0.037486773 0.027196404 0.77177775
-0.032295555 0.027157141 0.77066666
-0.027171643 0.027173335 0.77111107
-0.022795452 0.027207939 0.77211106
-0.018102763 0.02708162 0.77270007
-0.01398762 0.026502859 0.77300006
-0.041717466 0.031165397 0.77300006
-0.037525792 0.03237563 0.77258343
-0.032350473 0.032350473 0.77200007
-0.027203808 0.032350473 0.77200001
-0.023309208 0.032142434 0.77288902
-0.036073335 0.036073335 0.77300006
-0.031815026 0.037213333 0.77288896
-0.027239049 0.036662288 0.77300006
-0.023803493 0.03656413 0.77300006
-0.031656191 0.040490478 0.77300006
-0.061711907 -0.031779051 0.77600008
-0.05978572 -0.031738099 0.77500004
-0.062240954 -0.02741524 0.77800006
-0.05978572 -0.027309528 0.77500004
-0.062478781 -0.022729119 0.77700001
-0.05978572 -0.024357144 0.77500004
-0.061684389 -0.018193716 0.7766
-0.059345085 -0.017236192 0.77566671
-0.00074000005 -0.015540001 0.77700001
0.00073904765 -0.016258096 0.77600002
-0.060836196 -0.013354287 0.77900004
-0.058164451 -0.012568572 0.77633339
-0.0011080953 -0.01219381 0.77600002
0.00074126991 -0.012600319 0.77833337
-0.060094289 -0.0089028571 0.77900004
-0.057458308 -0.0071501592 0.7767778
-0.0020077552 -0.0070863948 0.7772857
0.00074190483 -0.0051933336 0.77900004
-0.060094289 -0.00074190483 0.77900004
-0.056982543 -0.0022200001 0.77700001
-0.0055357148 -0.0018452383 0.77500004
-0.0022191536 -0.0022204234 0.77744442
0.00074190483 -0.0022257145 0.77900004
-0.060094286 0.0022257145 0.77900004
-0.056982543 0.0022200001 0.77700001
-0.0059092068 0.0022168255 0.77566671
-0.0022225399 0.0022238097 0.77833337
0.00074190483 0.0022257145 0.77900004
-0.060094289 0.0051933336 0.77900004
-0.056700576 0.0071064755 0.77720004
-0.053546671 0.0084942859 0.7755
-0.0065206061 0.0075990483 0.77663636
-0.0028602721 0.0066752387 0.7787143
0.00074190483 0.0051933336 0.77900004
-0.055642862 0.012612381 0.77900004
-0.052527092 0.012576826 0.7767778
-0.049452383 0.014023811 0.77500004
-0.0069626668 0.01274381 0.77800006
-0.0037095239 0.011128572 0.77900004
-0.052420575 0.017325144 0.77740002
-0.049452383 0.017714286 0.77500004
-0.01107143 0.019928573 0.77500004
-0.0077968496 0.017592309 0.77715391
-0.0037095239 0.018547621 0.77900004
-0.052255005 0.022605954 0.7782501
-0.049494922 0.022901908 0.77566671
-0.011440477 0.023250002 0.77500004
-0.0072405124 0.02241048 0.77838475
-0.0037095239 0.02003143 0.77900004
-0.051191431 0.027450478 0.77900004
-0.048470344 0.027561229 0.7761429
-0.015500001 0.028047621 0.77500004
-0.012142722 0.027561227 0.7761429
-0.0090413336 0.027126288 0.77820003
-0.051191431 0.030418098 0.77900004
-0.047347624 0.032550242 0.77675009
-0.042317465 0.033706348 0.77500004
-0.021404764 0.03321429 0.77500004
-0.017721785 0.032492265 0.77537501
-0.012728226 0.032396451 0.7779091
-0.0096447626 0.030418098 0.77900004
-0.046977907 0.037640579 0.778
-0.04216836 0.037729636 0.7767778
-0.037840001 0.037840005 0.77525008
-0.034198415 0.038626987 0.77500004
-0.027309526 0.03875 0.77500004
-0.022407303 0.038167939 0.77566671
-0.017751431 0.03772508 0.77666664
-0.013502668 0.037540384 0.77900004
-0.045627147 0.041917622 0.77900004
-0.042229526 0.04222868 0.77788895
-0.037729632 0.042168364 0.7767778
-0.032551434 0.042215846 0.77518183
-0.027309528 0.042071436 0.77500004
-0.022912489 0.042132173 0.77611113
-0.01777762 0.042225879 0.7778334
-0.01409619 0.042288575 0.77900004
-0.045256194 0.045998096 0.77900004
-0.042153686 0.047279563 0.7790001
-0.037764926 0.04739159 0.77750009
-0.032524168 0.047307972 0.77612507
-0.02736794 0.047340643 0.77666664
-0.022241669 0.047452152 0.77850014
-0.017620239 0.046925478 0.77900004
-0.041299369 0.051686034 0.77900004
-0.037826769 0.052660637 0.77877784
-0.032596033 0.052597303 0.7778334
-0.027434394 0.052646033 0.77855563
-0.023422996 0.052463271 0.77899998
-0.030418098 0.055642862 0.77900004
-0.027450478 0.055642862 0.77900004
-0.023740955 0.055642862 0.77900004
-0.064090952 -0.017886192 0.78250003
-0.062366989 -0.012175874 0.78266668
-0.06279619 -0.0070540658 0.78276926
-0.00074285717 -0.0074285716 0.78000003
0.00074285717 -0.0081714289 0.78000003
-0.062210239 -0.0027940478 0.78225005
-0.061815243 0.0022342859 0.78200006
-0.061223131 0.0077722454 0.78257143
-0.05868572 0.0089142863 0.78000003
-0.0013382857 0.0084826676 0.78120005
0.0007447619 0.0074495245 0.78200006
-0.060325719 0.011171429 0.78200006
-0.058092069 0.012662222 0.78200006
-0.0020464286 0.012850715 0.78225005
0.00074666669 0.012693334 0.7840001
-0.057349212 0.017129524 0.78200006
-0.0052000005 0.015600001 0.78000003
-0.0020471429 0.016954288 0.78250003
0.001344 0.017472003 0.78400004
-0.057239652 0.022150479 0.78236371
-0.054228574 0.022038097 0.78000003
-0.0066857147 0.024514288 0.78000003
-0.0020964502 0.022534894 0.78163642
0.0013436191 0.021941716 0.78360003
-0.056568764 0.027314669 0.78360003
-0.053532068 0.027509844 0.78066665
-0.0062655793 0.027719185 0.78057146
-0.0022353441 0.027581377 0.78266674
-0.056000005 0.032106668 0.7840001
-0.05284974 0.032502227 0.78155559
-0.011142858 0.034914289 0.78000003
-0.0072446759 0.032168314 0.7821818
-0.0028373334 0.031808 0.78400004
-0.053088661 0.037493858 0.78309095
-0.049771432 0.038628574 0.78000003
-0.01152143 0.038282383 0.78050005
-0.0082043298 0.036823552 0.78327274
-0.052567892 0.042331703 0.78371429
-0.048550241 0.042596906 0.78125006
-0.011895239 0.042379681 0.78066665
-0.0097066676 0.04256 0.7840001
-0.051519997 0.047040001 0.78399998
-0.047059681 0.047719579 0.78155565
-0.043828573 0.049771432 0.78000003
-0.01597143 0.048657145 0.78000003
-0.012797905 0.047181904 0.78140008
-0.0097066676 0.04554667 0.78400004
-0.05102222 0.05102222 0.78399998
-0.047119241 0.052633904 0.78280008
-0.042838097 0.053238098 0.78000003
-0.020672003 0.053094856 0.78079998
-0.017114075 0.05283387 0.78133333
-0.013057619 0.052233331 0.78350002
-0.046442669 0.056896001 0.78400004
-0.042536303 0.057461586 0.78355551
-0.037685331 0.057497144 0.78200006
-0.032685719 0.057200003 0.78000009
-0.027485715 0.057942864 0.78000003
-0.022020573 0.057586294 0.78120005
-0.01734262 0.057252623 0.78325003
-0.014186667 0.056000005 0.78400004
-0.041813336 0.060480002 0.78400004
-0.036695879 0.062320959 0.78366667
-0.032059524 0.062629364 0.7828334
-0.027579049 0.062615566 0.78266668
-0.022389844 0.061947618 0.78366667
-0.018666668 0.06122667 0.78400004
-0.065125719 -0.011228573 0.78600001
-0.065125719 -0.0097314296 0.78600001
-0.065125719 -0.0022457144 0.78600001
-0.063628577 0.0029942859 0.78600001
-0.063709527 0.0074933339 0.78700006
-0.062399048 0.012929525 0.78700006
0.0022457144 0.014222858 0.78600001
-0.062054168 0.017247502 0.78737509
0.0022457144 0.01572 0.78600001
-0.06193947 0.021925081 0.78777784
-0.059137147 0.024702858 0.78600001
-0.060865719 0.02780286 0.78900003
-0.058800481 0.028090002 0.78650004
-0.060865719 0.032311432 0.78900003
-0.058463812 0.032229524 0.787
-0.0014971429 0.032562859 0.78600001
-0.060865719 0.036820002 0.78900003
-0.057544943 0.037249871 0.78654557
-0.0058388575 0.038476571 0.78600001
-0.0023860608 0.03730762 0.78772736
-0.05701302 0.04276 0.78766674
-0.054645717 0.043417145 0.78600001
-0.0067434926 0.042717252 0.78688896
-0.0037571432 0.042831432 0.78900003
-0.057036828 0.047279049 0.78800005
-0.054645717 0.047160003 0.78600001
-0.0072948928 0.047394808 0.7876364
-0.057072859 0.051064767 0.78850007
-0.053183336 0.053182952 0.7865001
-0.011228573 0.053148579 0.78600001
-0.0075106537 0.052579343 0.78868747
-0.0037571432 0.051848575 0.78900003
-0.051740322 0.057738841 0.78733337
-0.047908574 0.058388576 0.78600001
-0.01572 0.059137147 0.78600001
-0.012553335 0.057900954 0.78700006
-0.007719222 0.057723381 0.78900009
-0.0037571432 0.056357145 0.78900003
-0.050825402 0.061340958 0.78866673
-0.047247723 0.062246673 0.78744447
-0.04288245 0.062559187 0.78599995
-0.03967429 0.062880002 0.78600001
-0.01678939 0.062345315 0.78599995
-0.012759048 0.062299158 0.78811121
-0.008075715 0.062161196 0.78875005
-0.065664291 0.022644287 0.79250002
-0.06358508 0.024378732 0.79166669
-0.065705717 0.02794381 0.79300004
-0.063360959 0.027908571 0.79200006
-0.063387312 0.032447305 0.79233336
-0.062804766 0.037180003 0.79133338
-0.059513338 0.03992667 0.79100001
-0.00075333338 0.03992667 0.79100001
-0.06155191 0.042293336 0.79300004
-0.059513342 0.042940002 0.79100007
-0.0015076193 0.042994287 0.792
-0.061929528 0.049090479 0.79300004
-0.059563499 0.047500003 0.79166669
-0.0022606349 0.047499999 0.79166669
0.00075523817 0.047580004 0.79300004
-0.061174288 0.050600957 0.79300004
-0.057504445 0.052984446 0.79100007
-0.00226 0.05258267 0.79099995
-0.056139369 0.058153335 0.79300004
-0.054993335 0.057253338 0.79100001
-0.052012861 0.062943816 0.79149997
-0.0097933337 0.064033337 0.79100001
0.0007571429 0.046185717 0.79500002
-0.061560005 0.052440003 0.79800004
-0.059458733 0.053386349 0.79700011
-0.058977146 0.055940319 0.79733342
-0.056074101 0.062152576 0.79780006
