# .PCD v0.7 - Point Cloud Data file format
VERSION 0.7
FIELDS x y z
SIZE 4 4 4
TYPE F F F
COUNT 1 1 1
WIDTH 713
HEIGHT 1
VIEWPOINT 0 0 0 1 0 0 0
POINTS 713
DATA ascii
0.079642862 -0.075820006 0.66900003
0.082828581 -0.077458382 0.66900003
0.087033719 -0.077604003 0.66900003
0.078527868 -0.072475016 0.66900009
0.082684517 -0.072492011 0.66886669
0.086970001 -0.072315723 0.66900009
0.082956009 -0.069193721 0.66900003
0.086651437 -0.069448575 0.66900003
0.073908575 -0.060528576 0.66900003
0.091111436 -0.06116572 0.66900003
0.068811439 -0.057342857 0.66900009
0.072537512 -0.057267983 0.66812503
0.077549703 -0.057210542 0.66743743
0.082782358 -0.057097401 0.66760004
0.087893337 -0.057322145 0.66874999
0.091536194 -0.056918096 0.66900009
0.067978255 -0.052098677 0.66900003
0.072606437 -0.052225709 0.66874999
0.077484168 -0.052079532 0.66687489
0.082565837 -0.052079536 0.666875
0.08777941 -0.05215846 0.66787493
0.091714524 -0.052226905 0.66875005
0.064351432 -0.045237146 0.66900003
0.067537151 -0.04714857 0.66899997
0.07255239 -0.047097377 0.66824996
0.077527381 -0.047025718 0.66724998
0.082580961 -0.047007613 0.66699994
0.087662861 -0.047007624 0.66699994
0.092671975 -0.046926256 0.66842854
0.064351432 -0.04226381 0.66899997
0.067459762 -0.04200476 0.66824996
0.072270565 -0.042365495 0.66699994
0.077392466 -0.042502787 0.66608328
0.082508974 -0.042524368 0.66641665
0.087630399 -0.042545322 0.66674995
0.092885718 -0.04198857 0.66799992
0.09620858 -0.042051435 0.66900003
0.064351432 -0.038865715 0.66900003
0.067327425 -0.037036765 0.6681999
0.072470926 -0.037948888 0.66633332
0.077375777 -0.038053393 0.66593754
0.08245714 -0.038057148 0.66600001
0.087548099 -0.038063928 0.66612494
0.093047358 -0.037163127 0.66785711
0.09620858 -0.036954287 0.66900003
0.068001822 -0.032582596 0.66845459
0.072430365 -0.033038218 0.66712493
0.077418998 -0.032997798 0.66631258
0.082519531 -0.033006907 0.66650003
0.087680005 -0.033037502 0.66712499
0.092529684 -0.033105556 0.66850013
0.068429157 -0.028034288 0.66900009
0.072497152 -0.027981196 0.66774994
0.077484533 -0.027944881 0.66687489
0.082580954 -0.027950477 0.66699994
0.087828815 -0.028003333 0.66825002
0.091111436 -0.028034288 0.66900003
0.068538375 -0.023756329 0.66900009
0.072634295 -0.022937147 0.66899997
0.07758572 -0.022892622 0.66774994
0.082751781 -0.022914646 0.66837502
0.087373339 -0.023249524 0.66883343
0.091111436 -0.024848573 0.66900003
0.073590003 -0.019432858 0.66900003
0.078156196 -0.019326666 0.66900009
0.082828574 -0.01975143 0.66900003
0.086014293 -0.01975143 0.66900003
0.069197334 -0.081265152 0.67400002
0.072810479 -0.081145331 0.67299998
0.07793346 -0.080975123 0.67212498
0.082319297 -0.08232104 0.67091662
0.088188581 -0.081159055 0.671
0.092731908 -0.080579534 0.67150003
0.069325715 -0.077028573 0.67400002
0.072977625 -0.077459536 0.67216665
0.077952944 -0.077634685 0.67091662
0.083015725 -0.079821438 0.67050004
0.088486746 -0.077927284 0.67018181
0.092778414 -0.077632554 0.67183334
0.096285731 -0.07831239 0.67400002
0.069256507 -0.072464131 0.67333335
0.072884344 -0.072885655 0.67131245
0.077050008 -0.072902381 0.67000002
0.084866673 -0.07465715 0.67000002
0.088440016 -0.07312572 0.67000002
0.092191502 -0.072890818 0.67221421
0.069274291 -0.067992851 0.67350006
0.072932273 -0.06781441 0.67175001
0.077927209 -0.067706481 0.67068744
0.082905382 -0.066892892 0.67009097
0.087612472 -0.067305051 0.67049998
0.091802791 -0.06804996 0.67261535
0.064832382 -0.060980957 0.67400002
0.067958675 -0.062585846 0.67193329
0.07262259 -0.062860966 0.67057145
0.077648506 -0.062594101 0.67064285
0.082747102 -0.062647521 0.67122221
0.087849326 -0.062398445 0.6705001
0.09247192 -0.063070327 0.67116666
0.095360003 -0.063360006 0.67200005
0.064227216 -0.057448443 0.67342854
0.066410951 -0.057472378 0.67050004
0.081038103 -0.059342861 0.67000002
0.093491279 -0.057925876 0.67083335
0.096784957 -0.057045151 0.67299998
0.10206287 -0.055845719 0.67400002
0.063073054 -0.052364904 0.67285711
0.065723814 -0.052961905 0.67000002
0.093905002 -0.052383099 0.67075002
0.096938387 -0.052682418 0.67269224
0.10206287 -0.054561909 0.67400002
0.059210163 -0.047027308 0.67333335
0.062472835 -0.047399174 0.67073327
0.097473346 -0.047503952 0.67142856
0.10077906 -0.045575242 0.67400002
0.058762543 -0.042095877 0.67311108
0.062140744 -0.042098835 0.67053854
0.098340482 -0.042145714 0.67050004
0.10127144 -0.042302862 0.67299998
0.058782227 -0.037406988 0.67333329
0.062497344 -0.0369367 0.67100006
0.098451197 -0.037077859 0.67125005
0.10102525 -0.038164288 0.67350006
0.059239686 -0.03250635 0.67366666
0.062700786 -0.031990182 0.67181253
0.065723814 -0.033180952 0.67000002
0.093800008 -0.031266667 0.67000002
0.097703308 -0.031942859 0.67184615
0.059440386 -0.026831621 0.67400002
0.062688105 -0.027506346 0.67166662
0.066149205 -0.028076192 0.67000002
0.093179412 -0.028081074 0.67012501
0.096856035 -0.027625082 0.67199999
0.059697147 -0.023108574 0.67400002
0.062741913 -0.02304798 0.67224997
0.066858202 -0.022333333 0.67000002
0.089652389 -0.022014288 0.67000002
0.092753522 -0.022824677 0.67081821
0.096428484 -0.023049431 0.67229998
0.063263446 -0.018095387 0.67307687
0.067725353 -0.017889049 0.67087495
0.07245072 -0.017340872 0.67025
0.077592388 -0.016973335 0.67000002
0.082994141 -0.017236667 0.67033339
0.087847143 -0.01788762 0.67083335
0.092307054 -0.017794669 0.67213333
0.09597715 -0.018382223 0.67333341
0.06440445 -0.013266033 0.67400002
0.067851081 -0.01280155 0.67212498
0.072851077 -0.012780596 0.67099994
0.077934764 -0.012775479 0.6707499
0.082956836 -0.012909464 0.67106664
0.087473184 -0.012650624 0.67192304
0.092332624 -0.012822622 0.67324996
0.095643818 -0.014763811 0.67400002
0.068391368 -0.0078395614 0.67307687
0.072946191 -0.0076782149 0.671875
0.077583589 -0.0078213923 0.67153841
0.08209715 -0.0075554303 0.67239994
0.087170005 -0.0076900003 0.67299992
0.091364466 -0.0087726982 0.67400002
0.069165237 -0.0030490477 0.67400002
0.072946288 -0.002691048 0.67306656
0.077402063 -0.002415678 0.67338461
0.082148939 -0.002566786 0.67387491
0.087023959 -0.0027510205 0.67399991
0.09050858 -0.0044933334 0.67400002
0.06996762 0.00064190483 0.67400002
0.072792009 0.0011554287 0.67400002
0.077086933 0.0018090046 0.67399997
0.081265152 0.0011554287 0.67400002
0.063373342 -0.080833338 0.67900002
0.066693068 -0.081636734 0.67800003
0.062985338 -0.07760001 0.67899996
0.066425562 -0.077390321 0.6771667
0.097818524 -0.076096401 0.67522228
0.063452251 -0.072134688 0.67885715
0.066417225 -0.072222456 0.67708331
0.097585715 -0.072128579 0.67500013
0.10092857 -0.072642863 0.67500001
0.063846193 -0.066643655 0.6771667
0.066343814 -0.067491546 0.67633337
0.094500005 -0.067500003 0.67500001
0.096722126 -0.067125715 0.67555565
0.053673338 -0.060140003 0.67900002
0.058200009 -0.062080007 0.67899996
0.062218864 -0.062480576 0.67726672
0.066214293 -0.064928576 0.67500001
0.095785722 -0.061071433 0.67500001
0.10396001 -0.060051434 0.67800003
0.057682738 -0.057360359 0.67862499
0.061504852 -0.057963893 0.67625004
0.098834611 -0.058958098 0.67533332
0.10222219 -0.057935148 0.6759001
0.10530318 -0.05749746 0.67833334
0.058047384 -0.052891079 0.67725003
0.061071433 -0.054000005 0.67500001
0.099642865 -0.052071434 0.67500001
0.1029414 -0.052606538 0.67526668
0.05496667 -0.046560004 0.67900002
0.05705715 -0.047914855 0.67620009
0.102373 -0.047765721 0.67527282
0.10683764 -0.047387306 0.6785
0.11041715 -0.045845717 0.67800003
0.053942751 -0.042163499 0.67877775
0.05652694 -0.042740006 0.6755715
0.10425882 -0.042476192 0.67575008
0.10790104 -0.042643894 0.67841667
0.11058 -0.042680003 0.67900002
0.054068469 -0.037697677 0.67855555
0.056491438 -0.037017692 0.67514288
0.10336416 -0.037145283 0.67563647
0.10761779 -0.037488256 0.67866665
0.11058 -0.039446671 0.67900002
0.054675627 -0.032701526 0.67860001
0.057007052 -0.031913143 0.67560005
0.10244241 -0.032214127 0.67650002
0.10695072 -0.032666884 0.67869228
0.05496667 -0.027160002 0.67900002
0.057218615 -0.027116627 0.6764546
0.099642865 -0.026357144 0.67500001
0.10260659 -0.027102619 0.6775834
0.10592401 -0.028065335 0.67900002
0.05496667 -0.023926668 0.67900002
0.057600439 -0.022208227 0.67681819
0.099432148 -0.022203572 0.67575008
0.10164762 -0.022065034 0.6785714
0.058773074 -0.017871084 0.67681825
0.061071437 -0.017357145 0.67500001
0.098074287 -0.017596193 0.67600006
0.058347516 -0.013133123 0.67822224
0.061662205 -0.012530623 0.67607701
0.097531006 -0.012726322 0.67736363
0.058401112 -0.008188731 0.67883331
0.062501624 -0.0077322861 0.6766001
0.066214293 -0.0070714294 0.67500001
0.093242101 -0.007073143 0.6752001
0.097420096 -0.007741191 0.67741674
0.10055667 -0.0071133338 0.67900002
0.058846671 -0.002586667 0.67900002
0.062105823 -0.0026927174 0.67723531
0.066483207 -0.0020463204 0.67536372
0.089357145 -0.0012857143 0.67500001
0.092838995 -0.0024455874 0.676
0.097331047 -0.0028432384 0.67859995
0.062159684 0.0024556825 0.67846674
0.067017145 0.0025794052 0.67662501
0.07177458 0.0034734285 0.67530006
0.07701429 0.0042428575 0.67500001
0.082717322 0.0032154983 0.67518193
0.087460957 0.0025730957 0.67525011
0.092463814 0.0024331871 0.67746156
0.095577337 0.0024573335 0.67900002
0.063761339 0.0073720007 0.67900002
0.067190722 0.0077532153 0.67837512
0.07219281 0.0077369646 0.67681265
0.077242754 0.0077263089 0.67587501
0.082437627 0.0077292863 0.67625004
0.087655485 0.0077359527 0.67674994
0.092394538 0.0077534146 0.67841667
0.095060006 0.0077600004 0.67900002
0.067349084 0.012798224 0.67866671
0.072293341 0.012910238 0.67775005
0.077414878 0.012903454 0.67737508
0.082651436 0.012914288 0.67800015
0.087825432 0.012915655 0.67806262
0.09246216 0.012931987 0.67891663
0.067900009 0.017460003 0.67899996
0.072364531 0.017445637 0.67841667
0.077523656 0.017443335 0.67833334
0.082712702 0.017447779 0.6785
0.087935962 0.01745802 0.67891663
0.09204223 0.016597779 0.67900008
0.072426669 0.021986669 0.67899996
0.077600002 0.021986671 0.67899996
0.08234223 0.021555556 0.67899996
0.086653337 0.020046668 0.67900002
0.074043341 0.026513334 0.67900002
0.076791674 0.02635167 0.67899996
0.061523814 -0.075771436 0.68000001
0.062261909 -0.074585721 0.68099999
0.061523814 -0.065409526 0.68000001
0.055787764 -0.061893884 0.67999995
0.053989526 -0.055940956 0.68300003
0.055436194 -0.057514291 0.68160003
0.10717144 -0.056508575 0.68200004
0.052637581 -0.051574372 0.68236369
0.05504762 -0.052457143 0.68000001
0.048187859 -0.046885952 0.68375003
0.05194056 -0.047398817 0.68175006
0.055047624 -0.04921905 0.68000001
0.047941376 -0.043169104 0.6833334
0.051242605 -0.043224249 0.68109095
0.11152001 -0.042354289 0.68000001
0.048375238 -0.039264765 0.6833334
0.051144853 -0.03745931 0.68136364
0.10944763 -0.03561905 0.68000001
0.11074287 -0.037561908 0.68000001
0.052284449 -0.032477144 0.68199998
0.10901588 -0.030869842 0.68000001
0.052242927 -0.027468774 0.68207151
0.10819934 -0.026984667 0.68110001
0.11009143 -0.025405716 0.68400002
0.052812815 -0.022296278 0.68309098
0.055411913 -0.021062383 0.68050003
0.10393715 -0.021607621 0.68066669
0.10731629 -0.022112621 0.6829167
0.11009143 -0.022148572 0.68400002
0.053377625 -0.017575717 0.68350005
0.055844922 -0.017531907 0.68183345
0.10272604 -0.017553808 0.68266672
0.10745101 -0.017582437 0.68377781
0.11009143 -0.017588573 0.68400002
0.053487625 -0.013302041 0.68371433
0.055899531 -0.013000001 0.68250006
0.10275822 -0.0130075 0.68287498
0.1071962 -0.01353524 0.68400002
0.11009143 -0.014982858 0.68400002
0.054048814 -0.007813572 0.68375003
0.056255527 -0.007536096 0.6821
0.103109 -0.0082134204 0.68245459
0.10618287 -0.0091200005 0.68400002
0.054068577 -0.0026057144 0.68400002
0.056506675 -0.0025980955 0.68199998
0.099231437 -0.0012961905 0.68099999
0.10200772 -0.0027780954 0.68300003
0.054068577 0.0026057144 0.68400002
0.057171375 0.0025999409 0.68218756
0.060228575 0.0045333337 0.68000001
0.09828154 0.0028565715 0.68159997
0.10148764 0.002512109 0.68371433
0.057549734 0.0076242867 0.68335718
0.06153594 0.0079655424 0.6814546
0.098056205 0.0077926996 0.68183333
0.10097144 0.0065142862 0.68400002
0.058967434 0.012626095 0.68340003
0.062329289 0.012985716 0.68175
0.065409526 0.014895239 0.68000001
0.096564099 0.012735905 0.68229997
0.059280004 0.016285716 0.68400002
0.062344372 0.017535159 0.68191671
0.065409526 0.017485715 0.68000001
0.092825405 0.017917462 0.68000001
0.096795015 0.01740643 0.68325007
0.062456075 0.022121072 0.68312502
0.067437492 0.022048214 0.680875
0.08419048 0.023314288 0.68000001
0.087700106 0.022445617 0.68110001
0.092242099 0.022088036 0.68206251
0.096147619 0.021704128 0.68366671
0.062866308 0.027000515 0.68376923
0.067611791 0.027305597 0.682625
0.072028257 0.027429841 0.68033332
0.078553103 0.028020239 0.68024999
0.082540229 0.027082931 0.68076921
0.087260522 0.027440069 0.68273336
0.092024297 0.026912859 0.68366671
0.095760003 0.025405716 0.68400002
0.063677154 0.032082859 0.68400002
0.067685954 0.032542024 0.68337494
0.072772622 0.032489169 0.68225002
0.077502206 0.032331068 0.68207705
0.082082175 0.032650921 0.68293327
0.087228455 0.032547977 0.68349999
0.090874292 0.031594288 0.68400002
0.068057306 0.037231117 0.68383336
0.072866425 0.037734881 0.6831249
0.077406667 0.03772762 0.68300003
0.08198268 0.037738509 0.68318743
0.087152824 0.03764908 0.68393332
0.069702864 0.04169143 0.68400002
0.073082998 0.042860009 0.68393338
0.077501275 0.042984292 0.68383336
0.081949726 0.042864006 0.68400002
0.086802863 0.042180002 0.68400002
0.052920002 -0.055533338 0.68600005
0.049000002 -0.049000002 0.68600005
0.049000002 -0.036586668 0.68600005
0.048549797 -0.032460276 0.68757141
0.050306667 -0.032013334 0.68600005
0.048381429 -0.027460001 0.68649995
0.05030667 -0.026133336 0.68600005
0.11188287 -0.026823809 0.68700004
0.049035713 -0.022228573 0.68650007
0.050568007 -0.021821335 0.68600005
0.11136019 -0.022638667 0.68700004
0.049178574 -0.017047144 0.68850005
0.050978336 -0.016992621 0.68625003
0.051282175 -0.012236736 0.68657154
0.10872414 -0.01154762 0.68633342
0.051681031 -0.0078499205 0.68691677
0.10770191 -0.007635239 0.68722224
0.051963814 -0.0028798096 0.68720007
0.10388001 -0.00065333338 0.68600005
0.10722341 -0.0027159187 0.68828583
0.052398812 0.0026204763 0.68774998
0.10364896 0.0027449524 0.68620002
0.10647746 0.0022560849 0.68777794
0.053466778 0.0077848681 0.68744445
0.055533338 0.009146668 0.68600005
0.10285228 0.0079240212 0.68688893
0.10614858 0.0065533342 0.68800008
0.054135721 0.012139524 0.68900001
0.056717385 0.012585954 0.68650007
0.099524446 0.012413334 0.68600005
0.10248646 0.012455557 0.68833339
0.054463815 0.017060954 0.68900001
0.057306398 0.017201632 0.68714285
0.098653339 0.016986668 0.68600005
0.10148425 0.016863983 0.68827283
0.054463815 0.020341907 0.68900001
0.057637852 0.022270596 0.6877501
0.098289691 0.022665558 0.68650007
0.10060134 0.021904953 0.6886
0.05861181 0.027274858 0.68840009
0.061195556 0.028964445 0.68600005
0.094114535 0.028757382 0.68625003
0.097674005 0.027532671 0.68830001
0.059275877 0.032372065 0.68900007
0.06159905 0.033169288 0.68624997
0.093130194 0.032831527 0.68670005
0.096022546 0.032153334 0.68899995
0.059713338 0.037402857 0.68899995
0.062947184 0.037487697 0.6868462
0.066966668 0.039526667 0.68600005
0.089506671 0.039853334 0.68600005
0.092173509 0.037784938 0.68727279
0.06346295 0.042130481 0.68827283
0.067583524 0.042615898 0.68629998
0.088526681 0.042793337 0.68600005
0.092574671 0.042352766 0.68840009
0.063744009 0.046825334 0.68860006
0.067764506 0.046922315 0.68700016
0.072036438 0.047625635 0.68658334
0.077130802 0.047717143 0.68633336
0.08258228 0.047557954 0.68692309
0.08774697 0.047149114 0.68756258
0.09252286 0.046589524 0.68900007
0.064962864 0.050526671 0.68900001
0.067706928 0.052316282 0.68900007
0.072154038 0.052476667 0.68875009
0.077375002 0.052458331 0.68850011
0.082023807 0.052077666 0.68900007
0.072837144 0.057088573 0.68900007
0.077430487 0.057463534 0.68900007
0.081236385 0.056826096 0.68900001
0.046829645 -0.037299644 0.69012505
0.046933524 -0.033261526 0.69020003
0.047348097 -0.020386193 0.69050002
0.044283811 -0.015201906 0.69400001
0.046879575 -0.016943119 0.69154543
0.044283811 -0.012558096 0.69400001
0.047448099 -0.012521905 0.69199997
0.04792095 -0.008063077 0.69223076
0.10974286 -0.0072285719 0.69000006
0.048298452 -0.0028189612 0.69300002
0.050600003 -0.0013142858 0.69000006
0.10974286 -0.0032857144 0.69000006
0.049571432 0.0026438097 0.69400001
0.050673336 0.0026323812 0.69100004
0.10711429 0.0032857144 0.69000006
0.049059372 0.0083606346 0.69300002
0.051205177 0.0079861227 0.69057143
0.10448572 0.0098571433 0.69000006
0.10653477 0.0092066675 0.69050002
0.04891048 0.012558095 0.69400001
0.051777504 0.012656786 0.69037503
0.10448572 0.013800001 0.69000006
0.10645715 0.012485716 0.69000006
0.048910476 0.015862858 0.69400001
0.052012697 0.017118733 0.69133335
0.10422287 0.017480001 0.69000006
0.10665072 0.017118096 0.69125003
0.049571432 0.020489525 0.69400001
0.05253854 0.022518096 0.69133335
0.10340052 0.022546323 0.69072729
0.10675175 0.022011748 0.69333333
0.053522337 0.027512642 0.69227272
0.056308735 0.028045239 0.69016671
0.099228576 0.029571431 0.69000006
0.10263614 0.027632562 0.69081253
0.10626001 0.027060002 0.69300002
0.054247346 0.032737143 0.69342858
0.056940962 0.03313905 0.6904
0.098043986 0.033320524 0.69090909
0.10279395 0.032224938 0.69309098
0.10608286 0.032717146 0.69400001
0.054069798 0.037273336 0.69357151
0.05719842 0.037475243 0.69033337
0.097588889 0.037584446 0.6923334
0.10112572 0.035691433 0.69400001
0.054594666 0.041904382 0.69400001
0.057920724 0.042126078 0.69112509
0.061114289 0.042057145 0.69000006
0.097603992 0.042206254 0.69243753
0.05485905 0.046266671 0.69400001
0.057934802 0.047380004 0.69286668
0.061552245 0.048209932 0.6907143
0.092657149 0.049285721 0.69000006
0.097182199 0.047347035 0.69269234
0.057943497 0.052655876 0.69400001
0.061925489 0.052705359 0.69174993
0.065385714 0.053557146 0.69000006
0.084245719 0.053491432 0.69000006
0.087400012 0.052571431 0.69000006
0.092058986 0.052605771 0.69043767
0.096554026 0.05219401 0.69371426
0.058494288 0.057172384 0.69400001
0.062182866 0.057616271 0.69292313
0.067028575 0.057828572 0.69000018
0.071190476 0.058923811 0.69000006
0.077542864 0.059800003 0.69000006
0.083457157 0.058246765 0.69000006
0.087400012 0.057828575 0.69000006
0.092118919 0.057737287 0.69228572
0.062404763 0.061804947 0.69372743
0.067197695 0.062588662 0.69174999
0.072320163 0.062459212 0.69033337
0.077561431 0.062443975 0.69016671
0.082538195 0.062397622 0.6911
0.087196372 0.062747195 0.69218183
0.091592036 0.062217027 0.69312501
0.064112388 0.065434292 0.69400001
0.067398757 0.067399472 0.69381255
0.072592571 0.067315064 0.69293749
0.077795014 0.067248575 0.69224995
0.082520641 0.06733714 0.69316667
0.08722233 0.067399465 0.69381255
0.09088096 0.066425718 0.69400001
0.067597412 0.071923643 0.69400007
0.072801344 0.0725381 0.6936667
0.077922143 0.072640121 0.69337499
0.082498886 0.072524503 0.69400007
0.085791633 0.07177943 0.69400001
0.07799238 0.076009527 0.69400001
0.044347622 -0.012576191 0.69500005
0.044347622 -0.0092666671 0.69500005
0.045715243 -0.0072866674 0.69566673
0.044079527 -0.0016576191 0.69600004
0.04601505 -0.0022554286 0.69620007
0.043915112 0.0023714285 0.6971429
0.047420681 0.0026504763 0.69571429
0.047241773 0.0072888434 0.69585717
0.046492003 0.012848954 0.69540006
0.047782645 0.018039579 0.69577783
0.047797482 0.022667417 0.69707143
0.10789049 0.023828574 0.69500005
0.049576957 0.027513716 0.69780004
0.051334094 0.028254861 0.69640005
0.051738571 0.032503337 0.69650006
0.051922545 0.036898416 0.6960001
0.10297886 0.037375621 0.69580007
0.10581163 0.037573911 0.69700003
0.052486457 0.042327728 0.69566673
0.10274414 0.042422861 0.6960001
0.10636192 0.043209527 0.69800001
0.053394668 0.047963623 0.69560009
0.099947624 0.048319053 0.69499999
0.10289169 0.047614288 0.69700003
0.10702667 0.045868576 0.69800001
0.054436881 0.052733205 0.69585717
0.056261908 0.053614289 0.69499999
0.098623812 0.052621432 0.69500005
0.10037906 0.052516192 0.69800001
0.054002482 0.056922477 0.69660008
0.056307077 0.058011841 0.69557148
0.09699212 0.05736082 0.69685715
0.053845719 0.061158098 0.69800001
0.057039473 0.062348634 0.6964376
0.060895242 0.063542858 0.69500005
0.094301909 0.062721275 0.69566673
0.096390486 0.062487625 0.69800001
0.058368031 0.067100279 0.6975714
0.062150735 0.06771899 0.69573337
0.092534773 0.068035714 0.69525009
0.095060967 0.067584135 0.69800001
0.062350791 0.072303809 0.69650006
0.06711714 0.074530482 0.69500005
0.070823811 0.074795246 0.69500005
0.084061913 0.074795246 0.69500005
0.088033341 0.073230736 0.69500011
0.092005916 0.072516568 0.6960001
0.095060959 0.07245905 0.69800001
0.06366571 0.075894289 0.69780004
0.067879483 0.077535585 0.69690913
0.072826512 0.077461764 0.69516677
0.077253744 0.077821091 0.69500011
0.082096346 0.077461757 0.69516677
0.087518252 0.077573501 0.69616675
0.092004053 0.077057138 0.69749999
0.069135241 0.081765719 0.69800001
0.0724473 0.081752919 0.69788891
0.077185787 0.082235806 0.69746667
0.082165517 0.082070962 0.69735718
0.087175667 0.081419051 0.69755554
0.091072388 0.080436192 0.69800001
0.044730481 0.019360954 0.70100003
0.04466667 0.022666669 0.70000005
0.046000004 0.023333335 0.70000005
0.044751752 0.027387304 0.70133334
0.047191553 0.027515123 0.70037496
0.044858098 0.030128574 0.70300001
0.047472466 0.032096431 0.70208335
0.050000001 0.032666668 0.70000005
0.047768287 0.037198763 0.70250005
0.050456356 0.037564922 0.7001667
0.048540004 0.041846193 0.70300001
0.05055191 0.043205243 0.7015
0.10770549 0.04234929 0.70025003
0.04894476 0.047603812 0.70400006
0.050786037 0.047446351 0.70166665
0.10670549 0.047016434 0.70025003
0.048944764 0.052297149 0.70400006
0.051316716 0.052289877 0.70145458
0.10306619 0.052468292 0.70090008
0.10593024 0.053134531 0.70175004
0.051605977 0.057322513 0.70209098
0.099333338 0.057333335 0.70000005
0.10228073 0.057491187 0.70191675
0.10651787 0.057613254 0.70341665
0.052666459 0.062919162 0.70200002
0.098684408 0.062678218 0.70012498
0.10234097 0.062876195 0.70233339
0.10558683 0.062503658 0.70316672
0.053324923 0.066936672 0.70283341
0.056235403 0.067794137 0.7001667
0.097818293 0.067524955 0.70060003
0.10146882 0.067311674 0.70325005
0.054308575 0.071740955 0.70400006
0.057263747 0.072216138 0.7008
0.097345531 0.071939051 0.70200002
0.057995901 0.07745143 0.7024616
0.062145021 0.077909522 0.70027274
0.066000007 0.079333335 0.70000005
0.094000004 0.078000002 0.70000005
0.096377857 0.077639289 0.70275003
0.058973655 0.082429849 0.70366669
0.06295678 0.082386084 0.7015385
0.066920534 0.082928993 0.7003333
0.072000004 0.084666669 0.70000005
0.075333342 0.084666669 0.70000005
0.084000006 0.084666669 0.70000005
0.087666668 0.084333338 0.70000005
0.092077859 0.082735792 0.7005834
0.096414484 0.082200386 0.70400006
0.059672385 0.08515048 0.70400006
0.063068852 0.086038642 0.70342863
0.067080267 0.087762348 0.70245457
0.072034299 0.087375559 0.7003333
0.077370159 0.087375559 0.70033336
0.08268667 0.087354451 0.70016664
0.087486245 0.087486245 0.7012223
0.091614835 0.086644225 0.70214289
0.087161914 0.090514295 0.70400006
0.090514295 0.090514295 0.70400006
0.046328574 0.038942859 0.70500004
0.043828573 0.041131433 0.708
0.046786785 0.042748459 0.70687497
0.046481118 0.047154605 0.70733327
0.046848789 0.052528784 0.70611107
0.048293572 0.057381909 0.70675004
0.050357144 0.059757147 0.70500004
0.048850954 0.06266477 0.70749998
0.050357144 0.062442858 0.7050001
0.04922286 0.067428581 0.708
0.051267859 0.06774167 0.70599997
0.1035343 0.068082862 0.70500004
0.10541429 0.068485722 0.70500004
0.04922286 0.070800006 0.708
0.052012462 0.072820671 0.70646155
0.098700009 0.074528575 0.70500004
0.1022308 0.072676264 0.70526665
0.10556381 0.072618105 0.70600003
0.05305101 0.077146664 0.70711112
0.055728573 0.077885717 0.70500004
0.098700009 0.077885717 0.70500004
0.1021792 0.077306189 0.70583338
0.10571334 0.07743334 0.70700002
0.054332007 0.08183562 0.70780003
0.056394432 0.082334839 0.70614284
0.098434292 0.082979053 0.70550007
0.10189778 0.081810005 0.70699996
0.058282077 0.087272048 0.70636362
0.062024135 0.088446997 0.70533329
0.093663342 0.08806207 0.70583338
0.097523637 0.087362774 0.70709091
0.10082287 0.087126352 0.70733333
0.04401429 0.043337144 0.71100003
0.045304764 0.043952383 0.71000004
0.04401429 0.046045717 0.71100003
0.045922667 0.057844955 0.7112
0.046773143 0.06209619 0.71180004
0.047423929 0.06775108 0.711375
0.10902001 0.069745719 0.71100003
0.047973339 0.072726436 0.71200001
0.10902001 0.07177715 0.71100003
0.11082572 0.071551435 0.71100003
0.0484141 0.077031814 0.71200001
0.05118889 0.078700639 0.71033335
0.048902702 0.082183652 0.71316671
0.052035674 0.082828745 0.71127278
0.048733335 0.085453339 0.71400005
0.053237505 0.086981319 0.71212506
0.043176513 0.0632127 0.71711117
0.045687623 0.064780958 0.71600002
0.039031431 0.066421911 0.71900004
0.042198509 0.067305997 0.71799999
0.045687627 0.067508578 0.71600002
0.043111861 0.072102867 0.71854544
0.045735478 0.07235691 0.71675003
0.042658571 0.077240638 0.7166667
0.04615286 0.078210324 0.71616668
0.046505909 0.08223772 0.71600002
