# .PCD v0.7 - Point Cloud Data file format
VERSION 0.7
FIELDS x y z
SIZE 4 4 4
TYPE F F F
COUNT 1 1 1
WIDTH 855
HEIGHT 1
VIEWPOINT 0 0 0 1 0 0 0
POINTS 855
DATA ascii
0.057760008 -0.16220573 0.68400002
0.062624961 -0.1626166 0.68353331
0.067397811 -0.16250639 0.68400002
0.072960004 -0.16220573 0.68400002
0.057977147 -0.15829715 0.68400002
0.062166195 -0.1580724 0.68350005
0.066836581 -0.15907887 0.68400002
0.048951812 -0.16759107 0.68900007
0.052366134 -0.16757409 0.68731266
0.057546601 -0.16713113 0.68664289
0.062619127 -0.16783847 0.68653852
0.067854859 -0.16709049 0.6864
0.072268859 -0.16675514 0.68610001
0.047757141 -0.16250859 0.68850011
0.05230381 -0.1621448 0.68650007
0.05684001 -0.1623067 0.68600005
0.069906674 -0.16202667 0.68600005
0.072520003 -0.16006669 0.68600005
0.075133339 -0.16006668 0.68600005
0.048107237 -0.15874498 0.68820012
0.052551024 -0.15737267 0.68728584
0.056727506 -0.15645131 0.686625
0.063887149 -0.15611732 0.68683338
0.067777947 -0.15778556 0.68650007
0.071943104 -0.15860549 0.68675005
0.075133339 -0.15810668 0.68600005
0.058634374 -0.15292512 0.68754554
0.062212385 -0.15349697 0.68760008
0.046927623 -0.17515239 0.69400001
0.072043821 -0.17515239 0.69400001
0.044251908 -0.17172429 0.69350004
0.047265194 -0.17211056 0.69190913
0.052419599 -0.1725067 0.69171441
0.0576162 -0.17153543 0.69220006
0.06243524 -0.17252441 0.69300002
0.067573063 -0.17250068 0.6929
0.071766987 -0.17184763 0.69133335
0.044092383 -0.1678143 0.6910001
0.046509288 -0.16779667 0.69025004
0.043277558 -0.1623143 0.69000012
0.045671433 -0.16330001 0.69000006
0.042894375 -0.1584367 0.69290918
0.047423102 -0.15708581 0.69158334
0.051257148 -0.15574287 0.69000006
0.068256825 -0.15626222 0.69133341
0.071747467 -0.15731984 0.69116676
0.049106985 -0.15348732 0.6936667
0.052705508 -0.15248086 0.69177783
0.056643136 -0.15189376 0.69042861
0.062709913 -0.15105505 0.69020003
0.067130759 -0.15252057 0.69200009
0.070721909 -0.15334097 0.69400001
0.054780003 -0.14982001 0.69300002
0.058148693 -0.14875178 0.69187504
0.062831312 -0.14858274 0.69262505
0.065887235 -0.14880572 0.69320005
0.053180955 -0.18081525 0.69800001
0.055840004 -0.18148001 0.69800001
0.062398098 -0.18122001 0.69700003
0.066380955 -0.18122001 0.69700003
0.044347622 -0.17540477 0.69500005
0.048572861 -0.17754479 0.69625008
0.05261755 -0.17742215 0.69641674
0.057197779 -0.17796619 0.69673336
0.06230858 -0.17764764 0.6960001
0.067599408 -0.17761534 0.69587517
0.071699634 -0.17772858 0.69580001
0.043465085 -0.17275715 0.69500005
0.0549381 -0.17408097 0.69500005
0.057639688 -0.17424795 0.69566673
0.061557144 -0.17408097 0.69500005
0.043023814 -0.15620953 0.69500005
0.046112701 -0.1559889 0.69500005
0.07341072 -0.15726312 0.6960001
0.076250486 -0.15661049 0.69620007
0.044475242 -0.15466763 0.69700003
0.048064649 -0.15248464 0.69612503
0.050966669 -0.15025239 0.69500005
0.069500007 -0.1509143 0.69500005
0.072267346 -0.15258519 0.69614297
0.076447628 -0.15488955 0.69800007
0.04928286 -0.14837964 0.69740003
0.052597735 -0.14728494 0.69638473
0.056983575 -0.14694059 0.69708341
0.061976198 -0.14649096 0.6960001
0.067717992 -0.14744478 0.69633335
0.070976675 -0.14858525 0.69650006
0.062779054 -0.14453487 0.69680005
0.044109765 -0.15237834 0.70175004
0.046590205 -0.15177579 0.70028579
0.073661283 -0.15243843 0.70100009
0.077209435 -0.15321629 0.70130008
0.044921909 -0.1495162 0.70400006
0.047482543 -0.14735408 0.70222229
0.050613023 -0.14559335 0.70233339
0.068451121 -0.14603969 0.70233339
0.07099501 -0.14734739 0.70325005
0.048944764 -0.14415239 0.70400006
0.05267971 -0.14290053 0.70292312
0.057439588 -0.14293364 0.7013126
0.062567912 -0.14232938 0.70061547
0.067551516 -0.14267772 0.70225012
0.070400015 -0.14281145 0.70400012
0.048497777 -0.13655366 0.70400012
0.052450549 -0.13773274 0.70350009
0.057557855 -0.13787238 0.70275003
0.062868573 -0.1377731 0.70225006
0.067491956 -0.13772106 0.70290917
0.071070477 -0.13610667 0.70400006
0.048274286 -0.13409525 0.70400006
0.052405659 -0.13282536 0.70366681
0.057579048 -0.13256574 0.70300001
0.062912144 -0.13251905 0.70275003
0.067558423 -0.13244128 0.70233339
0.07145258 -0.13298535 0.70380002
0.052268453 -0.12732287 0.70362508
0.057375647 -0.12747076 0.7028572
0.062874287 -0.1277581 0.70233339
0.06765724 -0.1272264 0.70209104
0.071432382 -0.12758553 0.70360011
0.052072927 -0.12223934 0.70357156
0.057734292 -0.12282941 0.70257151
0.062845714 -0.12301525 0.70200008
0.067556635 -0.12217628 0.70338464
0.070400007 -0.12336762 0.70400006
0.05374172 -0.1188743 0.70360005
0.057790484 -0.11841553 0.70369238
0.062586673 -0.1187402 0.70360005
0.06570667 -0.11867429 0.70400006
0.073857144 -0.15107144 0.70500004
0.076985717 -0.15105049 0.70700002
0.04427905 -0.14764479 0.70660001
0.046371117 -0.14583778 0.70566672
0.073341154 -0.14735278 0.70520002
0.077277914 -0.14768648 0.70679998
0.080240004 -0.14632002 0.708
0.043558862 -0.142544 0.708
0.046943814 -0.1424505 0.70619994
0.050357144 -0.14167145 0.7050001
0.072995394 -0.14221944 0.70515388
0.077442624 -0.14276375 0.70708334
0.081054531 -0.14239287 0.70775002
0.042902227 -0.13724382 0.70755559
0.046392765 -0.13783772 0.70599997
0.072782867 -0.13791144 0.70499998
0.07743334 -0.13736001 0.70699996
0.081663184 -0.13715239 0.70766664
0.042459689 -0.1320973 0.70766675
0.04677844 -0.13250919 0.70627266
0.050357144 -0.13092858 0.70500004
0.074168414 -0.13265002 0.70583338
0.077433333 -0.13264666 0.70700002
0.082365729 -0.13254023 0.70753849
0.085634291 -0.13418287 0.708
0.039782859 -0.12811428 0.708
0.042459581 -0.1273796 0.7076667
0.047064763 -0.12775239 0.70599991
0.074151434 -0.12724446 0.70566672
0.077415407 -0.12790304 0.7068333
0.082059242 -0.12787071 0.70739996
0.042929526 -0.12294478 0.70800006
0.04709411 -0.12244862 0.70643741
0.072914228 -0.12219273 0.70607144
0.077360868 -0.12280849 0.7074545
0.081713013 -0.12365482 0.70777786
0.043828573 -0.11867429 0.708
0.047182858 -0.11863215 0.70774996
0.052458961 -0.11697482 0.70699996
0.056866862 -0.11575029 0.7058
0.062442861 -0.11615716 0.7050001
0.067424163 -0.11669288 0.70592856
0.072427064 -0.11778992 0.70741671
0.054617148 -0.11395429 0.708
0.058362864 -0.11393839 0.70671433
0.062290803 -0.11373778 0.70666677
0.066754296 -0.11395429 0.70800006
0.042794526 -0.1508012 0.71325004
0.079114288 -0.15214287 0.71000004
0.082552008 -0.15272801 0.71400005
0.085680008 -0.15028001 0.71400005
0.041355453 -0.14712478 0.71188897
0.082659245 -0.14729431 0.71140003
0.08687374 -0.14724845 0.71342868
0.038860004 -0.14170143 0.71275002
0.04152048 -0.14329574 0.71083343
0.083982863 -0.14294668 0.71000004
0.087496668 -0.14243381 0.71216673
0.034226671 -0.13577335 0.71400011
0.037930917 -0.13717577 0.71223086
0.041247621 -0.13861907 0.71000004
0.084185719 -0.13895714 0.71000004
0.087550387 -0.13728505 0.71149999
0.091630138 -0.13710511 0.71363652
0.034000006 -0.13260001 0.71400011
0.038133748 -0.13250926 0.71142876
0.08740171 -0.13238858 0.71140009
0.091550365 -0.13265418 0.71337509
0.034408003 -0.12824802 0.71400005
0.037672516 -0.12726219 0.7118572
0.087507389 -0.12752645 0.71225011
0.091120005 -0.12852001 0.71400011
0.038660195 -0.12249716 0.71220011
0.040951669 -0.12184073 0.71075004
0.079114288 -0.1210381 0.71000004
0.083177358 -0.12156488 0.71133339
0.086178102 -0.12281905 0.71250004
0.038760003 -0.11900001 0.71400005
0.0420749 -0.11785068 0.71154553
0.047342028 -0.11632513 0.71012503
0.050714288 -0.11630477 0.71000004
0.073028579 -0.11562858 0.71000004
0.077579737 -0.11776942 0.7118572
0.081146672 -0.11883192 0.71300006
0.043726038 -0.11441302 0.71366668
0.047494531 -0.11330709 0.71241677
0.05275866 -0.11286183 0.71175003
0.057194605 -0.11159927 0.71211118
0.062469739 -0.111449 0.71211112
0.067785002 -0.11218277 0.71175003
0.072346479 -0.11306401 0.71260005
0.076133579 -0.11419977 0.71375
0.053720005 -0.10948001 0.71400005
0.056440007 -0.10948001 0.71400011
0.041638337 -0.15256359 0.71675003
0.082703814 -0.15310222 0.71766675
0.086964771 -0.15201715 0.71900004
0.038088217 -0.14706275 0.71737504
0.089040637 -0.14916065 0.71733332
0.091392003 -0.1465802 0.71720004
0.029444763 -0.1403762 0.71900004
0.033132762 -0.142528 0.71880001
0.036532383 -0.14305952 0.71700001
0.091460332 -0.14265144 0.7166667
0.029444765 -0.13763717 0.71900004
0.032526195 -0.13806859 0.71649998
0.036140956 -0.13979049 0.71600002
0.031416073 -0.13249776 0.71712506
0.032468334 -0.12782715 0.71775001
0.091375247 -0.1261524 0.71600002
0.03482572 -0.12359525 0.71700001
0.036494527 -0.12278549 0.71625006
0.088371985 -0.1229377 0.71771437
0.090820007 -0.12496287 0.71700001
0.037661906 -0.11983334 0.71900004
0.040970955 -0.11608477 0.71700001
0.079100959 -0.11524191 0.71600002
0.082796909 -0.11710881 0.71700001
0.085476197 -0.11898191 0.71800005
0.042793334 -0.11334419 0.71780008
0.047887623 -0.1110562 0.71833342
0.051860482 -0.1112281 0.71650004
0.073434055 -0.11100215 0.71725005
0.077635728 -0.11292461 0.71716678
0.081486672 -0.11367048 0.71900004
0.049484767 -0.10923143 0.71833342
0.052653339 -0.10826816 0.71800005
0.057609674 -0.10758974 0.71815383
0.06257946 -0.10817007 0.71757138
0.0673761 -0.10851135 0.71750003
0.071592033 -0.10883845 0.71762502
0.037799686 -0.15601748 0.72166675
0.041142859 -0.15565716 0.72000003
0.033280954 -0.1512562 0.72300005
0.03710109 -0.15253198 0.72142875
0.040457144 -0.15360001 0.72000003
0.087900385 -0.15393353 0.7222001
0.092829525 -0.15127684 0.72200006
0.029588098 -0.14725287 0.72250009
0.032973334 -0.1477024 0.72133344
0.036342859 -0.14811429 0.72000003
0.093485728 -0.14834288 0.72000003
0.029485716 -0.1433143 0.72000003
0.031314291 -0.14422861 0.72000003
0.029485716 -0.13508572 0.72000003
0.029485716 -0.13234286 0.72000003
0.029536907 -0.12776166 0.72125006
0.031586669 -0.12634572 0.72100008
0.093645722 -0.12600859 0.72300005
0.029608574 -0.12463143 0.72300005
0.033349052 -0.12342668 0.72200006
0.035743099 -0.12097834 0.72175008
0.088580012 -0.12085239 0.72100008
0.091846272 -0.12288573 0.72200006
0.038285557 -0.11806779 0.72216672
0.08434286 -0.11588572 0.72000003
0.087467827 -0.1177163 0.72188896
0.090202861 -0.11912286 0.72300005
0.039248575 -0.11499143 0.72300005
0.042819053 -0.11220922 0.72133338
0.045942862 -0.11040001 0.72000003
0.077869527 -0.11110268 0.72100008
0.082415245 -0.11247375 0.72200018
0.086071432 -0.11499143 0.72300005
0.044277467 -0.10897334 0.72266674
0.047418479 -0.10720819 0.72160012
0.050907817 -0.10634401 0.72040004
0.067649916 -0.10606972 0.72040004
0.073050953 -0.10655438 0.72090018
0.077225842 -0.10801132 0.72237509
0.08056286 -0.10948286 0.72300005
0.048888575 -0.10397429 0.72300005
0.052656572 -0.10380001 0.72180015
0.057854611 -0.10320179 0.72146678
0.062508337 -0.10303311 0.72125018
0.067016557 -0.10329949 0.72200012
0.071381912 -0.10351524 0.72300005
0.089071438 -0.1539762 0.72500002
0.091142863 -0.1539762 0.72500002
0.032088984 -0.12253089 0.72571433
0.093448587 -0.12206464 0.72528571
0.095976196 -0.12428572 0.72500002
0.032838628 -0.11820625 0.72677785
0.036320955 -0.11695059 0.72566664
0.088380963 -0.11530953 0.72500002
0.09281607 -0.11743563 0.72620004
0.034020003 -0.11455715 0.72900003
0.037771873 -0.11257274 0.72723079
0.04145667 -0.11193429 0.72549999
0.084046356 -0.11213842 0.72533339
0.087409243 -0.11212162 0.72707701
0.092885874 -0.11391129 0.72783345
0.039574288 -0.10900287 0.72900003
0.04266056 -0.10769343 0.72641671
0.046261907 -0.10564286 0.72500002
0.078321911 -0.10622438 0.7252
0.082326487 -0.10792115 0.72640002
0.085820958 -0.10849017 0.72866672
0.04390743 -0.10402401 0.72720003
0.047214802 -0.10204337 0.72661549
0.052253757 -0.10105504 0.72511107
0.056964289 -0.10046429 0.72500002
0.06214286 -0.10011905 0.72500002
0.068126984 -0.10057937 0.72500002
0.072851539 -0.10171504 0.72544438
0.077319466 -0.10272681 0.72671443
0.081870005 -0.10407143 0.72850001
0.048252862 -0.098935716 0.72900003
0.052835237 -0.097799227 0.72736371
0.057441276 -0.097579688 0.72666663
0.062285401 -0.097579375 0.72666669
0.067428865 -0.097749241 0.72689998
0.071785003 -0.097966202 0.72825003
0.0317927 -0.11672795 0.73100007
0.032945834 -0.1129549 0.73212504
0.035986036 -0.1112089 0.73133337
0.089808576 -0.1106943 0.73100001
0.092814885 -0.11196942 0.73137498
0.038203705 -0.10795144 0.73233336
0.041075241 -0.10582096 0.73100001
0.084239051 -0.10582096 0.73100001
0.087936543 -0.10720842 0.7322728
0.093322858 -0.10940096 0.73400003
0.039845716 -0.1041581 0.73400003
0.042357266 -0.10232274 0.73212498
0.078669526 -0.10094763 0.73100001
0.082530349 -0.10204165 0.73171431
0.085982859 -0.1041581 0.73400003
0.043533973 -0.099406987 0.73333335
0.047215074 -0.09715499 0.73200005
0.051991194 -0.095954522 0.73275
0.057281435 -0.095704295 0.73350006
0.06267786 -0.09541072 0.73124999
0.067530483 -0.095378101 0.73100007
0.07318572 -0.096285589 0.73185718
0.077348046 -0.098251969 0.73166668
0.081326537 -0.09868817 0.73342866
0.049632385 -0.094371438 0.73400003
0.052428573 -0.094371438 0.73400003
0.059419051 -0.094371438 0.73400003
0.0631143 -0.093625866 0.73285717
0.067239374 -0.092831336 0.73288894
0.071604297 -0.093957625 0.7335
0.033645719 -0.11075048 0.73600006
0.034440003 -0.10823905 0.73800004
0.036723971 -0.10689858 0.73683345
0.092011914 -0.107697 0.73750007
0.038642623 -0.10398787 0.73775005
0.040493973 -0.10088573 0.73733342
0.084872857 -0.10100524 0.73650002
0.087588586 -0.10303784 0.73742861
0.042835243 -0.097841911 0.73733342
0.045685716 -0.095587626 0.73800004
0.07780572 -0.096030489 0.73600006
0.082608417 -0.097117305 0.73716676
0.085864767 -0.09853334 0.73900002
0.048944127 -0.0932016 0.73766673
0.052654982 -0.092480958 0.73718184
0.057379562 -0.092451572 0.73653346
0.062232658 -0.091494702 0.73657149
0.067785151 -0.09080153 0.73680001
0.072508462 -0.091818936 0.73737502
0.077047452 -0.093514293 0.73727274
0.053489529 -0.089383818 0.73900002
0.05751067 -0.08900553 0.73820007
0.062639058 -0.089383826 0.73900002
0.066861913 -0.089383818 0.73900002
0.031798098 -0.11094668 0.74200004
0.032417309 -0.10762779 0.74266666
0.03594286 -0.10500953 0.74000001
0.092756964 -0.10574515 0.74120009
0.033965718 -0.10260478 0.74300003
0.037257027 -0.10223752 0.74162507
0.088860482 -0.10155381 0.74050003
0.091574758 -0.10288858 0.74250007
0.037776385 -0.099181347 0.74280006
0.04167334 -0.096611962 0.74166673
0.083472393 -0.095698416 0.74066675
0.087391295 -0.097898237 0.74257153
0.043503571 -0.093727864 0.74275005
0.047169764 -0.092395723 0.74200004
0.07798972 -0.091245346 0.74040002
0.082494572 -0.092994168 0.74214298
0.085621908 -0.093405724 0.74300003
0.048825718 -0.089867622 0.74300003
0.052693233 -0.087874398 0.74211115
0.057527516 -0.08687906 0.74166667
0.062371168 -0.086779661 0.74190921
0.067778096 -0.087452985 0.74192309
0.072419047 -0.087839141 0.7421819
0.077713341 -0.088870585 0.74255562
0.063685715 -0.084206671 0.74300003
0.066516198 -0.084206671 0.74300003
0.031928573 -0.10571905 0.74500006
0.031928573 -0.10359049 0.74500006
0.093424909 -0.10133592 0.74557149
0.095871441 -0.10155144 0.74566674
0.034860004 -0.096042864 0.74700004
0.037429802 -0.09687335 0.74557149
0.088296831 -0.096344456 0.74566674
0.091960318 -0.097809851 0.7472223
0.096883819 -0.099020958 0.74800003
0.03490667 -0.094746672 0.74800003
0.038086668 -0.094327152 0.7475
0.04246546 -0.091975421 0.74654555
0.046890479 -0.09023048 0.74600005
0.083298109 -0.090677157 0.74500006
0.087269537 -0.092347629 0.74671435
0.044405084 -0.088572703 0.74800003
0.047826432 -0.087653577 0.74675006
0.051254671 -0.086749911 0.74540007
0.073790476 -0.085852385 0.74500006
0.077338099 -0.086420015 0.74500006
0.082277253 -0.087491855 0.74688894
0.086198099 -0.089047626 0.74800003
0.048679374 -0.084298424 0.74800003
0.052656513 -0.083254457 0.74716681
0.057580404 -0.082458816 0.74641675
0.062330619 -0.082124226 0.7461428
0.067628101 -0.081975915 0.74590003
0.07255882 -0.083226904 0.74691677
0.077140331 -0.083785713 0.74766678
0.080499053 -0.084773339 0.74800003
0.092500001 -0.09535715 0.75000006
0.096995175 -0.096344776 0.75036371
0.037309423 -0.092519797 0.75177777
0.04071429 -0.090714291 0.75000006
0.089365087 -0.092224769 0.75066674
0.092429839 -0.093145728 0.7523334
0.096814297 -0.093945727 0.75300002
0.039390478 -0.089523815 0.75200003
0.042078536 -0.087083392 0.75118178
0.045714289 -0.085714296 0.75000006
0.082968578 -0.085113339 0.75100005
0.087175153 -0.087602571 0.75150007
0.042563815 -0.083265536 0.7524001
0.047010135 -0.082120955 0.75100011
0.052142859 -0.0807143 0.75000012
0.055000003 -0.080714293 0.75000006
0.072142862 -0.0807143 0.75000012
0.077989809 -0.081668988 0.75128573
0.082157828 -0.082770348 0.75200003
0.085340008 -0.083905719 0.75300002
0.048026673 -0.079567626 0.75266671
0.052495923 -0.07848803 0.75214297
0.057269849 -0.078028262 0.75166672
0.062280953 -0.078028254 0.75166661
0.067349456 -0.077810563 0.75169235
0.072314292 -0.078040428 0.75177777
0.076427437 -0.079008006 0.75280005
0.035774924 -0.090999052 0.75633335
0.093241431 -0.091079056 0.75600004
0.097083092 -0.091678821 0.75650007
0.037924159 -0.087968141 0.75654554
0.088442862 -0.08604604 0.75500005
0.091876552 -0.087911554 0.756625
0.039704766 -0.084462866 0.75800002
0.042855479 -0.081385486 0.75625002
0.045480002 -0.080131434 0.75800002
0.083465248 -0.081306197 0.75550008
0.087011017 -0.082206361 0.75644451
0.090640008 -0.083907306 0.7573334
0.048094392 -0.077381387 0.75622225
0.052244574 -0.07613524 0.75560009
0.057560958 -0.075550005 0.75550008
0.062557146 -0.075500004 0.75500005
0.067350805 -0.075500004 0.75500005
0.072656512 -0.075533345 0.75533342
0.077851333 -0.077209853 0.75611115
0.082355127 -0.078749649 0.75687498
0.085906669 -0.078687623 0.75800002
0.052699052 -0.074356198 0.75800008
0.057713337 -0.073585242 0.75749999
0.062924057 -0.073019288 0.75725001
0.067447357 -0.073625311 0.75685722
0.072126992 -0.073568903 0.75733328
0.075800002 -0.074356198 0.75800002
0.036261909 -0.086301908 0.7615
0.094519526 -0.087276191 0.76050007
0.097373337 -0.088653341 0.76300001
0.039137147 -0.084072389 0.76100004
0.042062383 -0.0812281 0.7615
0.089028575 -0.081066668 0.76000005
0.09249267 -0.082962863 0.76128584
0.095920011 -0.083566673 0.76300001
0.044239528 -0.078324288 0.7615
0.046142545 -0.076582544 0.76100004
0.083051592 -0.07653255 0.76050013
0.087729946 -0.077577829 0.76128584
0.090833336 -0.079206675 0.76300001
0.048637386 -0.074409768 0.76225001
0.052416883 -0.071933597 0.76154554
0.057218578 -0.070979536 0.76050007
0.061778262 -0.07070747 0.76016676
0.067343503 -0.070964143 0.76033342
0.072697259 -0.071246676 0.76077783
0.077620856 -0.072541051 0.76170009
0.0816679 -0.073572926 0.76271433
0.085746676 -0.07484667 0.76300001
0.054500002 -0.06903334 0.76300001
0.057697337 -0.068452001 0.76300001
0.062438738 -0.067519687 0.76233339
0.067491435 -0.068216205 0.76200002
0.072361588 -0.068004131 0.76233333
0.076300003 -0.06903334 0.76300001
0.035793334 -0.085465722 0.76700002
0.097628579 -0.08597143 0.76500005
0.037618574 -0.083639048 0.76700002
0.040644448 -0.081534609 0.76666677
0.093500003 -0.081357151 0.76500005
0.097254023 -0.082034156 0.7661429
0.043331593 -0.077656358 0.76683342
0.045900002 -0.075042859 0.76500005
0.089206681 -0.075593971 0.76566672
0.092579596 -0.077966265 0.76714295
0.097153351 -0.079621911 0.76700008
0.047250479 -0.07206358 0.76625007
0.050271433 -0.070671432 0.76500005
0.079414293 -0.070671432 0.76500005
0.082955241 -0.071582675 0.76540011
0.08706551 -0.07262022 0.76677781
0.048496827 -0.068967938 0.7676667
0.052553099 -0.067516431 0.76641667
0.057423953 -0.065968439 0.76600003
0.060629528 -0.065012388 0.76700002
0.067845717 -0.0656562 0.76600003
0.072552383 -0.065544389 0.76640004
0.077590965 -0.067234769 0.76570004
0.082335651 -0.068350896 0.76700002
0.085577145 -0.069485717 0.76800001
0.05851429 -0.063634291 0.76800001
0.062789172 -0.063701078 0.76662505
0.067713343 -0.063325159 0.76780003
0.070948578 -0.063634291 0.76800001
0.034466669 -0.085800007 0.77000004
0.034556191 -0.084552385 0.77200001
0.037780385 -0.081884764 0.77180004
0.039018098 -0.078772388 0.77300006
0.04144939 -0.077547632 0.77128577
0.094050005 -0.076414764 0.77150005
0.096988581 -0.077883333 0.77150005
0.043383814 -0.072798409 0.77211118
0.088733338 -0.071133338 0.77000004
0.092244528 -0.072949052 0.77175009
0.044878572 -0.069156669 0.77250004
0.047575001 -0.06723024 0.77149999
0.052110478 -0.065323174 0.77066672
0.078466676 -0.065266669 0.7700001
0.083311051 -0.065972 0.77140003
0.08723893 -0.067953214 0.771375
0.090551436 -0.069938101 0.77300006
0.049324766 -0.064048573 0.77300006
0.052393693 -0.062688217 0.77212507
0.056980383 -0.062119424 0.77099997
0.062006198 -0.06127286 0.7705
0.067152396 -0.061495248 0.7700001
0.072830953 -0.062189534 0.7705
0.077189319 -0.062484767 0.77188891
0.081910327 -0.063516676 0.77250004
0.058120959 -0.059224766 0.77250004
0.062822096 -0.058996197 0.77240008
0.067685716 -0.05885667 0.77250004
0.072491668 -0.059244052 0.77275002
0.077300005 -0.059631433 0.77300006
0.034432381 -0.082560956 0.77750003
0.036689844 -0.081013665 0.77566671
0.034869526 -0.078641906 0.77900004
0.037540957 -0.077489533 0.77674997
0.040595241 -0.076023817 0.77500004
0.097428575 -0.076023817 0.77500004
0.038541194 -0.072635949 0.7782501
0.041385718 -0.071687624 0.77600002
0.09332668 -0.070671439 0.77566671
0.097452253 -0.072304264 0.77653849
0.039320953 -0.068255246 0.77900004
0.042390719 -0.067567863 0.77750003
0.04559461 -0.066295564 0.77633333
0.088894293 -0.066239059 0.77566671
0.092580006 -0.068137154 0.77766675
0.095705718 -0.068997145 0.77900004
0.043277781 -0.064051121 0.77900004
0.047666665 -0.062486038 0.77800012
0.051060002 -0.060678098 0.77700007
0.082857341 -0.061884005 0.7754001
0.086643673 -0.062521227 0.7775715
0.05348286 -0.058814671 0.77780002
0.057638358 -0.057233687 0.77681822
0.062665448 -0.056534566 0.77671438
0.067253336 -0.056166671 0.77600002
0.072703235 -0.056595244 0.77580005
0.077646501 -0.057475422 0.77645463
0.081858523 -0.058327306 0.77744442
0.064545721 -0.054159053 0.77900004
0.067513339 -0.054159056 0.77900004
0.072483622 -0.05380667 0.77820003
0.076416194 -0.054159053 0.77900004
0.033600003 -0.082133338 0.78400004
0.033713203 -0.076682463 0.78171432
0.036400001 -0.075028576 0.78000003
0.033913203 -0.072402999 0.78142864
0.036400001 -0.07205715 0.78000009
0.037038814 -0.067937389 0.78175008
0.040857144 -0.066114292 0.78000003
0.093097791 -0.066283815 0.78200006
0.097710483 -0.068263628 0.78080004
0.038397782 -0.063664451 0.7803334
0.042072173 -0.061908364 0.78111118
0.04580953 -0.060666673 0.78000009
0.088569045 -0.061772861 0.78150004
0.091495246 -0.063732959 0.78360003
0.044053335 -0.058986671 0.78400004
0.047482751 -0.057758313 0.78311116
0.051742148 -0.056769289 0.78175002
0.055714291 -0.055714291 0.78000003
0.083662868 -0.056353658 0.78200006
0.086332574 -0.057702478 0.78280002
0.053314704 -0.05281651 0.78355551
0.057371117 -0.052152388 0.78233331
0.06227326 -0.052302856 0.78200012
0.067686677 -0.052065723 0.78100002
0.07239905 -0.051569209 0.78100008
0.077438578 -0.052119523 0.78183335
0.082081437 -0.053725243 0.78350008
0.063304767 -0.049899049 0.78200006
0.067773342 -0.049899053 0.78200006
0.071497142 -0.049899049 0.78200006
0.029268574 -0.086304769 0.78800005
0.032214608 -0.086158738 0.78666675
0.029305717 -0.084911436 0.78900003
0.031609394 -0.082830071 0.78757155
0.029305717 -0.075894289 0.78900003
0.031459525 -0.077151909 0.78650004
0.03069143 -0.074108578 0.78600001
0.036773335 -0.066792384 0.78800005
0.096865155 -0.065724574 0.78600001
0.092491627 -0.06190991 0.78700006
0.096728265 -0.063736513 0.78733343
0.043344196 -0.057441335 0.78740007
0.045662861 -0.056142859 0.78600001
0.088762388 -0.057301432 0.78650004
0.091240957 -0.058198575 0.78850007
0.044334289 -0.054854289 0.78900003
0.0475927 -0.05309302 0.78766674
0.051028032 -0.051669668 0.7862857
0.078600004 -0.050154287 0.78600001
0.083209537 -0.051556401 0.78711116
0.087460645 -0.053108472 0.78788894
0.090922862 -0.054854289 0.78900003
0.053998575 -0.048750002 0.78750002
0.057737146 -0.047238309 0.78733337
0.062192705 -0.047205187 0.78677779
0.067428574 -0.047198739 0.78666681
0.072756201 -0.04725207 0.78755558
0.077140957 -0.04774313 0.78857154
0.081154294 -0.048842859 0.78900003
0.059362862 -0.044334289 0.78900003
0.063120008 -0.044334289 0.78900003
0.067628577 -0.044334289 0.78900003
0.029417144 -0.082970485 0.79200006
0.029454287 -0.078544766 0.79300004
0.030964764 -0.079300009 0.79300004
0.094166674 -0.061020005 0.79100001
0.096548572 -0.061850481 0.792
0.040756669 -0.05887191 0.79250002
0.093571439 -0.057349846 0.79233336
0.097425722 -0.059663814 0.7930001
0.043478422 -0.054033972 0.79166669
0.046494287 -0.0510181 0.79166669
0.089144453 -0.050975561 0.79100007
0.091646194 -0.052422386 0.79200006
0.05279905 -0.048274286 0.79200006
0.07834667 -0.045953337 0.79100001
0.08244776 -0.047096469 0.79214293
0.086507253 -0.048461527 0.79260004
0.058426093 -0.043328196 0.79260004
0.062401235 -0.042569932 0.79214293
0.06713143 -0.042239051 0.792
0.072693028 -0.043178942 0.79233342
0.077518247 -0.043448035 0.79242867
0.081565723 -0.04455905 0.79300004
0.040280003 -0.061560005 0.79800004
0.041695241 -0.056098096 0.796
0.094642863 -0.055271432 0.79500002
0.097754188 -0.056832485 0.79566669
0.10184 -0.057000004 0.79800004
0.043996669 -0.051582385 0.79650009
0.094084762 -0.051966287 0.79540008
0.097432226 -0.05289064 0.79716676
0.042712003 -0.048488002 0.79800004
0.048016556 -0.048016079 0.79712504
0.052057147 -0.046896763 0.79680008
0.055271432 -0.046185717 0.79500002
0.087505721 -0.046593338 0.79550004
0.091655716 -0.048009053 0.79699999
0.095000006 -0.049400002 0.79800004
0.052803099 -0.044445958 0.79775006
0.057120431 -0.041933544 0.79733336
0.062842861 -0.040128574 0.79500002
0.067385718 -0.040128574 0.79500002
0.072746679 -0.04066699 0.79566669
0.078466289 -0.040825907 0.79680008
0.082701594 -0.042234082 0.79666668
0.087105729 -0.043714426 0.79728574
0.090440005 -0.044840004 0.79800004
0.059001591 -0.038237147 0.79766673
0.062611848 -0.037870616 0.79757148
0.067602552 -0.037218627 0.79755557
0.071944088 -0.037653472 0.79757148
0.076437145 -0.03814229 0.7978
0.033585243 -0.066408098 0.80150002
0.035809524 -0.067047626 0.80000001
0.033739597 -0.062346946 0.80257148
0.037294894 -0.062436718 0.8021819
0.033436194 -0.058449529 0.80400008
0.039051432 -0.058960006 0.80400002
0.040582858 -0.056662861 0.80400002
0.10209525 -0.05561905 0.80000001
0.039051432 -0.052068576 0.80400002
0.041210163 -0.05265969 0.80133343
0.099301599 -0.051555559 0.80000007
0.10226541 -0.052657779 0.80133337
0.038857147 -0.049523812 0.80000001
0.042883813 -0.047075722 0.80050004
0.04604445 -0.045535244 0.80133337
0.093831435 -0.045770481 0.801
0.096575879 -0.047904771 0.80266666
0.048601691 -0.042832386 0.80155563
0.052396908 -0.041726906 0.80025005
0.05561905 -0.040380955 0.80000001
0.084571436 -0.040380955 0.80000001
0.088012204 -0.041030861 0.80080003
0.09225291 -0.042517465 0.80199999
0.049771432 -0.039051432 0.80400002
0.052977424 -0.037902586 0.80285716
0.056747757 -0.03714123 0.80057156
0.062476195 -0.035809524 0.80000001
0.073142864 -0.035809524 0.80000001
0.077382386 -0.036212858 0.80049998
0.082424134 -0.037393659 0.80133337
0.088021271 -0.038269527 0.80366671
0.091120005 -0.039051432 0.80400002
0.05767696 -0.033810288 0.80320007
0.062371168 -0.033751842 0.80285716
0.067447148 -0.033244293 0.80249995
0.072581597 -0.032850374 0.80222225
0.076926544 -0.033278104 0.80199999
0.081864767 -0.034428574 0.8033334
0.034031115 -0.05654794 0.80600011
0.037455954 -0.057432149 0.80675012
0.034542859 -0.054500956 0.80600005
0.037253067 -0.053297695 0.80771434
0.1031162 -0.050019052 0.80800003
0.098507062 -0.046563435 0.80680007
0.10168115 -0.048455242 0.80760002
0.043754287 -0.043754287 0.80600005
0.046351753 -0.042252701 0.80666673
0.094417147 -0.040683813 0.80600005
0.097407088 -0.042717554 0.80714297
0.10157715 -0.042323813 0.80800003
0.048419051 -0.038428575 0.80700004
0.051471751 -0.036107942 0.80666673
0.0882762 -0.036078103 0.80600011
0.093036197 -0.037931435 0.80733341
0.096190482 -0.039245717 0.80800003
0.052736003 -0.034286477 0.80720007
0.057657149 -0.031518482 0.80720007
0.061931051 -0.030888001 0.80680007
0.067806356 -0.031472381 0.80600011
0.077952005 -0.030595809 0.80720007
0.082032941 -0.031955652 0.80714297
0.086563066 -0.033978667 0.80720007
0.090034291 -0.034628574 0.80800003
0.063446194 -0.028453812 0.80750006
0.067045078 -0.028781379 0.8071112
0.072244763 -0.029204767 0.8070001
0.10290859 -0.046131432 0.81000006
0.04562667 -0.041760001 0.81200004
0.098742858 -0.040885717 0.81000006
0.10221429 -0.043200001 0.81000006
0.047142386 -0.037485242 0.81150007
0.093342863 -0.036257144 0.81000006
0.097827144 -0.037699528 0.8120001
0.1006562 -0.037938096 0.81300002
0.047944766 -0.0348 0.81200004
0.052987862 -0.031909287 0.81225014
0.057085719 -0.030085716 0.81000006
0.083314285 -0.030085716 0.81000006
0.087515384 -0.031230208 0.81114298
0.092077047 -0.032753445 0.81244457
0.096012384 -0.034842856 0.81300002
0.057620194 -0.027415622 0.81320012
0.062098738 -0.026538735 0.81166667
0.067624293 -0.025890004 0.81150001
0.072311297 -0.02660463 0.81142867
0.077578194 -0.026935762 0.81236374
0.082614161 -0.027536601 0.81285727
0.086826667 -0.028683811 0.81400001
0.063569531 -0.024032382 0.81400001
0.067445718 -0.024032382 0.81400001
0.071321905 -0.024032382 0.81400001
0.042585239 -0.042587623 0.81675005
0.043760955 -0.03780508 0.81566679
0.045832705 -0.036509529 0.81566668
0.048501275 -0.032938097 0.81700009
0.051011115 -0.030813655 0.81566668
0.093142867 -0.030271431 0.81500006
0.096624777 -0.032639053 0.81599998
0.052557148 -0.027446125 0.81671441
0.055885717 -0.025614288 0.81500006
0.083828583 -0.025614288 0.81500006
0.088055931 -0.026759593 0.81614292
0.091816202 -0.028010476 0.81700003
0.053256195 -0.02364032 0.81833339
0.057751607 -0.022689439 0.81645465
0.062693745 -0.022080682 0.81557149
0.067528576 -0.021733334 0.81500006
0.072458647 -0.022080682 0.81557155
0.077492729 -0.022674721 0.81590915
0.082478099 -0.022562861 0.81700003
0.047429148 -0.031775814 0.82180005
0.049380004 -0.029000955 0.82300001
0.050823811 -0.026584763 0.82100004
0.03868667 -0.042634286 0.82900006
0.040563338 -0.041347146 0.82700002
0.045736194 -0.031543814 0.82800007
0.038780004 -0.040362861 0.83100003
