# .PCD v0.7 - Point Cloud Data file format
VERSION 0.7
FIELDS x y z
SIZE 4 4 4
TYPE F F F
COUNT 1 1 1
WIDTH 935
HEIGHT 1
VIEWPOINT 0 0 0 1 0 0 0
POINTS 935
DATA ascii
0.1885943 -0.19560286 0.66900003
0.19286065 -0.19540796 0.66833341
0.19775781 -0.19521305 0.66766679
0.20070001 -0.19560286 0.66900003
0.18896329 -0.19250171 0.66855562
0.19274931 -0.19243285 0.66712499
0.19759801 -0.19213554 0.66670001
0.20249777 -0.19230941 0.668625
0.20633177 -0.19295876 0.66866678
0.19713557 -0.18951271 0.66700006
0.20518191 -0.18993621 0.66700006
0.18344715 -0.20076716 0.6735
0.18747215 -0.2013943 0.67314285
0.19184458 -0.20081525 0.6728
0.19963239 -0.2009162 0.67400002
0.20285462 -0.20114541 0.67333335
0.20733526 -0.20091622 0.67400002
0.18309301 -0.19747937 0.67238456
0.1875124 -0.19760402 0.67060006
0.1925136 -0.19778574 0.671
0.19761048 -0.19825383 0.67150003
0.20267515 -0.19756524 0.67090005
0.20733845 -0.19768982 0.67136365
0.18381932 -0.19312963 0.67209089
0.18651724 -0.19220817 0.67090911
0.19398096 -0.19079049 0.67000002
0.19589525 -0.19079049 0.67000002
0.18846542 -0.18825081 0.67233336
0.19256565 -0.18751429 0.67129987
0.19742493 -0.18773906 0.67050004
0.20239928 -0.18813439 0.67138451
0.2051343 -0.18915811 0.671
0.18936191 -0.18422668 0.67400002
0.19306906 -0.18441002 0.6735
0.19657683 -0.18441114 0.67233336
0.19852668 -0.21534002 0.67900008
0.19833848 -0.21204422 0.67879999
0.20230526 -0.21132526 0.67650008
0.20537525 -0.21052572 0.67600006
0.17796738 -0.2059271 0.67600006
0.182813 -0.20671396 0.6765455
0.18758191 -0.20712157 0.67684633
0.19267038 -0.20730932 0.67811114
0.19791666 -0.20766154 0.67861539
0.2023602 -0.20751888 0.67668748
0.20729975 -0.207206 0.67657161
0.21235216 -0.20653358 0.67875004
0.17447239 -0.2015124 0.67600006
0.17728619 -0.20235071 0.67593336
0.18241726 -0.20299569 0.67522228
0.18771431 -0.20378573 0.67500001
0.19290493 -0.20319319 0.67516673
0.19756688 -0.20311069 0.67660004
0.20184995 -0.2033207 0.67528576
0.20731975 -0.20327786 0.67514294
0.2120108 -0.20383207 0.67800009
0.1749886 -0.1982343 0.67800009
0.17769721 -0.1972874 0.67615789
0.18090002 -0.19812858 0.67500001
0.17779768 -0.19303162 0.67663646
0.18182679 -0.19249973 0.67510009
0.17962287 -0.18992382 0.67600006
0.18277514 -0.18800214 0.67655557
0.1865893 -0.18723217 0.67500007
0.1922143 -0.18578573 0.67500001
0.19992858 -0.18578573 0.67500001
0.20202707 -0.18631697 0.67600006
0.18389145 -0.18453667 0.67750001
0.18777172 -0.18261732 0.67650014
0.192509 -0.18230705 0.67641675
0.19710414 -0.18293177 0.67633337
0.20114952 -0.1843673 0.67766678
0.18947335 -0.17912668 0.67900002
0.19191954 -0.17899477 0.67850006
0.18877572 -0.21546525 0.68350005
0.19266288 -0.21563558 0.68266672
0.19686134 -0.21656115 0.68040007
0.18347955 -0.21275859 0.68316668
0.18779153 -0.21274079 0.68272734
0.19273786 -0.21255501 0.68140018
0.19639239 -0.2132463 0.68057144
0.19493334 -0.20918097 0.68000001
0.21384382 -0.20244573 0.68000001
0.21565716 -0.20335239 0.68000001
0.17835844 -0.19154382 0.68100011
0.17881715 -0.18696001 0.68400002
0.18092965 -0.18677478 0.68190002
0.20400001 -0.18586668 0.68000001
0.20714842 -0.18571827 0.68183339
0.21010382 -0.1860362 0.68300003
0.17914286 -0.18435431 0.68400002
0.1827998 -0.18249972 0.68269241
0.18618736 -0.18154874 0.68185723
0.1936381 -0.18133335 0.68000001
0.1981643 -0.18150871 0.6831001
0.20236573 -0.18264684 0.6825
0.20669858 -0.1836243 0.6825
0.18305145 -0.17914288 0.68400002
0.18785316 -0.17785445 0.68281245
0.19238615 -0.17719804 0.68192315
0.19770713 -0.17787986 0.68338472
0.20129144 -0.17784002 0.68400002
0.18903908 -0.17428033 0.68366671
0.19285659 -0.17372745 0.68320006
0.19764249 -0.17337757 0.68328583
0.20204644 -0.17471644 0.68325007
0.18750668 -0.21625334 0.68600005
0.18647145 -0.21264288 0.68700004
0.17914335 -0.19091241 0.68650007
0.17766097 -0.18725273 0.68666673
0.17914315 -0.18288137 0.68685728
0.18130001 -0.18195334 0.68600005
0.20449334 -0.18162668 0.68600005
0.2074468 -0.18225038 0.68712509
0.17940509 -0.17940509 0.68666673
0.18273245 -0.17749533 0.68735725
0.18594073 -0.17679073 0.68625009
0.20382857 -0.17872572 0.68640012
0.20640001 -0.1795343 0.68800002
0.18324985 -0.17290297 0.6885556
0.18690388 -0.17251621 0.68666679
0.19212562 -0.17183934 0.68710011
0.19749843 -0.17112128 0.68666673
0.20225973 -0.17177404 0.68728578
0.18301769 -0.168587 0.6887778
0.18732212 -0.16783196 0.68820018
0.19321828 -0.16780584 0.68900013
0.19803829 -0.16680364 0.68900007
0.20228931 -0.16760656 0.68807709
0.20571573 -0.16700049 0.68900001
0.18395208 -0.16295399 0.68900001
0.18753335 -0.16261809 0.68850011
0.19249929 -0.16238216 0.68750018
0.19746587 -0.16269638 0.68883342
0.20217632 -0.16235481 0.68800014
0.20715559 -0.16257907 0.68833345
0.18412706 -0.15709202 0.68900007
0.18726049 -0.15714288 0.68750018
0.19239537 -0.15705681 0.68712521
0.19732516 -0.15783314 0.68880004
0.20203376 -0.15814193 0.68900007
0.20744994 -0.15870436 0.68900007
0.18438953 -0.15420477 0.68900001
0.18770701 -0.15361811 0.68833339
0.19219144 -0.15367374 0.68780005
0.19620097 -0.15420477 0.68900001
0.1763197 -0.18598066 0.69166672
0.17707868 -0.18255472 0.69200003
0.20952192 -0.18044001 0.69400001
0.21161954 -0.18242209 0.69150007
0.174187 -0.1759489 0.6936667
0.17744349 -0.17759196 0.69177783
0.18115239 -0.17589526 0.69000006
0.20466763 -0.17571144 0.69100004
0.20809443 -0.17715959 0.69266671
0.21084382 -0.17713526 0.69400001
0.17374638 -0.17242573 0.6936667
0.17776412 -0.17249911 0.69131255
0.18102954 -0.1720905 0.69020003
0.19254287 -0.17020001 0.69000006
0.19780001 -0.17020002 0.69000006
0.20254812 -0.17229763 0.69050002
0.20783344 -0.17244551 0.69241667
0.21108192 -0.17234224 0.69333333
0.17368391 -0.16774136 0.69341671
0.17762114 -0.16735245 0.69126666
0.18202858 -0.16691431 0.69000006
0.1899143 -0.16757144 0.69000006
0.19254287 -0.16822858 0.69000006
0.19714287 -0.16822858 0.69000006
0.20042859 -0.16822858 0.69000006
0.20866799 -0.16788775 0.69062501
0.21257086 -0.16705489 0.69262505
0.16942415 -0.16105208 0.69400001
0.17285645 -0.16230181 0.69274998
0.17771803 -0.16264346 0.69053853
0.18233186 -0.16292088 0.69000012
0.20962858 -0.16428572 0.69000006
0.21297537 -0.16249801 0.69190007
0.21615002 -0.16137001 0.69300002
0.16986477 -0.15862858 0.69400001
0.17298169 -0.15713666 0.69324994
0.17753787 -0.15772174 0.69088238
0.18190908 -0.15789352 0.69000006
0.19845715 -0.15574287 0.69000006
0.20249389 -0.1568694 0.69000012
0.20758414 -0.15676509 0.69000006
0.21245256 -0.15728885 0.69185722
0.21714002 -0.15840001 0.69300002
0.17330913 -0.15330914 0.69342864
0.1779597 -0.15291286 0.6920715
0.182437 -0.15215129 0.6912778
0.18775876 -0.15180001 0.69066668
0.19264467 -0.15170285 0.69088888
0.19757554 -0.15236409 0.69085723
0.20262025 -0.15262225 0.69075
0.20771585 -0.15272799 0.69238466
0.21177071 -0.15245982 0.6936667
0.18378858 -0.14945143 0.69333339
0.18790542 -0.14849636 0.69349998
0.19262125 -0.14792788 0.69279999
0.19765617 -0.14798102 0.69278568
0.20235527 -0.1483665 0.69300002
0.20606859 -0.14926715 0.69350004
0.17590953 -0.18586668 0.69700003
0.17398459 -0.18195982 0.69780004
0.17565715 -0.18294954 0.69600004
0.21283984 -0.18180706 0.69620007
0.21698706 -0.18190704 0.69760001
0.16878882 -0.17676359 0.69774997
0.17221057 -0.1775147 0.69591677
0.21328717 -0.17751907 0.69550008
0.21729408 -0.17786932 0.69707698
0.22077051 -0.17744058 0.69779998
0.16796486 -0.17219102 0.69709092
0.17077143 -0.17209524 0.69500011
0.21345651 -0.17262 0.69533342
0.21727115 -0.17264214 0.69700009
0.2218089 -0.17276426 0.69800001
0.16735375 -0.16735448 0.69731259
0.17088722 -0.16728804 0.69585729
0.21756697 -0.16752106 0.69690007
0.22223724 -0.16743238 0.69784623
0.16700689 -0.16258119 0.69725007
0.17059906 -0.16396096 0.69700003
0.21862763 -0.16314033 0.69633341
0.2217124 -0.16263334 0.69700003
0.16726643 -0.15771724 0.69640011
0.17010954 -0.15620953 0.69500005
0.2170825 -0.15634573 0.69620007
0.2217124 -0.15997811 0.69700003
0.16858748 -0.1539662 0.6978333
0.17222574 -0.15205657 0.69660008
0.17719601 -0.15069012 0.69580013
0.20982382 -0.15025239 0.69500005
0.21374667 -0.15134859 0.69700003
0.21589287 -0.15411383 0.69749999
0.17416763 -0.14957143 0.69800001
0.17803018 -0.14851883 0.69722223
0.18241547 -0.14725807 0.69650012
0.18694086 -0.14611864 0.69633335
0.19393811 -0.14628096 0.69500005
0.19914287 -0.1453743 0.69700003
0.20219676 -0.14617011 0.69700003
0.20691657 -0.14772116 0.69680005
0.21078762 -0.14914286 0.69600004
0.18413906 -0.14425334 0.69800001
0.18790935 -0.14435278 0.6972
0.19233108 -0.14424774 0.69637507
0.19671734 -0.1444522 0.69640011
0.20009334 -0.14425334 0.69800001
0.17348826 -0.19090478 0.70333338
0.17301698 -0.18762426 0.70290917
0.17550033 -0.1875124 0.70066679
0.16877772 -0.18111144 0.70380002
0.17236601 -0.18305688 0.70150012
0.16353786 -0.17694309 0.70375007
0.16665812 -0.17736945 0.7027778
0.17000002 -0.17933334 0.70000005
0.22400001 -0.17666668 0.70000005
0.15890287 -0.17097144 0.70400006
0.16258805 -0.17240584 0.70255566
0.16623573 -0.17391525 0.70100003
0.22323458 -0.1729279 0.70028579
0.22632287 -0.17291336 0.70100009
0.15890287 -0.16828954 0.70400006
0.16237731 -0.16751078 0.70261127
0.22200002 -0.16866668 0.70000005
0.1580089 -0.16247874 0.70400012
0.1629089 -0.16248851 0.70242113
0.16371751 -0.15820059 0.70237505
0.16568619 -0.1556662 0.70150006
0.21866667 -0.15533334 0.70000005
0.16748087 -0.15303288 0.70230001
0.17121276 -0.1506623 0.70060009
0.21491715 -0.15064287 0.70300001
0.21797612 -0.15227343 0.70250005
0.2205867 -0.15219811 0.70400012
0.16963048 -0.1495162 0.70400006
0.17268947 -0.14725459 0.70281255
0.17715448 -0.14654461 0.70145464
0.18066669 -0.14600001 0.70000005
0.20466667 -0.14600001 0.70000005
0.20796806 -0.14606383 0.70214289
0.21201265 -0.14713582 0.70225012
0.21611683 -0.14817524 0.70400012
0.17387183 -0.14357506 0.70380008
0.17800152 -0.14273533 0.7030834
0.1822805 -0.1425404 0.70194453
0.18746696 -0.14216867 0.70150006
0.19238505 -0.14211681 0.70118189
0.19710281 -0.14187232 0.70192313
0.20249014 -0.14286828 0.70276922
0.20713468 -0.14322439 0.70340008
0.21254097 -0.14415239 0.70400012
0.18297476 -0.13873881 0.70375001
0.18760002 -0.13868937 0.70350003
0.19233556 -0.13872223 0.70366669
0.19555557 -0.13834161 0.70400012
0.16987143 -0.1900143 0.70500004
0.1712143 -0.19068572 0.70500004
0.16385144 -0.18610287 0.708
0.16779557 -0.18701476 0.70720005
0.17078382 -0.18725668 0.70600003
0.15935621 -0.18048382 0.70800006
0.16319554 -0.18206373 0.70749998
0.16697596 -0.18278524 0.70625001
0.1712143 -0.18464287 0.70500004
0.15890667 -0.17708668 0.70700002
0.1618181 -0.17795096 0.70574999
0.15868174 -0.17321812 0.70660001
0.15868096 -0.16607811 0.70600003
0.15881525 -0.16258135 0.70599997
0.16047144 -0.16114287 0.70500004
0.15854667 -0.15908574 0.70719999
0.16271758 -0.15688731 0.7063334
0.16440906 -0.15430239 0.70749998
0.16698514 -0.15149963 0.70700008
0.16847642 -0.1476889 0.70666677
0.17035334 -0.14611334 0.70700002
0.21749099 -0.14786009 0.70570004
0.22090453 -0.14781362 0.70685714
0.1722666 -0.14252582 0.70681816
0.17625001 -0.14066429 0.70500004
0.1994143 -0.14032859 0.70500004
0.20277144 -0.14032859 0.70500004
0.20795524 -0.14076382 0.70550001
0.21239932 -0.14206669 0.70636362
0.21684431 -0.14358874 0.70783341
0.22049144 -0.14497145 0.708
0.17396572 -0.13957715 0.708
0.17786889 -0.13786991 0.70723081
0.18213087 -0.13626152 0.70620006
0.1873237 -0.13580613 0.70642871
0.19240299 -0.1358918 0.706375
0.1978426 -0.13705075 0.70636368
0.20194173 -0.13772288 0.7068001
0.20753406 -0.13880454 0.70750004
0.21172574 -0.13957715 0.708
0.19419429 -0.13418287 0.708
0.19621715 -0.13418287 0.708
0.15755239 -0.16160953 0.71000004
0.15862781 -0.15781145 0.71240008
0.16127223 -0.15652874 0.71150005
0.16355506 -0.15270497 0.71200007
0.16566668 -0.15079048 0.71000004
0.16454573 -0.14964858 0.71100003
0.16669558 -0.14714575 0.71200007
0.1686018 -0.14347275 0.71312505
0.17095906 -0.14178699 0.71233338
0.21877852 -0.14240329 0.71057153
0.22069049 -0.14124191 0.71300006
0.17299366 -0.13771635 0.71233338
0.17615362 -0.13629729 0.71100008
0.20387144 -0.13625239 0.71000004
0.20805286 -0.13627334 0.71100008
0.21273071 -0.13735282 0.71153849
0.21692896 -0.13815449 0.71180004
0.17476001 -0.13396001 0.71400005
0.17809336 -0.13306034 0.71283352
0.18258707 -0.13294859 0.71200007
0.18742512 -0.13269682 0.71192867
0.19237131 -0.13271847 0.71173346
0.19792663 -0.13266185 0.71153849
0.2024325 -0.13267583 0.71161544
0.20656441 -0.13340774 0.71287507
0.21012001 -0.13396001 0.71400005
0.18156001 -0.12988001 0.71400005
0.18836002 -0.12988001 0.71400011
0.19244002 -0.12988001 0.71400005
0.19720002 -0.12988001 0.71400005
0.20196001 -0.12988001 0.71400011
0.15894508 -0.15575206 0.71833342
0.16024762 -0.1561562 0.71600002
0.16168478 -0.15288308 0.71700001
0.16365685 -0.14772561 0.71700001
0.16570286 -0.14524573 0.71600002
0.16394216 -0.14344929 0.71725005
0.16670592 -0.1421297 0.71680009
0.16831334 -0.1388566 0.71744448
0.17132777 -0.13680886 0.71671432
0.21480002 -0.13569906 0.71600002
0.21684572 -0.13569906 0.71600002
0.17341858 -0.13376684 0.7178334
0.17668356 -0.13107511 0.71628582
0.1829778 -0.13024382 0.71600002
0.18616001 -0.13024382 0.71600002
0.19297907 -0.13024382 0.71600002
0.20785019 -0.13121367 0.71633333
0.21236731 -0.1330035 0.71700007
0.21649659 -0.1335541 0.71620005
0.1782448 -0.12878415 0.71800011
0.18251897 -0.12777629 0.71670002
0.18748851 -0.12707272 0.71735722
0.19235763 -0.12766764 0.71750009
0.19743694 -0.12815483 0.71788889
0.20270042 -0.12845744 0.71800011
0.20679811 -0.12942001 0.71900004
0.15923786 -0.15373501 0.72225004
0.16095833 -0.15201645 0.72225004
0.16216432 -0.14773571 0.7215001
0.16323541 -0.14239986 0.72116679
0.16525716 -0.14057145 0.72000003
0.16403368 -0.13925652 0.72266674
0.16736421 -0.13685867 0.72140014
0.17074287 -0.13508572 0.72000003
0.16927096 -0.13417858 0.72250009
0.17226154 -0.13228859 0.72120011
0.21293335 -0.13087621 0.72200006
0.2169289 -0.13231272 0.72233343
0.17364326 -0.12937354 0.72180009
0.17720763 -0.12716615 0.72088897
0.18208878 -0.12582973 0.72040004
0.18582858 -0.12548572 0.72000003
0.19337144 -0.12548572 0.72000003
0.19794288 -0.12594287 0.72000003
0.20238003 -0.12622954 0.72033346
0.20724525 -0.1275081 0.72175008
0.21055669 -0.12936145 0.72250009
0.18376763 -0.12384001 0.72160006
0.18799374 -0.12322 0.72200012
0.19257492 -0.12286478 0.72145462
0.19727835 -0.12235167 0.72175002
0.20207429 -0.12327031 0.72236377
0.20588288 -0.12463143 0.72300005
0.16121382 -0.15083382 0.72650003
0.16193366 -0.14761367 0.72766674
0.1625451 -0.14242922 0.72833341
0.16301715 -0.13743377 0.72781825
0.16556001 -0.13654667 0.72533339
0.16735473 -0.13274838 0.72673333
0.17100796 -0.13096033 0.72500008
0.21473812 -0.1305 0.72500002
0.21807024 -0.13098025 0.72575003
0.22041382 -0.13128048 0.72549999
0.16948161 -0.1292505 0.72833335
0.17286317 -0.12739685 0.727
0.17704526 -0.12563795 0.72616667
0.20935859 -0.12575287 0.72549999
0.21271448 -0.12722304 0.72709095
0.21722442 -0.12880799 0.7281251
0.22091304 -0.12884636 0.72866672
0.17372319 -0.12375747 0.72866672
0.1777256 -0.12234642 0.72814298
0.1820243 -0.12246771 0.7259286
0.18749809 -0.1211762 0.72540003
0.19264287 -0.12083335 0.72500008
0.19540477 -0.12083334 0.72500002
0.20230953 -0.12083335 0.72500008
0.20717208 -0.12260973 0.72644448
0.21133786 -0.12388738 0.72875005
0.18274479 -0.11889937 0.72866672
0.18734185 -0.11865489 0.72781819
0.19182588 -0.11901227 0.72714293
0.19704145 -0.11933477 0.72850007
0.20176002 -0.11994668 0.72800004
0.16045097 -0.15208097 0.73250002
0.16161413 -0.14742969 0.73250002
0.15906858 -0.14147316 0.73320001
0.16112687 -0.14327201 0.7324
0.15853843 -0.13898414 0.73333335
0.16099524 -0.13785622 0.73180002
0.164097 -0.13364875 0.73216671
0.16626716 -0.1307143 0.73199999
0.16805391 -0.12771583 0.73280001
0.1710308 -0.12647462 0.73100007
0.21824613 -0.12660192 0.73120004
0.22154 -0.12679286 0.73150003
0.16940334 -0.1236462 0.73350006
0.17271677 -0.12250596 0.73224998
0.17683239 -0.12044096 0.73100001
0.20760763 -0.12052334 0.73150003
0.21279432 -0.12209363 0.73257154
0.21722025 -0.12375927 0.73233342
0.22161886 -0.12318964 0.73355561
0.17336382 -0.11953715 0.73400003
0.17797934 -0.11855213 0.73285717
0.18247183 -0.11690344 0.7324
0.1870392 -0.1159187 0.73212498
0.1926901 -0.11656135 0.73200005
0.19745515 -0.11661424 0.73175001
0.20250981 -0.11694152 0.73214298
0.20716678 -0.11768105 0.73290008
0.21146193 -0.11918762 0.73400003
0.18384954 -0.11394477 0.73400003
0.18734477 -0.11394477 0.73400003
0.19223809 -0.11394477 0.73400009
0.19743103 -0.11334559 0.73400009
0.20202479 -0.11394477 0.73400009
0.16051811 -0.15070477 0.73600006
0.15868309 -0.14745072 0.73725009
0.16051811 -0.14720002 0.73600006
0.15771429 -0.14229333 0.73600006
0.15825367 -0.13768288 0.73633337
0.16149215 -0.13621502 0.73725003
0.16326764 -0.13256232 0.73757148
0.16433567 -0.12819526 0.73785716
0.16647129 -0.12649034 0.73650002
0.16771513 -0.12306298 0.73837501
0.1710324 -0.12126477 0.73600006
0.21792343 -0.12113456 0.73642862
0.22110002 -0.12072763 0.73700005
0.17267001 -0.11932286 0.73700005
0.17702211 -0.11703181 0.73760003
0.18084572 -0.11565715 0.73600006
0.20888382 -0.11565715 0.73600006
0.21274513 -0.11698227 0.73662502
0.21720222 -0.11790749 0.73766679
0.17834534 -0.11415792 0.73900002
0.18248087 -0.11271769 0.73741668
0.18752313 -0.11166979 0.73745459
0.19251247 -0.11147404 0.73700005
0.19727643 -0.11117596 0.73650002
0.20248771 -0.1114161 0.73670006
0.20721491 -0.11289092 0.737091
0.21170333 -0.11393953 0.7385
0.18791716 -0.10909049 0.73900002
0.19270305 -0.10880896 0.73900002
0.19777051 -0.10909049 0.73900002
0.20128953 -0.10909048 0.73900002
0.15716192 -0.14729524 0.74000001
0.15716192 -0.14377144 0.74000001
0.15939844 -0.13632351 0.74166673
0.16052145 -0.13577096 0.74250007
0.15850669 -0.13303238 0.74300003
0.16133633 -0.1322118 0.74137509
0.16222361 -0.12737769 0.74166673
0.16429955 -0.12366524 0.74200004
0.16731797 -0.12173103 0.74128586
0.16912097 -0.11958763 0.74300003
0.17228961 -0.11744866 0.74141669
0.17402762 -0.11351981 0.74220008
0.17730279 -0.11215264 0.74063635
0.18182859 -0.11064763 0.74000001
0.20860954 -0.11064763 0.74000001
0.21319665 -0.11259763 0.74125004
0.21774547 -0.1132592 0.74128574
0.17819953 -0.10960715 0.74250007
0.18260953 -0.10862287 0.74222231
0.18729602 -0.10712572 0.741
0.19212048 -0.10629363 0.74110001
0.1975285 -0.10675498 0.7414546
0.20250297 -0.10697287 0.74190009
0.2072804 -0.10823049 0.74180001
0.2108705 -0.10897334 0.74300003
0.1889343 -0.10402001 0.74300003
0.19247238 -0.10402001 0.74300003
0.15898001 -0.13102254 0.74633336
0.15914571 -0.12859525 0.74600005
0.16075221 -0.12692402 0.74620003
0.16261742 -0.12252945 0.74681824
0.16554096 -0.12078001 0.74600005
0.16456001 -0.11825524 0.74800003
0.16759321 -0.11783436 0.74638474
0.170674 -0.1162289 0.74566674
0.21983144 -0.11596286 0.74700004
0.2212543 -0.11596286 0.74700004
0.16828415 -0.11416732 0.74766672
0.1720963 -0.11278582 0.74670005
0.17548764 -0.11083335 0.74600005
0.21414001 -0.11027144 0.74700004
0.21718873 -0.11128667 0.74700004
0.17789558 -0.10773207 0.74666679
0.18251018 -0.10652319 0.74566674
0.18589525 -0.10571905 0.74500006
0.20718096 -0.10571905 0.74500006
0.21275358 -0.10717525 0.74650002
0.21585144 -0.10899429 0.74800003
0.17880763 -0.10472 0.74800003
0.18278119 -0.10375976 0.74750006
0.18730065 -0.10316012 0.74588901
0.19240922 -0.10249081 0.74733347
0.19759971 -0.10377462 0.74633336
0.2022144 -0.10301387 0.74690914
0.20706502 -0.10362002 0.74650007
0.21015239 -0.10329524 0.74800003
0.15992287 -0.12334858 0.75300002
0.16128573 -0.12194858 0.75100005
0.16329081 -0.11817049 0.75200003
0.1656962 -0.11562954 0.75100005
0.16782604 -0.11244128 0.75200009
0.17189953 -0.11114524 0.75050008
0.22216669 -0.11180048 0.75250006
0.16940956 -0.10919621 0.75266671
0.17279051 -0.10788591 0.75220007
0.17582683 -0.10687858 0.75150007
0.21856277 -0.10757059 0.75133336
0.22205316 -0.10851829 0.75260001
0.17426573 -0.10398572 0.75300002
0.17798573 -0.10319461 0.75188893
0.18203001 -0.10184309 0.75174999
0.18729906 -0.10116114 0.75120008
0.19250003 -0.10107143 0.75000006
0.19767512 -0.10144164 0.75085717
0.20250097 -0.10089334 0.75133342
0.20747524 -0.1014081 0.75250006
0.21012287 -0.10255144 0.75300002
0.18287145 -0.09968286 0.75300002
0.1877251 -0.099116519 0.75233334
0.19247088 -0.098169729 0.75240004
0.19734381 -0.098312967 0.75239998
0.20175621 -0.098726675 0.75300002
0.15867469 -0.12344573 0.75800002
0.16117382 -0.12087953 0.75550008
0.1636543 -0.11703589 0.75699997
0.1643762 -0.11463144 0.75700003
0.16606383 -0.11150001 0.75671428
0.16777071 -0.10771058 0.75677776
0.17149287 -0.10605954 0.75500005
0.21384001 -0.10584 0.75600004
0.21801525 -0.10612001 0.75800002
0.22018097 -0.10612001 0.75800002
0.16892573 -0.10467619 0.75800002
0.17278786 -0.10325514 0.75699997
0.17653199 -0.10118396 0.75657147
0.20880002 -0.10008001 0.75600004
0.21268098 -0.1023743 0.75699997
0.21693239 -0.10431524 0.75800002
0.22018097 -0.10395429 0.75800002
0.17874573 -0.098821536 0.75740004
0.18251991 -0.097813047 0.75630003
0.18711919 -0.096719369 0.75600004
0.19237469 -0.095971622 0.75540012
0.19773811 -0.09563335 0.75500005
0.20306642 -0.096956745 0.75571436
0.20681083 -0.09763895 0.756625
0.21055558 -0.098419689 0.75800008
0.18408573 -0.094569527 0.75800002
0.18769525 -0.094569527 0.75800002
0.19290467 -0.093826003 0.75700003
0.19781226 -0.093601912 0.75685716
0.20171557 -0.094005093 0.7573334
0.15789381 -0.12530145 0.76050007
0.14838096 -0.1208762 0.76000005
0.15002573 -0.12103525 0.76100004
0.15804929 -0.12179929 0.76125002
0.16079095 -0.12095572 0.76050007
0.14982858 -0.11798096 0.76000005
0.15075049 -0.11958572 0.76100004
0.15820478 -0.11756572 0.76200002
0.16137378 -0.11712961 0.76045465
0.15856811 -0.1128481 0.76200002
0.16225691 -0.11227645 0.7605834
0.15914001 -0.10972667 0.76300001
0.1633205 -0.10888018 0.76216668
0.16616882 -0.10643452 0.76025009
0.21641906 -0.10640001 0.76000005
0.16795962 -0.10309567 0.76157153
0.17157485 -0.10145566 0.76014298
0.21448891 -0.10109207 0.76000011
0.21815513 -0.10192584 0.76037508
0.17296465 -0.09876328 0.76171434
0.17702144 -0.097298339 0.7610001
0.1809524 -0.096266672 0.76000005
0.20918097 -0.096266672 0.76000005
0.21268193 -0.097067498 0.76142859
0.21662621 -0.09905953 0.76200002
0.22018002 -0.099553339 0.76300001
0.17868987 -0.094542548 0.76166672
0.18263759 -0.092696004 0.76160014
0.18754891 -0.091963507 0.76033342
0.19240467 -0.091494195 0.76044452
0.19781731 -0.091299221 0.76083344
0.20292489 -0.092164241 0.76066679
0.20748572 -0.093584538 0.76175004
0.21000668 -0.093740009 0.76300001
0.18384668 -0.089380004 0.76300001
0.18733469 -0.089089334 0.76300001
0.19290872 -0.088723682 0.76271433
0.1966686 -0.088778421 0.76200002
0.20128667 -0.089380004 0.76300001
0.1533065 -0.12208934 0.76580006
0.15615161 -0.12185541 0.76616669
0.15320095 -0.11891238 0.76600003
0.15615097 -0.11747858 0.76616669
0.15682502 -0.11256429 0.76499999
0.15997429 -0.10811049 0.76700002
0.16295239 -0.10769634 0.76628584
0.16538572 -0.10564286 0.76500005
0.16457143 -0.10459429 0.76800001
0.16753572 -0.10219858 0.76650006
0.16975716 -0.099814296 0.76500005
0.17213504 -0.096892275 0.76622224
0.17631429 -0.095442861 0.76500005
0.21420002 -0.095442861 0.76500005
0.21794973 -0.097368389 0.76640004
0.22133429 -0.09861429 0.76700002
0.17424795 -0.09382572 0.7676667
0.17784487 -0.092538372 0.76618189
0.20764288 -0.091071442 0.76500005
0.21268263 -0.09255667 0.76675004
0.21616541 -0.09382572 0.7676667
0.17888699 -0.089809537 0.76666677
0.18254735 -0.08805991 0.76670015
0.1874568 -0.086615369 0.76587498
0.19198431 -0.086419292 0.76575011
0.19759621 -0.086512819 0.76622224
0.20230602 -0.087780796 0.76636368
0.20746414 -0.088587947 0.76733339
0.21138287 -0.089234293 0.76800001
0.18944001 -0.084114291 0.76800001
0.19219813 -0.084041283 0.76733339
0.19666955 -0.08407779 0.7676667
0.16265468 -0.1059381 0.77140003
0.1638024 -0.10269858 0.77300006
0.16663347 -0.10196394 0.77162498
0.16807392 -0.097933166 0.77200001
0.17086668 -0.096066676 0.77000004
0.21926668 -0.096066676 0.77000004
0.22175431 -0.096924767 0.77100003
0.16942255 -0.094396517 0.77233338
0.17224424 -0.092303894 0.77125013
0.17575559 -0.090688899 0.7700001
0.21413335 -0.090200007 0.77000004
0.21824507 -0.092273071 0.77157146
0.22200169 -0.092883095 0.7725001
0.17391114 -0.088549845 0.77266669
0.17754504 -0.088300139 0.77171439
0.18199162 -0.086361527 0.77240002
0.18553334 -0.085800007 0.77000004
0.20460001 -0.085800007 0.77000004
0.20817049 -0.086278096 0.77100003
0.21298955 -0.087917626 0.77250004
0.2171762 -0.089079052 0.77300012
0.22012097 -0.08834286 0.77300006
0.18331145 -0.084661916 0.77300012
0.18772979 -0.083291665 0.77225006
0.19235227 -0.082466267 0.77214301
0.19750479 -0.082302049 0.7725715
0.20199087 -0.082764193 0.7718001
0.20702605 -0.084134609 0.77266669
0.16131809 -0.10582001 0.77700007
0.15950954 -0.10460858 0.77900004
0.16187961 -0.10253458 0.7761429
0.16406763 -0.09977144 0.77600002
0.1660143 -0.096692391 0.77671438
0.16844821 -0.093483247 0.77780002
0.17138001 -0.091254294 0.77900004
0.22142859 -0.090785719 0.77500004
0.17294791 -0.088010482 0.77842867
0.17748477 -0.085784286 0.77649999
0.21358478 -0.08609762 0.77600002
0.21780542 -0.086577468 0.77700013
0.22154287 -0.087429523 0.778
0.1774924 -0.08260943 0.77833337
0.18212226 -0.082243823 0.7768333
0.18680641 -0.081325583 0.77528578
0.1926429 -0.080452383 0.77500004
0.19724098 -0.080521598 0.77566671
0.20265619 -0.080521598 0.77566671
0.20776162 -0.081821591 0.77633333
0.21164003 -0.083618104 0.77700007
0.22034574 -0.083835244 0.77900004
0.18362144 -0.079012856 0.77900004
0.1875944 -0.077854715 0.77855569
0.1919889 -0.077832073 0.77833343
0.19685207 -0.078889214 0.77900004
0.20301907 -0.079281911 0.778
0.20681429 -0.078821272 0.77833337
0.1597143 -0.10177144 0.78000003
0.16161144 -0.10203239 0.78200001
0.16300848 -0.097508356 0.78155559
0.16352001 -0.094826676 0.78400004
0.16656934 -0.092373535 0.78220004
0.17011429 -0.091371432 0.78000003
0.16879573 -0.08868143 0.78250003
0.17144714 -0.087024301 0.78100008
0.17307919 -0.083397016 0.78285718
0.17586033 -0.081606358 0.78133339
0.21304351 -0.081996515 0.7803334
0.21767882 -0.082746908 0.78275001
0.22026668 -0.082133338 0.78400004
0.17799696 -0.078198098 0.78200006
0.18234651 -0.076872215 0.78090924
0.18731858 -0.075076669 0.78049999
0.19240002 -0.075028583 0.78000009
0.19773906 -0.076370589 0.7802223
0.20264976 -0.076643385 0.78133339
0.20748216 -0.076546907 0.78224999
0.21228574 -0.079215251 0.78320009
0.18442668 -0.073920004 0.78400004
0.18763348 -0.07319919 0.78314292
0.19264501 -0.072589293 0.78175002
0.19753018 -0.07230223 0.78266668
0.20194554 -0.073284961 0.78360003
0.15985143 -0.10356572 0.78800005
0.16070335 -0.10137857 0.78850007
0.15985143 -0.099813342 0.78800005
0.16118081 -0.097208425 0.78716671
0.16366714 -0.092506193 0.78650004
0.1654343 -0.091325715 0.78600001
0.16445857 -0.088611916 0.78850007
0.16730955 -0.087360121 0.787
0.16885573 -0.084428102 0.78800005
0.17173333 -0.081330799 0.78666675
0.21783429 -0.080097154 0.78600001
0.22082859 -0.080097146 0.78600001
0.17335907 -0.0780489 0.78800005
0.17713684 -0.076700643 0.78700006
0.2126848 -0.076635882 0.78633332
0.2173266 -0.077275977 0.7877779
0.22101413 -0.077076577 0.78880006
0.17821953 -0.073053099 0.78875005
0.1825311 -0.072508238 0.78636378
0.18789145 -0.071114287 0.78600001
0.19238287 -0.071114287 0.78600001
0.2034962 -0.071579054 0.78700006
0.20770669 -0.072732918 0.78733337
0.21251953 -0.073592864 0.78850007
0.21566002 -0.074391432 0.78900003
0.18275888 -0.069228582 0.78840011
0.18770798 -0.069076315 0.78837508
0.1929543 -0.069072708 0.78833342
0.19750051 -0.069087148 0.78850001
0.20104763 -0.069352388 0.78866673
0.15821892 -0.10170518 0.79271436
0.1586 -0.0989362 0.79300004
0.16066286 -0.096547626 0.79200006
0.16338319 -0.092894301 0.7930001
0.16388668 -0.089873336 0.79300004
0.16648668 -0.085126676 0.79100001
0.1687202 -0.082623057 0.79300004
0.17246191 -0.077363819 0.79250002
0.17552668 -0.07608667 0.79100001
0.1740824 -0.07363572 0.79300004
0.17675494 -0.071906999 0.79200006
0.18004668 -0.070060007 0.79100001
0.20415334 -0.070060007 0.79100001
0.20751715 -0.070178106 0.79233336
0.21230915 -0.07076896 0.79220003
0.21778975 -0.072818942 0.79188895
0.22122893 -0.074077785 0.79100007
0.17899144 -0.068726674 0.79300004
0.18201241 -0.068223186 0.7930001
0.18756543 -0.066627942 0.792
0.19226131 -0.066348575 0.79166669
0.19719253 -0.066448301 0.79157144
0.20265383 -0.066984527 0.79250008
0.20769048 -0.067971431 0.7930001
0.21071145 -0.067971438 0.79300004
0.19296335 -0.063817628 0.79300004
0.19741926 -0.063591056 0.79300004
0.2006416 -0.063691758 0.7930001
0.15521429 -0.10070001 0.79500002
0.15815637 -0.097266518 0.79583335
0.16025953 -0.095699534 0.79750001
0.15884002 -0.093480006 0.79800004
0.16187797 -0.0923125 0.79612505
0.16297221 -0.087181725 0.7974
0.1658143 -0.086314291 0.79500002
0.16309603 -0.084056005 0.79800004
0.16706716 -0.082144611 0.79616678
0.16892155 -0.077857159 0.79680008
0.17083144 -0.07715334 0.79580003
0.16948001 -0.073720008 0.79800004
0.17258459 -0.072339438 0.79620004
0.1764143 -0.07041429 0.79500002
0.21784668 -0.070591435 0.79700011
0.22088288 -0.070591435 0.79700005
0.17404 -0.069160007 0.79800004
0.17788453 -0.067701429 0.79650003
0.18225963 -0.066510297 0.79540008
0.18625715 -0.065871432 0.79500002
0.20745715 -0.065871432 0.79500002
0.2131898 -0.067169391 0.79500002
0.21763064 -0.067555241 0.79700005
0.22088288 -0.069073334 0.79700005
0.18309417 -0.063708305 0.79771435
0.18738003 -0.062964134 0.79655552
0.19213524 -0.0620781 0.796
0.19723572 -0.061707146 0.79500002
0.20291594 -0.062009804 0.79542857
0.20714977 -0.063489765 0.796
0.21294655 -0.063199885 0.79712498
0.21672302 -0.062990762 0.79685724
0.19203906 -0.059964765 0.79700005
0.19747621 -0.05924239 0.79749995
0.20173779 -0.059483178 0.79733342
0.21405143 -0.059205718 0.79700005
0.21632859 -0.059964765 0.79700005
0.15734477 -0.096240014 0.80200005
0.15762192 -0.092057616 0.80050009
0.16076192 -0.091428578 0.80000001
0.1584762 -0.089142866 0.80000001
0.16076192 -0.088380963 0.80000001
0.16264594 -0.081702866 0.80177784
0.16597906 -0.080574602 0.80066669
0.16462858 -0.078102857 0.80400002
0.16718034 -0.077100739 0.80155557
0.16832492 -0.073076472 0.80285716
0.17087907 -0.070945717 0.801
0.17268686 -0.067638099 0.8016001
0.17650795 -0.066793665 0.80000007
0.21866669 -0.06780953 0.80000001
0.2201905 -0.06780953 0.80000001
0.17385495 -0.063729212 0.80299997
0.1776976 -0.062558532 0.80184627
0.18218833 -0.061618339 0.80125004
0.1875443 -0.060228102 0.80049998
0.19123811 -0.06019048 0.80000001
0.20813002 -0.060990006 0.80050004
0.21198554 -0.06098057 0.80240005
0.18300574 -0.058960006 0.80400008
0.18736541 -0.058121592 0.80299997
0.19267897 -0.057778206 0.80177778
0.19758002 -0.056450479 0.80100006
0.20215717 -0.056959055 0.80100006
0.20648667 -0.05888667 0.80300003
0.19424859 -0.054298099 0.80300003
0.19782668 -0.054230481 0.80200005
0.20240955 -0.054230481 0.80200005
0.16286987 -0.077592388 0.80666679
0.16503811 -0.07599429 0.80600005
0.16675049 -0.071902595 0.80685729
0.16927111 -0.068886355 0.80666673
0.17081831 -0.066573717 0.80720007
0.16852573 -0.063870482 0.80800003
0.17244153 -0.062300574 0.80760002
0.17578477 -0.060641907 0.80600005
0.17402476 -0.058691435 0.80733341
0.17751513 -0.057633653 0.806889
0.18228692 -0.057239771 0.80675012
0.1869943 -0.056175243 0.80800003
0.19202238 -0.056070957 0.80650008
0.2049543 -0.056036193 0.80600005
0.20792346 -0.057320006 0.80680007
0.21200383 -0.058483813 0.80800003
0.19214192 -0.054568574 0.80700004
0.16412954 -0.073376194 0.81099999
0.16606191 -0.071058102 0.81100005
0.16827478 -0.066769049 0.81050003
0.1715143 -0.061971433 0.81000012
0.16314065 -0.075993977 0.81700009
0.16614 -0.070980005 0.81900007
0.16702923 -0.067953661 0.81700009
