# .PCD v0.7 - Point Cloud Data file format
VERSION 0.7
FIELDS x y z
SIZE 4 4 4
TYPE F F F
COUNT 1 1 1
WIDTH 953
HEIGHT 1
VIEWPOINT 0 0 0 1 0 0 0
POINTS 953
DATA ascii
0.33250937 -0.2813985 0.75800002
0.33300442 -0.27834591 0.75800002
0.30834892 -0.28218892 0.76300001
0.31230173 -0.28185368 0.7612223
0.31720167 -0.28171661 0.76041675
0.32281905 -0.28156191 0.76000017
0.328125 -0.28176752 0.76055568
0.33078098 -0.28156191 0.76000011
0.312841 -0.27841488 0.76214296
0.31718707 -0.27731028 0.76125002
0.32190245 -0.27758351 0.76172733
0.32784551 -0.27835009 0.76177782
0.33221537 -0.27667651 0.76130009
0.33367622 -0.27432382 0.76000005
0.30724695 -0.28241837 0.76675004
0.31108072 -0.28114024 0.76675004
0.31289718 -0.27763379 0.76685721
0.31595716 -0.27661431 0.76500005
0.32352418 -0.27588224 0.76566672
0.32725948 -0.27632424 0.7664445
0.33094645 -0.27657834 0.76625001
0.31413367 -0.27367908 0.7676667
0.31807795 -0.27347934 0.76669228
0.32193157 -0.27288398 0.76700002
0.32548574 -0.27428573 0.76800001
0.31963432 -0.26989716 0.76800001
0.3218286 -0.26989716 0.76800001
0.30404669 -0.28637812 0.77300006
0.30546194 -0.28563717 0.77100003
0.30404669 -0.28490573 0.77300006
0.30604896 -0.28181848 0.77099997
0.31020001 -0.28086668 0.77000004
0.30365336 -0.27865526 0.77200001
0.30754027 -0.27758276 0.77153856
0.31190878 -0.27712139 0.77060002
0.3337543 -0.27596509 0.7713334
0.33586669 -0.2764667 0.77000004
0.30863196 -0.27405336 0.77250004
0.31267375 -0.27262425 0.7715835
0.31702152 -0.27153856 0.77028579
0.32486671 -0.27206668 0.7700001
0.32788518 -0.2728703 0.77020001
0.3325125 -0.27286851 0.77227283
0.31415004 -0.26927096 0.77250004
0.31714141 -0.26876512 0.77222222
0.32266366 -0.26797628 0.77150017
0.32696909 -0.26745239 0.77149999
0.33033574 -0.26927096 0.77250004
0.30424291 -0.28239524 0.77500004
0.30492288 -0.2789562 0.77900004
0.30670437 -0.27684832 0.77814299
0.33826622 -0.27622527 0.7755
0.34114003 -0.27602002 0.77700001
0.30827275 -0.27271208 0.77788895
0.31088752 -0.27137977 0.77642864
0.3340486 -0.2704905 0.77600002
0.3375904 -0.27232286 0.7767778
0.34120813 -0.27303952 0.77800006
0.3088797 -0.26881686 0.77900004
0.31280041 -0.26781386 0.77730763
0.31733811 -0.26669621 0.77625
0.32321975 -0.26689759 0.77814299
0.32708001 -0.26566002 0.77700001
0.33260953 -0.26775479 0.77825004
0.33522001 -0.26714003 0.77700001
0.3093743 -0.26115048 0.77900004
0.31308383 -0.26263431 0.77900004
0.31753528 -0.26325259 0.77900016
0.32124478 -0.26288161 0.77900004
0.32866383 -0.26486 0.77900004
0.33459908 -0.26486 0.77900004
0.3086324 -0.25669906 0.77900004
0.31160003 -0.25669906 0.77900004
0.31976098 -0.25892478 0.77900004
0.32124478 -0.25892478 0.77900004
0.32668543 -0.25744098 0.77900004
0.30887973 -0.25274223 0.77900004
0.31234199 -0.25224766 0.77900016
0.31704065 -0.25051653 0.77900004
0.32161573 -0.25187668 0.77900004
0.33410448 -0.25101113 0.77900004
0.3365775 -0.25051653 0.77900004
0.3093743 -0.24705431 0.77900004
0.31234193 -0.24705431 0.7790001
0.31746784 -0.24718921 0.7790001
0.32124478 -0.24705431 0.77900004
0.33385718 -0.24705431 0.77900004
0.33645386 -0.24742524 0.77900004
0.3405343 -0.24853811 0.77900004
0.3127659 -0.24260287 0.77900004
0.31636941 -0.24239089 0.77900004
0.3227286 -0.24302681 0.77900004
0.32866383 -0.24408668 0.77900004
0.33237335 -0.24289964 0.7790001
0.31382573 -0.23963526 0.77900004
0.31753525 -0.23963526 0.77900004
0.3242124 -0.23815145 0.77900004
0.32866383 -0.23889336 0.77900004
0.33064228 -0.23914066 0.77900004
0.30397743 -0.27757144 0.78257149
0.3053143 -0.27634287 0.78000003
0.30425048 -0.27442193 0.78300005
0.30617353 -0.27220401 0.78220004
0.33812192 -0.27034858 0.78200006
0.34277093 -0.27159539 0.78314286
0.3457067 -0.27104002 0.78400004
0.30786273 -0.26722199 0.78236371
0.31129274 -0.2661486 0.78133339
0.32391432 -0.26592192 0.78066671
0.32685715 -0.26520002 0.78000003
0.33184576 -0.26592192 0.78066671
0.33794138 -0.26685867 0.78399998
0.3434667 -0.26730669 0.78400004
0.34630403 -0.26656005 0.78400004
0.3033956 -0.26108447 0.7840001
0.30742773 -0.26258463 0.78276938
0.3115232 -0.262454 0.78066671
0.31720003 -0.26074287 0.78000009
0.32324645 -0.26231313 0.78025007
0.3276 -0.26222858 0.78000009
0.33174002 -0.26256478 0.78100002
0.33731493 -0.26300043 0.78377777
0.34228194 -0.26211905 0.78299999
0.34690416 -0.26260254 0.7833333
0.30337527 -0.25716192 0.78266668
0.30729073 -0.25799835 0.78125006
0.31306916 -0.25807866 0.78028578
0.31765276 -0.25813782 0.78111112
0.32277927 -0.2575404 0.78020012
0.32750669 -0.2574403 0.78028578
0.33205715 -0.2577714 0.78000009
0.33725715 -0.25777146 0.78000009
0.3431524 -0.25765038 0.78127283
0.34770185 -0.25806159 0.78288889
0.35093334 -0.25685334 0.78400004
0.30313146 -0.25217494 0.78300011
0.30689585 -0.25220889 0.78066671
0.31776085 -0.25401717 0.78085726
0.32231748 -0.25298417 0.78000009
0.32749981 -0.25249878 0.78030771
0.33192211 -0.25263897 0.78000009
0.3373397 -0.25364447 0.78000009
0.3425183 -0.2525427 0.78183335
0.34670228 -0.25312001 0.7840001
0.30367079 -0.24781826 0.78342861
0.30695122 -0.24715401 0.78184628
0.31868574 -0.24588573 0.78000003
0.32388574 -0.24737144 0.78000009
0.3276 -0.24737146 0.78000009
0.33131433 -0.24737144 0.78000009
0.3382889 -0.24609463 0.78066671
0.34272873 -0.24750429 0.78316677
0.34738672 -0.24696003 0.78399998
0.35018668 -0.24789335 0.78400004
0.30389336 -0.24416001 0.78400004
0.30788079 -0.24264167 0.78200012
0.31125715 -0.24291429 0.78000003
0.31868574 -0.24365716 0.78000003
0.32136005 -0.24232002 0.78000003
0.3274143 -0.24272859 0.78000009
0.33057144 -0.24142858 0.78000003
0.33753526 -0.24226336 0.78150004
0.3412267 -0.24341334 0.78400004
0.34645337 -0.24416001 0.78400004
0.30827495 -0.23881169 0.78333336
0.31254289 -0.23759429 0.78173345
0.31720045 -0.23713951 0.78169239
0.32250467 -0.23776995 0.78133339
0.32737529 -0.23725608 0.78199995
0.33211595 -0.23774101 0.78114295
0.33623129 -0.23901296 0.78280008
0.31850061 -0.23376536 0.78319997
0.32190943 -0.23340766 0.78371435
0.32704002 -0.23370668 0.78400004
0.30270439 -0.27741677 0.78757155
0.30351689 -0.27234203 0.78690004
0.30616572 -0.27023432 0.78600001
0.34284574 -0.27023432 0.78600001
0.30392003 -0.26724005 0.78600001
0.30616575 -0.26724002 0.78600001
0.34269604 -0.26753947 0.78600001
0.34546575 -0.26761431 0.78600001
0.30255526 -0.26258099 0.78700006
0.34209716 -0.26424572 0.78600001
0.34509146 -0.26424572 0.78600001
0.29944003 -0.25666288 0.78800005
0.30114183 -0.25728166 0.7862857
0.34958288 -0.25526288 0.78600001
0.3518286 -0.25526288 0.78600001
0.29693478 -0.25232133 0.78733343
0.300776 -0.25226858 0.78600001
0.34883431 -0.25226858 0.78600001
0.35176247 -0.25223702 0.78657156
0.29687163 -0.24766479 0.78683347
0.30124655 -0.2475633 0.78600001
0.2986342 -0.24334194 0.78757155
0.30247712 -0.24255128 0.78653353
0.30616572 -0.24178858 0.78600001
0.34311268 -0.24205065 0.78685725
0.34654924 -0.24249145 0.78666669
0.29982001 -0.23970573 0.78900003
0.30327454 -0.23789971 0.78800005
0.3068862 -0.23675838 0.78670007
0.31140572 -0.23580001 0.78600001
0.33348858 -0.2361743 0.78600001
0.33784789 -0.2366605 0.78700006
0.34265146 -0.23820287 0.78900003
0.34753576 -0.23933001 0.78900003
0.30432859 -0.2336943 0.78900003
0.30844572 -0.23414859 0.78800005
0.31246239 -0.23317383 0.78725004
0.31721091 -0.23220246 0.78672743
0.32339811 -0.23142552 0.78640002
0.32754192 -0.23160097 0.787
0.33235365 -0.23312603 0.78810006
0.33615786 -0.23361978 0.78875005
0.31929621 -0.22935334 0.78700006
0.32209072 -0.22937791 0.78760004
0.32762289 -0.22918573 0.78900003
0.3015267 -0.27699763 0.79250002
0.30199504 -0.27239954 0.79175001
0.29982954 -0.26508859 0.79300004
0.30224004 -0.26740175 0.79179996
0.29794148 -0.26187885 0.7930001
0.30171004 -0.26329002 0.79100001
0.29404289 -0.25631398 0.79233336
0.29718786 -0.25783563 0.79159993
0.30058002 -0.2599 0.79100001
0.2941705 -0.25268573 0.792
0.29455334 -0.24860001 0.79100001
0.2955521 -0.24625176 0.79233336
0.29756519 -0.24251623 0.79180002
0.29907429 -0.23865527 0.79300004
0.30187389 -0.23725514 0.79157144
0.34352005 -0.23730002 0.79100001
0.34762794 -0.23695472 0.79128575
0.35134923 -0.23749875 0.79166669
0.30379146 -0.23322049 0.79250002
0.30813718 -0.23261335 0.7930001
0.31223252 -0.23193304 0.79211116
0.31640002 -0.23127335 0.79100001
0.33372667 -0.23127335 0.79100001
0.33799559 -0.2322778 0.79100001
0.34197909 -0.2330181 0.79266667
0.34725851 -0.23457697 0.79300004
0.35194099 -0.23487906 0.79300004
0.31291252 -0.22854021 0.79255563
0.3175537 -0.22779271 0.79200017
0.32244307 -0.22704567 0.79154545
0.32746264 -0.22711025 0.79225004
0.33220622 -0.22758907 0.79216671
0.33688915 -0.22893733 0.79185712
0.3224867 -0.22430573 0.7930001
0.32701814 -0.22430573 0.7930001
0.30134195 -0.2770524 0.79700011
0.28956002 -0.27132002 0.79800004
0.29883352 -0.27179167 0.79760009
0.30121589 -0.27238607 0.79666674
0.28834403 -0.26721603 0.79799998
0.29238287 -0.26632574 0.79800004
0.29768389 -0.26774505 0.79681826
0.30058575 -0.26802862 0.79500002
0.28769973 -0.26231897 0.79789996
0.29260916 -0.26193756 0.79720002
0.29603639 -0.26390228 0.79580003
0.28795937 -0.25756803 0.79777777
0.2922782 -0.25739384 0.79630005
0.28804001 -0.25384003 0.79800004
0.29247409 -0.25231951 0.79690909
0.29354033 -0.24749823 0.79688895
0.29526955 -0.24593145 0.79700005
0.29298168 -0.24217948 0.79785717
0.29603526 -0.2420212 0.796
0.29412001 -0.23940001 0.79800004
0.29769775 -0.2384924 0.79700005
0.30105692 -0.23622026 0.79625005
0.3018944 -0.2326809 0.79661542
0.30664289 -0.23214002 0.79500002
0.34370479 -0.23141083 0.79666674
0.34729594 -0.23254147 0.79689997
0.35199851 -0.23289378 0.7972858
0.30383608 -0.22811989 0.7972858
0.30765411 -0.22778596 0.79650003
0.31205311 -0.22636169 0.79625005
0.31575209 -0.22575335 0.79633331
0.33474001 -0.22543716 0.79700005
0.33796701 -0.22679119 0.79642862
0.34182388 -0.22847144 0.79700005
0.30818003 -0.22382002 0.79800004
0.31231633 -0.22264881 0.79788888
0.31734732 -0.22320496 0.79716671
0.32257974 -0.22354057 0.79642862
0.32769945 -0.22317564 0.79760009
0.33231089 -0.22346191 0.79699993
0.33668002 -0.22344002 0.79800004
0.29939431 -0.28101715 0.80400002
0.2981416 -0.27727398 0.80166674
0.3009524 -0.27733335 0.80000001
0.29343814 -0.27166235 0.80028576
0.29667661 -0.27288309 0.80080003
0.29409528 -0.2689524 0.80000001
0.2857143 -0.26209527 0.80000001
0.28419051 -0.25676194 0.80000007
0.2857143 -0.25752383 0.80000001
0.28466415 -0.25260955 0.80133337
0.28712246 -0.25184461 0.80028576
0.29079366 -0.25117463 0.80000007
0.28490096 -0.24976572 0.80200005
0.28771621 -0.2487943 0.80133337
0.29104763 -0.24761906 0.80000007
0.29156142 -0.24291161 0.80171436
0.29377502 -0.23818929 0.80225003
0.29727051 -0.23666546 0.80090916
0.29819953 -0.23262684 0.8021667
0.3009524 -0.23085716 0.80000001
0.34895241 -0.23085716 0.80000001
0.35200003 -0.23085716 0.80000001
0.29939431 -0.22818288 0.80400002
0.30186248 -0.22773185 0.80080014
0.34287661 -0.22639811 0.80039996
0.34740812 -0.22791766 0.8008334
0.35199156 -0.22733845 0.80133337
0.30425018 -0.22277588 0.80200005
0.30704805 -0.22212954 0.80040008
0.31192383 -0.22049527 0.80000001
0.31809527 -0.22057146 0.80000001
0.32250345 -0.22127895 0.80000007
0.32761908 -0.22095241 0.80000007
0.33297983 -0.22102021 0.80080003
0.33794576 -0.22173622 0.80100006
0.34218669 -0.22302954 0.80200005
0.34533715 -0.22282287 0.80400002
0.35238177 -0.22312915 0.80400002
0.30705148 -0.21976003 0.80400008
0.31259573 -0.21853003 0.80299997
0.31756717 -0.21814717 0.80300003
0.32207301 -0.21755686 0.80200005
0.32729048 -0.21787477 0.80200005
0.331907 -0.21846637 0.80299997
0.33614859 -0.21976002 0.80400002
0.28821433 -0.24824764 0.80700004
0.29065526 -0.2471213 0.80666673
0.28886288 -0.24353588 0.80666673
0.29131144 -0.24256763 0.80600005
0.29345974 -0.23758541 0.80733341
0.29553336 -0.23565906 0.80600005
0.29416052 -0.23340526 0.80750006
0.29672545 -0.23151731 0.80685723
0.29829025 -0.22751549 0.80775005
0.30151621 -0.22655927 0.8064
0.34926668 -0.22644763 0.80600005
0.35080191 -0.22644763 0.80600005
0.30266726 -0.22261043 0.80707693
0.33852002 -0.22030668 0.80600005
0.34254441 -0.22083239 0.80680007
0.34809336 -0.2228163 0.80644453
0.35139433 -0.22207622 0.80685729
0.30396193 -0.21931431 0.80800003
0.30781019 -0.21913336 0.80733341
0.31232834 -0.21718788 0.80725008
0.31702667 -0.21608478 0.80600005
0.32214415 -0.21570097 0.80600011
0.32777336 -0.21608478 0.80600005
0.33301678 -0.21652916 0.80680007
0.33721051 -0.21769668 0.8070001
0.34205335 -0.21892956 0.80800003
0.3455162 -0.21931431 0.80800003
0.31832638 -0.21367113 0.80800003
0.32241756 -0.21309982 0.80720007
0.32749984 -0.21397527 0.80760002
0.3324343 -0.21431237 0.80800003
0.33628193 -0.21469715 0.80800003
0.28811738 -0.2475543 0.81280005
0.28774288 -0.24300002 0.81000006
0.29206097 -0.24153653 0.81200004
0.29276767 -0.2379916 0.81171435
0.29317147 -0.23283662 0.8122223
0.29545715 -0.23065716 0.81000006
0.29384094 -0.22880001 0.81300002
0.29617482 -0.22722541 0.81244451
0.29790351 -0.22297569 0.8120001
0.30022022 -0.22203432 0.81120008
0.29846668 -0.21939239 0.81400001
0.3025308 -0.21891896 0.81288898
0.30801469 -0.21813241 0.81220007
0.31180915 -0.21574974 0.81080008
0.3155143 -0.21522859 0.81000006
0.33949336 -0.21576001 0.81200004
0.34284979 -0.21691123 0.81124997
0.34804147 -0.21768525 0.81150001
0.3523719 -0.21740575 0.81015402
0.30932003 -0.21474096 0.81400001
0.31270322 -0.21313994 0.81327283
0.31671 -0.21163082 0.8112728
0.32265574 -0.21073002 0.81050003
0.32837123 -0.21163215 0.81175005
0.33267727 -0.21172695 0.81218195
0.33727834 -0.21230689 0.81300014
0.34174001 -0.21336097 0.8136667
0.35246909 -0.21395859 0.8125
0.31823048 -0.2090562 0.81300008
0.32249388 -0.20825733 0.81345463
0.32610795 -0.20836699 0.81333339
0.33412763 -0.20853907 0.81400001
0.33567813 -0.20853907 0.81400001
0.29022953 -0.24665621 0.81700003
0.28938001 -0.24414001 0.81900007
0.29173318 -0.24277277 0.81860012
0.29217383 -0.23732096 0.81700003
0.28938001 -0.23244001 0.81900007
0.29176256 -0.23232226 0.81766671
0.29266667 -0.22732763 0.81675011
0.2942991 -0.22267002 0.81750005
0.29611668 -0.22237858 0.81500006
0.29406002 -0.21918002 0.81900007
0.29709467 -0.21905163 0.81620008
0.3017236 -0.2164343 0.81600004
0.30659527 -0.21578097 0.81500006
0.34695718 -0.21500477 0.81500006
0.35006192 -0.21500477 0.81500006
0.30354655 -0.21294002 0.81814295
0.3076213 -0.21207303 0.81566679
0.31280482 -0.21034764 0.81500006
0.33919525 -0.21034764 0.81500006
0.34272099 -0.21138287 0.81599998
0.34722409 -0.21261263 0.81700003
0.35210627 -0.2126407 0.81614292
0.30498001 -0.20904002 0.81900007
0.30829871 -0.20758913 0.81730777
0.31265846 -0.20686054 0.81572741
0.31724018 -0.20679934 0.81500012
0.32211909 -0.20569049 0.81500006
0.32832861 -0.20685478 0.81500006
0.33265895 -0.20731498 0.8152858
0.33735994 -0.20686001 0.81700015
0.34214258 -0.20886986 0.81833339
0.34554002 -0.20982002 0.81900007
0.31318051 -0.20385906 0.81700003
0.3175483 -0.20314319 0.81655568
0.32243943 -0.20391488 0.81660002
0.32729432 -0.2036574 0.81775004
0.33257204 -0.20359145 0.81780005
0.33535907 -0.20463906 0.81700003
0.28858605 -0.2428816 0.82266665
0.29071221 -0.24129581 0.82100004
0.28922576 -0.23749432 0.82300007
0.29086861 -0.23691714 0.82100004
0.28817698 -0.23276554 0.82180005
0.29086858 -0.23066191 0.82100004
0.28922576 -0.22808859 0.82300007
0.29145941 -0.2279956 0.82266665
0.2927267 -0.22315308 0.8221429
0.29392859 -0.21868287 0.82300001
0.29762477 -0.21715415 0.82166672
0.30103335 -0.21580574 0.82100004
0.29848552 -0.21293545 0.82260001
0.30179825 -0.2117199 0.82166666
0.3489902 -0.21085367 0.82100004
0.35228574 -0.21137048 0.82200003
0.30296478 -0.20784812 0.82200003
0.30689761 -0.20603192 0.82100004
0.3426137 -0.20650637 0.82133335
0.34755501 -0.20741297 0.82271427
0.3514826 -0.2079335 0.82300007
0.3041181 -0.2045743 0.82300001
0.3077648 -0.20289285 0.82175004
0.31207454 -0.20237906 0.82125008
0.31693208 -0.20147082 0.82100004
0.3229267 -0.20173144 0.82100004
0.32761812 -0.20157507 0.82100004
0.33264914 -0.20213649 0.82128578
0.33735284 -0.20317103 0.82185721
0.34171766 -0.20393382 0.82200003
0.34722766 -0.20457432 0.82300007
0.35036287 -0.20379049 0.82300001
0.31313193 -0.19947954 0.82300001
0.31735718 -0.19824986 0.82277775
0.3219218 -0.19875172 0.82300007
0.3275331 -0.19902691 0.82274997
0.33233526 -0.19987144 0.82300001
0.28835717 -0.24121431 0.82500005
0.28800669 -0.23798726 0.82580012
0.28755334 -0.23158307 0.82539999
0.2882024 -0.2268243 0.82625008
0.28958005 -0.22394511 0.82700008
0.29261646 -0.22202279 0.8276667
0.29454255 -0.21782002 0.82766676
0.29614383 -0.21580763 0.82700002
0.29748741 -0.2123217 0.82800007
0.30008286 -0.21029431 0.82700002
0.29922953 -0.20922382 0.82900006
0.30185264 -0.20734121 0.82700002
0.30341479 -0.20332716 0.82749999
0.30749431 -0.20200439 0.82660007
0.31035715 -0.20035715 0.82500005
0.33761749 -0.20068097 0.8263334
0.34246424 -0.20219867 0.82740003
0.34689122 -0.20304337 0.82875001
0.35133812 -0.20448668 0.82900006
0.30953431 -0.19926763 0.82700002
0.31257516 -0.19807254 0.82671428
0.31710979 -0.19597811 0.82725
0.32292861 -0.1964286 0.82500005
0.32708398 -0.19642957 0.82642859
0.33251908 -0.19673032 0.82718194
0.33701861 -0.1973981 0.82825005
0.34081113 -0.19922321 0.82900012
0.31937146 -0.19398764 0.82800007
0.32282051 -0.1934543 0.82825005
0.32747632 -0.19280243 0.82855558
0.33160001 -0.19264382 0.82900006
0.28831047 -0.22256923 0.83166671
0.29098195 -0.22133622 0.83100003
0.29291621 -0.21843241 0.83200002
0.29520288 -0.21606001 0.83100003
0.29432669 -0.21420002 0.83300006
0.29612097 -0.21214727 0.8318001
0.29890192 -0.20768042 0.83185726
0.30148923 -0.20583653 0.83233345
0.30357888 -0.20254536 0.83140004
0.30733812 -0.20128667 0.83100003
0.34427145 -0.20023145 0.83100003
0.34783289 -0.20062716 0.83100003
0.3523384 -0.20193349 0.83242863
0.30888733 -0.19843844 0.83233345
0.31181622 -0.19668123 0.83128572
0.31578001 -0.19548286 0.83100003
0.33873144 -0.19548286 0.83100003
0.34280643 -0.19713296 0.83128577
0.34770593 -0.19723831 0.83240002
0.35197562 -0.1980689 0.83300006
0.31442448 -0.19383781 0.83300006
0.31794262 -0.19274548 0.83200002
0.32210425 -0.19155104 0.8318001
0.32686001 -0.1907343 0.83100003
0.33319145 -0.19152573 0.83100003
0.33774215 -0.192515 0.83099997
0.34176251 -0.19268668 0.83260012
0.34748 -0.19436668 0.83300006
0.35144669 -0.19357336 0.83300006
0.32368001 -0.18960668 0.83300006
0.32764667 -0.18960668 0.83300006
0.33240405 -0.18878992 0.83220005
0.33677 -0.18921001 0.83300006
0.34034002 -0.18960668 0.83300006
0.28890955 -0.22107239 0.83800006
0.29026192 -0.22028096 0.83500004
0.29182121 -0.21767202 0.83719999
0.29396448 -0.21282509 0.83800006
0.29556352 -0.21126828 0.83500004
0.29484859 -0.20775239 0.83900005
0.29674196 -0.20735632 0.83633333
0.29871291 -0.20295292 0.83788902
0.30181134 -0.20206277 0.83566666
0.29884383 -0.19896287 0.83900005
0.30275744 -0.19758819 0.83657146
0.30718192 -0.19704096 0.83560008
0.31093812 -0.19642383 0.83500004
0.35335082 -0.19748414 0.83500004
0.35547146 -0.19880953 0.83500004
0.30337179 -0.19310319 0.83900011
0.30743775 -0.19256613 0.83760005
0.3122656 -0.19243391 0.83642858
0.31713319 -0.19078915 0.83540004
0.32127622 -0.19006191 0.83500004
0.32843336 -0.19006191 0.83500004
0.34380794 -0.1916524 0.83500004
0.3474496 -0.19162993 0.83560008
0.35149527 -0.19244763 0.83500004
0.3084324 -0.1893743 0.83900005
0.31259754 -0.18864478 0.8386001
0.31782362 -0.18767665 0.8379091
0.32275674 -0.18727842 0.83677775
0.32713383 -0.18735905 0.83624995
0.33224726 -0.18700859 0.83700007
0.33810142 -0.18709865 0.83700013
0.34181812 -0.18773544 0.83740008
0.34758574 -0.1893743 0.83900011
0.35158098 -0.1893743 0.83900005
0.31882003 -0.18458001 0.83900005
0.32236207 -0.18383226 0.83871442
0.3266992 -0.18291909 0.83871442
0.33240381 -0.18378098 0.83900011
0.33693179 -0.18404733 0.83900011
0.28868479 -0.22052382 0.84200001
0.28784353 -0.21748766 0.84266675
0.29151019 -0.21616095 0.8416667
0.2929616 -0.21250477 0.84200001
0.29407239 -0.20821716 0.84250009
0.29555145 -0.20584477 0.84100002
0.29692858 -0.20316288 0.84150004
0.29830831 -0.19726764 0.84200001
0.30059528 -0.19638763 0.8416667
0.30326766 -0.19157812 0.8416667
0.30588859 -0.19027716 0.84300005
0.30805272 -0.18852161 0.84233332
0.31269366 -0.18633324 0.84211111
0.31691021 -0.185554 0.84100002
0.34200668 -0.185554 0.84100002
0.34703052 -0.18815811 0.84250009
0.3524543 -0.18867144 0.84300011
0.31311429 -0.1838543 0.84300005
0.31768417 -0.18259041 0.84211111
0.32310423 -0.18117544 0.84100002
0.32799 -0.18061477 0.84100002
0.33265942 -0.18115811 0.8416667
0.33800349 -0.18169272 0.8416667
0.34174955 -0.18331906 0.84300011
0.32301623 -0.17796668 0.84300011
0.32699227 -0.17811961 0.84300005
0.33211526 -0.17850193 0.84300011
0.33800289 -0.17903715 0.84300005
0.28730002 -0.22130954 0.84500003
0.28782141 -0.21784942 0.84585726
0.28786314 -0.21342453 0.84725004
0.2916517 -0.21243268 0.84628588
0.29371774 -0.20758629 0.84680003
0.29534763 -0.20521429 0.84500003
0.29478097 -0.20352 0.84800005
0.29650193 -0.20223334 0.84600008
0.29724795 -0.19743595 0.84714293
0.29881907 -0.19382858 0.84800005
0.30185166 -0.19230621 0.84575003
0.30339557 -0.18925208 0.84800005
0.30695087 -0.18698846 0.84537506
0.34756407 -0.18646739 0.84575003
0.35248575 -0.18670478 0.84500015
0.30804339 -0.18312323 0.84772736
0.31253129 -0.18179432 0.84650004
0.31664383 -0.18074732 0.84600008
0.32190478 -0.18107145 0.84500003
0.33719525 -0.18107145 0.84500003
0.34353596 -0.18123074 0.84575003
0.34704143 -0.18314342 0.84714293
0.35332426 -0.18319868 0.84740013
0.35616001 -0.18252191 0.84800005
0.31362543 -0.17794542 0.84800005
0.317615 -0.17790158 0.84663647
0.32183644 -0.17698668 0.84600002
0.32800213 -0.17616896 0.84619999
0.33228657 -0.17645743 0.84714293
0.33653158 -0.17763989 0.84687501
0.34081528 -0.17855202 0.84680003
0.28945336 -0.21161589 0.85133338
0.29096097 -0.21072286 0.85100007
0.29227874 -0.20750795 0.85222226
0.29414195 -0.20366764 0.852
0.29535812 -0.20123239 0.852
0.29593799 -0.19763976 0.85200006
0.29853019 -0.19261017 0.85333341
0.30141276 -0.19077781 0.85000008
0.30196732 -0.18751238 0.85233343
0.3051905 -0.18619049 0.85000002
0.30313528 -0.18366987 0.85333341
0.30620766 -0.18161717 0.85133338
0.34890479 -0.18133335 0.85000002
0.35229242 -0.18195778 0.85166669
0.30791336 -0.17800954 0.85250008
0.31200874 -0.17701823 0.85044444
0.31814289 -0.17566667 0.85000002
0.32461905 -0.17566667 0.85000002
0.32623813 -0.17566667 0.85000002
0.33838099 -0.17566667 0.85000002
0.34355813 -0.17737678 0.85200006
0.3466419 -0.17778401 0.85240012
0.30988002 -0.17486668 0.85400003
0.31299001 -0.17415287 0.85250002
0.31758779 -0.17347132 0.85285723
0.32284534 -0.1732834 0.85244453
0.32749644 -0.17278215 0.85275006
0.33222097 -0.17301334 0.852889
0.3373619 -0.17341948 0.85311121
0.34241337 -0.17486668 0.85400003
0.33346668 -0.16998668 0.85400003
0.33590668 -0.16998668 0.85400003
0.29104003 -0.2070705 0.85600007
0.29342997 -0.2027301 0.85685718
0.2949886 -0.19856572 0.85800004
0.29593146 -0.19647239 0.85600007
0.29686019 -0.19306515 0.85680008
0.29863787 -0.18766834 0.85675001
0.30082288 -0.18505906 0.85600007
0.29989144 -0.18304002 0.85800004
0.30268827 -0.18166731 0.85666674
0.30571431 -0.18016763 0.85600007
0.35327309 -0.18030795 0.85666674
0.35625908 -0.18016763 0.85600007
0.30424955 -0.17840955 0.85800004
0.3070187 -0.17658059 0.85600007
0.34484574 -0.1752762 0.85600007
0.34837779 -0.17649969 0.85666674
0.31300002 -0.17323545 0.85720009
0.31749907 -0.17139906 0.85700005
0.32184345 -0.17111658 0.85640013
0.3269105 -0.17038479 0.85600013
0.33098668 -0.17038478 0.85600007
0.33941084 -0.17092827 0.85600013
0.34272271 -0.17274706 0.85640013
0.34728575 -0.17405143 0.85800004
0.32318002 -0.16874 0.85800004
0.32768717 -0.16762002 0.85749996
0.33231872 -0.16738287 0.8573333
0.3367976 -0.1677565 0.85685718
0.34074861 -0.16914858 0.85800004
0.33421144 -0.16424572 0.85800004
0.33584574 -0.16424572 0.85800004
0.29076192 -0.20640001 0.86000001
0.2897962 -0.2035962 0.86200005
0.29246575 -0.20254001 0.86100006
0.29472193 -0.19949144 0.86200005
0.29636383 -0.19702858 0.86200005
0.29660144 -0.19240239 0.86150002
0.2969341 -0.18806478 0.86080009
0.29859495 -0.18293017 0.86133337
0.30140954 -0.18100953 0.86000001
0.29964763 -0.17978859 0.86200005
0.30262914 -0.17796956 0.86114287
0.30632383 -0.17609525 0.86000001
0.35301018 -0.1778705 0.86066669
0.35656387 -0.17800763 0.86133337
0.30457336 -0.17486286 0.86200005
0.30816573 -0.17363302 0.86133337
0.31163147 -0.17233938 0.86033338
0.31615239 -0.17118096 0.86000001
0.34481907 -0.17200002 0.86000001
0.34809145 -0.17265144 0.86080009
0.35218859 -0.17431557 0.86200011
0.313768 -0.16862363 0.86200011
0.31763643 -0.16835311 0.86125004
0.32202098 -0.16674781 0.86080009
0.32596001 -0.16584827 0.86066675
0.33908576 -0.16626668 0.86000001
0.34265453 -0.16671215 0.86125004
0.3465592 -0.16829525 0.86200011
0.32263434 -0.16336954 0.86200011
0.32770234 -0.16320601 0.86114293
0.33229268 -0.16282876 0.86072743
0.33751452 -0.16178329 0.86133337
0.3415162 -0.16254859 0.86200005
0.28915715 -0.20100954 0.86500007
0.29212284 -0.20084479 0.86500007
0.29337403 -0.19814385 0.86842859
0.29601762 -0.19734478 0.86700004
0.29412988 -0.19323908 0.86833334
0.29563257 -0.19230267 0.86660004
0.29647684 -0.18729368 0.86633337
0.2974135 -0.18212615 0.86642867
0.29890764 -0.17835334 0.86700004
0.30169353 -0.17658682 0.8658573
0.35753334 -0.17547144 0.86500007
0.30305931 -0.17344287 0.86825001
0.30720246 -0.17207333 0.86633348
0.3114 -0.17052858 0.86500007
0.35275528 -0.17184667 0.86500007
0.35650361 -0.17238215 0.86500013
0.30822715 -0.16848238 0.86825001
0.3125574 -0.16731644 0.86650008
0.31716669 -0.16599762 0.86500007
0.32046193 -0.16558573 0.86500007
0.34847146 -0.16640954 0.86500007
0.35194826 -0.16731884 0.86544454
0.35560924 -0.16748986 0.86633343
0.31286043 -0.16428936 0.86860001
0.31729743 -0.16251421 0.8670001
0.3218742 -0.16181974 0.86500013
0.32672289 -0.1613019 0.86500007
0.33117145 -0.16064286 0.86500007
0.33529049 -0.16064286 0.86500007
0.34270477 -0.16064286 0.86500007
0.34709111 -0.16241428 0.86566681
0.35156074 -0.16249643 0.86500013
0.35588288 -0.16431716 0.86700004
0.31844905 -0.15922478 0.86849999
0.32231906 -0.15759265 0.8671819
0.327557 -0.15758848 0.86633343
0.33246002 -0.15787002 0.86675
0.33716545 -0.15770891 0.8670001
0.34184432 -0.15770859 0.8670001
0.34719905 -0.15871905 0.86800003
0.35094288 -0.15899526 0.86500007
0.32359907 -0.15476477 0.86900002
0.32773715 -0.15476477 0.86900002
0.33022001 -0.15476477 0.86900002
0.28850573 -0.19538572 0.87300003
0.29188448 -0.19689748 0.87233341
0.29282656 -0.19288342 0.87242866
0.29357192 -0.18893287 0.87200004
0.2958124 -0.18733875 0.87166679
0.29448098 -0.18498382 0.87100005
0.2964794 -0.18242733 0.8720001
0.29809105 -0.17686246 0.87185729
0.29872668 -0.17242192 0.87250006
0.30170384 -0.17118739 0.87150013
0.29848287 -0.16878001 0.87300003
0.30234575 -0.16745748 0.871889
0.30721861 -0.16615954 0.87125015
0.30748457 -0.1625582 0.87233341
0.31233579 -0.16147016 0.87144458
0.31604859 -0.16009811 0.87100005
0.31249684 -0.15818796 0.87266678
0.31747714 -0.15675482 0.871889
0.32185525 -0.15512097 0.87100005
0.32600287 -0.15512097 0.87100005
0.33346859 -0.15512097 0.87100005
0.3371743 -0.15529907 0.87200004
0.34171718 -0.15547715 0.87300003
0.34644097 -0.15646574 0.87233341
0.35170025 -0.1568412 0.87250006
0.31843716 -0.1538143 0.87300003
0.32203859 -0.15355001 0.87150002
0.32786006 -0.15326002 0.87300003
0.33174002 -0.1538143 0.87300003
0.33672857 -0.1538143 0.87300003
0.3400543 -0.1538143 0.87300003
0.28916669 -0.20083335 0.87500006
0.29083335 -0.20083335 0.87500006
0.28916669 -0.19833335 0.87500006
0.29083335 -0.19833335 0.87500006
0.29216528 -0.19199525 0.87650001
0.29227686 -0.18743557 0.87600005
0.29517525 -0.18647049 0.87800002
0.29263335 -0.18299945 0.87740004
0.2954385 -0.18254212 0.87680006
0.29383478 -0.17947382 0.87650001
0.29603508 -0.1772884 0.87560004
0.29733694 -0.17306596 0.87575001
0.30218238 -0.16611764 0.87650001
0.30345449 -0.16383658 0.87680006
0.30618095 -0.16101716 0.87600005
0.30825394 -0.15871716 0.87620014
0.31192514 -0.1563804 0.87620002
0.31583336 -0.15583335 0.87500006
0.34833336 -0.15583335 0.87500006
0.31321239 -0.15451905 0.87700003
0.31679145 -0.15359478 0.87650001
0.32258892 -0.15211779 0.87600011
0.32739124 -0.15160345 0.87560004
0.33239353 -0.15193677 0.87560004
0.33724242 -0.15192525 0.87650001
0.34228656 -0.15248355 0.87628585
0.34735355 -0.15369183 0.87800008
0.35216793 -0.1538275 0.87714297
0.32728496 -0.14900915 0.87800008
0.33154956 -0.14926001 0.87800002
0.33698481 -0.14967811 0.87800002
0.34032956 -0.14967811 0.87800002
0.29249525 -0.18019049 0.88000005
0.29286414 -0.1770601 0.88111115
0.29584762 -0.176 0.88000005
0.29484001 -0.17220001 0.88200003
0.29727358 -0.17215121 0.88175011
0.2993781 -0.16734955 0.88300008
0.30110413 -0.16690731 0.88066673
0.30232856 -0.16208325 0.8818
0.30590478 -0.1600762 0.88000005
0.30401415 -0.15747267 0.8828572
0.30763263 -0.15664692 0.88075006
0.31093335 -0.15504763 0.88000005
0.30907303 -0.15327494 0.88266671
0.31219789 -0.15203789 0.88200009
0.31729165 -0.15132678 0.88111115
0.32233146 -0.15068953 0.88000005
0.34361908 -0.15001906 0.88000005
0.34763241 -0.15109296 0.88040012
0.35226604 -0.15097082 0.88066673
0.35532004 -0.15036 0.88200003
0.313357 -0.14767011 0.884
0.31701526 -0.14716725 0.88199997
0.32212004 -0.14679885 0.88080007
0.3272762 -0.14708573 0.88000005
0.33312926 -0.14700097 0.88033342
0.33786207 -0.14719266 0.88028586
0.34252527 -0.14691477 0.88150001
0.34725824 -0.14714287 0.8828572
0.35249147 -0.14806287 0.88333338
0.3140305 -0.14396572 0.88400006
0.31746003 -0.14338192 0.88300002
0.32222968 -0.14266139 0.88288891
0.3273699 -0.14302635 0.88200009
0.33206946 -0.14311367 0.88222218
0.33705825 -0.14325091 0.88257152
0.34223431 -0.14354476 0.88400006
0.34602287 -0.14396572 0.88400006
0.29210001 -0.17526001 0.88900006
0.29352781 -0.17256345 0.88819999
0.29639274 -0.17061558 0.88833332
0.2929467 -0.16848668 0.88900006
0.29714763 -0.16701829 0.88840002
0.29861978 -0.16263382 0.88824999
0.30107334 -0.16068476 0.88800001
0.30187035 -0.15763934 0.8878572
0.30378145 -0.15442953 0.88849998
0.30742764 -0.15304857 0.8878572
0.31002763 -0.15121239 0.88700002
0.30903336 -0.14986001 0.88900006
0.31166857 -0.14794509 0.8876667
0.35279655 -0.14636351 0.88833344
0.31314892 -0.1430324 0.88866663
0.31702322 -0.14202605 0.8876667
0.32016477 -0.14107525 0.88700002
0.32607812 -0.14107525 0.88700002
0.33368099 -0.14107525 0.88700002
0.33706006 -0.14107525 0.88700002
0.34274477 -0.14157715 0.88750005
0.34758863 -0.14264289 0.88800001
0.3513667 -0.14478001 0.88900006
0.31411335 -0.13970001 0.88900006
0.31750003 -0.13970001 0.88900006
0.32233813 -0.13959526 0.88833344
0.32741305 -0.13959526 0.88833332
0.33287555 -0.13844559 0.88871437
0.33747014 -0.1384456 0.88871437
0.34177113 -0.13913557 0.88900012
0.29324812 -0.16659954 0.8925001
0.29341242 -0.16414192 0.89300007
0.29668918 -0.16150744 0.89160007
0.2987625 -0.1574547 0.89228582
0.30124289 -0.15528858 0.89100003
0.30259863 -0.15299955 0.8925001
0.30659074 -0.15074787 0.89175004
0.30818668 -0.14734478 0.89200002
0.31142575 -0.1459543 0.89100003
0.35504574 -0.1455943 0.89400005
0.30939859 -0.14280002 0.89250004
0.3116343 -0.14112687 0.89160007
0.3182143 -0.14001429 0.89100003
0.34745717 -0.14017144 0.89200008
0.35190147 -0.14280143 0.89250004
0.31348646 -0.13824072 0.89325005
0.31892669 -0.13862763 0.89300007
0.32222572 -0.13688125 0.89271438
0.3274321 -0.13692541 0.89299995
0.33136716 -0.1370443 0.89100003
0.33858001 -0.13662001 0.89100003
0.34680146 -0.13855001 0.89250004
0.2916362 -0.16506097 0.89800006
0.29312763 -0.16322923 0.89733338
0.29558194 -0.16146001 0.89700007
0.2972905 -0.15804382 0.89700001
0.29899907 -0.15462571 0.89700007
0.30284289 -0.1516362 0.89700007
0.30386716 -0.14830048 0.89750004
0.30627736 -0.14673373 0.89680004
0.30771267 -0.1429328 0.89714295
0.2937943 -0.16150001 0.90200007
0.29604289 -0.16046382 0.90100002
0.29706526 -0.15711859 0.90150005
0.30145812 -0.15201774 0.9018001
0.30284449 -0.14684351 0.90166676
0.29655433 -0.15755764 0.90650004
0.29871193 -0.15453668 0.90650004
0.30043858 -0.15194668 0.90650004
0.29726669 -0.15513334 0.91000003
