# .PCD v0.7 - Point Cloud Data file format
VERSION 0.7
FIELDS x y z
SIZE 4 4 4
TYPE F F F
COUNT 1 1 1
WIDTH 937
HEIGHT 1
VIEWPOINT 0 0 0 1 0 0 0
POINTS 937
DATA ascii
0.33207622 -0.28154287 0.75800002
0.32991049 -0.27937716 0.75800002
0.33261767 -0.27775288 0.75799996
0.30883336 -0.28267336 0.76300001
0.31239253 -0.28193557 0.76144451
0.31713215 -0.28165454 0.76025009
0.32281905 -0.28156191 0.76000017
0.32822084 -0.28184986 0.76077789
0.33078098 -0.28228572 0.76000005
0.31349131 -0.27841622 0.76271433
0.31748676 -0.27790928 0.76110005
0.32267705 -0.27826303 0.76137507
0.32802194 -0.27867338 0.76200008
0.33177036 -0.27716112 0.76116675
0.33367622 -0.27432382 0.76000005
0.30708852 -0.28207603 0.7668125
0.31115526 -0.28147459 0.76633334
0.31262553 -0.27772805 0.76660001
0.31769049 -0.27636859 0.76566672
0.32335162 -0.27667129 0.76583338
0.3272754 -0.27689657 0.76662499
0.33096001 -0.27746099 0.76600003
0.31368026 -0.27383074 0.76775002
0.31767336 -0.27370936 0.76680011
0.32163927 -0.27370632 0.76720005
0.31890288 -0.26989716 0.76800001
0.32109717 -0.26989716 0.76800001
0.30399334 -0.28563717 0.77100003
0.30325907 -0.28233337 0.77099997
0.30534923 -0.28184319 0.7713334
0.30404669 -0.2790162 0.77300006
0.30747294 -0.27776414 0.77157152
0.31160977 -0.27719411 0.77066672
0.3292667 -0.2764667 0.77000004
0.33245787 -0.27660996 0.77157146
0.33586669 -0.27793336 0.77000004
0.30859834 -0.27386805 0.77260005
0.31259558 -0.2720165 0.77146161
0.31740499 -0.2716206 0.77040005
0.32358333 -0.27225003 0.77000004
0.32717311 -0.27288789 0.77025002
0.33150449 -0.27280584 0.77255565
0.31338859 -0.26863965 0.77280003
0.3175343 -0.26858991 0.77227277
0.3227514 -0.26783472 0.77225006
0.32727847 -0.26788175 0.77254558
0.30335715 -0.28195238 0.77500004
0.30459186 -0.2785286 0.77740008
0.30605316 -0.27617237 0.77660006
0.33724138 -0.27691829 0.77620006
0.34172139 -0.27584019 0.77900004
0.30828211 -0.2723189 0.77700007
0.31076905 -0.27085954 0.77600002
0.33383381 -0.27105477 0.7755
0.33699962 -0.27253568 0.77671438
0.34172139 -0.27316937 0.77900004
0.3088797 -0.26881683 0.77900004
0.31214386 -0.26702446 0.77666664
0.31738096 -0.2664524 0.77500004
0.32186386 -0.265977 0.77620006
0.3281343 -0.26679432 0.77600002
0.33263099 -0.26732409 0.77700001
0.33579525 -0.26759845 0.77833337
0.3093743 -0.26115048 0.77900004
0.31244597 -0.26270089 0.77869248
0.31716803 -0.26272914 0.77735293
0.32287848 -0.2627168 0.77793348
0.32737607 -0.26266402 0.77800006
0.33163145 -0.26426649 0.77900004
0.33608288 -0.26486 0.77900004
0.30878079 -0.25714418 0.77900004
0.3123419 -0.25744095 0.7790001
0.31722021 -0.25763255 0.77883339
0.32291406 -0.25744095 0.77900004
0.32718003 -0.25744095 0.7790001
0.33212605 -0.25694636 0.7790001
0.33735475 -0.25744095 0.77900004
0.30878079 -0.2518025 0.77900004
0.31220704 -0.25244999 0.7790001
0.3177065 -0.25253302 0.77900016
0.3218807 -0.25256559 0.77900004
0.32792193 -0.25298956 0.77900004
0.33237335 -0.25224763 0.77900016
0.33707207 -0.25216523 0.7790001
0.3405343 -0.25002193 0.77900004
0.3093743 -0.24779621 0.77900004
0.31305754 -0.24768861 0.77820003
0.31759113 -0.24712448 0.77883339
0.32230467 -0.24684235 0.77900004
0.32767463 -0.24655971 0.77900004
0.33229095 -0.24738404 0.7790001
0.33765432 -0.24802248 0.77871436
0.34102893 -0.24804351 0.77900004
0.31234196 -0.24260288 0.7790001
0.31753528 -0.24260288 0.77900016
0.32272857 -0.24260285 0.7790001
0.32696807 -0.24302681 0.77900004
0.33014765 -0.24334478 0.77900004
0.31234193 -0.23889336 0.77900004
0.31728795 -0.23889336 0.77900004
0.3227286 -0.23889336 0.77900004
0.32643813 -0.23963526 0.77900004
0.33014765 -0.23889336 0.77900004
0.34259051 -0.28077525 0.78200006
0.30334878 -0.27726194 0.78260005
0.3053143 -0.27560002 0.78000003
0.34259051 -0.27928573 0.78200006
0.30425048 -0.27442193 0.78300005
0.30601659 -0.27251145 0.78180009
0.33874288 -0.27114287 0.78000003
0.34288257 -0.27132383 0.78266668
0.3457067 -0.27104002 0.78400004
0.30796537 -0.26740834 0.78242856
0.33354288 -0.26520002 0.78000003
0.33865002 -0.26794145 0.78150004
0.34272003 -0.26730669 0.78400004
0.34600538 -0.26685867 0.78400004
0.30389336 -0.26133335 0.78400004
0.30743396 -0.26260269 0.78200001
0.3322694 -0.2618041 0.78000009
0.33747387 -0.26297441 0.78222227
0.34242797 -0.26260382 0.78333342
0.34645337 -0.26282668 0.78400004
0.30331096 -0.25785238 0.78250003
0.30659923 -0.25817308 0.78057152
0.3209143 -0.25777143 0.78000003
0.33280003 -0.25925717 0.78000003
0.3375048 -0.25826669 0.78000009
0.34299278 -0.25753021 0.78090924
0.3475779 -0.25830597 0.78275001
0.35018668 -0.25760001 0.78400004
0.29941335 -0.25237334 0.78400004
0.30264249 -0.25248626 0.7825883
0.30701351 -0.25295019 0.78054553
0.31868574 -0.25331432 0.78000003
0.32433146 -0.25212574 0.78000003
0.32685715 -0.25182861 0.78000009
0.33948573 -0.25405717 0.78000003
0.34265274 -0.25246817 0.78044456
0.34779736 -0.25222403 0.78400004
0.35018668 -0.25162667 0.78400004
0.30332524 -0.24792099 0.78350002
0.30715266 -0.24706343 0.78171432
0.31125715 -0.24662858 0.78000003
0.32462859 -0.2481143 0.78000003
0.3273524 -0.24761906 0.78000009
0.33205718 -0.24662858 0.78000003
0.33710241 -0.24567097 0.78049999
0.34274375 -0.24628557 0.78127283
0.34620002 -0.24630821 0.78040004
0.35018668 -0.24864002 0.78400004
0.30314669 -0.24416001 0.78400004
0.30762711 -0.24265811 0.78157151
0.32834288 -0.24142858 0.78000003
0.33293167 -0.24236318 0.78088897
0.33716711 -0.2428524 0.78220004
0.34272003 -0.24416003 0.7840001
0.34670228 -0.24366224 0.7840001
0.3081772 -0.23820148 0.78292304
0.3123351 -0.23660418 0.78236371
0.3173832 -0.2367342 0.78145462
0.32237083 -0.23621671 0.78133345
0.32767242 -0.23697729 0.78153861
0.33202398 -0.2369459 0.78342855
0.33644804 -0.23908269 0.78400004
0.31285337 -0.23370668 0.78400004
0.31776801 -0.2335867 0.78360003
0.32239547 -0.23328803 0.78360003
0.32679114 -0.23320889 0.7840001
0.30187732 -0.27711576 0.78783339
0.30331746 -0.27251744 0.78709102
0.30411288 -0.26740909 0.78650004
0.30632076 -0.26737604 0.78640002
0.30271479 -0.2629793 0.78725004
0.29944003 -0.25666288 0.78800005
0.30092788 -0.25792331 0.78628582
0.34958288 -0.25601146 0.78600001
0.35108003 -0.25601146 0.78600001
0.29737309 -0.25221366 0.78770006
0.30017716 -0.25077143 0.78600001
0.34808573 -0.25226858 0.78600001
0.3516686 -0.25323144 0.78900003
0.29756317 -0.24770208 0.78814298
0.3011753 -0.24727814 0.78600001
0.29919243 -0.24361017 0.78866673
0.30250964 -0.24245766 0.78678584
0.30616572 -0.24178858 0.78600001
0.34250239 -0.24175432 0.7865001
0.3464267 -0.24219748 0.78733337
0.30352327 -0.2382011 0.78837502
0.30665073 -0.23673621 0.78725004
0.33461145 -0.23654859 0.78600001
0.33806181 -0.23673537 0.78662503
0.34284171 -0.23772021 0.78840005
0.34761748 -0.23800097 0.78833342
0.35076889 -0.23659939 0.78866673
0.30827469 -0.23394175 0.78680009
0.31216526 -0.23276573 0.7865001
0.31692678 -0.23196279 0.78670007
0.32321477 -0.23108049 0.78650004
0.32775581 -0.23117322 0.787
0.33209473 -0.2326887 0.78745461
0.3367483 -0.2338454 0.78866673
0.31904671 -0.22960287 0.78700006
0.32217205 -0.22943603 0.78780001
0.32762289 -0.22918573 0.78900003
0.30108669 -0.27693811 0.79233336
0.30303621 -0.2720924 0.79250002
0.29982954 -0.26508859 0.79300004
0.30234003 -0.26765874 0.79166669
0.30510002 -0.26894003 0.79100001
0.29815122 -0.26173198 0.7930001
0.30058002 -0.26291335 0.79100007
0.29404289 -0.25631398 0.79233336
0.29711241 -0.257449 0.79180008
0.30058002 -0.2599 0.79100001
0.2941705 -0.25268573 0.79200006
0.29606003 -0.25387335 0.79100001
0.29455334 -0.24860001 0.79100001
0.29586622 -0.24605192 0.79250002
0.29801735 -0.24248743 0.79220003
0.30058002 -0.24106669 0.79100001
0.29932606 -0.23890701 0.7930001
0.30227882 -0.23741122 0.792
0.34352005 -0.23579335 0.79100001
0.3472867 -0.23579335 0.79100007
0.35030001 -0.23579335 0.79100001
0.30405888 -0.23306648 0.79300004
0.30787939 -0.23317114 0.79233336
0.31228706 -0.23149753 0.79280013
0.31564668 -0.23127335 0.79100001
0.33764404 -0.23187602 0.79100001
0.34164822 -0.23294802 0.79260004
0.34740955 -0.23487906 0.79300004
0.35118574 -0.23487906 0.79300004
0.31380147 -0.22845954 0.79300004
0.31772774 -0.22802456 0.79209095
0.32221869 -0.22707489 0.79159999
0.32724538 -0.2271343 0.79233342
0.33220622 -0.22758907 0.79216671
0.33687097 -0.22866382 0.79175001
0.3224867 -0.22430573 0.7930001
0.32626289 -0.22430573 0.79300004
0.30058268 -0.27660859 0.79660004
0.29860821 -0.27158764 0.79700005
0.30128765 -0.2729252 0.79571432
0.2888 -0.26524001 0.79800004
0.29290399 -0.26584801 0.79800004
0.29761553 -0.26768392 0.7966364
0.30058575 -0.26802862 0.79500002
0.28818464 -0.26196918 0.79787499
0.29265022 -0.26214218 0.79689997
0.29622814 -0.26403049 0.79550004
0.28795937 -0.25756803 0.79777777
0.29234514 -0.25760382 0.79618186
0.28864801 -0.25368804 0.79800004
0.29223555 -0.25202414 0.79666674
0.29283661 -0.24731916 0.79658341
0.29526955 -0.2451724 0.79700005
0.29320535 -0.24265541 0.7972858
0.29603526 -0.2420212 0.79600006
0.29412001 -0.23940001 0.79800004
0.29787824 -0.23811299 0.796875
0.30105692 -0.23622026 0.79625005
0.29868001 -0.23484002 0.79800004
0.30195284 -0.23272589 0.79676932
0.30740005 -0.23244286 0.79500002
0.34374291 -0.23244287 0.79500002
0.34751213 -0.23263443 0.7967
0.35200724 -0.23350631 0.79759997
0.30399963 -0.22894859 0.79760009
0.3077091 -0.2278266 0.79664296
0.31230056 -0.22697031 0.7960909
0.3161248 -0.22591144 0.796
0.33790699 -0.2263173 0.79628575
0.34254476 -0.22899573 0.79750001
0.30881336 -0.22369336 0.79800004
0.31255001 -0.22286999 0.79799998
0.31738028 -0.22322837 0.79725003
0.3223429 -0.22366476 0.79700005
0.32744074 -0.22322857 0.79725003
0.33226588 -0.22336429 0.7968334
0.33657455 -0.22336978 0.79775006
0.29939431 -0.28101715 0.80400002
0.30092573 -0.28101715 0.80400002
0.2940667 -0.27573526 0.80200005
0.298181 -0.27738708 0.8028
0.30017716 -0.27726287 0.80200005
0.28876191 -0.27047622 0.80000001
0.2926448 -0.27176365 0.8002001
0.29682556 -0.27301985 0.80120003
0.28800002 -0.26742858 0.80000001
0.2920635 -0.26844445 0.80000007
0.28622222 -0.26285717 0.80000007
0.28419051 -0.25676191 0.80000007
0.2857143 -0.25752383 0.80000001
0.28419051 -0.2521905 0.80000007
0.28742859 -0.25238097 0.80000007
0.29028574 -0.25066668 0.80000001
0.2888093 -0.24754979 0.80225003
0.29028577 -0.24761908 0.80000007
0.28775546 -0.24303775 0.80400002
0.29128957 -0.24324954 0.80066669
0.29377553 -0.23876217 0.80224997
0.29669747 -0.23676981 0.80085719
0.29836938 -0.23268279 0.80200005
0.3009524 -0.23085716 0.80000001
0.34895241 -0.23085716 0.80000001
0.35306668 -0.23146668 0.80000001
0.29939431 -0.22894859 0.80400002
0.30208796 -0.22780667 0.80133337
0.30552384 -0.22628573 0.80000001
0.34311113 -0.22679365 0.80000007
0.34762543 -0.22805971 0.80133337
0.35259661 -0.22741945 0.80240005
0.3041482 -0.22318287 0.80200005
0.30698463 -0.22232494 0.8008334
0.31187305 -0.22069845 0.80000007
0.31809527 -0.22057144 0.80000001
0.32250345 -0.22127892 0.80000007
0.32772794 -0.22084355 0.80000007
0.33295241 -0.22057144 0.80000001
0.33752382 -0.22146033 0.80000007
0.34242544 -0.22293651 0.80166674
0.3468686 -0.2243543 0.80400002
0.35222858 -0.22358859 0.80400002
0.30766252 -0.21923506 0.80319995
0.31249785 -0.21827026 0.80275005
0.31728536 -0.21783622 0.80200005
0.32233647 -0.21710305 0.80246156
0.32739264 -0.21794263 0.80224997
0.33217472 -0.21835376 0.80285722
0.3364962 -0.21948668 0.80300003
0.28785717 -0.25177908 0.80600005
0.28785717 -0.24794099 0.80600011
0.28781909 -0.24271303 0.80733341
0.29135269 -0.24197036 0.80657154
0.29320535 -0.23785448 0.80720007
0.29630098 -0.23565906 0.80600005
0.29382023 -0.23324195 0.80720007
0.2966767 -0.23157954 0.80650008
0.29819763 -0.2274448 0.80750006
0.30120918 -0.22655927 0.8064
0.34926668 -0.22644763 0.80600005
0.35080191 -0.22644763 0.80600005
0.29934478 -0.22393145 0.80800003
0.30266729 -0.22261041 0.80707693
0.34235811 -0.22030668 0.80600005
0.34813857 -0.22236237 0.80650014
0.35194498 -0.22185355 0.80666679
0.30396193 -0.21931431 0.80800003
0.30765715 -0.2184823 0.80720007
0.31242427 -0.21666481 0.80714291
0.31728765 -0.21587938 0.80666673
0.32009718 -0.21570097 0.80600005
0.32777336 -0.21608478 0.80600005
0.33301681 -0.21652916 0.80680001
0.33734316 -0.21746613 0.80685729
0.34184241 -0.21879384 0.80750006
0.34705526 -0.21931431 0.80800003
0.31473526 -0.21469715 0.80800003
0.31832638 -0.21367113 0.80800003
0.32233772 -0.21304706 0.8070001
0.32754606 -0.21375048 0.80733341
0.3322804 -0.21408156 0.80800003
0.33628193 -0.21469715 0.80800003
0.28774288 -0.25148574 0.81000006
0.28797528 -0.24805145 0.81240004
0.29224169 -0.23757932 0.81125003
0.29298836 -0.2326512 0.81225008
0.29545715 -0.23065716 0.81000006
0.29383585 -0.22815888 0.8132
0.29609376 -0.22716255 0.81222224
0.29798543 -0.22303684 0.8122223
0.30025381 -0.22142144 0.81150007
0.30267468 -0.2188046 0.81239998
0.30787978 -0.21717785 0.81225008
0.31204003 -0.2154943 0.81099999
0.33865717 -0.21522859 0.81000006
0.34284979 -0.2169112 0.81125009
0.34806898 -0.21758549 0.8120001
0.35237193 -0.21740575 0.81015402
0.30854478 -0.21474096 0.81400001
0.3128092 -0.21292797 0.81300014
0.31682879 -0.21162991 0.81099999
0.32245716 -0.21060002 0.81000006
0.32810861 -0.21126397 0.81171435
0.33269489 -0.21153031 0.81240004
0.33719507 -0.21225412 0.81280005
0.34188002 -0.21396574 0.81400001
0.35329938 -0.21378574 0.81233346
0.31823048 -0.2090562 0.81300002
0.32232043 -0.20853928 0.81333339
0.32610795 -0.20836699 0.81333339
0.33567813 -0.20853907 0.81400001
0.29250002 -0.24258003 0.81900012
0.29178572 -0.23732287 0.81700003
0.29217383 -0.23226334 0.81700003
0.29245102 -0.22753567 0.81700009
0.2942391 -0.22340319 0.81733334
0.29609019 -0.22174257 0.8160001
0.29842192 -0.21915334 0.81600004
0.30192697 -0.21626492 0.81557149
0.30581906 -0.21616906 0.81500006
0.34695718 -0.21500477 0.81500006
0.35006192 -0.21500477 0.81500006
0.30390915 -0.2129385 0.81780005
0.30755892 -0.21202938 0.81550014
0.31280479 -0.21034764 0.81500006
0.33919525 -0.21034764 0.81500006
0.34272069 -0.21190003 0.8160001
0.34738365 -0.21247567 0.8172223
0.35186043 -0.21236055 0.81677783
0.30498001 -0.20904002 0.81900007
0.30839992 -0.20788844 0.81754559
0.31247526 -0.2068051 0.81583345
0.31724018 -0.20679934 0.81500012
0.32211906 -0.20607859 0.81500006
0.32784715 -0.20711191 0.81525004
0.33273941 -0.20741113 0.81566668
0.33746442 -0.20678736 0.81671441
0.34182191 -0.20930192 0.81850004
0.34866002 -0.20982002 0.81900007
0.35126004 -0.20930003 0.81900012
0.31318051 -0.20385906 0.81700003
0.31765717 -0.20334575 0.81650007
0.32259756 -0.20401506 0.81700003
0.32747608 -0.20396234 0.81785721
0.33329716 -0.20324668 0.81766677
0.33631071 -0.20359221 0.81780005
0.28852287 -0.24630001 0.82100004
0.29008669 -0.24630001 0.82100004
0.28858605 -0.2428816 0.82266665
0.29095694 -0.24246359 0.82125002
0.28922576 -0.23749432 0.82300007
0.29160863 -0.23747146 0.8221429
0.28875718 -0.23241304 0.82166672
0.29086861 -0.23222572 0.82100004
0.28922573 -0.22887239 0.82300001
0.29157719 -0.2280886 0.82300007
0.29349929 -0.22274649 0.82180005
0.29477811 -0.21971525 0.82100004
0.29769298 -0.21747321 0.82207698
0.30142429 -0.21619669 0.82100004
0.29823953 -0.2128043 0.82300001
0.30186766 -0.21194141 0.82172734
0.34716573 -0.21033239 0.82100004
0.30283165 -0.20783274 0.82211113
0.30697584 -0.20626651 0.82100004
0.34337571 -0.20727636 0.82128578
0.34758765 -0.20745574 0.82200003
0.35113239 -0.2072943 0.82260001
0.3041181 -0.2045743 0.82300001
0.30804548 -0.20307834 0.82249999
0.31216955 -0.20244025 0.82150006
0.31711829 -0.20161976 0.82100004
0.3229267 -0.20173144 0.82100004
0.32761812 -0.20173144 0.82100004
0.33250502 -0.20231786 0.82100004
0.33819336 -0.20197621 0.82200003
0.34187907 -0.20374839 0.8222
0.34722766 -0.20457432 0.82300007
0.35036287 -0.2045743 0.82300001
0.31313193 -0.19947954 0.82300001
0.31710875 -0.19868234 0.82271439
0.32201463 -0.19900668 0.82266665
0.32763237 -0.19908762 0.82300001
0.33311909 -0.19987145 0.82300007
0.3362543 -0.19987144 0.82300001
0.28905621 -0.24101144 0.82700002
0.28824934 -0.23750381 0.82740003
0.28735852 -0.23243602 0.82620001
0.2880615 -0.22727334 0.82716668
0.29150003 -0.22550002 0.82500005
0.28940573 -0.22395335 0.82800007
0.29263461 -0.22260775 0.82700002
0.29456764 -0.21816859 0.82700002
0.29614383 -0.21580765 0.82700002
0.29721764 -0.2121295 0.82725012
0.29929334 -0.20950478 0.82700002
0.30155227 -0.20707227 0.8267144
0.30319589 -0.20326954 0.82833338
0.306961 -0.20234312 0.8275001
0.31035715 -0.20035715 0.82500005
0.33946383 -0.20084287 0.82700002
0.34230003 -0.20178726 0.82700008
0.3470383 -0.20299228 0.82842863
0.35133812 -0.20448668 0.82900006
0.30870384 -0.19974954 0.82900006
0.31188825 -0.19810152 0.82740015
0.31741109 -0.19617791 0.82660002
0.32314906 -0.19627173 0.82671428
0.32738575 -0.19611461 0.82699996
0.33259198 -0.19677377 0.82736367
0.33711258 -0.19767009 0.82785726
0.34186384 -0.19974956 0.82900012
0.34502193 -0.19974954 0.82900006
0.31897369 -0.19380288 0.82833338
0.32232669 -0.19371049 0.82850003
0.32765239 -0.19343334 0.82900006
0.28570575 -0.23109716 0.83100003
0.28610146 -0.22674429 0.83100003
0.28865466 -0.22302838 0.83220005
0.29164144 -0.2212043 0.83100003
0.29340935 -0.21827374 0.83220005
0.29520288 -0.21606001 0.83100003
0.29432669 -0.21499334 0.83300006
0.29626307 -0.21224974 0.83220005
0.29914534 -0.20792858 0.83140004
0.30148923 -0.20583653 0.83233345
0.30330628 -0.20254464 0.83214295
0.3068105 -0.20075905 0.83100003
0.34849244 -0.20075905 0.83100003
0.35209677 -0.20179471 0.83185714
0.30757132 -0.19785726 0.83211118
0.31227985 -0.19598763 0.8318001
0.31578001 -0.19548286 0.83100003
0.33794004 -0.19548288 0.83100003
0.34259382 -0.19732238 0.83124995
0.34770593 -0.19723831 0.83240002
0.35144669 -0.19912668 0.83300006
0.31311524 -0.19341779 0.83233345
0.31754646 -0.1923493 0.83200002
0.32236925 -0.19167875 0.83166671
0.32697293 -0.19193049 0.83128577
0.33246619 -0.19235539 0.83116668
0.33784381 -0.19257239 0.83124995
0.34176251 -0.19268668 0.83260012
0.34589335 -0.19436668 0.83300006
0.32447335 -0.18960668 0.83300006
0.33346447 -0.18907779 0.83300006
0.33716667 -0.1896067 0.83300006
0.34034002 -0.18960668 0.83300006
0.28840557 -0.22208326 0.83700001
0.29140478 -0.22054477 0.83600003
0.29232818 -0.21785112 0.83788896
0.29408163 -0.21290922 0.83833337
0.29560763 -0.21205714 0.8355
0.29484859 -0.20855144 0.83900005
0.29740605 -0.20734671 0.83683342
0.29900536 -0.20302138 0.83785731
0.30147576 -0.20185621 0.83585715
0.29964289 -0.19816382 0.83900005
0.30270559 -0.19755429 0.83642858
0.30653241 -0.19586191 0.83599997
0.35324481 -0.19769621 0.83500004
0.35547146 -0.19880953 0.83500004
0.30390447 -0.19363588 0.83900011
0.30768466 -0.1928497 0.83733332
0.31217051 -0.19185869 0.83660001
0.31709146 -0.19057335 0.8355
0.32207143 -0.19006191 0.83500004
0.32763812 -0.19006191 0.83500004
0.33081907 -0.19006191 0.83500004
0.34395337 -0.19188002 0.83600003
0.34760606 -0.19205146 0.83616674
0.35213453 -0.1929159 0.83588886
0.3084324 -0.1893743 0.83900005
0.31283933 -0.18826264 0.83850008
0.31761637 -0.187264 0.83736372
0.32284287 -0.18732858 0.83699995
0.32732907 -0.18747143 0.83674997
0.33226246 -0.18710124 0.83663642
0.3377862 -0.18721478 0.83649999
0.34165469 -0.18764591 0.83700001
0.34678668 -0.1893743 0.83900005
0.3531343 -0.18892287 0.83700001
0.31762147 -0.1841805 0.83900005
0.32201621 -0.18378097 0.83900011
0.32681051 -0.18378097 0.83900011
0.33218589 -0.18312721 0.83900011
0.33693179 -0.18404733 0.83900011
0.28868479 -0.22052382 0.84200001
0.28929621 -0.21864478 0.84300011
0.29131907 -0.21678571 0.84150004
0.29296166 -0.21250479 0.84200001
0.29429907 -0.20849431 0.84200001
0.29555145 -0.20664573 0.84100002
0.29757661 -0.20293012 0.84219998
0.29888672 -0.19858858 0.84250009
0.30035716 -0.19623335 0.84100002
0.30306458 -0.19247906 0.84140009
0.30552572 -0.1908524 0.84200001
0.3080976 -0.1880203 0.84214288
0.31223878 -0.1858328 0.84157151
0.34261143 -0.1855305 0.84150004
0.34747145 -0.18793963 0.84260005
0.35203624 -0.18924861 0.84200001
0.31366763 -0.18370891 0.84233344
0.31714481 -0.18237081 0.84233344
0.32245976 -0.18128406 0.84224999
0.32771873 -0.18108669 0.84133339
0.33239526 -0.18021432 0.84100002
0.33765897 -0.18148097 0.84157145
0.3412143 -0.18305144 0.84300005
0.32295716 -0.17852953 0.84249997
0.32766861 -0.17777978 0.84275001
0.33258763 -0.17852953 0.84249997
0.33800289 -0.17903715 0.84300005
0.28783652 -0.22238255 0.84500003
0.28878665 -0.21779811 0.84700006
0.29051906 -0.21648097 0.84500003
0.29196346 -0.21232778 0.84585726
0.29371887 -0.20758514 0.84680003
0.29534763 -0.20601906 0.84500003
0.29478097 -0.20352 0.84800005
0.2966767 -0.20235382 0.8465001
0.29794836 -0.19789286 0.84725004
0.30098099 -0.19555716 0.84500003
0.29962668 -0.1946362 0.84800005
0.30211884 -0.19247691 0.84650004
0.3023186 -0.18945476 0.84650004
0.30653906 -0.18714398 0.84542865
0.34833783 -0.18665652 0.84600008
0.35283068 -0.18658981 0.84500015
0.30884117 -0.18336859 0.84725004
0.31267658 -0.18165472 0.84636378
0.31718037 -0.18074732 0.84600008
0.34323096 -0.18227859 0.84500003
0.3473925 -0.18264925 0.84710008
0.35320663 -0.18309267 0.84690911
0.31416383 -0.17848381 0.84800005
0.31784785 -0.17794172 0.84619999
0.32219929 -0.17665242 0.84619999
0.32726669 -0.17564915 0.84680003
0.33254147 -0.17622493 0.84750003
0.33671793 -0.17762874 0.8465001
0.34151977 -0.17921738 0.84575003
0.32870096 -0.17363811 0.84800005
0.33031622 -0.17363811 0.84800005
0.28913781 -0.2161105 0.85200012
0.28841716 -0.21226035 0.8506667
0.29121643 -0.21213143 0.85080004
0.29303908 -0.20780542 0.85233343
0.29389113 -0.20277685 0.85166669
0.2954762 -0.20157143 0.85000002
0.2945486 -0.19880001 0.85200006
0.29642999 -0.19694525 0.85100001
0.29825789 -0.19268025 0.85275006
0.3011429 -0.1914524 0.85000002
0.29849336 -0.18950668 0.85400003
0.30226478 -0.18770684 0.8525455
0.30577481 -0.18670431 0.85049999
0.30256003 -0.18381335 0.85400003
0.30630231 -0.18245238 0.85220003
0.31004763 -0.18052383 0.85000002
0.35236621 -0.18186525 0.85250008
0.30827573 -0.1782181 0.85350007
0.31272176 -0.17740332 0.85127288
0.31706351 -0.17620638 0.85000008
0.33757147 -0.17566667 0.85000008
0.34288901 -0.17752247 0.85114294
0.34729335 -0.17892383 0.85266674
0.30988002 -0.17486668 0.85400003
0.31316456 -0.17405219 0.85320008
0.31758776 -0.1734713 0.85285723
0.32312286 -0.17364526 0.8530001
0.32749552 -0.1727812 0.85275006
0.3323282 -0.17248437 0.85257155
0.33683601 -0.17318785 0.85275006
0.34160003 -0.17486668 0.85400003
0.33346668 -0.16998668 0.85400003
0.29219526 -0.20731241 0.85700005
0.29382858 -0.2024143 0.85700005
0.2949886 -0.19856572 0.85800004
0.29593146 -0.19647239 0.85600007
0.29670542 -0.19336192 0.85666674
0.29855865 -0.18734233 0.85685718
0.30082288 -0.1858743 0.85600007
0.29989144 -0.18304002 0.85800004
0.30252218 -0.18151322 0.85685718
0.30571431 -0.18016763 0.85600007
0.35259527 -0.18037811 0.85700005
0.35545716 -0.18058859 0.85800004
0.30397716 -0.17813717 0.85800004
0.30692035 -0.17643146 0.85633343
0.34484574 -0.1752762 0.85600007
0.34728956 -0.17649969 0.85666674
0.31249297 -0.17298973 0.85760003
0.31749907 -0.17139906 0.85699999
0.32226923 -0.17133272 0.85666674
0.3269105 -0.17038479 0.85600013
0.33098668 -0.17038478 0.85600007
0.33832383 -0.17092828 0.85600013
0.34271583 -0.17290857 0.85720009
0.32318002 -0.16874 0.85800004
0.32768717 -0.16762 0.85749996
0.33231872 -0.16738288 0.8573333
0.3365432 -0.16786256 0.85700005
0.33584574 -0.16424572 0.85800004
0.29153335 -0.20628637 0.86066675
0.2897962 -0.20441715 0.86200005
0.2926909 -0.20250589 0.86085725
0.29472193 -0.19949144 0.86200005
0.29602003 -0.19679905 0.86100006
0.29674402 -0.19241716 0.86120003
0.2969341 -0.18806478 0.86080009
0.29859495 -0.18293017 0.86133337
0.30059049 -0.18100953 0.86000001
0.29964763 -0.17978859 0.86200005
0.30230638 -0.17793939 0.86100006
0.30550477 -0.17609525 0.86000001
0.34973335 -0.17609525 0.86000001
0.35289282 -0.17814343 0.86085719
0.35629082 -0.17855494 0.86133337
0.30457336 -0.17486286 0.86200005
0.30816573 -0.17363302 0.86133337
0.3115463 -0.17224345 0.86040002
0.31615239 -0.17118096 0.86000001
0.34400004 -0.17200002 0.86000001
0.34726822 -0.17273107 0.86120003
0.35136765 -0.17486286 0.86200005
0.31333017 -0.16884255 0.86200011
0.3176561 -0.16759102 0.86145467
0.32209587 -0.16678648 0.86100006
0.32596001 -0.16584827 0.86066675
0.33412763 -0.16501144 0.86200005
0.33908576 -0.16708574 0.86000001
0.34243137 -0.16733928 0.86177784
0.34603146 -0.16870572 0.86200005
0.32263431 -0.16336954 0.86200005
0.32781145 -0.16326016 0.86142862
0.33258188 -0.16289768 0.86109096
0.33760193 -0.16182542 0.86155558
0.3415162 -0.16336954 0.86200005
0.35136765 -0.16172764 0.86200005
0.28982574 -0.20147431 0.86700004
0.29225737 -0.20093735 0.86540002
0.29280716 -0.19934143 0.86850005
0.29563257 -0.19692364 0.86660004
0.29560381 -0.19239144 0.86700004
0.29654345 -0.18676096 0.86540002
0.2974135 -0.18212613 0.86642867
0.29925239 -0.17856002 0.86800003
0.30169353 -0.17658682 0.8658573
0.35703906 -0.1761305 0.86500007
0.30296263 -0.17374656 0.8681429
0.3070454 -0.17198531 0.86588901
0.3105762 -0.17052858 0.86500007
0.35197264 -0.17197025 0.86500013
0.35691693 -0.17258215 0.86600012
0.30822715 -0.16848238 0.86825001
0.31210762 -0.16707525 0.86525011
0.31634289 -0.16558573 0.86500007
0.34748289 -0.16657431 0.86500007
0.35185748 -0.16727631 0.86522233
0.35533556 -0.16736226 0.86566675
0.31280118 -0.16342573 0.86775005
0.31734785 -0.16238646 0.86640006
0.32210955 -0.16208452 0.86500013
0.32672292 -0.16130191 0.86500007
0.33117145 -0.16064286 0.86500007
0.33529049 -0.16064286 0.86500007
0.34270477 -0.16146667 0.86500007
0.34709111 -0.16241428 0.86566681
0.35121748 -0.1625651 0.86500013
0.31844905 -0.15922478 0.86849999
0.32224935 -0.15781869 0.86760008
0.32725686 -0.15770891 0.8670001
0.33221114 -0.1577089 0.8670001
0.33725157 -0.15774934 0.86722231
0.34197688 -0.15832129 0.86733335
0.34650636 -0.1590562 0.86833334
0.35091048 -0.15973049 0.86900002
0.32690954 -0.15476477 0.86900002
0.29326892 -0.19745177 0.87233341
0.2935836 -0.19323117 0.87185729
0.29398763 -0.18934762 0.87200004
0.29564857 -0.18768668 0.8720001
0.29659271 -0.18249747 0.87233341
0.29830289 -0.17682445 0.87166679
0.29880795 -0.17308161 0.87233341
0.30200732 -0.17124563 0.87144458
0.30255961 -0.16771933 0.87242866
0.3070651 -0.16630803 0.87166679
0.30786669 -0.16265881 0.87250006
0.31198603 -0.16115117 0.8715716
0.31604859 -0.16009811 0.87100005
0.3126328 -0.1578007 0.8727144
0.31724057 -0.15662706 0.87200016
0.32268476 -0.15512097 0.87100005
0.32766193 -0.15512097 0.87100005
0.33263907 -0.15512097 0.87100005
0.3371743 -0.15529907 0.87200004
0.34239945 -0.15599829 0.87220001
0.34713814 -0.15695874 0.8720001
0.35170025 -0.1568412 0.87250006
0.31843716 -0.1538143 0.87300003
0.32203859 -0.15355001 0.87150002
0.3275829 -0.1538143 0.87300003
0.33174002 -0.1538143 0.87300003
0.33756003 -0.1538143 0.87300003
0.28916669 -0.19583334 0.87500006
0.29121846 -0.19823113 0.87700003
0.29168141 -0.19275483 0.87700009
0.29198179 -0.18769915 0.87663645
0.29297584 -0.18318669 0.87714297
0.295614 -0.1827105 0.87600005
0.29350287 -0.17978096 0.87800002
0.29626644 -0.17776082 0.87628585
0.29773033 -0.17279571 0.87650001
0.29884335 -0.16945669 0.87650001
0.30173272 -0.16657844 0.87600005
0.3032954 -0.16333415 0.87650001
0.30609405 -0.16138788 0.87575001
0.30802575 -0.15902144 0.87650007
0.31113717 -0.15682173 0.87680006
0.34916669 -0.15583335 0.87500006
0.31330216 -0.15414502 0.87725002
0.31720814 -0.153317 0.87650013
0.32221672 -0.15192525 0.87650013
0.32722527 -0.15192525 0.87650007
0.33223385 -0.15192525 0.87650007
0.33704117 -0.15224546 0.87628585
0.34210491 -0.15269394 0.87612504
0.34662384 -0.1539616 0.87700003
0.35216793 -0.1538275 0.87714297
0.32695049 -0.14967811 0.87800002
0.33196765 -0.14967811 0.87800002
0.33614859 -0.14967811 0.87800002
0.28914291 -0.18689525 0.88000005
0.28980002 -0.18060002 0.88200003
0.291769 -0.18240245 0.88142872
0.28980002 -0.17892002 0.88200003
0.29288819 -0.17727868 0.88219994
0.29584762 -0.176 0.88000005
0.29656029 -0.17213595 0.88275003
0.2993781 -0.16734955 0.88300008
0.30110413 -0.16690731 0.88066673
0.3020415 -0.16207874 0.88177776
0.30590478 -0.1600762 0.88000005
0.30354434 -0.1572379 0.88288891
0.30754527 -0.15660289 0.88050002
0.31093335 -0.15504763 0.88000005
0.30442381 -0.15389429 0.88300002
0.30861527 -0.15304725 0.88200009
0.31201801 -0.15174912 0.88171434
0.31715813 -0.15102857 0.88100004
0.3226667 -0.15001908 0.88000005
0.3394286 -0.15001906 0.88000005
0.34278101 -0.15001908 0.88000005
0.34780958 -0.15169525 0.88000011
0.35197604 -0.15089409 0.88120002
0.31237954 -0.14746001 0.88349998
0.31709337 -0.14706114 0.88145465
0.3226667 -0.14750478 0.88000005
0.32769525 -0.14750478 0.88000005
0.33270288 -0.14695857 0.88050008
0.33720076 -0.14679024 0.88075006
0.34199312 -0.14674786 0.88175005
0.34700596 -0.14733502 0.88275003
0.35107431 -0.14901716 0.88400006
0.3140305 -0.14396572 0.88400006
0.31797376 -0.14376877 0.88280004
0.32202446 -0.14302632 0.88200009
0.32717907 -0.14279716 0.88199997
0.33188248 -0.14257744 0.8828572
0.33722192 -0.14296097 0.88300008
0.34204146 -0.14346334 0.88350004
0.34602287 -0.14396572 0.88400006
0.29388431 -0.17294715 0.88800007
0.29605114 -0.17074446 0.88900012
0.29785949 -0.16711472 0.88814294
0.29906738 -0.16252342 0.88814288
0.30158001 -0.16134953 0.88700002
0.29938191 -0.15899333 0.88800001
0.30131069 -0.15784477 0.8882001
0.3036105 -0.15392001 0.88800001
0.30784002 -0.15222763 0.88800001
0.31002763 -0.15121239 0.88700002
0.30846894 -0.14929557 0.88900012
0.31079954 -0.14757669 0.88800001
0.35276252 -0.14756136 0.88740009
0.35644668 -0.14986001 0.88900006
0.31270191 -0.14323609 0.88842857
0.31690478 -0.14197305 0.88733339
0.32016477 -0.14107525 0.88700002
0.32523334 -0.14107525 0.88700002
0.33368099 -0.14107525 0.88700002
0.33706006 -0.14107525 0.88700002
0.3427448 -0.14157715 0.88750005
0.34717163 -0.14255412 0.88780004
0.31411335 -0.13970001 0.88900006
0.31750005 -0.13970003 0.88900012
0.32258004 -0.13970003 0.88900012
0.32789811 -0.13919811 0.88850009
0.33249113 -0.13874859 0.88833344
0.33736151 -0.1384007 0.88842869
0.34177113 -0.13913557 0.88900012
0.29360574 -0.17565429 0.89100003
0.29329261 -0.17203544 0.89160007
0.29341242 -0.16924477 0.89300007
0.29586917 -0.16705315 0.89220011
0.29445431 -0.1637743 0.89100003
0.29676574 -0.16197526 0.89200008
0.29894787 -0.15711787 0.89175004
0.30124289 -0.15528858 0.89100003
0.30266687 -0.1531183 0.89220011
0.3061105 -0.15093145 0.89200008
0.30757973 -0.14685842 0.89133328
0.35215718 -0.14510572 0.89100003
0.35529858 -0.14619859 0.89250004
0.30899203 -0.14301831 0.89280003
0.3116343 -0.14112686 0.89160007
0.34745717 -0.14017144 0.89200008
0.35046002 -0.14256001 0.89100003
0.31362459 -0.13800858 0.89340001
0.31733099 -0.13741478 0.8925001
0.32263285 -0.13675073 0.89324999
0.32759896 -0.13711894 0.89287496
0.33179146 -0.13662001 0.89100003
0.33688289 -0.13662001 0.89100003
0.34243488 -0.13680287 0.89220011
0.34671149 -0.13806002 0.89300007
0.29334667 -0.18558668 0.89800006
0.29505715 -0.18558668 0.89800006
0.29288691 -0.16684501 0.89725006
0.29404891 -0.16367684 0.89666671
0.29558194 -0.16146001 0.89700007
0.29807851 -0.15800762 0.89680004
0.29899907 -0.15462571 0.89700007
0.30299622 -0.15192573 0.89720005
0.30341527 -0.14835022 0.89742869
0.30600446 -0.14659747 0.89666671
0.3073222 -0.14273444 0.89742869
0.35356447 -0.14250669 0.89600009
0.29379526 -0.16321811 0.90200007
0.29604289 -0.16046382 0.90100002
0.29733545 -0.15751486 0.9018001
0.30066574 -0.15205145 0.90200007
0.30187023 -0.14664192 0.90175003
0.29563335 -0.1611762 0.90500003
0.29698527 -0.1571281 0.90650004
0.29889643 -0.15311596 0.90575004
0.29908097 -0.14824763 0.90500003
0.29726669 -0.15686667 0.91000003
0.29955336 -0.16156667 0.91700006
