# .PCD v0.7 - Point Cloud Data file format
VERSION 0.7
FIELDS x y z rgb
SIZE 4 4 4 4
TYPE F F F F
COUNT 1 1 1 1
WIDTH 916
HEIGHT 1
VIEWPOINT 0 0 0 1 0 0 0
POINTS 916
DATA ascii
0.43234289 -0.32010001 0.87300003 6.5496802e-39
0.42486003 -0.31843716 0.87300003 5.0792165e-39
0.42652288 -0.31843716 0.87300003 5.4483549e-39
0.43338215 -0.31698218 0.87300009 4.9841538e-39
0.43650004 -0.31677431 0.87300003 4.71152e-39
0.42486006 -0.31178576 0.87300003 1.845157e-39
0.42984861 -0.31178573 0.87300003 1.8451668e-39
0.43151146 -0.31012288 0.87300003 1.4777982e-39
0.41893145 -0.3252781 0.87800002 5.539096e-39
0.42227623 -0.3261143 0.87800014 5.9064436e-39
0.42840832 -0.32583559 0.87800002 6.3670714e-39
0.43209404 -0.32602066 0.87700003 6.4588971e-39
0.43816385 -0.3261143 0.87800002 5.5397925e-39
0.4406724 -0.32695049 0.87800002 5.4529526e-39
0.41851336 -0.32235146 0.87800002 4.4302359e-39
0.42176101 -0.32180074 0.87650001 5.1706792e-39
0.42690909 -0.32185099 0.87550008 5.9071821e-39
0.43223408 -0.32289609 0.87542868 6.7336959e-39
0.4370417 -0.3219431 0.87575006 6.2752275e-39
0.44213575 -0.32193336 0.87800014 6.1833752e-39
0.41893145 -0.31691623 0.87800002 2.1210306e-39
0.42202601 -0.31735408 0.87575001 3.139867e-39
0.42773816 -0.31702384 0.87500012 3.8774405e-39
0.43125004 -0.31708336 0.87500006 4.3380641e-39
0.43833336 -0.31708336 0.87500006 4.1576203e-39
0.44234475 -0.31691623 0.87800008 3.2331445e-39
0.42274386 -0.31292748 0.87620014 1.2955607e-39
0.42794591 -0.31217524 0.87542868 1.8469534e-39
0.43273816 -0.31273812 0.87500012 2.0313517e-39
0.43722853 -0.31206492 0.87612498 1.6636426e-39
0.4406724 -0.31189907 0.87800002 1.1097513e-39
0.42743117 -0.30803537 0.87599999 1.0186165e-39
0.43215865 -0.30701482 0.87600005 1.0182591e-39
0.43690956 -0.3073 0.87800002 1.2008525e-39
0.44201031 -0.30654746 0.87800008 4.894381e-39
0.44652575 -0.30604574 0.87800002 1.2448202e-38
0.44345972 -0.30297971 0.87800002 1.0886297e-38
0.42714924 -0.32713652 0.88000005 6.2748702e-39
0.4425143 -0.32601908 0.88000005 6.1844416e-39
0.44765717 -0.32754135 0.88320011 7.8460453e-39
0.45168194 -0.32623813 0.88400006 9.5941118e-39
0.45631242 -0.32581717 0.88400006 1.1157466e-38
0.4173426 -0.32161418 0.8817144 2.4004817e-39
0.44751772 -0.32157335 0.88160002 6.7350846e-39
0.45213884 -0.32196692 0.88325 1.0423512e-38
0.45631242 -0.32329145 0.88400006 1.1801395e-38
0.41798013 -0.31766564 0.88266671 1.6614733e-39
0.44738123 -0.31643981 0.88133335 5.5361589e-39
0.45284218 -0.31680027 0.88174999 1.1251813e-38
0.45612004 -0.31752002 0.88200003 1.1250384e-38
0.41915622 -0.31331813 0.88200009 1.386313e-39
0.42167622 -0.31184953 0.88200009 1.4781457e-39
0.4433524 -0.31260955 0.88000005 2.3922225e-39
0.44679433 -0.31254575 0.88100004 7.5600977e-39
0.45095813 -0.3134051 0.88066673 1.1527303e-38
0.42225924 -0.30804774 0.88271433 1.6607363e-39
0.42719173 -0.30669591 0.88066673 1.3870276e-39
0.43832383 -0.30674288 0.88000005 1.5678344e-39
0.44125718 -0.3071619 0.88000005 1.9384064e-39
0.4450286 -0.30841905 0.88000005 1.0240553e-38
0.42251647 -0.30302563 0.88355553 2.211043e-39
0.42704588 -0.30283225 0.88307691 1.5692679e-39
0.43208513 -0.30262637 0.88266671 1.1125945e-39
0.43729433 -0.30274099 0.88300002 1.3841564e-39
0.44148785 -0.30213439 0.88145465 5.2599195e-39
0.42221528 -0.29761332 0.88400006 8.0013203e-39
0.42740703 -0.29775366 0.884 4.7835131e-39
0.4316867 -0.29740286 0.88399994 5.2444856e-39
0.43593833 -0.29752919 0.884 5.0643949e-39
0.44357464 -0.29954541 0.88266677 7.6670056e-39
0.44620955 -0.2988762 0.88400006 5.3556366e-39
0.42852959 -0.29214096 0.88400006 1.3988894e-38
0.4315702 -0.29248062 0.88333333 1.3527918e-38
0.4352648 -0.29214096 0.88400006 1.4266159e-38
0.42785603 -0.28675279 0.884 1.6292309e-38
0.43167964 -0.28750524 0.88355553 1.6016809e-38
0.4352648 -0.28877336 0.88400006 1.6481348e-38
0.42852956 -0.28288001 0.88400006 1.6291572e-38
0.43021336 -0.28288001 0.88400006 1.6293026e-38
0.44649023 -0.26127112 0.88400006 1.235672e-38
0.45279241 -0.33114672 0.88700002 1.0052919e-38
0.45701623 -0.33114672 0.88700002 1.0511022e-38
0.45363718 -0.32861242 0.88700002 1.0146893e-38
0.45659384 -0.32776767 0.88700002 1.1434403e-38
0.41571337 -0.3208867 0.88900006 9.2721117e-41
0.41691265 -0.31717598 0.88750005 1.1997693e-39
0.41794598 -0.31150594 0.88700002 2.30324e-39
0.4184702 -0.30772448 0.8876667 2.0277349e-39
0.41826004 -0.30284026 0.88754553 4.8760576e-39
0.42153621 -0.30242479 0.88700002 2.3025268e-39
0.41878453 -0.29752037 0.88833332 1.3801234e-38
0.42253131 -0.29718411 0.88757151 1.2049938e-38
0.42716795 -0.29707462 0.88700002 1.1038701e-38
0.43843147 -0.29651144 0.88700002 1.2422334e-38
0.44210973 -0.29806325 0.88760006 1.012894e-38
0.44721243 -0.29828191 0.88849998 1.0500882e-38
0.41789058 -0.29185814 0.88900006 1.6844032e-38
0.42285526 -0.29261622 0.88800001 1.5184145e-38
0.42744955 -0.29313242 0.88700002 1.4171834e-38
0.43843147 -0.29313242 0.88700002 1.45417e-38
0.44118163 -0.29261625 0.88800001 1.5835672e-38
0.41232666 -0.28600404 0.88900006 1.7216063e-38
0.41755167 -0.2872971 0.88811111 1.7122397e-38
0.42343691 -0.28785262 0.88700002 1.6660382e-38
0.42702714 -0.28848621 0.88700002 1.6476344e-38
0.4374699 -0.28732607 0.88733339 1.6112615e-38
0.41402003 -0.28363335 0.88900006 1.7216399e-38
0.41771284 -0.28295735 0.88736373 1.6940153e-38
0.42322573 -0.28299525 0.88700002 1.6662537e-38
0.42781156 -0.28275391 0.88700008 1.6384502e-38
0.43294048 -0.28257287 0.88700002 1.6110087e-38
0.436901 -0.28281075 0.88775003 1.6203022e-38
0.41817603 -0.27771297 0.88740009 1.7123494e-38
0.42322573 -0.27792668 0.88700002 1.6846924e-38
0.42829433 -0.27792668 0.88700002 1.6569954e-38
0.43300575 -0.27739242 0.88800001 1.6386267e-38
0.43709335 -0.27734858 0.88840002 1.6111156e-38
0.41919178 -0.27288222 0.88800013 1.5835641e-38
0.42294124 -0.27218267 0.88776928 1.5649832e-38
0.4279798 -0.27247277 0.88740009 1.5742351e-38
0.43264672 -0.27206224 0.88900006 1.5284224e-38
0.43730336 -0.27305004 0.88900006 1.6111482e-38
0.44111335 -0.27347335 0.88900006 1.518631e-38
0.42079335 -0.26839334 0.88900006 1.3713757e-38
0.4279131 -0.26758084 0.88871437 1.3162734e-38
0.44750032 -0.26709813 0.88871437 1.1980354e-38
0.45161146 -0.26724666 0.88800001 1.1801741e-38
0.44721371 -0.26404479 0.8876667 1.2169798e-38
0.45082134 -0.26384732 0.88700002 1.2170902e-38
0.41484952 -0.31743813 0.89200008 4.4086027e-39
0.4166486 -0.31651717 0.89100003 1.6564357e-39
0.41442743 -0.31341374 0.89280003 2.4836852e-39
0.41678244 -0.31223097 0.8925001 2.4858404e-39
0.41464576 -0.30736575 0.89400005 7.451385e-39
0.41696626 -0.30719382 0.89350003 5.5163964e-39
0.41464573 -0.30225718 0.89400005 1.4262899e-38
0.41696626 -0.30208719 0.89350003 1.3343856e-38
0.4143663 -0.29694805 0.89340001 1.7026614e-38
0.41654861 -0.29704955 0.89200008 1.5644389e-38
0.4471972 -0.29671717 0.89100003 1.3639125e-38
0.45259514 -0.29714859 0.89400011 1.2721544e-38
0.41345847 -0.29235938 0.8926667 1.7584864e-38
0.4166486 -0.29360574 0.89100003 1.7120276e-38
0.44380289 -0.29106003 0.89100003 1.7032365e-38
0.44719717 -0.29275715 0.89099991 1.4183695e-38
0.45259514 -0.29179677 0.89400011 1.3083492e-38
0.45551431 -0.2911886 0.89400005 1.2077249e-38
0.40936098 -0.28689337 0.89300007 1.7401207e-38
0.41285148 -0.28819662 0.89160007 1.7401183e-38
0.44240347 -0.28819776 0.89160007 1.6482105e-38
0.44704005 -0.287588 0.89340001 1.5931079e-38
0.45189574 -0.28693146 0.89400005 1.4825487e-38
0.45687661 -0.28659087 0.89400005 1.216982e-38
0.46062288 -0.28522858 0.89400005 1.217343e-38
0.40953717 -0.28182289 0.89400005 1.7034551e-38
0.41255069 -0.28221509 0.89181817 1.7216415e-38
0.4166486 -0.28087717 0.89100003 1.712349e-38
0.44259065 -0.28257433 0.89099997 1.6297032e-38
0.44738117 -0.28197318 0.89340001 1.5933648e-38
0.45210859 -0.28182286 0.89400005 1.473652e-38
0.45743006 -0.28182289 0.89400005 1.1710281e-38
0.46062288 -0.28182289 0.89400005 1.1711366e-38
0.40953717 -0.27841717 0.89400005 1.5934316e-38
0.4130978 -0.27709818 0.89250004 1.6478848e-38
0.41686916 -0.27649432 0.89220011 1.6110784e-38
0.44259065 -0.2774829 0.89099997 1.5931456e-38
0.44691432 -0.27691716 0.89099997 1.519495e-38
0.45259514 -0.2769576 0.89400011 1.2711082e-38
0.45619544 -0.2767143 0.89400005 1.134004e-38
0.41294289 -0.27245718 0.89400005 1.3990662e-38
0.41769111 -0.27242899 0.89271438 1.454384e-38
0.43362004 -0.27069432 0.89100003 1.3351754e-38
0.43743861 -0.27111858 0.89100003 1.3166292e-38
0.44234824 -0.27190655 0.89099997 1.2980436e-38
0.44719711 -0.27239147 0.89099991 1.233581e-38
0.45220143 -0.27200001 0.89250004 1.1611947e-38
0.45636576 -0.27245715 0.89400005 1.1803525e-38
0.41124004 -0.26990288 0.89400005 1.3163037e-38
0.41975433 -0.26905143 0.89400005 1.3713017e-38
0.42298323 -0.26787394 0.89362502 1.3253496e-38
0.42650434 -0.26688337 0.8915 1.3253139e-38
0.43277144 -0.26730004 0.89099997 1.2702824e-38
0.43665624 -0.26759908 0.89200008 1.2518058e-38
0.44210365 -0.26810834 0.8931818 1.1967031e-38
0.44544932 -0.26709932 0.89175004 1.1690098e-38
0.45721719 -0.26990288 0.89400005 1.1709194e-38
0.42832062 -0.26393542 0.89340001 1.2695595e-38
0.43211547 -0.2630766 0.89280003 1.2233913e-38
0.4367829 -0.263578 0.89400011 1.2143169e-38
0.44189149 -0.26479429 0.89400005 1.0494055e-38
0.44635946 -0.26359487 0.89340001 1.1886402e-38
0.45040575 -0.26309144 0.89400005 1.2356007e-38
0.4138667 -0.31744003 0.89600003 1.095331e-38
0.41557336 -0.31658667 0.89600003 9.7734963e-41
0.41417465 -0.31169719 0.89666671 7.4402895e-39
0.41557336 -0.31317335 0.89600003 2.7820259e-40
0.41479051 -0.3070305 0.89800012 1.2511625e-38
0.4138667 -0.30208004 0.89600003 1.5642905e-38
0.41557336 -0.30293337 0.89600003 1.3528575e-38
0.40880382 -0.29505715 0.89800006 1.7955448e-38
0.41268459 -0.29760423 0.89639997 1.758587e-38
0.40452763 -0.29249144 0.89800006 1.8045821e-38
0.40794861 -0.29249144 0.89800012 1.7954375e-38
0.41088 -0.29312003 0.89600003 1.7955108e-38
0.40367243 -0.28821525 0.89800012 1.7862884e-38
0.407166 -0.28781408 0.89674997 1.786074e-38
0.45482668 -0.28757334 0.89600003 1.3634177e-38
0.4573867 -0.28757334 0.89600003 1.2170182e-38
0.40367243 -0.28308386 0.89800012 1.5654526e-38
0.40724111 -0.28259388 0.89644444 1.6666866e-38
0.45653337 -0.28245336 0.89600003 1.1799956e-38
0.40452763 -0.27966288 0.89800006 1.5012379e-38
0.40734246 -0.27753887 0.89666665 1.4637849e-38
0.41045335 -0.27648002 0.89600003 1.5190648e-38
0.45952004 -0.27733335 0.89600003 1.1065261e-38
0.46165335 -0.27818668 0.89600003 1.0973799e-38
0.40880382 -0.27282101 0.89800012 1.3617928e-38
0.41153574 -0.27193764 0.89649999 1.3620066e-38
0.41728005 -0.27050668 0.89600009 1.3895239e-38
0.41318893 -0.26796037 0.89700001 1.2975739e-38
0.41779748 -0.2674233 0.89711118 1.3160166e-38
0.42197338 -0.26581335 0.89600003 1.2423347e-38
0.42581335 -0.26538667 0.89600003 1.2697432e-38
0.41479051 -0.26426858 0.89800006 1.5283186e-38
0.41855356 -0.26358438 0.89800006 1.4916169e-38
0.42242241 -0.26233238 0.89650005 1.4636389e-38
0.42726794 -0.26178774 0.89666677 1.4360504e-38
0.43249106 -0.26106557 0.89640009 1.3628351e-38
0.43776003 -0.26094934 0.89600003 1.4284531e-38
0.44291338 -0.2623319 0.89650005 1.3636653e-38
0.44638735 -0.2612229 0.89733338 1.3464191e-38
0.42248765 -0.25828192 0.89800006 1.8353776e-38
0.42642173 -0.25845298 0.89800006 1.8626021e-38
0.43230385 -0.25847083 0.89766681 1.7520048e-38
0.43697873 -0.25788003 0.89720005 1.6968354e-38
0.4413029 -0.25913715 0.89800006 1.558723e-38
0.413831 -0.3116605 0.90150005 1.4352305e-38
0.41538003 -0.31046003 0.90300006 1.3713049e-38
0.41326633 -0.30672804 0.90214288 1.5645118e-38
0.40850002 -0.30014002 0.90300006 1.7588117e-38
0.41257644 -0.30263361 0.90188897 1.7216012e-38
0.40375143 -0.29637146 0.90200007 1.7680285e-38
0.40736184 -0.29770273 0.90157145 1.767996e-38
0.41159973 -0.2989032 0.90100002 1.7770628e-38
0.40282851 -0.29288888 0.9018572 1.7679932e-38
0.39990002 -0.28724003 0.90300006 1.5561944e-38
0.40173692 -0.28756893 0.90133333 1.7036719e-38
0.39990002 -0.28466001 0.90300006 1.3810592e-38
0.40208349 -0.28215718 0.90128577 1.4545292e-38
0.40334001 -0.27950001 0.90300006 1.3989188e-38
0.40604228 -0.27747241 0.90200007 1.3804834e-38
0.40749159 -0.27202928 0.9018572 1.3065427e-38
0.41102764 -0.27030003 0.90100002 1.3248021e-38
0.40764004 -0.26574001 0.90300006 1.8257229e-38
0.41200393 -0.267322 0.90188897 1.4266463e-38
0.4172183 -0.26183563 0.90140003 1.8162173e-38
0.42132479 -0.26086098 0.90100002 1.7795165e-38
0.44739971 -0.26019526 0.90166676 1.3742954e-38
0.41791949 -0.25782803 0.9018001 1.7705932e-38
0.42196971 -0.25656834 0.9018572 1.6969822e-38
0.42861861 -0.25699955 0.90100002 1.6598897e-38
0.43269166 -0.25645357 0.9018001 1.6323028e-38
0.4374429 -0.25628287 0.90150005 1.5678033e-38
0.44233951 -0.2568135 0.9018572 1.5034104e-38
0.44634002 -0.25886002 0.90300006 1.4389069e-38
0.42393953 -0.25384715 0.90200007 1.7059504e-38
0.42738461 -0.25416175 0.90220016 1.6599612e-38
0.43307644 -0.25324288 0.90260011 1.6139714e-38
0.43684417 -0.25379813 0.90233344 1.6046449e-38
0.40915656 -0.31125873 0.90700006 1.5924982e-38
0.41364449 -0.31275558 0.90800011 1.611188e-38
0.40814421 -0.30692896 0.90679997 1.6848728e-38
0.41155955 -0.30813095 0.90500003 1.6661814e-38
0.40297908 -0.3000724 0.90800005 1.7585912e-38
0.40732229 -0.30247301 0.90612507 1.7218944e-38
0.4020896 -0.29711017 0.90600008 1.7680621e-38
0.39865527 -0.29228956 0.90800005 1.5374312e-38
0.40058526 -0.29267004 0.90650004 1.6851617e-38
0.39865527 -0.28796574 0.90800011 1.390064e-38
0.40038478 -0.28796574 0.90800011 1.381132e-38
0.39865527 -0.28450668 0.90800005 1.3437515e-38
0.40104994 -0.2821297 0.90671444 1.3621872e-38
0.40324065 -0.27755177 0.90600008 1.3067227e-38
0.40576527 -0.27626526 0.90650004 1.3340957e-38
0.40384385 -0.27240002 0.90800011 1.6113612e-38
0.40598497 -0.272506 0.90671444 1.4540879e-38
0.40384385 -0.26807618 0.90800005 1.8625316e-38
0.40732014 -0.26806232 0.90633339 1.77847e-38
0.41371432 -0.2663286 0.90500003 1.6220118e-38
0.40878764 -0.2637462 0.90650004 1.8626785e-38
0.41244704 -0.26255053 0.90615386 1.8258716e-38
0.41630003 -0.26115716 0.90500003 1.8903024e-38
0.41382307 -0.25842303 0.90650004 1.7062371e-38
0.41703159 -0.25651801 0.90612507 1.761338e-38
0.44786304 -0.25698811 0.90550011 1.3465284e-38
0.45054099 -0.2568343 0.90800005 1.2908456e-38
0.4182716 -0.25313446 0.90714294 1.7982521e-38
0.42297751 -0.25271124 0.90700001 1.7521191e-38
0.42750478 -0.2516762 0.90500003 1.7059864e-38
0.43176562 -0.25210211 0.90550005 1.6416301e-38
0.43741667 -0.25124526 0.90500003 1.5771662e-38
0.44260177 -0.25295481 0.90650004 1.5218125e-38
0.44644061 -0.2532067 0.90740007 1.3466379e-38
0.42758483 -0.2487762 0.90700006 1.7795985e-38
0.43300813 -0.24891382 0.90750003 1.7060224e-38
0.43684667 -0.24863859 0.90650004 1.6601044e-38
0.44016385 -0.24991621 0.90800005 1.5497596e-38
0.44708195 -0.24861905 0.90800005 1.1990506e-38
0.45054099 -0.24732192 0.90800005 1.336941e-38
0.40432858 -0.31042001 0.91300005 1.6566785e-38
0.40691146 -0.31089556 0.91100001 1.5093438e-38
0.40432858 -0.30520287 0.91300005 1.7036346e-38
0.40646669 -0.30853337 0.91000003 1.6387754e-38
0.39911145 -0.3025943 0.91300005 1.6386667e-38
0.4025749 -0.30264559 0.91128576 1.7216779e-38
0.38913336 -0.29553336 0.91000003 1.3729571e-38
0.39173335 -0.29553336 0.91000003 1.3239475e-38
0.3977519 -0.2969898 0.91033334 1.5376092e-38
0.40126669 -0.29900002 0.91000003 1.7772078e-38
0.38913336 -0.29293334 0.91000003 1.2535383e-38
0.39276996 -0.29349184 0.91120005 1.2796803e-38
0.39693418 -0.29234096 0.9108572 1.3991748e-38
0.39762896 -0.2875928 0.91120005 1.3530061e-38
0.39875564 -0.28219795 0.91060001 1.3067991e-38
0.4008505 -0.28085622 0.91300005 1.2791726e-38
0.40219361 -0.27755016 0.91166669 1.4358654e-38
0.40323764 -0.27201197 0.91250008 1.8162148e-38
0.40406176 -0.26711619 0.91240007 1.7706297e-38
0.40678036 -0.26549208 0.91200006 1.816654e-38
0.45575005 -0.26563573 0.91150004 1.2724073e-38
0.40822288 -0.26259786 0.91171432 1.7982513e-38
0.41212639 -0.25760692 0.91150004 1.7889593e-38
0.41513336 -0.25566667 0.91000003 1.7797774e-38
0.45153338 -0.25566667 0.91000003 1.2628996e-38
0.41352075 -0.25327989 0.91300011 1.8352018e-38
0.41628894 -0.25162226 0.91000003 1.8260184e-38
0.42206669 -0.25046667 0.91000003 1.8258388e-38
0.42553335 -0.25046667 0.91000003 1.7886024e-38
0.44373333 -0.25046667 0.91000003 1.411465e-38
0.44850004 -0.25133336 0.91000003 1.2727355e-38
0.45153338 -0.25220001 0.91000003 1.2631856e-38
0.41867575 -0.2491186 0.91300005 1.642061e-38
0.42227545 -0.24836574 0.91120005 1.6236579e-38
0.42717144 -0.24698505 0.9108572 1.2649247e-38
0.43240514 -0.24646841 0.91060001 1.0805712e-38
0.4370386 -0.24626809 0.91049999 7.7640119e-39
0.44270721 -0.24771133 0.91171432 8.5862153e-39
0.44793504 -0.24653834 0.91149998 1.1617763e-38
0.42867526 -0.2443362 0.91300005 6.1870018e-39
0.43215334 -0.24433622 0.91300005 6.3570339e-39
0.43737054 -0.24433622 0.91300005 6.1744377e-39
0.40260005 -0.30587146 0.91500002 1.7035267e-38
0.40608573 -0.30848575 0.91500002 1.6662195e-38
0.39353392 -0.29100972 0.91540003 1.2981539e-38
0.39650002 -0.29105717 0.91500002 1.3165919e-38
0.39301431 -0.28844288 0.91500002 1.3900982e-38
0.3970193 -0.28742459 0.9162001 1.2700976e-38
0.39715031 -0.28265047 0.91600001 1.5009091e-38
0.39853182 -0.27760604 0.9156667 1.7328774e-38
0.4017286 -0.27624288 0.91500002 1.7322661e-38
0.39878625 -0.27276194 0.91575003 1.8166181e-38
0.4017286 -0.27275717 0.91500008 1.8534585e-38
0.39900386 -0.26811239 0.91624999 1.7703425e-38
0.40242577 -0.26718003 0.91500008 1.7336439e-38
0.46112001 -0.26811334 0.91700006 1.244713e-38
0.39911336 -0.26462001 0.91700006 1.7888531e-38
0.40260455 -0.26294789 0.91649997 1.7980718e-38
0.40637621 -0.26171908 0.91500008 1.8074355e-38
0.41044289 -0.26055717 0.91500002 1.8259449e-38
0.45720211 -0.26217926 0.91580003 1.2449273e-38
0.40391669 -0.25806999 0.91700006 1.85364e-38
0.4072524 -0.25725877 0.9156667 1.8536048e-38
0.41044292 -0.25707144 0.91500008 1.8536396e-38
0.45662862 -0.2553286 0.91500002 1.198686e-38
0.40871602 -0.25263184 0.91660005 1.4578158e-38
0.41181594 -0.251672 0.91528583 1.5317504e-38
0.41567147 -0.25010002 0.91500002 1.5413639e-38
0.4540143 -0.25358573 0.91500002 1.2355275e-38
0.45633814 -0.25300479 0.91500008 1.2264159e-38
0.41396004 -0.24890001 0.91700006 8.2189014e-39
0.41793457 -0.24742033 0.91614294 6.8359669e-39
0.4220005 -0.24631239 0.91550004 6.2849469e-39
0.42700005 -0.24661431 0.91500002 7.305912e-39
0.44753337 -0.2460105 0.91600001 7.6674442e-39
0.45151335 -0.24540669 0.91700006 1.2633317e-38
0.42252254 -0.24397461 0.91600007 7.0131485e-39
0.42767236 -0.24283126 0.9162727 7.6613723e-39
0.43258217 -0.24158216 0.91575003 9.2240135e-39
0.4371244 -0.24218838 0.91540003 8.121982e-39
0.44254994 -0.2440383 0.91580003 8.5739876e-39
0.44617146 -0.24487144 0.91500002 8.485724e-39
0.45151335 -0.24366002 0.91700006 1.2446406e-38
0.43230003 -0.23842001 0.91700006 1.2263962e-38
0.39340955 -0.29001907 0.92000002 1.429172e-38
0.39625287 -0.28754717 0.92050004 1.5276321e-38
0.39426479 -0.28362477 0.92200005 1.7252476e-38
0.39602783 -0.28232497 0.92119998 1.7519678e-38
0.39655694 -0.2776427 0.92080003 1.7523333e-38
0.39646766 -0.27279145 0.921 1.7613018e-38
0.39822191 -0.26752955 0.921 1.7980002e-38
0.46233654 -0.26606986 0.92000002 1.1987581e-38
0.39953336 -0.26430669 0.92200005 1.8806884e-38
0.40164232 -0.26197219 0.92119998 1.8534968e-38
0.45824766 -0.26022857 0.92000002 1.2352421e-38
0.46225312 -0.26173064 0.92000008 1.2172676e-38
0.40374899 -0.25740838 0.92119998 1.4765772e-38
0.45824766 -0.2584762 0.92000002 1.1986149e-38
0.46175241 -0.2584762 0.92000002 1.1895387e-38
0.40755731 -0.25295269 0.92085719 9.7894206e-39
0.41007051 -0.25025716 0.92200005 4.5325279e-39
0.41244572 -0.24851973 0.92114288 5.1771785e-39
0.41641575 -0.24678145 0.92050004 6.8287642e-39
0.4177672 -0.24364106 0.92133331 1.3370622e-38
0.42233658 -0.24229525 0.92066669 1.2267155e-38
0.42701274 -0.24112701 0.92066669 1.4390494e-38
0.43809527 -0.2409524 0.92000002 1.3004347e-38
0.44221276 -0.24171114 0.92066669 1.1348442e-38
0.44760084 -0.24286053 0.92133331 1.1342641e-38
0.45104432 -0.24239764 0.92050004 1.2077615e-38
0.42412004 -0.23884192 0.92200005 9.7811586e-39
0.42763242 -0.23972003 0.92200011 1.1717258e-38
0.4323644 -0.23766777 0.92085719 1.0335407e-38
0.43751135 -0.23824275 0.92114294 1.1161917e-38
0.44256002 -0.23884192 0.92200005 1.0240332e-38
0.44659925 -0.23901753 0.92200005 1.0237354e-38
0.45046288 -0.23972002 0.92200005 1.1708136e-38
0.4460724 -0.23093906 0.92200005 1.1251809e-38
0.39463717 -0.28516287 0.92700005 1.6601009e-38
0.39554769 -0.28807145 0.92500007 1.6503029e-38
0.39354149 -0.28236145 0.92650008 1.6140407e-38
0.39554766 -0.28190479 0.92500007 1.7248179e-38
0.38934001 -0.27633432 0.92700005 1.5577539e-38
0.39337596 -0.27784777 0.92700011 1.6968019e-38
0.39583275 -0.27770132 0.92566675 1.7244953e-38
0.38868859 -0.27221334 0.92650008 1.2455496e-38
0.39287144 -0.27280286 0.92700005 1.7248193e-38
0.39620191 -0.27192003 0.92550004 1.7888872e-38
0.38845718 -0.26927143 0.92700005 1.0152442e-38
0.39762476 -0.26706859 0.9262501 1.807507e-38
0.46719846 -0.26810321 0.92500007 1.2356009e-38
0.39905149 -0.26220858 0.92700005 1.4578144e-38
0.40083337 -0.26252383 0.92500007 1.7802801e-38
0.39905149 -0.25691146 0.92700005 1.5770556e-38
0.40215123 -0.25759646 0.92550009 1.2083875e-38
0.39934576 -0.25279146 0.92700005 1.6327694e-38
0.4032498 -0.25288549 0.92600012 1.033182e-38
0.40682384 -0.25248098 0.92500013 6.4653725e-39
0.39993432 -0.24984859 0.92700005 1.4386232e-38
0.40258288 -0.24896574 0.92700005 1.4478772e-38
0.40739807 -0.24809673 0.92645466 1.3739399e-38
0.41243339 -0.24646161 0.92533344 1.328201e-38
0.40758574 -0.24337429 0.92700005 1.3744461e-38
0.41280401 -0.24256715 0.92616677 1.3928129e-38
0.41757146 -0.24138097 0.92500007 1.4112157e-38
0.42197621 -0.24050002 0.92500007 1.2817478e-38
0.41317517 -0.23817161 0.92671442 1.2728843e-38
0.41736072 -0.23701072 0.92600006 1.2727795e-38
0.42228034 -0.23714572 0.92566669 1.1618583e-38
0.42771357 -0.23688312 0.92550009 9.5067115e-39
0.43227145 -0.23655842 0.92566681 9.3208867e-39
0.43827385 -0.23565477 0.92500007 9.9651659e-39
0.44314918 -0.23647487 0.92580003 9.6835525e-39
0.44718763 -0.23602079 0.92540008 9.8667429e-39
0.45170838 -0.23719642 0.92500013 1.0971272e-38
0.42288861 -0.23395716 0.92700005 1.069912e-38
0.42818576 -0.23307431 0.92700005 1.0514736e-38
0.43316984 -0.23378891 0.92633343 9.6857021e-39
0.43660969 -0.23197567 0.92614299 9.3205083e-39
0.44290879 -0.23298466 0.92614299 9.5019807e-39
0.4475747 -0.2316364 0.92620009 1.0881956e-38
0.45075402 -0.2328651 0.92500007 1.1064559e-38
0.44937432 -0.22866002 0.92700005 1.1436204e-38
0.39237145 -0.27900001 0.93000007 1.7058043e-38
0.39325717 -0.27014288 0.93000007 1.5040927e-38
0.39591432 -0.27014288 0.93000007 1.8627163e-38
0.38882861 -0.26837143 0.93000007 8.9538866e-39
0.39298618 -0.26735133 0.9308573 1.309945e-38
0.39591432 -0.26748574 0.93000007 1.6788667e-38
0.39708385 -0.26324511 0.9306668 1.3377101e-38
0.39708385 -0.25792703 0.9306668 1.4944042e-38
0.39873639 -0.2522907 0.93080008 1.4115022e-38
0.39899909 -0.24826668 0.93100005 1.3653329e-38
0.40255103 -0.24658193 0.93050015 1.4113227e-38
0.40351924 -0.24282058 0.93120003 1.3468224e-38
0.40691656 -0.24151568 0.9308573 1.346859e-38
0.41008574 -0.24002859 0.93000007 1.3007612e-38
0.4087486 -0.23743811 0.93200004 1.2915425e-38
0.41207811 -0.23651716 0.93100011 1.2363313e-38
0.41274291 -0.23344383 0.93200004 1.1441369e-38
0.41756979 -0.23316427 0.93088901 1.2360802e-38
0.42249176 -0.2325788 0.93057162 1.1437035e-38
0.42735717 -0.23161429 0.93000007 9.8682997e-39
0.43365487 -0.23197944 0.93040007 9.8693745e-39
0.44241434 -0.23161429 0.93000007 8.9513601e-39
0.44551432 -0.23117144 0.93000007 9.8700163e-39
0.41895622 -0.22989334 0.93200004 1.1808706e-38
0.42339432 -0.22989334 0.93200004 1.0883503e-38
0.42729983 -0.22918324 0.9320001 9.9615645e-39
0.43138289 -0.22900572 0.93200004 9.5924261e-39
0.4375785 -0.22854541 0.93133348 9.227591e-39
0.44292194 -0.22900572 0.9320001 9.1335751e-39
0.44776544 -0.22875971 0.93100011 1.0422044e-38
0.38909814 -0.26752257 0.93633342 1.1151799e-38
0.39252514 -0.26623905 0.93600005 1.3191978e-38
0.39710954 -0.26503715 0.93700004 1.4291885e-38
0.39354002 -0.26236004 0.93700004 1.4019599e-38
0.39651462 -0.26206258 0.93700004 1.5035876e-38
0.39715242 -0.25645715 0.93500006 1.2272929e-38
0.39780957 -0.25169334 0.93550003 1.2179283e-38
0.39855298 -0.2473347 0.93619996 1.1071523e-38
0.39920419 -0.24344543 0.93633336 1.1808001e-38
0.40235913 -0.24248424 0.93557149 1.3190917e-38
0.4042486 -0.23826572 0.93700004 1.2827165e-38
0.40694168 -0.2376612 0.93550003 1.2915412e-38
0.40835714 -0.23352516 0.93660003 1.1718314e-38
0.41216156 -0.23197594 0.93528575 1.1993817e-38
0.41644606 -0.23122701 0.93500012 1.1899827e-38
0.42297623 -0.23063335 0.93500006 1.1438477e-38
0.43544289 -0.23063335 0.93500006 9.2286714e-39
0.40960288 -0.22934192 0.93700004 1.0522293e-38
0.41317242 -0.22778025 0.93700016 1.2083863e-38
0.41763389 -0.22760287 0.93614298 1.2268965e-38
0.42238957 -0.227394 0.93633348 1.1436329e-38
0.42692807 -0.2267697 0.9358573 9.7779076e-39
0.43203494 -0.2262613 0.93533337 9.4119907e-39
0.43671504 -0.22681704 0.93500006 9.5023885e-39
0.4422105 -0.22635905 0.93500006 9.0417522e-39
0.44753653 -0.22612259 0.93528575 1.0236254e-38
0.41495717 -0.22398764 0.93700004 1.1900187e-38
0.41763431 -0.22309525 0.93700004 1.1437771e-38
0.42209625 -0.22398764 0.93700004 1.0328922e-38
0.42745051 -0.22398764 0.93700004 9.13362e-39
0.43280479 -0.22398764 0.93700004 8.860249e-39
0.43860525 -0.22354144 0.93700004 8.4860659e-39
0.44262099 -0.22398764 0.93700004 8.4842554e-39
0.44733787 -0.22271281 0.93700016 1.0141538e-38
0.3965905 -0.26588574 0.94000006 1.5578653e-38
0.39384574 -0.26465717 0.94200003 1.2730645e-38
0.39701146 -0.26168668 0.94100004 1.4204336e-38
0.39806542 -0.25711685 0.94066668 1.2083132e-38
0.39774987 -0.25311369 0.94133341 1.2086004e-38
0.3992286 -0.24761145 0.94200003 1.0793158e-38
0.3992286 -0.24492002 0.94200003 1.1439585e-38
0.4023886 -0.24152288 0.94100004 1.2454081e-38
0.40327212 -0.23825622 0.94166672 1.1899843e-38
0.40554288 -0.23634288 0.94000006 1.1990244e-38
0.40461147 -0.23325716 0.94200003 1.1900194e-38
0.407814 -0.2321399 0.94111115 1.1625398e-38
0.40820003 -0.22877145 0.94200009 1.1070077e-38
0.41239938 -0.22725272 0.94066668 1.0703818e-38
0.41537717 -0.22518288 0.94200003 1.1993091e-38
0.41789147 -0.2231981 0.94120008 1.1807613e-38
0.4225536 -0.2221223 0.94120008 9.6813987e-39
0.42702863 -0.22201906 0.94000006 8.5790056e-39
0.43222594 -0.22229221 0.94040006 8.1212519e-39
0.43734008 -0.22225432 0.9410001 7.3829554e-39
0.44300038 -0.22179906 0.94033337 8.3920304e-39
0.44761908 -0.22112383 0.94000006 9.5894287e-39
0.42434859 -0.21980001 0.94200003 9.0403243e-39
0.42778513 -0.21882509 0.94166672 8.4882295e-39
0.43242288 -0.21980001 0.94200003 7.8414294e-39
0.4369086 -0.21980003 0.94200009 7.1045818e-39
0.44348764 -0.21920192 0.94200009 8.4824211e-39
0.44793066 -0.21851839 0.94200003 1.0326977e-38
0.44408575 -0.21172573 0.94200003 9.6837795e-39
0.44588003 -0.21172573 0.94200003 9.6837992e-39
0.39180931 -0.26616073 0.94575012 8.3949507e-39
0.38913146 -0.26273143 0.94800007 1.1514048e-38
0.3920505 -0.2622689 0.94633335 9.5023843e-39
0.39555001 -0.26144999 0.94500005 1.2543025e-38
0.39409715 -0.25776571 0.94800007 1.0978588e-38
0.39690003 -0.25740001 0.94500011 1.1990577e-38
0.39454859 -0.25370288 0.94800007 1.180509e-38
0.39685878 -0.25225306 0.94633347 1.10697e-38
0.39787558 -0.2474331 0.9467144 1.1347366e-38
0.39787877 -0.24269716 0.94733346 1.1991661e-38
0.40050003 -0.24210003 0.94500005 1.1807649e-38
0.39951432 -0.23790286 0.94800007 1.1809078e-38
0.40194002 -0.23742001 0.94500011 1.1717256e-38
0.39996573 -0.23384002 0.94800007 1.1992392e-38
0.4024837 -0.23264472 0.94581825 1.23601e-38
0.40590003 -0.23130001 0.94500005 1.2082784e-38
0.40314957 -0.22878192 0.94700003 1.2729236e-38
0.40750822 -0.22751966 0.94612509 1.1900185e-38
0.41265002 -0.22635001 0.94500005 1.1254463e-38
0.40862289 -0.2233192 0.9471429 1.143849e-38
0.41285288 -0.22265072 0.94650012 1.1528887e-38
0.41713911 -0.22163431 0.9460001 1.1807621e-38
0.42210004 -0.22050002 0.94500005 1.0332485e-38
0.44190001 -0.22050001 0.94500005 7.7481267e-39
0.41305715 -0.21894288 0.94800007 1.1898755e-38
0.41824856 -0.2178143 0.94800001 1.1810488e-38
0.42234981 -0.217549 0.94671428 1.0146658e-38
0.42682502 -0.21679215 0.94650006 8.8577225e-39
0.43291149 -0.21703391 0.9467144 7.9346802e-39
0.43776432 -0.2171893 0.94725001 6.553552e-39
0.44267812 -0.21728194 0.94666672 7.1949347e-39
0.44730005 -0.21600002 0.94500011 9.8685309e-39
0.42705145 -0.21397716 0.94800007 8.4878736e-39
0.43156576 -0.21397716 0.94800007 7.7495785e-39
0.44240004 -0.21397716 0.94800007 6.8236397e-39
0.44710431 -0.21363859 0.94650006 9.1309645e-39
0.38995242 -0.26690477 0.95000005 1.3807379e-38
0.39176193 -0.26871431 0.95000005 1.1326467e-38
0.38995242 -0.26147622 0.95000005 9.7706306e-39
0.39118382 -0.26048669 0.95300007 7.934662e-39
0.39238372 -0.25718987 0.95200008 9.5985231e-39
0.39398575 -0.2526924 0.95100009 1.1992731e-38
0.39538097 -0.25152382 0.95000005 1.1809769e-38
0.39481434 -0.24778003 0.95300007 1.1715798e-38
0.39538097 -0.24700002 0.95000005 1.1809064e-38
0.39419287 -0.24285764 0.95150006 1.1717962e-38
0.39579719 -0.24182382 0.95100009 1.1993474e-38
0.39765945 -0.23732728 0.95112503 1.1534629e-38
0.39900002 -0.23433335 0.95000005 1.1993809e-38
0.4010483 -0.23240827 0.95200008 1.2268975e-38
0.40352386 -0.22619048 0.95000005 1.2176781e-38
0.40623811 -0.22619048 0.95000005 1.1902346e-38
0.40370718 -0.22246763 0.95150006 1.1164065e-38
0.40657604 -0.22171319 0.95150012 1.1348455e-38
0.40850204 -0.21810202 0.95200008 1.1715788e-38
0.41254216 -0.21635121 0.95150006 1.1531752e-38
0.41684765 -0.21567191 0.95150006 1.2546241e-38
0.41865861 -0.21385953 0.95150006 1.1624289e-38
0.42261735 -0.21296932 0.95066667 9.4098131e-39
0.42812061 -0.21247607 0.95037496 8.2112783e-39
0.43281835 -0.21188073 0.95075005 7.4729776e-39
0.43718901 -0.21397333 0.95120013 7.0127253e-39
0.44217777 -0.21338382 0.95180005 6.7332517e-39
0.44775695 -0.21142834 0.95075005 9.4057507e-39
0.41841242 -0.20966001 0.95300007 1.0886365e-38
0.42204291 -0.20966001 0.95300007 9.5963483e-39
0.42658097 -0.20966001 0.95300007 8.5821978e-39
0.44927147 -0.20875239 0.95300007 1.0141837e-38
0.4510867 -0.20784478 0.95300007 1.0233297e-38
0.38897669 -0.25688717 0.95650005 4.7096534e-39
0.39018577 -0.25739527 0.9550001 7.3808086e-39
0.38776192 -0.25455433 0.95800006 5.7244948e-39
0.39255083 -0.25228858 0.9563334 1.0337543e-38
0.39282382 -0.24760446 0.95700014 1.1348815e-38
0.39322495 -0.24351068 0.95620006 1.1441005e-38
0.39535195 -0.24140239 0.95650005 1.1533557e-38
0.3956534 -0.23744547 0.95628577 1.1625385e-38
0.39839691 -0.23384216 0.95725012 1.2269327e-38
0.40123793 -0.23112746 0.95620006 1.2454089e-38
0.40165803 -0.22714275 0.95687509 1.2269692e-38
0.40269548 -0.2227484 0.95620006 1.079708e-38
0.40401053 -0.21774001 0.95500004 1.1624309e-38
0.40716356 -0.21616352 0.9550001 1.1994166e-38
0.40791172 -0.21301022 0.95757163 1.2085281e-38
0.41210979 -0.21231145 0.95575005 1.189945e-38
0.41672444 -0.21177417 0.95537502 1.1623577e-38
0.42232224 -0.21131271 0.9550001 9.9651308e-39
0.43202385 -0.21010002 0.9550001 7.9343173e-39
0.43784481 -0.21082763 0.95500004 6.64394e-39
0.44312975 -0.21145545 0.95620006 6.9179919e-39
0.44727623 -0.21088478 0.95650005 8.7611128e-39
0.41239619 -0.20893525 0.95800006 1.1627183e-38
0.41752729 -0.20830858 0.9568001 1.1992712e-38
0.42305785 -0.20702307 0.95666677 9.6867405e-39
0.42804438 -0.20666288 0.95714301 8.8562595e-39
0.43213502 -0.20685002 0.95574999 8.0232787e-39
0.43735635 -0.20675634 0.95757163 7.2860682e-39
0.44255233 -0.2074433 0.9576667 7.0101721e-39
0.44825655 -0.20789272 0.95600003 1.0235483e-38
0.45021433 -0.20646192 0.95500004 1.0602461e-38
0.42425716 -0.20346096 0.95800006 9.5019947e-39
0.42973146 -0.20346096 0.95800006 8.5775217e-39
0.43246859 -0.20254859 0.95800006 8.1136723e-39
0.43520576 -0.20346096 0.95800006 7.5612145e-39
0.44839528 -0.20464288 0.95500004 1.0695751e-38
0.45021433 -0.20373335 0.95500004 1.0696115e-38
0.38803908 -0.25216061 0.96140003 8.5861004e-39
0.3908067 -0.25260574 0.96100003 7.1146375e-39
0.38889015 -0.24807489 0.96260005 8.9552991e-39
0.39167097 -0.24828669 0.96200001 1.0149552e-38
0.3888686 -0.24487716 0.96300006 7.7600378e-39
0.39260322 -0.242707 0.96166676 1.1716506e-38
0.39396101 -0.23729335 0.96200007 1.2083135e-38
0.39629811 -0.2352162 0.96100003 1.2082783e-38
0.39755338 -0.23235418 0.962143 1.2544841e-38
0.39866719 -0.22784241 0.96175003 1.2545923e-38
0.39849859 -0.2233243 0.96300006 1.2086386e-38
0.40162328 -0.22233975 0.9618572 1.2177844e-38
0.39895716 -0.21919715 0.96300006 1.2822873e-38
0.40279037 -0.21743037 0.96214294 1.2455524e-38
0.40545049 -0.21599621 0.96100003 1.2180022e-38
0.40446001 -0.21277717 0.96300006 1.2176778e-38
0.40705511 -0.21168402 0.96219999 1.2086367e-38
0.40862098 -0.2088905 0.96200007 1.1900168e-38
0.4123148 -0.2082167 0.96100003 1.1349509e-38
0.41731945 -0.20691791 0.96219999 1.2545541e-38
0.42100954 -0.20592858 0.96100003 1.1254407e-38
0.44810387 -0.20674649 0.96140003 9.7752521e-39
0.41730005 -0.20360574 0.96300018 1.2085623e-38
0.42224431 -0.20275858 0.96225011 1.0514335e-38
0.42779639 -0.20244697 0.9618572 9.4087145e-39
0.4321675 -0.20097013 0.96180004 8.7608311e-39
0.43766689 -0.20190154 0.96100008 7.6555457e-39
0.44206005 -0.20226765 0.96100003 7.4725726e-39
0.44687527 -0.20304286 0.96250004 1.041848e-38
0.45123431 -0.20360574 0.96300006 1.0788674e-38
0.43320674 -0.19874446 0.9616667 8.4889134e-39
0.43839431 -0.19902001 0.96300006 7.4743985e-39
0.44206119 -0.19803831 0.96180004 8.9448146e-39
0.38884145 -0.24233431 0.96750003 8.3049285e-39
0.39171052 -0.24159527 0.96700001 1.0801384e-38
0.38852289 -0.23809716 0.96900004 9.7782677e-39
0.39214003 -0.23722072 0.96824998 1.1720462e-38
0.39379841 -0.23264576 0.96771437 1.1715802e-38
0.39652002 -0.23184001 0.96600002 1.180693e-38
0.39437002 -0.22759287 0.96749997 1.1441713e-38
0.39652002 -0.22724003 0.96600002 1.107439e-38
0.39421502 -0.22269645 0.96825004 1.1808714e-38
0.39692861 -0.22225523 0.96700001 1.2268623e-38
0.39406002 -0.21871716 0.96900004 1.2364779e-38
0.39775002 -0.21759002 0.96810001 1.337425e-38
0.40112004 -0.21712002 0.96600002 1.236154e-38
0.39959717 -0.21225716 0.96900004 1.429653e-38
0.40217817 -0.21259271 0.96633339 1.3005804e-38
0.40572003 -0.21068001 0.96600002 1.3004355e-38
0.40266857 -0.20862058 0.9684 1.3929198e-38
0.40736669 -0.20700859 0.96700001 1.2822837e-38
0.41308007 -0.20608002 0.96600002 1.2266416e-38
0.40850788 -0.20333216 0.96825004 1.2084564e-38
0.41267034 -0.20172858 0.96719998 1.1162964e-38
0.41768003 -0.20148002 0.96600002 1.1716845e-38
0.42044002 -0.20148002 0.96600002 1.1437758e-38
0.42596003 -0.20148002 0.96600002 1.0054797e-38
0.44988003 -0.20240001 0.96600002 1.0880172e-38
0.45172003 -0.20148002 0.96600002 1.0972726e-38
0.41393337 -0.19882286 0.96800005 1.1991272e-38
0.41796073 -0.19802859 0.96824998 1.3648976e-38
0.42254037 -0.19825895 0.967125 1.088351e-38
0.42762765 -0.19800289 0.96700001 9.1357289e-39
0.4324567 -0.19749098 0.96750009 8.5782293e-39
0.43717375 -0.19730745 0.96719998 7.5640746e-39
0.44170648 -0.19687644 0.96825004 7.2856674e-39
0.43466574 -0.19472288 0.96900004 7.0116351e-39
0.43651146 -0.19472288 0.96900004 6.6410617e-39
0.38972574 -0.23605716 0.97200006 8.9585683e-39
0.39157715 -0.23605716 0.97200006 1.1625033e-38
0.39204001 -0.23189142 0.97200006 1.1347728e-38
0.39247888 -0.22726288 0.97240013 1.1717945e-38
0.39268801 -0.22272687 0.97200006 1.1997044e-38
0.39333412 -0.21827126 0.97360003 1.1994913e-38
0.39589715 -0.21630859 0.97200006 1.2728166e-38
0.39423811 -0.21335238 0.97400004 1.2087455e-38
0.39758417 -0.21223049 0.97311115 1.3745175e-38
0.40083432 -0.21013716 0.97200006 1.4024257e-38
0.39918542 -0.20809589 0.9740001 1.383486e-38
0.40234417 -0.20626605 0.97266674 1.3281316e-38
0.40587908 -0.20571905 0.97300005 1.2730296e-38
0.40698537 -0.20249881 0.97342861 1.3190546e-38
0.41009146 -0.20088001 0.97200006 1.235864e-38
0.40908003 -0.19943811 0.97400004 1.3283452e-38
0.41242725 -0.19740792 0.97314292 1.2453339e-38
0.4170343 -0.19578859 0.97200006 1.3377061e-38
0.42305145 -0.19532573 0.97200006 9.3161951e-39
0.42768002 -0.19532573 0.97200006 7.3829568e-39
0.43230861 -0.19532573 0.97200006 7.7456198e-39
0.43971431 -0.19532573 0.97200006 6.1815129e-39
0.44249147 -0.19532573 0.97200006 6.9179765e-39
0.41464573 -0.19387239 0.97400004 1.199273e-38
0.41742861 -0.19387239 0.97400004 1.4019924e-38
0.4225305 -0.19340858 0.97400004 1.1239346e-38
0.42748544 -0.19287841 0.97366667 7.379724e-39
0.43227053 -0.19294477 0.97400004 7.8374455e-39
0.43635812 -0.19305067 0.97360003 6.4584697e-39
0.44247434 -0.19387239 0.9740001 7.1009454e-39
0.38986954 -0.23634097 0.97700006 7.2043585e-39
0.39173049 -0.2354105 0.97700006 9.8736849e-39
0.39173049 -0.23261906 0.97700006 1.0978585e-38
0.39173049 -0.2279667 0.97700012 1.1903767e-38
0.39173049 -0.22238383 0.97700012 1.1811577e-38
0.39235085 -0.21742129 0.97700012 1.162719e-38
0.39359149 -0.21307907 0.97700012 1.1995618e-38
0.39545241 -0.2112181 0.97700006 1.3377105e-38
0.39731336 -0.20780635 0.97700012 1.4576003e-38
0.40103528 -0.20563525 0.97700006 1.4024613e-38
0.40289623 -0.20191336 0.97700012 1.4115015e-38
0.40754861 -0.2000524 0.97700006 1.3744077e-38
0.40475717 -0.19819143 0.97700006 1.3742652e-38
0.40754861 -0.19726096 0.97700006 1.3468929e-38
0.41096038 -0.19695079 0.97700012 1.2822482e-38
0.40754861 -0.19353905 0.97700006 1.3375656e-38
0.41220102 -0.19260859 0.97700012 1.2545182e-38
0.41778386 -0.19167811 0.97700012 1.3652948e-38
0.42243624 -0.19167811 0.97700006 1.0966011e-38
0.42708859 -0.19074765 0.97700012 7.6523788e-39
0.43267149 -0.19074765 0.97700012 7.7474121e-39
0.43732384 -0.19074763 0.97700006 5.080217e-39
0.44197622 -0.19186421 0.97700006 6.5499199e-39
0.44569811 -0.19167811 0.97700006 9.681274e-39
0.41406193 -0.18888667 0.97700006 1.2544808e-38
0.41778383 -0.18888669 0.97700012 1.3467113e-38
0.42243624 -0.18888667 0.97700006 7.0124002e-39
0.42708862 -0.18888669 0.97700012 7.5648341e-39
0.431741 -0.18888667 0.97700006 7.288229e-39
0.43825433 -0.18888667 0.97700006 2.8754462e-39
0.38826668 -0.23613335 0.98000002 1.1241499e-38
0.3885543 -0.23305678 0.98120004 8.67046e-39
0.39089787 -0.23210979 0.98075002 1.0795993e-38
0.38851908 -0.22562192 0.98300004 9.5985287e-39
0.39066157 -0.22758992 0.98180008 1.0981825e-38
0.39141053 -0.2227263 0.98180008 1.1626814e-38
0.39293337 -0.21560001 0.98000002 1.1808351e-38
0.39293337 -0.21280001 0.98000002 1.3190557e-38
0.39367408 -0.20737568 0.98133332 1.3562932e-38
0.39760005 -0.20626669 0.98000002 1.4025355e-38
0.39400005 -0.20331001 0.98150003 1.3007245e-38
0.39737269 -0.20235445 0.98042858 1.3835208e-38
0.40040001 -0.20253335 0.98000002 1.3931352e-38
0.39781004 -0.19761883 0.98225003 1.4207579e-38
0.40226665 -0.19693334 0.97999996 1.4114299e-38
0.40600002 -0.19600001 0.98000002 1.3742287e-38
0.39975336 -0.19379143 0.98300004 1.3745164e-38
0.40261775 -0.19203322 0.98085719 1.3929902e-38
0.40740001 -0.19180001 0.98000002 1.3470004e-38
0.44333336 -0.19133334 0.98000002 6.3608623e-39
0.40413335 -0.18946669 0.98000002 1.3281271e-38
0.40755421 -0.18788546 0.98150009 1.1701324e-38
0.41267341 -0.18757704 0.98128569 1.1612035e-38
0.41720003 -0.18666667 0.98000002 1.4017039e-38
0.42280006 -0.18666667 0.98000002 8.9359093e-39
0.42746669 -0.18666667 0.98000002 7.1985557e-39
0.43176004 -0.18685335 0.98000002 7.2871458e-39
0.43713287 -0.18750884 0.98074996 5.9989153e-39
0.44257927 -0.18757704 0.98128581 6.919787e-39
0.44613338 -0.18853337 0.98000002 9.9600147e-39
0.41379622 -0.18442954 0.98300004 1.1055513e-38
0.4175193 -0.1835393 0.98075002 1.410492e-38
0.42251098 -0.18321192 0.98150003 8.2094664e-39
0.42696673 -0.18343018 0.98100007 7.7484897e-39
0.43252003 -0.18442954 0.98300004 7.1938585e-39
0.43720099 -0.18442956 0.98300004 6.548101e-39
0.3870824 -0.23112145 0.98650002 1.2979101e-38
0.38776886 -0.22815472 0.98585725 1.0689751e-38
0.38833511 -0.22329256 0.98650014 1.0977137e-38
0.39095557 -0.2213016 0.98600006 1.2176031e-38
0.3886134 -0.21736002 0.98800009 1.2183625e-38
0.39169374 -0.21734631 0.986875 1.3006164e-38
0.39196274 -0.21268791 0.98628581 1.3284915e-38
0.391864 -0.20815796 0.98750007 1.3283846e-38
0.39365909 -0.20199764 0.98650002 1.319236e-38
0.3945986 -0.1982381 0.98650002 1.3375315e-38
0.39647764 -0.1963605 0.98650002 1.3650467e-38
0.39804098 -0.19291145 0.98671436 1.3834131e-38
0.40119213 -0.19105875 0.98500007 1.374229e-38
0.39896381 -0.18772002 0.98800004 1.4115024e-38
0.4025141 -0.18705618 0.98575008 1.3654008e-38
0.40555051 -0.18536763 0.98800004 1.3277946e-38
0.40366861 -0.18348573 0.98800004 1.3741888e-38
0.40813398 -0.1834453 0.98666668 1.142578e-38
0.41276368 -0.18257891 0.98650002 1.1241712e-38
0.41733032 -0.18191314 0.98560011 1.3097218e-38
0.42350858 -0.18123619 0.98600006 1.0778698e-38
0.42842147 -0.18226621 0.98650002 8.7593962e-39
0.43217957 -0.18226621 0.98650002 7.9292712e-39
0.43781671 -0.18226621 0.98650002 6.8254249e-39
0.4426032 -0.18311238 0.98600006 7.9349815e-39
0.44533288 -0.18320429 0.98650002 9.5022862e-39
0.41401908 -0.17972192 0.98800004 1.1993359e-38
0.41809654 -0.17909464 0.98800009 1.2724884e-38
0.42248762 -0.17807527 0.98799998 9.4130333e-39
0.42719242 -0.17972192 0.98800004 1.143305e-38
0.43189722 -0.17878097 0.98800004 7.9350095e-39
0.43660197 -0.17784004 0.98800004 6.914022e-39
0.44224766 -0.17878097 0.98800004 8.5778215e-39
0.44507051 -0.17972192 0.98800004 9.4107982e-39
0.38766608 -0.22201715 0.9920001 8.9484804e-39
0.38413051 -0.2161324 0.99100006 7.5694752e-39
0.38738441 -0.2177745 0.99160016 1.0615203e-38
0.38364357 -0.21215463 0.99300003 9.6846035e-39
0.387963 -0.21276577 0.99290919 1.1349165e-38
0.38093096 -0.20795098 0.99250007 8.583962e-39
0.38820192 -0.20822234 0.9931429 1.2175344e-38
0.39168099 -0.20858192 0.99100006 1.3009418e-38
0.39292121 -0.20307264 0.99175012 1.2728155e-38
0.3943629 -0.1976524 0.99300003 1.3097289e-38
0.39545622 -0.19536859 0.99100006 1.3098373e-38
0.39476001 -0.19028001 0.99400002 1.3473986e-38
0.39669934 -0.19268216 0.99175012 1.3836287e-38
0.39749348 -0.18765251 0.99137509 1.365585e-38
0.39760002 -0.18460001 0.99400002 8.3200583e-39
0.40266949 -0.18243039 0.99250013 9.6954201e-39
0.40741116 -0.18089685 0.99100006 9.7864835e-39
0.41150099 -0.18026763 0.99100006 1.0330639e-38
0.44075906 -0.18026763 0.99100006 7.1927641e-39
0.41235271 -0.17710724 0.99142867 8.6701012e-39
0.41773015 -0.17724745 0.99100012 6.2816805e-39
0.42377052 -0.17649239 0.99100006 3.7027056e-39
0.42848957 -0.1774362 0.99100006 5.6384355e-39
0.4322648 -0.17649239 0.99100006 2.7731697e-39
0.4350962 -0.17649239 0.99100006 4.0577736e-39
0.44217476 -0.1769643 0.99100006 8.4820246e-39
0.38455716 -0.20889527 0.99700004 1.0242809e-38
0.38645622 -0.20794573 0.99700004 1.2084924e-38
0.39215335 -0.20604669 0.99700004 1.2636678e-38
0.39341938 -0.2022486 0.9970001 1.2821779e-38
0.39405242 -0.19750097 0.99700004 1.3098728e-38
0.39405245 -0.19275336 0.9970001 1.3562938e-38
0.39595145 -0.19370288 0.99700004 1.3929195e-38
0.39405242 -0.18800572 0.99700004 9.9738315e-39
0.39595145 -0.18705618 0.9970001 1.0525552e-38
0.38380954 -0.20666668 1 9.0474947e-39
0.38848978 -0.20665407 1.00225 1.2087808e-38
0.3910605 -0.20602144 1.0015 1.2546271e-38
0.38878193 -0.20251049 1.003 1.2731386e-38
0.39193025 -0.20257293 1.0012859 1.2638829e-38
0.39220956 -0.19753715 1.0020001 1.2642062e-38
0.39165732 -0.19221894 1.0012858 1.1442111e-38
0.38802859 -0.20599049 1.006 1.1264524e-38
0.38908622 -0.20198049 1.0075001 1.1447126e-38
0.38937241 -0.19756381 1.007 1.1075489e-38
0.3870686 -0.20605144 1.011 9.9683819e-39
