# .PCD v0.7 - Point Cloud Data file format
VERSION 0.7
FIELDS x y z
SIZE 4 4 4
TYPE F F F
COUNT 1 1 1
WIDTH 874
HEIGHT 1
VIEWPOINT 0 0 0 1 0 0 0
POINTS 874
DATA ascii
0.043154292 -0.26624006 0.76800007
0.027648002 -0.26141259 0.76800007
0.032621715 -0.26170516 0.76800007
0.036571428 -0.26112002 0.76800001
0.043308336 -0.26259455 0.7675001
0.046425715 -0.26081368 0.76566672
0.024137145 -0.25892574 0.76800001
0.027782559 -0.25735804 0.76768756
0.032893181 -0.25729463 0.76750004
0.036878236 -0.25814629 0.76785725
0.044617146 -0.25892574 0.76800001
0.027794288 -0.25307432 0.76800007
0.03145143 -0.25380573 0.76800001
0.03828191 -0.27607146 0.77300006
0.019140955 -0.27018192 0.77300006
0.022815621 -0.27158403 0.77280003
0.027217908 -0.27203241 0.77240008
0.032371908 -0.27172402 0.77250004
0.037545718 -0.27018192 0.77300006
0.017849872 -0.26682043 0.77218181
0.022765294 -0.26756361 0.77111113
0.027133336 -0.2676667 0.77000004
0.032097146 -0.26778725 0.77072728
0.037460715 -0.26791883 0.77125001
0.040385716 -0.26728097 0.77100003
0.017628891 -0.26225337 0.7713334
0.022733336 -0.26253334 0.77000004
0.027133336 -0.26414666 0.77000004
0.032266669 -0.26424444 0.7700001
0.037766669 -0.26326668 0.77000004
0.041171432 -0.26180002 0.7700001
0.046933338 -0.26033336 0.77000004
0.017797969 -0.25737238 0.77226686
0.022556905 -0.25730026 0.77025002
0.038006861 -0.25606555 0.77040005
0.042232089 -0.25739872 0.7716924
0.047771718 -0.25767231 0.77170002
0.018891271 -0.25294942 0.77283335
0.022742858 -0.25237498 0.77033341
0.027133334 -0.25080004 0.7700001
0.032675311 -0.25197205 0.77030778
0.037333429 -0.25251129 0.77136374
0.040981274 -0.25349495 0.77300012
0.023097908 -0.24878632 0.77240008
0.027379051 -0.2478774 0.77175003
0.032059323 -0.24879922 0.7725715
0.036809526 -0.24956858 0.77300006
0.025966669 -0.27673051 0.77900004
0.033146191 -0.27721146 0.77775002
0.037089717 -0.276481 0.77580005
0.041333336 -0.27530953 0.77500004
0.018805524 -0.2734966 0.77740002
0.022200003 -0.27454001 0.77700001
0.027380003 -0.27454001 0.77700001
0.033270162 -0.27381241 0.77633333
0.037691433 -0.27344733 0.77600002
0.042119261 -0.27266914 0.77588892
0.045023814 -0.27088097 0.77500004
0.015500001 -0.26940477 0.77500004
0.043547623 -0.25611907 0.77500004
0.045761909 -0.25611907 0.77500004
0.016867794 -0.25183335 0.77627277
0.03911905 -0.25021431 0.77500004
0.042445399 -0.25182843 0.77733344
0.045927238 -0.25259599 0.77780008
0.018519867 -0.24859579 0.77785718
0.022136366 -0.24674433 0.7771818
0.02694048 -0.24615477 0.77500004
0.032741271 -0.24691081 0.77544445
0.037751239 -0.24766557 0.77720004
0.023354288 -0.24430002 0.77850002
0.027402649 -0.24366678 0.77766675
0.032395758 -0.24387836 0.77790922
0.036306668 -0.24451335 0.778
0.029045716 -0.28077525 0.78200006
0.03053524 -0.28077525 0.78200006
0.028264765 -0.27818573 0.78100002
0.030457145 -0.27857146 0.78000003
0.047786668 -0.25013334 0.78400004
0.017362542 -0.24605653 0.78133339
0.039421909 -0.2454562 0.78100002
0.042469844 -0.24736324 0.78233337
0.045890957 -0.2484805 0.78350008
0.018666668 -0.24341334 0.78400004
0.022170113 -0.24227443 0.78200006
0.027545083 -0.24119972 0.78166676
0.032425851 -0.24144466 0.78142864
0.037518732 -0.2423759 0.78266668
0.041066669 -0.24341334 0.78400004
0.023644447 -0.23868448 0.78400004
0.027749959 -0.2375325 0.78363639
0.032093655 -0.23733845 0.78366673
0.035733338 -0.23754671 0.78400004
0.028373336 -0.23221336 0.78400004
0.032106668 -0.23221336 0.78399998
0.036586668 -0.2325867 0.78399998
0.027626669 -0.22713602 0.78400004
0.032480001 -0.22661334 0.78400004
0.036160007 -0.22752003 0.78400004
0.027762424 -0.22271034 0.78399998
0.032106668 -0.22250667 0.78400004
0.036816418 -0.222679 0.78400004
0.028373335 -0.21728002 0.78400004
0.032106668 -0.21728002 0.78399998
0.035690673 -0.21757868 0.78400004
0.014277143 -0.24722001 0.78900003
0.01572 -0.24628001 0.78600001
0.047751907 -0.24681002 0.7865001
0.050543811 -0.24731641 0.78740007
0.016944669 -0.24263687 0.78730005
0.02021143 -0.24029145 0.78600001
0.038925715 -0.24029145 0.78600001
0.04297924 -0.24229887 0.78620005
0.047125243 -0.24267213 0.78790003
0.014277143 -0.23670001 0.78900003
0.017123239 -0.23778155 0.78860009
0.021880636 -0.23703112 0.78622234
0.026200002 -0.23580001 0.78600001
0.0386049 -0.23729718 0.78600001
0.042717677 -0.23756637 0.78688896
0.047448669 -0.23769116 0.7883001
0.050345719 -0.23594859 0.78900003
0.013776191 -0.23118953 0.78900003
0.01740684 -0.23257689 0.78845459
0.022300221 -0.23275711 0.78661555
0.026200002 -0.23280573 0.78600001
0.038925715 -0.23205715 0.78600001
0.042668574 -0.23280573 0.78600007
0.047132991 -0.23238948 0.78781825
0.050721433 -0.23181573 0.78900003
0.013525716 -0.22768287 0.78900003
0.017263176 -0.22742635 0.78811121
0.022617145 -0.22753146 0.7864002
0.027697146 -0.22906287 0.78600001
0.031889148 -0.2292126 0.78600001
0.03907543 -0.22861373 0.78600001
0.042668577 -0.22756574 0.78600013
0.047241271 -0.22720194 0.78733337
0.051644769 -0.22742312 0.78875005
0.0134083 -0.22258331 0.78842866
0.017108096 -0.2225626 0.78790009
0.022457145 -0.22232571 0.78600013
0.026200002 -0.22082859 0.78600001
0.03967429 -0.22232574 0.78600001
0.042668574 -0.22232573 0.78600007
0.047267094 -0.22282818 0.78777784
0.051829435 -0.22278889 0.78870004
0.013972955 -0.21800879 0.78880006
0.017611748 -0.21810277 0.78877783
0.02249893 -0.21749838 0.78750008
0.02748327 -0.21783432 0.78600001
0.0386049 -0.21762042 0.78600001
0.042668574 -0.21783431 0.78600007
0.047295325 -0.21770661 0.78825009
0.050705481 -0.21859597 0.78875005
0.022993717 -0.21385661 0.78900003
0.027882477 -0.21331242 0.78700012
0.032215558 -0.21277303 0.78666681
0.037506312 -0.21303156 0.78762513
0.042777147 -0.21313289 0.78800005
0.046588574 -0.21415716 0.78900003
0.029305717 -0.20964858 0.78900003
0.032297783 -0.20956001 0.78866673
0.036820002 -0.20964858 0.78900003
0.01319143 -0.24649478 0.79149997
0.052045718 -0.24589622 0.79200006
0.013387381 -0.24231358 0.792
0.051464766 -0.24223763 0.79175001
0.00830762 -0.23638955 0.7930001
0.012625476 -0.2374505 0.79150003
0.052449122 -0.23768725 0.79157144
0.055132385 -0.23638953 0.79300004
0.0033985716 -0.2318581 0.79300004
0.0074888654 -0.2326524 0.79253858
0.012304446 -0.23328224 0.79100001
0.053486668 -0.23278002 0.79100001
0.056894608 -0.23210987 0.7930001
0.06344001 -0.2318581 0.79300004
0.0033985716 -0.22770429 0.79300004
0.0077538774 -0.22738832 0.79171437
0.0113 -0.22750668 0.79100001
0.054692 -0.22795868 0.79100001
0.057398103 -0.22732668 0.7930001
0.0081319576 -0.22294275 0.79233342
0.0113 -0.22223334 0.79100007
0.054616667 -0.22185668 0.79100001
0.057189912 -0.22287183 0.79220003
0.0093146041 -0.21927081 0.7930001
0.011811747 -0.21714161 0.79166669
0.016573334 -0.21620668 0.79100001
0.052045714 -0.21723334 0.79200006
0.055132385 -0.21977431 0.79300004
0.013731621 -0.21381734 0.79220003
0.01735159 -0.21275191 0.79216671
0.022394547 -0.21154973 0.79099995
0.027120002 -0.21093334 0.79100001
0.038420003 -0.21018001 0.79100001
0.042940002 -0.21018001 0.79100007
0.047500003 -0.21236648 0.79166675
0.050600957 -0.21373239 0.79300004
0.023231005 -0.2079089 0.79255563
0.027927304 -0.20757365 0.79255563
0.03245746 -0.20757324 0.79255563
0.036990479 -0.2083578 0.79266679
0.041236002 -0.20859678 0.79300004
0.029454287 -0.20466954 0.79300004
0.0087250005 -0.24547407 0.79675007
0.011357144 -0.24682859 0.79500002
0.053757146 -0.24682859 0.79500002
0.056691844 -0.24616779 0.79671425
0.0038000003 -0.24168003 0.79800004
0.0075866673 -0.24208574 0.7968334
0.011357144 -0.24380001 0.79500002
0.053757146 -0.24380001 0.79500002
0.057652544 -0.24198493 0.79649997
0.061862383 -0.24175669 0.79700005
0.0024607144 -0.23679642 0.79500002
0.0068142861 -0.23774287 0.79500002
0.058041912 -0.2373164 0.79560006
0.062895559 -0.23718448 0.79566664
0.06598191 -0.23738192 0.79633343
-0.00075904769 -0.23150954 0.79700005
0.0013628573 -0.23244289 0.79500002
0.059435718 -0.23282145 0.79500002
0.062626533 -0.23244289 0.79500002
-0.00075904769 -0.2292324 0.79700005
0.0013636191 -0.22782575 0.79580003
0.059814289 -0.22790001 0.79500002
0.062842861 -0.22790003 0.79500002
0.0030304764 -0.22273858 0.79550004
0.0059083812 -0.22165087 0.79540008
0.05893581 -0.22256021 0.79540008
0.062868573 -0.22345018 0.79533339
0.065871432 -0.22260001 0.79500002
0.0034180954 -0.21836239 0.79750007
0.0076487917 -0.21728265 0.797077
0.053297468 -0.21647143 0.79566669
0.055375718 -0.21694858 0.79650003
0.012897778 -0.21244416 0.79666674
0.01669905 -0.2102562 0.79700005
0.049307145 -0.21088144 0.79650003
0.05216084 -0.21281178 0.79662502
0.014440001 -0.20900001 0.79800004
0.017802119 -0.20781165 0.79733336
0.021988166 -0.20634656 0.79614288
0.027290478 -0.20544383 0.796
0.032585718 -0.20535779 0.79566669
0.037146669 -0.20620096 0.79600012
0.042966068 -0.20710061 0.79654551
0.047258455 -0.2083894 0.79712498
0.018240001 -0.20444001 0.79800004
0.022293335 -0.20342669 0.79800004
0.027348574 -0.20283461 0.79766673
0.032644235 -0.20269251 0.79711115
0.037002861 -0.20324452 0.79757148
0.042044606 -0.20389065 0.79783338
0.028120002 -0.19988003 0.79800004
0.031920001 -0.19988002 0.79800004
0.058207624 -0.22088192 0.80066669
0.061257146 -0.22205716 0.80400002
0.0058501596 -0.21546796 0.80133337
0.058098417 -0.2178648 0.80266666
0.060491432 -0.21976002 0.80400002
0.0083990488 -0.21289468 0.80180007
0.011823811 -0.21131049 0.801
0.053781908 -0.21131049 0.801
0.05669225 -0.21311022 0.80285716
0.0099542867 -0.20904002 0.80400002
0.012813334 -0.2074995 0.80200005
0.016000001 -0.2064762 0.80000001
0.049173813 -0.2066043 0.80049998
0.052386101 -0.20770268 0.80180007
0.055897146 -0.20904002 0.80400002
0.01401397 -0.20461462 0.80266666
0.017396573 -0.20251127 0.80120003
0.021849841 -0.20148033 0.80033344
0.02514286 -0.20038097 0.80000001
0.034285717 -0.20038097 0.80000001
0.037657529 -0.20109068 0.80039996
0.042515479 -0.20190217 0.80075002
0.047275849 -0.20305523 0.80181825
0.051770799 -0.20325527 0.8033334
0.018377144 -0.19985144 0.80400002
0.022677463 -0.19849968 0.80266666
0.027693685 -0.19787344 0.80163646
0.032975588 -0.19722359 0.80181825
0.037329908 -0.19781524 0.80319995
0.041808005 -0.19923888 0.80400002
0.063368104 -0.22159669 0.80650002
0.066695005 -0.22199263 0.80725008
0.05910667 -0.21570097 0.80600005
0.062212281 -0.2173564 0.80644453
0.066948578 -0.21777527 0.80800003
0.0038452384 -0.21225573 0.80750006
0.0066015245 -0.21170937 0.80600005
0.058411755 -0.21135589 0.8070001
0.062162485 -0.21279715 0.80779999
0.067333341 -0.21431237 0.80800003
0.0074742865 -0.2081188 0.80690914
0.01000381 -0.20546287 0.80800003
0.054500956 -0.20648953 0.80600005
0.057070863 -0.20751429 0.80760002
0.012725079 -0.20301548 0.8071112
0.016120002 -0.20034859 0.80600005
0.04774591 -0.20096269 0.80600005
0.052867729 -0.20250244 0.8071112
0.018119458 -0.19777662 0.80714297
0.021776829 -0.19700921 0.8070001
0.027173717 -0.19604991 0.80600005
0.031472381 -0.19574288 0.80600005
0.038380954 -0.19574288 0.80600005
0.042453878 -0.19690888 0.8062858
0.046409212 -0.19819842 0.80766672
0.050019052 -0.19930668 0.80800003
0.019238096 -0.19468954 0.80800003
0.022700954 -0.19430476 0.80800003
0.027422858 -0.19333187 0.80733341
0.032507535 -0.19287914 0.80745459
0.03749143 -0.19322239 0.80750006
0.041297778 -0.19417652 0.80800003
0.063257143 -0.21060002 0.81000006
0.066397466 -0.2123162 0.81066668
0.0032472385 -0.20833449 0.81199998
0.0069514289 -0.2058381 0.81099999
0.058870859 -0.20658362 0.81120008
0.062504999 -0.20841071 0.8127501
0.066302866 -0.20922858 0.81266677
0.0085066669 -0.2041581 0.81200004
0.011585714 -0.20158954 0.81099999
0.054346036 -0.20064318 0.81133336
0.057176877 -0.20315675 0.81285727
0.013664974 -0.19793928 0.8122223
0.016605714 -0.19657049 0.81099999
0.043971431 -0.19517145 0.81000006
0.047630798 -0.19644162 0.81100005
0.051852006 -0.19765316 0.81260014
0.055662103 -0.19799583 0.81400007
0.014212701 -0.19406796 0.81400001
0.018339366 -0.19347143 0.8136667
0.022240715 -0.19242355 0.81225002
0.026664289 -0.19128144 0.81150001
0.032418571 -0.19066049 0.81050009
0.038257621 -0.19128145 0.81150007
0.042713571 -0.19230501 0.81175005
0.047019325 -0.19327296 0.81314296
0.051940959 -0.19458477 0.81400001
0.022481907 -0.18993334 0.81400001
0.027520953 -0.18954574 0.81400001
0.03274234 -0.18835413 0.81327283
0.037454925 -0.18882194 0.8136667
0.04108762 -0.18993334 0.81400001
0.0038952385 -0.20566763 0.81800008
0.0054333336 -0.20569049 0.81500006
0.062456831 -0.20550701 0.81633341
0.0039000004 -0.20280001 0.81900007
0.0068665813 -0.20227022 0.81772739
0.010102858 -0.2020562 0.81600004
0.05941524 -0.20232098 0.81550002
0.061419368 -0.20291589 0.81633341
0.0085800001 -0.19890001 0.81900007
0.010632699 -0.19789366 0.81700009
0.058310162 -0.19773367 0.81633329
0.060764767 -0.19943525 0.81800008
0.012833572 -0.19271287 0.81675005
0.017341588 -0.19127938 0.81533337
0.043466669 -0.19016668 0.81500006
0.047682099 -0.19088097 0.81540006
0.052118629 -0.19213514 0.81677783
0.056200482 -0.19329502 0.81675005
0.014820001 -0.18954001 0.81900007
0.018130478 -0.18809566 0.81757152
0.022552066 -0.18741725 0.81655562
0.026988812 -0.18698169 0.81550002
0.032134291 -0.18582003 0.81500006
0.038566988 -0.18662034 0.81533337
0.042795241 -0.18751842 0.81700003
0.047298808 -0.18782881 0.81750005
0.051480003 -0.18954001 0.81900007
0.023010002 -0.18447 0.81900007
0.027288258 -0.18400478 0.81866682
0.031953976 -0.18314953 0.81833345
0.037406433 -0.18391073 0.81825006
0.0023457145 -0.20720479 0.82100004
0.002739524 -0.20237002 0.82200003
0.063488573 -0.2045743 0.82300001
0.0031276192 -0.19938573 0.82100004
0.007042286 -0.19718269 0.82160008
0.061205149 -0.19770116 0.82180005
0.011750001 -0.19230764 0.82249999
0.053951431 -0.19000287 0.82100004
0.057475239 -0.19153242 0.8222
0.060280003 -0.19414763 0.82200003
0.014874287 -0.18788478 0.82200003
0.017679049 -0.18602726 0.82140011
0.043004766 -0.18531144 0.82100004
0.048087146 -0.18570238 0.82100004
0.052272383 -0.18735477 0.82225001
0.05565048 -0.1888981 0.82300001
0.019056827 -0.18352351 0.82233334
0.022506906 -0.18220884 0.82200003
0.027366668 -0.18140191 0.82100004
0.032058097 -0.18062001 0.82100004
0.037531432 -0.18140191 0.82100004
0.043051753 -0.18237983 0.82188892
0.04758786 -0.18271169 0.82249999
0.05173143 -0.18419525 0.82300001
0.023514286 -0.1794924 0.82300001
0.02782524 -0.17910048 0.82300001
0.032109529 -0.17856318 0.82233334
0.037622862 -0.17870857 0.82300001
0.043109529 -0.1794924 0.82300007
0.046244767 -0.1794924 0.82300001
0.066544361 -0.20706084 0.82757151
0.063745722 -0.20225367 0.8263334
0.066446289 -0.20344059 0.82860005
0.0039285715 -0.19800001 0.82500005
0.0055200001 -0.19556478 0.82800007
0.063543819 -0.19693696 0.8278001
0.066912144 -0.1969862 0.82900006
0.0078830952 -0.19235072 0.82775003
0.010631906 -0.19139048 0.82700002
0.058928575 -0.19092858 0.82500005
0.061508894 -0.19241051 0.82800007
0.012613176 -0.18737827 0.82783341
0.054280005 -0.18565239 0.82600003
0.057524767 -0.18754213 0.82740003
0.013936191 -0.18328479 0.82833338
0.017250305 -0.18189828 0.82681823
0.049500003 -0.18150002 0.82500005
0.052786779 -0.1819876 0.82722229
0.056056194 -0.18238002 0.82900012
0.019211749 -0.17869556 0.82900012
0.022682667 -0.17752667 0.82700008
0.027353574 -0.17690787 0.82650006
0.032278098 -0.17635462 0.82666677
0.036973339 -0.1762124 0.82600009
0.042490289 -0.17704171 0.82620013
0.047932543 -0.17767666 0.82733345
0.052108575 -0.17843239 0.82900006
0.029212384 -0.17448477 0.82900006
0.032370478 -0.17448477 0.82900012
0.037062861 -0.17348477 0.82800007
0.041844763 -0.17369525 0.82900012
0.045792386 -0.17369525 0.82900006
0.066480003 -0.21131144 0.83100003
0.068062857 -0.20181429 0.83100003
0.067271426 -0.19706573 0.83100003
0.0055444445 -0.19247144 0.83166671
0.063710004 -0.19192144 0.83100003
0.067271434 -0.19231714 0.83099997
0.0079195239 -0.1880762 0.83150005
0.010288572 -0.18598573 0.83100003
0.059357148 -0.18598573 0.83100003
0.062404767 -0.18834382 0.83242863
0.067706674 -0.18886954 0.83150005
0.0087266676 -0.18484668 0.83300006
0.01155981 -0.1832246 0.83140004
0.058513336 -0.18255526 0.83185726
0.06108667 -0.18405335 0.83300006
0.017769389 -0.17780124 0.83185714
0.023006668 -0.17532668 0.83300006
0.053839054 -0.17708635 0.83133334
0.056689527 -0.17839192 0.83250004
0.024593335 -0.17374001 0.83300006
0.027722225 -0.1737251 0.83166671
0.032487623 -0.17273811 0.83200014
0.037241906 -0.17115335 0.83200002
0.041996192 -0.17115335 0.83200014
0.048050161 -0.17346065 0.83166665
0.052234292 -0.1741143 0.83100003
0.0071571432 -0.19006191 0.83500004
0.0071685719 -0.18717811 0.83633339
0.063657627 -0.18619667 0.8355
0.067302726 -0.18709865 0.83700007
0.007985238 -0.18367097 0.83850002
0.011621145 -0.18132821 0.83579999
0.059642863 -0.18051906 0.83500004
0.063155718 -0.18229097 0.83674997
0.067519531 -0.18418048 0.83900005
0.012173811 -0.17822714 0.83825004
0.016182542 -0.17694828 0.83566666
0.058769844 -0.17737177 0.83766669
0.062289052 -0.17887953 0.83850002
0.01358381 -0.17499144 0.83900005
0.017788572 -0.17275825 0.83814281
0.022904525 -0.17267644 0.83649993
0.027515238 -0.17161241 0.83500004
0.032604765 -0.17097621 0.83500004
0.047345717 -0.1714762 0.8355
0.051412385 -0.1717879 0.83785731
0.056300003 -0.17448762 0.83850002
0.019976191 -0.16859905 0.83900005
0.023147408 -0.16841917 0.83811122
0.028092762 -0.16807736 0.838
0.032708891 -0.16753051 0.83766675
0.037487783 -0.16749732 0.83750004
0.042273812 -0.16749668 0.83750004
0.046928193 -0.16807736 0.83800012
0.050340004 -0.16859905 0.83900005
0.038354289 -0.16380477 0.83900005
0.040751431 -0.16380477 0.83900005
0.0082765091 -0.18128225 0.84100002
0.064877145 -0.1802143 0.84100002
0.068363093 -0.18183121 0.84200001
0.011213334 -0.17620954 0.84100002
0.062373526 -0.17685772 0.84180003
0.065834291 -0.17823429 0.84300005
0.012993335 -0.17277087 0.8422001
0.016019048 -0.17060287 0.84100002
0.053663813 -0.17140383 0.84100002
0.056602102 -0.17268972 0.84180003
0.017381271 -0.16819844 0.84233344
0.021965906 -0.16627525 0.84180003
0.027232382 -0.16579716 0.84100002
0.048115242 -0.1659943 0.84200001
0.051815815 -0.1679583 0.8422001
0.055397145 -0.16940287 0.84300005
0.023684287 -0.1641843 0.84300005
0.0283098 -0.16332722 0.84242862
0.032865718 -0.1635232 0.8416667
0.037288096 -0.16318716 0.84200001
0.042831432 -0.16346611 0.84219998
0.04733175 -0.16365272 0.84233344
0.0072557144 -0.18058525 0.84650004
0.008875953 -0.17751692 0.84725004
0.010480477 -0.17574811 0.84650004
0.063188255 -0.17558318 0.84700006
0.067126803 -0.17720002 0.8462857
0.070097148 -0.17806098 0.84600008
0.011285239 -0.17252621 0.84650004
0.058449525 -0.17171717 0.84650004
0.060851622 -0.17286801 0.84740013
0.013697144 -0.16839239 0.84600008
0.015826985 -0.16712224 0.84500003
0.053564526 -0.16673216 0.84575003
0.056466676 -0.16778478 0.84700006
0.017736191 -0.16446143 0.84650004
0.02196762 -0.16305095 0.8465001
0.02737667 -0.16077891 0.84549999
0.032995239 -0.16095239 0.84500015
0.037823811 -0.16095239 0.84500015
0.042652383 -0.16095239 0.84500015
0.047510006 -0.16104716 0.84549999
0.052279145 -0.16296391 0.84710008
0.05572572 -0.16394667 0.84800005
0.028787462 -0.15793033 0.84750009
0.03309774 -0.15761726 0.84762508
0.03775619 -0.15768763 0.84800005
0.042803816 -0.15910098 0.84800005
0.046841905 -0.15910096 0.84800005
0.0056666671 -0.18052383 0.85000002
0.0040666675 -0.17812002 0.85400003
0.0064828577 -0.17749432 0.85100001
0.068000004 -0.17566667 0.85000002
0.071238101 -0.17566667 0.85000002
0.0040666671 -0.17486668 0.85400003
0.0075073815 -0.17308596 0.85225004
0.011071747 -0.1714832 0.8506667
0.063395053 -0.17234668 0.85120004
0.067447864 -0.17328978 0.85325003
0.071040481 -0.17333953 0.85250002
0.0081333341 -0.16998668 0.85400003
0.012186668 -0.16772683 0.85314298
0.015380953 -0.16595238 0.85000002
0.058690481 -0.16716667 0.85000002
0.061909046 -0.16786 0.85250002
0.071573339 -0.16998668 0.85400003
0.017056933 -0.16218287 0.85288894
0.021488097 -0.16097286 0.85150003
0.052619051 -0.16109525 0.85000002
0.057765003 -0.16275026 0.85125005
0.061000004 -0.16348001 0.85400003
0.018706668 -0.15778668 0.85400003
0.022269145 -0.15767449 0.85340005
0.026063133 -0.15719402 0.85142863
0.033190478 -0.15623811 0.85000002
0.039666668 -0.15623811 0.85000002
0.042922225 -0.1571089 0.85033333
0.048222866 -0.15710329 0.85177791
0.052795082 -0.15756842 0.85283345
0.05605429 -0.15922573 0.85300004
0.02839905 -0.1545762 0.852
0.03312254 -0.15369864 0.85288888
0.037930887 -0.1539249 0.85257155
0.043272149 -0.15378691 0.85325003
0.046866037 -0.15414096 0.85333341
0.0034281907 -0.17192878 0.85720009
0.005706667 -0.17120001 0.85600007
0.067664765 -0.17079239 0.85600007
0.0040857145 -0.16914858 0.85800004
0.0076735243 -0.16833715 0.85720009
0.011149842 -0.16616572 0.85666674
0.064033814 -0.16681287 0.85650003
0.067965448 -0.16775648 0.85685718
0.071740955 -0.16793905 0.85600007
0.013219048 -0.16270936 0.85680002
0.015489525 -0.16060191 0.85600007
0.058697149 -0.16060191 0.85600007
0.062030479 -0.16242096 0.85699999
0.01712724 -0.15741526 0.85640001
0.020380953 -0.15571049 0.85600007
0.057700321 -0.15758541 0.85733336
0.018794287 -0.15444002 0.85800004
0.022444764 -0.15385143 0.85699999
0.026921365 -0.15255022 0.8565715
0.03148381 -0.15154174 0.85640013
0.038044449 -0.15136257 0.85600007
0.042800002 -0.15122668 0.85600007
0.04833198 -0.15198369 0.85600007
0.05300466 -0.15248868 0.85622227
0.032685716 -0.14953715 0.85800004
0.036320955 -0.14895429 0.85700005
0.042491429 -0.14953715 0.85800004
0.048211433 -0.14953715 0.85800004
0.052297145 -0.14953715 0.85800004
0.0041047623 -0.16829525 0.86200005
0.0073815882 -0.16707176 0.86133337
0.067650482 -0.16563906 0.86100006
0.0090200007 -0.16399905 0.86100006
0.011069525 -0.16276953 0.86100006
0.063710481 -0.16214731 0.86133337
0.013945399 -0.15832001 0.86133337
0.015561906 -0.15725715 0.86000001
0.059449527 -0.15620857 0.86100006
0.061476197 -0.15819746 0.86066675
0.018040001 -0.15333906 0.86100006
0.021934764 -0.15149382 0.86100006
0.025390478 -0.15152381 0.86000001
0.056895245 -0.15264763 0.86079997
0.023807621 -0.1485924 0.86200005
0.027273098 -0.1486669 0.86125004
0.031975877 -0.14730625 0.86088896
0.037363 -0.14675458 0.86085719
0.041824974 -0.14679769 0.86111116
0.047068007 -0.14694266 0.86100006
0.052226026 -0.14701758 0.86133331
0.055003814 -0.1485924 0.86200005
0.036511909 -0.14399287 0.86150002
0.041868575 -0.14366667 0.86200011
0.045152385 -0.14366667 0.86200005
0.0016476192 -0.17052858 0.86500007
0.0024736056 -0.16734274 0.86557156
0.0063203177 -0.16626257 0.86566675
0.068376198 -0.16558573 0.86500007
0.072275877 -0.16681176 0.86566675
0.0034729526 -0.16322193 0.8682
0.007224048 -0.16245785 0.8670001
0.011545715 -0.16082859 0.86600006
0.066884138 -0.16266447 0.8670001
0.07198488 -0.16299887 0.86877775
0.0077796201 -0.15873735 0.86900008
0.012114605 -0.15777081 0.86733341
0.015652383 -0.15570001 0.86500007
0.063058093 -0.15702572 0.86550009
0.065983824 -0.15826 0.8682
0.014069526 -0.15310955 0.86900008
0.016787622 -0.15220669 0.86700004
0.058490481 -0.15158096 0.86500007
0.061740953 -0.1530062 0.86725003
0.018599525 -0.14838526 0.86800003
0.022074526 -0.14750977 0.86650008
0.02677381 -0.1462262 0.86500007
0.030480955 -0.1458143 0.86500007
0.057132863 -0.14746812 0.8662501
0.060416196 -0.14979906 0.86900002
0.022665715 -0.14410459 0.86860001
0.027275663 -0.14299335 0.86788887
0.032168999 -0.14270043 0.86611122
0.037071433 -0.14169525 0.86500013
0.042014293 -0.14169526 0.86500013
0.047190715 -0.14239454 0.86550009
0.051798098 -0.14301145 0.86675006
0.055959687 -0.14417049 0.86833334
0.028966669 -0.13986763 0.86900002
0.032277148 -0.13986763 0.86900008
0.037429798 -0.13850191 0.86785722
0.042133018 -0.13796328 0.86744452
0.04660508 -0.1387105 0.86866677
0.050484765 -0.13986763 0.86900002
0.073827624 -0.16673429 0.87100005
0.075486675 -0.16673429 0.87100005
0.0041476195 -0.16009811 0.87100005
0.0058066673 -0.16009811 0.87100005
0.06885048 -0.16009811 0.87100005
0.072168581 -0.16009811 0.87100005
0.0083090486 -0.15621859 0.8725
0.011336826 -0.15567398 0.87100005
0.067554854 -0.1565202 0.87140006
0.071794294 -0.1581143 0.87150002
0.0074828579 -0.1538143 0.87300003
0.011987621 -0.1518143 0.87242866
0.015760953 -0.15014382 0.87100005
0.063369215 -0.15081176 0.87166679
0.066317908 -0.15241353 0.87260002
0.014134287 -0.14799429 0.87300003
0.016967213 -0.14678083 0.87214297
0.058896195 -0.14516668 0.87100005
0.061709531 -0.14749175 0.87166679
0.018553969 -0.14317302 0.87233341
0.022173744 -0.14146709 0.8715716
0.026544765 -0.14018953 0.87100005
0.053366035 -0.14074254 0.87100005
0.0573254 -0.14234224 0.87233341
0.060694288 -0.14383715 0.87300003
0.022781145 -0.13818346 0.87300009
0.027638232 -0.1374796 0.87185729
0.032577857 -0.13715644 0.87150013
0.036804132 -0.13642192 0.87166679
0.04240286 -0.13552287 0.87300003
0.047723815 -0.13694906 0.87150002
0.052321278 -0.13785875 0.8720001
0.055705719 -0.13884859 0.87300003
0.069166668 -0.15583335 0.87500006
0.072833337 -0.15650003 0.87500012
0.0075000003 -0.15166669 0.87500012
0.068767309 -0.15284668 0.87700003
0.071912386 -0.15469524 0.87800002
0.0075193653 -0.14789207 0.87733346
0.012034423 -0.14740559 0.87585723
0.063684456 -0.14655557 0.87600011
0.065946192 -0.1485862 0.87650001
0.017515002 -0.14220406 0.87575006
0.058333337 -0.14083335 0.87500006
0.06200362 -0.14255638 0.87740004
0.019166667 -0.13916668 0.87500006
0.022577144 -0.13713524 0.87800002
0.026666667 -0.13583334 0.87500006
0.030833336 -0.13583334 0.87500006
0.037500001 -0.13583334 0.87500006
0.042500004 -0.13583334 0.87500006
0.048333336 -0.13583334 0.87500006
0.052621912 -0.13614383 0.87700003
0.057632383 -0.13809302 0.87700003
0.024249526 -0.13462667 0.87800002
0.027908763 -0.13386573 0.87740004
0.032555714 -0.13356048 0.87650001
0.037564289 -0.13356048 0.87650001
0.042597145 -0.13363716 0.87700003
0.04760953 -0.13363716 0.87700003
0.051565081 -0.13406922 0.87800002
0.069055878 -0.15069145 0.88066673
0.072130799 -0.1518089 0.88066673
0.0092400005 -0.14532001 0.88200003
0.01092 -0.14532001 0.88200003
0.068521641 -0.14699894 0.88200015
0.072321907 -0.14800668 0.88300002
0.0081212707 -0.14419875 0.88200009
0.013078912 -0.1436384 0.88200009
0.015935875 -0.14174414 0.88066673
0.064570002 -0.14255573 0.88050008
0.067698106 -0.14296049 0.88300002
0.018199367 -0.1380381 0.88200009
0.021526989 -0.13615303 0.88066673
0.058733337 -0.13592477 0.88100004
0.062650472 -0.13772593 0.88180012
0.066360004 -0.13860001 0.88200003
0.022882964 -0.13253801 0.88266671
0.026998479 -0.13164 0.88040012
0.032685719 -0.13158098 0.88000005
0.037714288 -0.13158098 0.88000005
0.04274286 -0.13158098 0.88000005
0.047814861 -0.13102858 0.88080007
0.053226247 -0.13189885 0.88088894
0.057858855 -0.13236402 0.88300002
0.061459053 -0.13386287 0.88400006
0.02441524 -0.12881143 0.88400006
0.027883466 -0.12750079 0.88236368
0.032760005 -0.12767714 0.88199997
0.0377854 -0.12762985 0.88166666
0.042815723 -0.1276062 0.88150001
0.047890861 -0.12720326 0.88220006
0.052731432 -0.12744275 0.8828572
0.057249527 -0.12881143 0.88400006
0.038727622 -0.12376001 0.88400006
0.042937141 -0.12308649 0.884
0.047146671 -0.12376001 0.88400006
0.072649531 -0.14614382 0.88700002
0.0093028583 -0.14207906 0.88800001
0.012249049 -0.14149764 0.88700002
0.068425722 -0.14107525 0.88700002
0.072427362 -0.1427988 0.88871437
0.075353339 -0.14308667 0.88900012
0.0093133338 -0.13970001 0.88900006
0.012933199 -0.1384007 0.88842869
0.016913336 -0.13700572 0.88800007
0.067135051 -0.13748172 0.88780004
0.07196667 -0.13970001 0.88900006
0.075353339 -0.13970001 0.88900006
0.018337145 -0.13344064 0.88866675
0.021166667 -0.13123333 0.88900006
0.062709905 -0.13234876 0.88740009
0.06587068 -0.13326535 0.88900006
0.023177335 -0.12806953 0.8882001
0.054064766 -0.12586953 0.88700002
0.058028765 -0.1273922 0.88819999
0.061468005 -0.12818535 0.88900006
0.028754288 -0.12347335 0.88800001
0.03319405 -0.12283882 0.88800001
0.037809663 -0.12212451 0.8878572
0.043082859 -0.12122335 0.88700002
0.048408851 -0.12204668 0.88728583
0.052454613 -0.12267398 0.88833332
0.055033337 -0.12361334 0.88900006
0.038100004 -0.11938001 0.88900012
0.043180004 -0.11853334 0.88900006
0.047836669 -0.11895667 0.88900006
0.072128579 -0.14001429 0.89100003
0.0093342867 -0.13662001 0.89100003
0.011880001 -0.13662001 0.89100003
0.068734288 -0.13662001 0.89100003
0.071595438 -0.13757601 0.89280003
0.076628581 -0.13878286 0.89400005
0.013387858 -0.13323501 0.89250004
0.016574286 -0.13174859 0.89250004
0.068146862 -0.13238345 0.89220011
0.018683573 -0.12909073 0.89175004
0.022100002 -0.12664858 0.89250004
0.062900007 -0.12664859 0.89250004
0.065450005 -0.12919858 0.89250004
0.024650002 -0.12409858 0.89250004
0.027482387 -0.12211572 0.8925001
0.031397145 -0.12134572 0.89100003
0.057351787 -0.12255965 0.89212501
0.060383819 -0.12331715 0.89300007
0.029750001 -0.11899857 0.89250004
0.033368573 -0.118549 0.89185721
0.038227625 -0.11723334 0.89200008
0.043277144 -0.11625429 0.89100003
0.047909528 -0.11708097 0.89300007
0.051837556 -0.11812002 0.89228582
0.055250004 -0.11899857 0.89250004
0.03746286 -0.11494286 0.89400005
0.041720003 -0.11451715 0.89400005
0.045125715 -0.11494286 0.89400005
0.073468581 -0.13668478 0.89700001
0.076031432 -0.13668478 0.89700007
0.069120005 -0.13056001 0.89600003
0.071947813 -0.13312803 0.89720011
0.076116197 -0.1342724 0.89800006
0.01836762 -0.12728763 0.89700007
0.021333335 -0.12544 0.89600003
0.064000003 -0.12544 0.89600003
0.067499332 -0.12730777 0.89714301
0.071395561 -0.12771557 0.89600009
0.019670477 -0.12400953 0.89800006
0.023073651 -0.12249272 0.89733338
0.026453335 -0.12032001 0.89600003
0.058880005 -0.12032001 0.89600003
0.062719621 -0.1225322 0.89720005
0.028650478 -0.11759524 0.89800006
0.032952767 -0.1159341 0.89639997
0.047786668 -0.11520001 0.89600003
0.052510004 -0.11569095 0.89649999
0.057205241 -0.11782524 0.89650005
0.060721908 -0.1188781 0.89800006
0.034170479 -0.11362001 0.89700007
0.037083812 -0.11261906 0.89720005
0.012871429 -0.13128857 0.90100002
0.073878095 -0.13229239 0.90200007
0.014174763 -0.12842619 0.90200007
0.016875874 -0.12671207 0.90100002
0.069505721 -0.12614001 0.90100002
0.07304731 -0.12862001 0.90233344
0.018387241 -0.1232143 0.90220004
0.022310477 -0.12099144 0.90100002
0.063499048 -0.12099144 0.90100002
0.067840323 -0.12365653 0.90166664
0.019780001 -0.11954001 0.90300006
0.023886669 -0.1184021 0.90220004
0.027473811 -0.11676525 0.90150005
0.063570485 -0.11940762 0.90200007
0.014676668 -0.12431858 0.90650004
0.016834287 -0.12172858 0.90650004
0.013014287 -0.12754193 0.91100001
