# .PCD v0.7 - Point Cloud Data file format
VERSION 0.7
FIELDS x y z
SIZE 4 4 4
TYPE F F F
COUNT 1 1 1
WIDTH 777
HEIGHT 1
VIEWPOINT 0 0 0 1 0 0 0
POINTS 777
DATA ascii
-0.10728309 -0.15739386 0.71400017
-0.10268001 -0.15844001 0.71400005
-0.091800012 -0.15649717 0.71400011
-0.088400006 -0.15572001 0.71400005
-0.11129335 -0.15186667 0.71400011
-0.10824365 -0.15213457 0.71400017
-0.096560016 -0.15164001 0.71400011
-0.09284617 -0.15258157 0.71400017
-0.08809191 -0.15381953 0.71150005
-0.11129334 -0.14846669 0.71400011
-0.10761002 -0.14773001 0.71400011
-0.10268001 -0.14688002 0.71400011
-0.097920023 -0.14756002 0.71400017
-0.093840003 -0.14892001 0.71400005
-0.10240801 -0.14429601 0.71400005
-0.098872006 -0.14429601 0.71400005
-0.10271429 -0.16502763 0.71900004
-0.11188096 -0.1618343 0.71850002
-0.1076417 -0.16253856 0.71638471
-0.10233334 -0.16168731 0.71633339
-0.097769625 -0.16203907 0.71788895
-0.09446191 -0.16092668 0.71700001
-0.11572477 -0.15544096 0.71900004
-0.11265545 -0.1577162 0.7168889
-0.10978667 -0.15888382 0.71600002
-0.10222373 -0.15739605 0.71600008
-0.097512387 -0.15752001 0.71600002
-0.093693718 -0.15833829 0.71600002
-0.11551017 -0.15241748 0.71766675
-0.11342351 -0.15320128 0.71600002
-0.10596801 -0.15315583 0.71600002
-0.10228571 -0.15274668 0.7159999
-0.098194294 -0.1534286 0.71600002
-0.091147944 -0.15161017 0.71600002
-0.089111917 -0.15227666 0.71700001
-0.11572477 -0.1492781 0.71900004
-0.11273879 -0.1472909 0.71742862
-0.10760858 -0.14648977 0.71625
-0.10296762 -0.14933716 0.71600002
-0.09614858 -0.14524573 0.71600002
-0.092775173 -0.1472754 0.71669239
-0.089703813 -0.14996287 0.71900004
-0.11024667 -0.14448477 0.71900004
-0.1072068 -0.14311108 0.71812499
-0.10279863 -0.14175671 0.71654546
-0.097197242 -0.14211001 0.71670002
-0.093928196 -0.14369658 0.71780008
-0.10116881 -0.13944739 0.71775007
-0.099152386 -0.13949621 0.71800005
-0.11040001 -0.16525716 0.72000003
-0.10704429 -0.16674431 0.72050005
-0.10245524 -0.16709144 0.72200006
-0.09814921 -0.16541018 0.72066677
-0.11414477 -0.16227812 0.72200006
-0.095314294 -0.16388573 0.72000003
-0.093485728 -0.1625143 0.72000003
-0.11604667 -0.15793431 0.72100008
-0.11762358 -0.15270644 0.72225004
-0.088457152 -0.15085715 0.72000003
-0.11636858 -0.14804287 0.72300005
-0.11436929 -0.14596549 0.72125006
-0.090627432 -0.14618745 0.72200006
-0.089327149 -0.14842144 0.72150004
-0.11159825 -0.14321953 0.72183341
-0.10807572 -0.14101192 0.72050005
-0.096132383 -0.14076668 0.72100008
-0.093077146 -0.14257202 0.72180003
-0.10662954 -0.13919207 0.72233343
-0.10322173 -0.13868344 0.72160006
-0.098420322 -0.13925652 0.72266674
-0.13164145 -0.18083572 0.72750002
-0.12761644 -0.18102217 0.72825003
-0.12215215 -0.18114644 0.72875005
-0.11698715 -0.18155572 0.72900003
-0.11339929 -0.1813693 0.72825003
-0.10786287 -0.18046287 0.72600001
-0.097671762 -0.1807943 0.72733343
-0.094164766 -0.18071145 0.727
-0.08192572 -0.18120858 0.72900003
-0.13182381 -0.17761429 0.72850007
-0.12780549 -0.17776126 0.72853333
-0.12236816 -0.17853525 0.72890919
-0.1173343 -0.17926459 0.72900003
-0.11248287 -0.17847629 0.72855562
-0.10755408 -0.17838392 0.72755557
-0.10264787 -0.17894071 0.72825009
-0.09740191 -0.1788509 0.72828585
-0.093695953 -0.17906407 0.72875005
-0.081694297 -0.17935716 0.72900003
-0.077946439 -0.17751896 0.72858334
-0.073137335 -0.17611258 0.72860003
-0.11039144 -0.17079431 0.72900003
-0.10796143 -0.17079429 0.72900003
-0.10275429 -0.17079431 0.72900003
-0.076140009 -0.17334001 0.72900003
-0.072900005 -0.17357144 0.72900003
-0.11594572 -0.16593429 0.72900003
-0.1127412 -0.16703929 0.72625005
-0.10746668 -0.16986668 0.72800004
-0.10336858 -0.16870858 0.72600001
-0.12011144 -0.16038001 0.72900003
-0.11722699 -0.16208288 0.72833335
-0.09372858 -0.16454573 0.72900003
-0.12566572 -0.1562143 0.72900003
-0.12234873 -0.15722001 0.72814298
-0.11909734 -0.15727489 0.72620004
-0.090452388 -0.15950002 0.72500002
-0.08747258 -0.15623486 0.72780007
-0.08262001 -0.1562143 0.72900003
-0.077264093 -0.15700777 0.72900003
-0.074288577 -0.15690857 0.72900003
-0.13122001 -0.15204859 0.72900003
-0.12727542 -0.15201083 0.72881824
-0.12256691 -0.15234216 0.72708333
-0.11961715 -0.1521143 0.72600001
-0.086595803 -0.15241136 0.72741669
-0.082572944 -0.15265644 0.72858346
-0.07767304 -0.15257421 0.72818756
-0.072986141 -0.15174086 0.72677779
-0.069834292 -0.15004002 0.72600001
-0.13122001 -0.14718857 0.72900003
-0.1276174 -0.14773123 0.72825003
-0.12242074 -0.14731979 0.72622222
-0.11835197 -0.14738245 0.72577775
-0.087147862 -0.14744011 0.72625005
-0.082356833 -0.14740953 0.72666669
-0.077457622 -0.14730842 0.72616667
-0.072600007 -0.1472743 0.72599995
-0.069281153 -0.14699773 0.72600001
-0.1321622 -0.14227457 0.72730005
-0.12722287 -0.1424343 0.72599989
-0.12238287 -0.14243431 0.72599995
-0.11755328 -0.1424465 0.72606242
-0.11303171 -0.14146166 0.72557145
-0.10978572 -0.14016667 0.72500002
-0.095976196 -0.14016667 0.72500002
-0.091908954 -0.14166439 0.72559994
-0.087134644 -0.14245918 0.72612494
-0.082318418 -0.14250034 0.72633332
-0.077440009 -0.14243431 0.72599989
-0.07254152 -0.14231978 0.72541666
-0.069241643 -0.14273064 0.72600001
-0.13218608 -0.13807465 0.72762501
-0.12748572 -0.13718334 0.72749996
-0.12248045 -0.13708881 0.72784615
-0.11766312 -0.13734135 0.7276001
-0.11272836 -0.13703167 0.72753853
-0.10793586 -0.13699451 0.72650015
-0.10253136 -0.13647486 0.72741669
-0.097603187 -0.13705701 0.72683334
-0.09270709 -0.13698375 0.72643739
-0.087180004 -0.13699572 0.72649992
-0.082364529 -0.13704249 0.72675002
-0.077573337 -0.13713595 0.72724992
-0.072772563 -0.13717465 0.72645456
-0.1270543 -0.13399717 0.72900003
-0.12219429 -0.13399716 0.72900003
-0.1173343 -0.13399717 0.72900003
-0.11208906 -0.13308334 0.72875005
-0.10758938 -0.13327223 0.72883338
-0.10305185 -0.13340205 0.72900003
-0.096660003 -0.13291715 0.72900003
-0.092326142 -0.13258816 0.72888893
-0.087709717 -0.13281277 0.72860008
-0.08279445 -0.13297985 0.72850007
-0.077760004 -0.13399716 0.72900003
-0.091556832 -0.18195622 0.73200005
-0.088113457 -0.18127751 0.73137504
-0.084239051 -0.18031335 0.73100001
-0.12601048 -0.1761362 0.73100001
-0.12211182 -0.17641468 0.73100001
-0.11765621 -0.17713077 0.73100007
-0.11301493 -0.17660034 0.73100007
-0.10721334 -0.17660034 0.73100007
-0.10234001 -0.17683241 0.73100007
-0.097466677 -0.17683241 0.73100001
-0.092394426 -0.17713077 0.73100007
-0.087760016 -0.17760891 0.73133337
-0.082717359 -0.17727272 0.73122221
-0.076580957 -0.17892097 0.73100001
-0.073796198 -0.17892097 0.73100001
-0.13195439 -0.17337897 0.73229998
-0.12749794 -0.173144 0.7322728
-0.12264483 -0.17281686 0.73168755
-0.11710984 -0.17287648 0.73193759
-0.11236515 -0.17293373 0.73100001
-0.10693487 -0.17362991 0.73100001
-0.10210773 -0.17332871 0.73155558
-0.097516201 -0.17274345 0.73137504
-0.092698902 -0.17285161 0.7318334
-0.087840006 -0.17289142 0.73200011
-0.082319297 -0.17300776 0.73250014
-0.07759852 -0.17229439 0.73111111
-0.073696747 -0.17255579 0.73100007
-0.13072191 -0.1656743 0.73400003
-0.12540916 -0.16819087 0.73400003
-0.12211174 -0.16746637 0.73266673
-0.11781716 -0.16801143 0.73199999
-0.11487143 -0.16778192 0.73100001
-0.10094763 -0.1691743 0.73100001
-0.097068101 -0.16882557 0.73150009
-0.092169069 -0.167697 0.73316681
-0.087467849 -0.16768587 0.73292315
-0.082390353 -0.1675725 0.73312515
-0.077324763 -0.16788393 0.73144442
-0.073796198 -0.16778192 0.73100007
-0.13176709 -0.16228953 0.73314297
-0.12748925 -0.16281992 0.73310012
-0.12263011 -0.16234611 0.73159999
-0.11839311 -0.16366072 0.73124999
-0.091706678 -0.16321525 0.73133337
-0.087809458 -0.16237915 0.73175001
-0.082216434 -0.16234232 0.73158336
-0.077277146 -0.16290858 0.73100007
-0.073796198 -0.16290857 0.73100001
-0.13197656 -0.15760763 0.73200011
-0.12768136 -0.15761755 0.73100001
-0.12461811 -0.15873143 0.73100001
-0.086745344 -0.15887068 0.73100001
-0.082150482 -0.15873145 0.73100001
-0.07774128 -0.1589635 0.73100007
-0.073564135 -0.1589635 0.73100007
-0.13207677 -0.1532741 0.73220003
-0.12879525 -0.15385811 0.73100001
-0.13315468 -0.1473764 0.73200005
-0.13236715 -0.13585001 0.73150003
-0.13176112 -0.13245636 0.73199999
-0.1274416 -0.13161957 0.73122221
-0.12254357 -0.13159484 0.73108333
-0.11765619 -0.13158001 0.73100001
-0.11313096 -0.13105787 0.73100001
-0.10721335 -0.13088381 0.73100001
-0.1021411 -0.13118218 0.73100007
-0.098162867 -0.13098328 0.73100007
-0.092593342 -0.13018763 0.73100007
-0.08725588 -0.13065176 0.73100007
-0.081788264 -0.13131016 0.73122221
-0.077312388 -0.13163938 0.73133332
-0.073846675 -0.13236572 0.73150003
-0.13072191 -0.12862477 0.73400003
-0.12726648 -0.1277308 0.73288894
-0.12241121 -0.12734737 0.73253852
-0.11721031 -0.1269758 0.73256254
-0.11231667 -0.12696528 0.73250008
-0.10744581 -0.12767741 0.7325834
-0.10259651 -0.12702209 0.73283333
-0.097650602 -0.12694289 0.73237509
-0.092383891 -0.12676513 0.7325002
-0.087706521 -0.12760463 0.73283339
-0.082375243 -0.12844859 0.73299998
-0.077467434 -0.12855315 0.73280001
-0.073897146 -0.12897144 0.73200005
-0.11394477 -0.12373143 0.73400003
-0.13234477 -0.17107736 0.73680007
-0.12920889 -0.17079875 0.73600006
-0.13288167 -0.16798811 0.73725003
-0.12827431 -0.16752765 0.73600006
-0.092525721 -0.16752763 0.73600006
-0.13406383 -0.16354382 0.73700011
-0.13388191 -0.15140572 0.73600006
-0.13528381 -0.14790097 0.73600006
-0.132856 -0.1277051 0.73722231
-0.12809849 -0.12585317 0.73660004
-0.12406858 -0.12547049 0.73600006
-0.11004953 -0.12547049 0.73600006
-0.10724573 -0.12547049 0.73600006
-0.087619051 -0.12547049 0.73600006
-0.082712397 -0.12617145 0.73600006
-0.077037625 -0.12671193 0.7367
-0.073324054 -0.12665024 0.73675001
-0.13020477 -0.1245743 0.73900002
-0.12733272 -0.1238143 0.73866671
-0.12217929 -0.12239365 0.73761547
-0.11740975 -0.12226602 0.73684627
-0.11219494 -0.122022 0.73720014
-0.10745199 -0.12219884 0.73741674
-0.10249561 -0.12215038 0.73712516
-0.097586989 -0.12215684 0.73716676
-0.092650853 -0.12212954 0.73700017
-0.087567344 -0.12203079 0.73738474
-0.082773529 -0.12240289 0.73780018
-0.077699848 -0.12293763 0.7383334
-0.072492383 -0.12246287 0.73899996
-0.068973333 -0.12035143 0.73900002
-0.11612858 -0.11894382 0.73900002
-0.11214032 -0.11847462 0.73900002
-0.10796439 -0.11838078 0.73900002
-0.10275619 -0.11894382 0.73900002
-0.097125724 -0.11894382 0.73900002
-0.080938101 -0.11894382 0.73900002
-0.067762867 -0.11735553 0.73785716
-0.13460954 -0.1261524 0.74000001
-0.13253812 -0.12287159 0.74115384
-0.12776463 -0.12140968 0.74116677
-0.1240381 -0.1205143 0.74000001
-0.076466672 -0.12086668 0.74000001
-0.074000008 -0.1205143 0.74000001
-0.13232477 -0.11958763 0.74300003
-0.1268425 -0.11759108 0.74276924
-0.12225334 -0.1173043 0.74199998
-0.11766258 -0.11689965 0.7418462
-0.11269929 -0.11622597 0.74075007
-0.1069861 -0.11615944 0.741
-0.10248183 -0.11698278 0.74118185
-0.097435445 -0.11690021 0.74135709
-0.092541665 -0.11726469 0.74175
-0.087619469 -0.11729447 0.74193752
-0.082807973 -0.11711204 0.7420001
-0.078078188 -0.11788025 0.74191666
-0.072189294 -0.11740898 0.74191666
-0.069205239 -0.11722334 0.74150002
-0.11604953 -0.11392667 0.74300003
-0.11222839 -0.11336058 0.74300003
-0.10808881 -0.11304214 0.74300003
-0.10260477 -0.11392667 0.74300003
-0.097651437 -0.11392667 0.74300003
-0.09305191 -0.11357286 0.74300003
-0.087744758 -0.11392667 0.74300003
-0.083499052 -0.11392667 0.74300003
-0.13182954 -0.11735525 0.74500006
-0.12984286 -0.11707144 0.74500006
-0.07698334 -0.11600715 0.74500006
-0.073790476 -0.11565239 0.74500006
-0.13054827 -0.11396351 0.74633336
-0.12723272 -0.1130145 0.74633342
-0.12257621 -0.11211403 0.74642861
-0.1177678 -0.11208525 0.74566668
-0.11344325 -0.1114543 0.74540013
-0.10662725 -0.1114543 0.74540007
-0.10226287 -0.11149367 0.74566668
-0.097291753 -0.11149367 0.74566668
-0.091740422 -0.11161852 0.74544454
-0.087349527 -0.11149367 0.7456668
-0.082250826 -0.11200225 0.7463572
-0.077698007 -0.11284599 0.74710006
-0.072281912 -0.11340058 0.74700004
-0.068823814 -0.11352381 0.74500006
-0.12039239 -0.10899429 0.74800003
-0.11709116 -0.10773144 0.7477144
-0.11243081 -0.10815953 0.74716681
-0.10792144 -0.10848925 0.74650007
-0.10221919 -0.10832123 0.74757153
-0.097336739 -0.10791416 0.74757153
-0.092979841 -0.10815969 0.74716663
-0.087979048 -0.10863809 0.74800003
-0.08406096 -0.10899429 0.74800003
-0.13249905 -0.11211381 0.75099999
-0.12785715 -0.1107143 0.75000012
-0.076071434 -0.11107143 0.75000006
-0.072500005 -0.11107143 0.75000006
-0.069285721 -0.11071429 0.75000006
-0.13235545 -0.10800138 0.75211114
-0.12741199 -0.10808372 0.75158328
-0.12220763 -0.10719887 0.75040001
-0.11928573 -0.10714287 0.75000006
-0.11285715 -0.10642858 0.75000006
-0.10714287 -0.10642858 0.75000006
-0.10328572 -0.10671429 0.75000006
-0.098571435 -0.10642858 0.75000006
-0.091428578 -0.10642858 0.75000006
-0.086638108 -0.10664953 0.75044447
-0.0820923 -0.10705023 0.75072736
-0.077251978 -0.10729256 0.75106251
-0.072302386 -0.10737936 0.75166667
-0.069008425 -0.10697445 0.75216669
-0.12223262 -0.10359263 0.75275004
-0.11721707 -0.10340675 0.75178581
-0.11240453 -0.10309501 0.75174999
-0.10772485 -0.10311966 0.75192857
-0.10261929 -0.10345264 0.75175011
-0.097198553 -0.10320821 0.75153345
-0.092296444 -0.10302596 0.75125003
-0.087658837 -0.10297503 0.75207698
-0.082692578 -0.10332914 0.75240004
-0.077451438 -0.10398572 0.75300002
-0.073865719 -0.10398572 0.75300002
-0.13104001 -0.10584 0.75600004
-0.12727144 -0.10570001 0.75500005
-0.12439524 -0.10570001 0.75500005
-0.13110439 -0.10341144 0.75720006
-0.12755287 -0.10232794 0.75666678
-0.12268877 -0.10123086 0.75600004
-0.11872144 -0.10073286 0.75550008
-0.10570001 -0.10138572 0.75500005
-0.10282382 -0.10138572 0.75500005
-0.099947624 -0.10138572 0.75500005
-0.087004766 -0.10138572 0.75500005
-0.082531981 -0.10103157 0.75542861
-0.07777667 -0.1015408 0.7561667
-0.072223894 -0.1019329 0.75661552
-0.068884768 -0.10311144 0.75500005
-0.12633334 -0.098900959 0.75800002
-0.12224256 -0.098419689 0.75800002
-0.11725786 -0.098523349 0.75650001
-0.1121358 -0.098245047 0.75614291
-0.10729168 -0.097928487 0.75608343
-0.10239334 -0.09778332 0.75606686
-0.097381696 -0.098045439 0.75569242
-0.092818581 -0.097854301 0.75550008
-0.087832086 -0.097910419 0.75593758
-0.082453862 -0.097540952 0.75763637
-0.07724382 -0.098900959 0.75800008
-0.072190486 -0.098900959 0.75800002
-0.10202922 -0.094088256 0.75800002
-0.097457156 -0.093306191 0.75799996
-0.092600696 -0.093256973 0.75799996
-0.087711439 -0.094208576 0.75800002
-0.084462866 -0.094569527 0.75800002
-0.13661334 -0.10246 0.76300001
-0.13299297 -0.10137506 0.76139998
-0.13270651 -0.097465813 0.76218194
-0.12771411 -0.097450301 0.76020014
-0.12268572 -0.096628577 0.76000005
-0.11725715 -0.096266672 0.76000005
-0.1136381 -0.096266672 0.76000005
-0.080342859 -0.096266672 0.76000005
-0.077464297 -0.097011596 0.76016676
-0.072539687 -0.096475884 0.76166677
-0.06894286 -0.095793337 0.76200002
-0.13007334 -0.093740009 0.76300001
-0.12734275 -0.094392799 0.76157153
-0.12234107 -0.093468048 0.76211119
-0.11760477 -0.092920236 0.76224995
-0.11246099 -0.092868738 0.76183337
-0.10763606 -0.092612252 0.76142871
-0.10265037 -0.091787517 0.76037508
-0.09777905 -0.090897627 0.76050007
-0.092237152 -0.090789534 0.76020002
-0.087173976 -0.091681495 0.76066673
-0.082319535 -0.092776261 0.76107156
-0.077985294 -0.093468048 0.76211119
-0.072908893 -0.093740009 0.76300001
-0.06903334 -0.093740009 0.76300001
-0.11626667 -0.089380004 0.76300001
-0.11263334 -0.089380011 0.76300001
-0.10754668 -0.089380004 0.76300001
-0.10246001 -0.088653341 0.76300001
-0.097574569 -0.088449135 0.7621429
-0.092596605 -0.088656746 0.76214296
-0.087636009 -0.089089334 0.76300001
-0.082840011 -0.089380004 0.76300001
-0.13697144 -0.10127144 0.76500005
-0.13682573 -0.098648578 0.76500005
-0.13478573 -0.095442861 0.76500005
-0.13243377 -0.092581905 0.76544446
-0.12750001 -0.091800004 0.76500005
-0.12410001 -0.091557145 0.76500005
-0.076208584 -0.091654293 0.76500005
-0.072181918 -0.092180282 0.76557148
-0.069304764 -0.09191905 0.76600003
-0.13157192 -0.089907154 0.76750004
-0.1272274 -0.089570723 0.76775002
-0.1220718 -0.088861316 0.76637506
-0.11764429 -0.087684289 0.76725006
-0.11248216 -0.086915806 0.76691669
-0.10716265 -0.086749531 0.76544452
-0.10272858 -0.085971437 0.76500005
-0.097628579 -0.085971437 0.76499999
-0.092769533 -0.086195558 0.76699996
-0.087417066 -0.086750925 0.76663637
-0.082424454 -0.087285198 0.76588887
-0.077396199 -0.088347934 0.76666677
-0.07258001 -0.088870622 0.76757151
-0.068664767 -0.089118093 0.76700002
-0.11044572 -0.084114291 0.76800001
-0.10745065 -0.083328418 0.76750004
-0.10223944 -0.082520574 0.76679999
-0.097587772 -0.083393484 0.76714295
-0.09289144 -0.084114298 0.76800001
-0.089965723 -0.084114291 0.76800001
-0.13172704 -0.087265842 0.77162498
-0.12750287 -0.087366559 0.77088886
-0.12276001 -0.086386673 0.77000004
-0.11880001 -0.085800007 0.77000004
-0.081400007 -0.085800007 0.77000004
-0.077733338 -0.085800007 0.77000004
-0.07238134 -0.086475812 0.77080005
-0.069022864 -0.086644769 0.77100003
-0.13079652 -0.084171116 0.77300012
-0.12711561 -0.083332747 0.77262503
-0.12277216 -0.082336284 0.77191675
-0.11748572 -0.0822381 0.77100015
-0.11246616 -0.082028404 0.77090913
-0.10780001 -0.081400007 0.7700001
-0.10486668 -0.081400007 0.77000004
-0.097660005 -0.080770478 0.77100003
-0.092448011 -0.081734873 0.77039999
-0.087323338 -0.082185246 0.77050006
-0.082359172 -0.082358584 0.77212512
-0.077249758 -0.083319053 0.7725001
-0.073019527 -0.083319053 0.77249998
-0.069201909 -0.083925724 0.77300006
-0.12147143 -0.078772388 0.77300006
-0.11743198 -0.07811226 0.77271438
-0.11236227 -0.077420838 0.77237499
-0.1075796 -0.077665031 0.77142853
-0.10255097 -0.078092441 0.77150023
-0.097828902 -0.077232704 0.77233332
-0.09263137 -0.077611499 0.77192861
-0.08753112 -0.077232696 0.77233332
-0.084661908 -0.078036197 0.77300006
-0.10748382 -0.074355245 0.77300006
-0.10233049 -0.074355245 0.77300012
-0.096440956 -0.074355245 0.77300006
-0.093496196 -0.074355245 0.77300006
-0.13236316 -0.081656203 0.77642858
-0.12805954 -0.080821432 0.77500004
-0.077500015 -0.080821432 0.77500004
-0.07193239 -0.081048265 0.77600002
-0.06882 -0.0813981 0.77700007
-0.13276349 -0.077877365 0.7787779
-0.12760201 -0.077637151 0.77772731
-0.1224969 -0.077414058 0.77600002
-0.11735716 -0.076023817 0.77500004
-0.11440477 -0.076023817 0.77500004
-0.082286485 -0.077411629 0.77560008
-0.077721387 -0.077720962 0.77722228
-0.073199481 -0.078139581 0.77811116
-0.068997145 -0.079383813 0.77900004
-0.13250421 -0.074338868 0.77900004
-0.1272897 -0.074296467 0.77900004
-0.12225716 -0.074094288 0.77800006
-0.11763354 -0.073037907 0.77780002
-0.11281744 -0.072319061 0.77714294
-0.1076 -0.072346985 0.77649999
-0.10258973 -0.071647815 0.77720004
-0.097501919 -0.072463676 0.77642876
-0.092322513 -0.072281137 0.77663648
-0.087482616 -0.072381787 0.77713352
-0.082597479 -0.072966039 0.77783346
-0.077900007 -0.074190482 0.77900004
-0.07443779 -0.07443779 0.77900004
-0.097189531 -0.068997145 0.77900004
-0.092738107 -0.068997145 0.77900004
-0.071201913 -0.076256387 0.78039998
-0.067868367 -0.076819897 0.78311116
-0.13106401 -0.072015628 0.78280008
-0.12730065 -0.071466357 0.78166676
-0.12262445 -0.07134445 0.7803334
-0.11885715 -0.07057143 0.78000003
-0.080971435 -0.07057143 0.78000003
-0.077281676 -0.07133691 0.78025007
-0.072179474 -0.072179474 0.78133339
-0.068667054 -0.072539814 0.78200006
-0.13141334 -0.067946672 0.78400004
-0.12764426 -0.067926988 0.78377777
-0.12257127 -0.067762606 0.7834546
-0.11709312 -0.068102226 0.78200001
-0.11242751 -0.067751542 0.78177786
-0.10744883 -0.067635849 0.78200006
-0.10219944 -0.067834102 0.78100008
-0.097439066 -0.066941917 0.78100008
-0.092500135 -0.066799462 0.78057152
-0.087615944 -0.067860097 0.78145462
-0.08276213 -0.067849107 0.78288895
-0.077902235 -0.068444453 0.78399998
-0.072426669 -0.069440007 0.7840001
-0.069440007 -0.069440007 0.78400004
-0.13135716 -0.063440323 0.78366673
-0.12917334 -0.064960003 0.78400004
-0.112 -0.064960003 0.78400004
-0.10752 -0.064213336 0.78399998
-0.10210669 -0.063653335 0.78399998
-0.097969294 -0.063632622 0.78375
-0.092497386 -0.064151198 0.78325003
-0.08736001 -0.064960003 0.7840001
-0.12650859 -0.065125719 0.78600001
-0.12201715 -0.065125719 0.78600001
-0.11790001 -0.065500006 0.78600001
-0.11453144 -0.065125719 0.78600001
-0.082342863 -0.065125719 0.78600001
-0.077134922 -0.065901905 0.78633344
-0.072713658 -0.066715769 0.78711116
-0.069735244 -0.066734612 0.78733337
-0.13174859 -0.060634289 0.78600001
-0.12747224 -0.062235236 0.78733343
-0.12239642 -0.062324028 0.78844452
-0.1178254 -0.062288053 0.78800011
-0.11258225 -0.06204477 0.78663653
-0.10704572 -0.06138286 0.78600001
-0.10292858 -0.061008573 0.78600001
-0.096815251 -0.061133336 0.78600001
-0.092151754 -0.061434291 0.78666675
-0.087657154 -0.062182862 0.78666669
-0.082429677 -0.062196039 0.78683341
-0.077498458 -0.062486082 0.78812504
-0.072872862 -0.063106515 0.78883338
-0.069131434 -0.063120008 0.78900003
-0.13133334 -0.058537148 0.78800005
-0.12816176 -0.05882461 0.78850007
-0.11190023 -0.057826985 0.78855562
-0.10736287 -0.057810057 0.78833336
-0.10277175 -0.057760317 0.78766674
-0.097520649 -0.057760324 0.78766674
-0.092539199 -0.058225174 0.78814298
-0.087514058 -0.058968335 0.78875005
-0.083086483 -0.059047248 0.78880006
-0.078148574 -0.059362862 0.78900003
-0.13133334 -0.050281908 0.78800005
-0.12983239 -0.050281908 0.78800005
-0.097685724 -0.054854289 0.78900003
-0.13150001 -0.048842859 0.78900003
-0.12999715 -0.048842859 0.78900003
-0.07608667 -0.061020005 0.79100001
-0.072320007 -0.061020005 0.79100001
-0.068553336 -0.061020005 0.79100001
-0.13093875 -0.056044132 0.79166669
-0.12707563 -0.057131242 0.79139996
-0.12246641 -0.057497066 0.79154545
-0.1174284 -0.057431817 0.79140013
-0.091732383 -0.056044132 0.79166669
-0.087879054 -0.056378949 0.79166675
-0.082165241 -0.056723099 0.79149997
-0.077301703 -0.057033129 0.79144448
-0.07267715 -0.057920959 0.79300016
-0.068553336 -0.059513338 0.79100001
-0.1306562 -0.053621907 0.79300004
-0.11224668 -0.054993339 0.79100007
-0.10766655 -0.053993884 0.79214299
-0.10263411 -0.053580195 0.79240006
-0.097384773 -0.05284413 0.79266667
-0.093319058 -0.053827308 0.79233336
-0.087930486 -0.053964764 0.79250002
-0.08211334 -0.054993335 0.79100001
-0.079200007 -0.054307621 0.79200006
-0.12795715 -0.055271432 0.79500002
-0.12417144 -0.055271432 0.79500002
-0.071928576 -0.055271432 0.79500002
-0.12772632 -0.052234899 0.79700005
-0.12243287 -0.052491147 0.79650003
-0.1175708 -0.052335877 0.79644448
-0.11265277 -0.052155245 0.79600006
-0.10730731 -0.051506992 0.79533339
-0.1022143 -0.050728574 0.79500002
-0.097671434 -0.050728574 0.79500002
-0.092145719 -0.051432256 0.79585719
-0.086948983 -0.051864907 0.79585725
-0.082690053 -0.052343395 0.79655552
-0.077432297 -0.052075725 0.79710001
-0.073036961 -0.053601909 0.79720002
-0.12768 -0.049400002 0.79800004
-0.12236001 -0.049400002 0.79800004
-0.1178 -0.049400002 0.79800004
-0.11170027 -0.048522588 0.79785717
-0.10708562 -0.047846034 0.79744446
-0.10248572 -0.047825612 0.79711115
-0.097431436 -0.047714036 0.79754543
-0.092229061 -0.04801343 0.79769993
-0.08756239 -0.048054524 0.79775
-0.0836 -0.049400002 0.79800004
-0.10184 -0.044840004 0.79800004
-0.096520007 -0.044840004 0.79800004
-0.072111629 -0.05168267 0.80039996
-0.068063579 -0.052428812 0.80075008
-0.12734413 -0.046513654 0.80066675
-0.12276889 -0.046513654 0.80066669
-0.11733334 -0.047238097 0.80000007
-0.11301588 -0.046984129 0.80000007
-0.086095244 -0.046476193 0.80000001
-0.081811436 -0.047256827 0.80033344
-0.077096671 -0.047323339 0.80150008
-0.07301072 -0.048164051 0.80274999
-0.068531439 -0.048240006 0.80399996
-0.12812954 -0.042369526 0.80400002
-0.12230058 -0.043011434 0.80360001
-0.11724381 -0.043406989 0.80199999
-0.11223429 -0.042752706 0.80166674
-0.10760732 -0.042734928 0.80133343
-0.10271002 -0.042125247 0.80183339
-0.097398251 -0.042796049 0.80138469
-0.092344448 -0.042734928 0.80133343
-0.087727629 -0.042718098 0.80100012
-0.083013512 -0.042999312 0.80236369
-0.078868575 -0.043645717 0.80400002
-0.11102858 -0.039051432 0.80400002
-0.10949715 -0.039051432 0.80400002
-0.10337143 -0.039051432 0.80400002
-0.096480012 -0.039051432 0.80400002
-0.092651434 -0.039051432 0.80400002
-0.088822857 -0.039051432 0.80400002
-0.072156191 -0.046057146 0.80600005
-0.067718104 -0.045401908 0.80800003
-0.12665716 -0.041604955 0.80600005
-0.12243525 -0.041067623 0.80600005
-0.11821334 -0.040683813 0.80600005
-0.082135245 -0.040683813 0.80600011
-0.077361189 -0.042039763 0.8062501
-0.073063716 -0.042300105 0.80755562
-0.069853336 -0.042219054 0.80600011
-0.12766096 -0.038067147 0.80750006
-0.12215366 -0.039180957 0.80666673
-0.11759144 -0.038427625 0.8070001
-0.11237334 -0.037514079 0.80755562
-0.10687556 -0.037674289 0.80733341
-0.10209143 -0.037490003 0.80750006
-0.097880282 -0.03723973 0.80742866
-0.092881911 -0.037997145 0.80600005
-0.087067947 -0.038156196 0.80666673
-0.082237154 -0.038427621 0.8070001
-0.077689216 -0.038460001 0.80766672
-0.072181337 -0.038937908 0.80800003
-0.13004953 -0.034628574 0.80800003
-0.12851049 -0.034628574 0.80800003
-0.0673327 -0.047212064 0.81266677
-0.068053335 -0.042533338 0.81200016
-0.12589811 -0.037073337 0.81100005
-0.12280858 -0.037073337 0.81100005
-0.11812699 -0.036286987 0.81066674
-0.11494286 -0.036257144 0.81000006
-0.092627153 -0.036279526 0.81050003
-0.087386683 -0.03634667 0.81200004
-0.082678735 -0.036316827 0.81133336
-0.077330485 -0.03634667 0.81200004
-0.072405398 -0.037103176 0.81166667
-0.068025082 -0.037877783 0.81166667
-0.13085429 -0.03251905 0.81300002
-0.12752406 -0.033088814 0.8127501
-0.12269907 -0.033194289 0.81400007
-0.11725525 -0.033456001 0.81320012
-0.11214339 -0.032733165 0.81309104
-0.1074716 -0.032470316 0.81183338
-0.10274811 -0.032444291 0.81116676
-0.097561151 -0.032311875 0.8117336
-0.092507146 -0.032898258 0.81283343
-0.087574527 -0.033518337 0.81375003
-0.082706198 -0.033507623 0.81350005
-0.07773906 -0.033833019 0.81355566
-0.071881667 -0.033518814 0.81375009
-0.068939686 -0.03330794 0.81333339
-0.1077581 -0.028683811 0.81400001
-0.10248649 -0.028373716 0.81400007
-0.098455243 -0.028683811 0.81400001
-0.1311762 -0.030271431 0.81500006
-0.12807146 -0.030271431 0.81500006
-0.1226381 -0.030271431 0.81500006
-0.11720478 -0.030271431 0.81500006
-0.11410001 -0.030271431 0.81500006
-0.090814292 -0.030271431 0.81500006
-0.087709531 -0.030659527 0.81500006
-0.083440483 -0.030659527 0.81500006
-0.077286407 -0.030936738 0.81500012
-0.072617151 -0.030678097 0.81550002
-0.069250479 -0.030345716 0.81700003
-0.12710072 -0.027401431 0.81625003
-0.12235105 -0.027360383 0.81620008
-0.11742847 -0.027216403 0.81655556
-0.11267081 -0.027195029 0.81588888
-0.10793524 -0.026400954 0.81533337
-0.10238137 -0.026288575 0.8152858
-0.096919052 -0.026996193 0.81575
-0.092568152 -0.027223388 0.81677777
-0.087474905 -0.027126841 0.81809098
-0.082111619 -0.027421145 0.81800002
-0.077157147 -0.027276509 0.81833345
-0.072797149 -0.028417144 0.81750005
-0.12558001 -0.024180003 0.81900007
-0.12246001 -0.024180003 0.81900012
-0.11778001 -0.024180003 0.81900007
-0.11310001 -0.024180003 0.81900012
-0.10719389 -0.023486128 0.81814301
-0.10244429 -0.023760479 0.81800002
-0.099060006 -0.024180003 0.81900007
-0.1290143 -0.025802858 0.82100004
-0.07247372 -0.026454289 0.82180005
-0.069759049 -0.029000955 0.82300001
-0.12703271 -0.023214921 0.82166672
-0.12290858 -0.021919049 0.82200003
-0.1178471 -0.022350585 0.82188892
-0.11237593 -0.022027079 0.82185721
-0.10211678 -0.021736955 0.82100004
-0.097630955 -0.022499528 0.82175004
-0.092891812 -0.022555998 0.82240003
-0.087417759 -0.022831433 0.82154554
-0.082166672 -0.02269238 0.82166672
-0.077471428 -0.02269238 0.82166672
-0.073798679 -0.023032192 0.82260001
-0.069928579 -0.027500002 0.82500005
