# .PCD v0.7 - Point Cloud Data file format
VERSION 0.7
FIELDS x y z
SIZE 4 4 4
TYPE F F F
COUNT 1 1 1
WIDTH 882
HEIGHT 1
VIEWPOINT 0 0 0 1 0 0 0
POINTS 882
DATA ascii
-0.34190002 -0.23594859 0.78900003
-0.31644478 -0.24243145 0.79300004
-0.31264743 -0.2414604 0.79180002
-0.3427667 -0.23579335 0.79100001
-0.34514382 -0.23487906 0.79300004
-0.34210059 -0.23294842 0.7926001
-0.33910194 -0.23261335 0.79300004
-0.34363335 -0.22808191 0.79300004
-0.34578001 -0.22072668 0.79100001
-0.34562096 -0.21822858 0.79149997
-0.34427336 -0.21696001 0.79100001
-0.34306803 -0.21078269 0.79100001
-0.34246537 -0.20807068 0.79100001
-0.33910194 -0.20618001 0.79300004
-0.34061241 -0.20240381 0.79300004
-0.33744043 -0.20285697 0.79300016
-0.33224505 -0.20269117 0.79285729
-0.32711554 -0.20114383 0.79271436
-0.32399717 -0.20013811 0.79300004
-0.33603477 -0.19649097 0.792
-0.33208305 -0.19716787 0.79099995
-0.32722068 -0.19678605 0.79166675
-0.3227025 -0.1966856 0.7930001
-0.31946573 -0.19711715 0.79300004
-0.33687192 -0.19247144 0.79175001
-0.3318235 -0.19205102 0.79136366
-0.32746264 -0.19277976 0.79225004
-0.3224867 -0.19409621 0.7930001
-0.31946573 -0.19409621 0.79300004
-0.33561 -0.18795669 0.79100001
-0.33209166 -0.18760274 0.792077
-0.3280251 -0.18855779 0.7930001
-0.33523336 -0.18456668 0.79100001
-0.29335999 -0.24548002 0.79800004
-0.33212003 -0.24092004 0.79800004
-0.32707787 -0.24122454 0.79775006
-0.32327837 -0.24122453 0.79775006
-0.31760085 -0.24137682 0.79637504
-0.31286669 -0.24244003 0.79800004
-0.30932003 -0.24092002 0.79800004
-0.34884003 -0.23636001 0.79800004
-0.34135574 -0.23819287 0.79650003
-0.33768815 -0.23730765 0.79650009
-0.33217415 -0.23754993 0.79739994
-0.3275142 -0.23784709 0.79788888
-0.32300001 -0.23788002 0.79799998
-0.31777897 -0.23793638 0.79772729
-0.31312001 -0.23788002 0.79800004
-0.30932003 -0.23864001 0.79800004
-0.35112005 -0.23408002 0.79800004
-0.34772044 -0.23264369 0.79642862
-0.34222859 -0.23092858 0.79500002
-0.33723149 -0.23229145 0.79500002
-0.3324492 -0.23251659 0.79733336
-0.32821718 -0.23248644 0.79775
-0.32148004 -0.23408002 0.79800004
-0.31874403 -0.23286402 0.79799998
-0.35188001 -0.22800002 0.79800004
-0.34744084 -0.2273324 0.79566669
-0.34250364 -0.22718446 0.79544449
-0.33821243 -0.22775146 0.79660004
-0.33347201 -0.22773373 0.79759997
-0.32908002 -0.22876002 0.79800004
-0.34693551 -0.22313859 0.79625005
-0.3422446 -0.22264801 0.79679996
-0.33719248 -0.22251707 0.79741669
-0.3323372 -0.22224572 0.79800004
-0.34551114 -0.21793716 0.79733342
-0.34262505 -0.21739301 0.79736364
-0.33777624 -0.21784669 0.79699999
-0.33257556 -0.21780223 0.7976923
-0.32756001 -0.21508001 0.79800004
-0.32148004 -0.21584001 0.79800004
-0.31996003 -0.21508001 0.79800004
-0.31312001 -0.21508001 0.79800004
-0.34536669 -0.21481049 0.79700005
-0.34185508 -0.21318613 0.79660004
-0.33794397 -0.21243408 0.79684621
-0.33261469 -0.21238153 0.79700005
-0.32756004 -0.21204001 0.79799998
-0.32319003 -0.21185002 0.79799998
-0.3181867 -0.21153335 0.79800004
-0.3130548 -0.21199605 0.79783338
-0.30856001 -0.21052001 0.79800004
-0.34147149 -0.20821431 0.79500002
-0.33779219 -0.20790119 0.79525006
-0.33193979 -0.20765309 0.79575002
-0.32737032 -0.20701662 0.79680002
-0.3227306 -0.2073071 0.7973333
-0.31764662 -0.20745853 0.79791665
-0.31235999 -0.20748 0.79799998
-0.30771452 -0.20742267 0.79777777
-0.30324 -0.20672002 0.79800004
-0.33920002 -0.20064287 0.79500002
-0.32677001 -0.2038043 0.79700005
-0.32241496 -0.20255357 0.79655552
-0.31724805 -0.202645 0.79691666
-0.31205538 -0.20272309 0.7972222
-0.30745736 -0.20269421 0.79711109
-0.30307114 -0.20325777 0.79799998
-0.29868001 -0.20292002 0.79800004
-0.34081241 -0.19659334 0.79700005
-0.33923146 -0.19879082 0.79566669
-0.32140717 -0.19837144 0.79500002
-0.31683597 -0.19756669 0.79536361
-0.31228942 -0.19728166 0.79671437
-0.30786774 -0.19776209 0.79781818
-0.30324003 -0.19988003 0.79800004
-0.32632861 -0.19155715 0.79500002
-0.32267752 -0.19163716 0.79533339
-0.31723642 -0.1923549 0.79607141
-0.31227127 -0.19219011 0.79699999
-0.30894002 -0.19266002 0.79800004
-0.33238575 -0.18550001 0.79500002
-0.32741377 -0.18704991 0.79580003
-0.32293805 -0.18765877 0.79710001
-0.31788903 -0.18820031 0.79788888
-0.31337336 -0.18873334 0.79800004
-0.33592004 -0.18164001 0.79800004
-0.33256081 -0.18322001 0.79759997
-0.32764715 -0.18310216 0.79775
-0.32376003 -0.18468001 0.79800004
-0.31112763 -0.24538669 0.80266666
-0.30169144 -0.24694286 0.80400002
-0.29788002 -0.24640638 0.80266666
-0.29330289 -0.24518287 0.80200005
-0.33605084 -0.24294478 0.80133337
-0.31111747 -0.24217907 0.80133337
-0.30704996 -0.24264269 0.80319995
-0.30267596 -0.24273145 0.80400002
-0.29729572 -0.24334526 0.80350006
-0.29428956 -0.24375241 0.80400008
-0.35200003 -0.23695239 0.80000001
-0.33752382 -0.24000001 0.80000001
-0.32609525 -0.23542859 0.80000001
-0.32380953 -0.23542859 0.80000001
-0.31619051 -0.2361905 0.80000001
-0.31277648 -0.23708548 0.80175006
-0.30718893 -0.23795222 0.8029092
-0.30245715 -0.23756288 0.80399996
-0.32636636 -0.23257399 0.80066675
-0.32320002 -0.23207621 0.80000001
-0.31691107 -0.23237048 0.80260003
-0.31343243 -0.23252194 0.80400002
-0.33163476 -0.22642618 0.80049998
-0.32781732 -0.2274116 0.80128586
-0.32222667 -0.22754359 0.80175006
-0.3176069 -0.22749642 0.80319995
-0.31348345 -0.22711086 0.80400002
-0.33219051 -0.22476192 0.80000001
-0.32759798 -0.22206981 0.8012858
-0.32198349 -0.2223776 0.80177778
-0.31744385 -0.22222821 0.80240005
-0.31284657 -0.22252548 0.80371433
-0.30552003 -0.22129144 0.80400002
-0.32779315 -0.21766591 0.80080003
-0.32280955 -0.21783242 0.80066669
-0.31772575 -0.21751355 0.80080003
-0.31200933 -0.21782951 0.80140013
-0.30711985 -0.21752436 0.80345452
-0.302304 -0.21700346 0.80400002
-0.29837334 -0.21618669 0.80400002
-0.2940343 -0.21516573 0.80400002
-0.28663242 -0.21618669 0.80400002
-0.28309971 -0.21684825 0.80266666
-0.32152385 -0.21409525 0.80000001
-0.31756765 -0.21298325 0.80039996
-0.31132039 -0.2130903 0.80080003
-0.30733645 -0.21309549 0.8012501
-0.30231354 -0.21198669 0.80240005
-0.29753229 -0.21186878 0.80311114
-0.29250288 -0.21210288 0.80400002
-0.28758043 -0.21232167 0.80400002
-0.28281784 -0.21185301 0.80200005
-0.3018986 -0.20806813 0.80100006
-0.29712191 -0.2069924 0.80200005
-0.29238194 -0.20742288 0.80366671
-0.28724453 -0.2072531 0.80374998
-0.28250268 -0.20740211 0.80299997
-0.27948573 -0.20674287 0.80400002
-0.30133337 -0.20190477 0.80000001
-0.29767537 -0.20227069 0.80200005
-0.29284763 -0.20302793 0.80377775
-0.28808001 -0.20362973 0.80320007
-0.28351954 -0.2033619 0.8035
-0.27872002 -0.20444573 0.80400002
-0.30590481 -0.1969524 0.80000001
-0.30203268 -0.19724819 0.80142862
-0.29786289 -0.19755429 0.80400002
-0.30717683 -0.1919359 0.80133343
-0.30338022 -0.1929764 0.8028
-0.29939431 -0.19372572 0.80400002
-0.32152385 -0.18514287 0.80000001
-0.31773064 -0.18606097 0.80114293
-0.31239876 -0.18797335 0.8023333
-0.30705145 -0.18874858 0.80400002
-0.33752382 -0.18057144 0.80000001
-0.33316049 -0.18144621 0.80049998
-0.32718742 -0.18192026 0.80175006
-0.32226515 -0.18277076 0.80236369
-0.31776381 -0.18331213 0.80342859
-0.31470859 -0.18377143 0.80400002
-0.33692503 -0.17791168 0.80175
-0.3323029 -0.17843066 0.80345458
-0.32713249 -0.17755298 0.80384618
-0.32287621 -0.17892192 0.80400002
-0.31930289 -0.17994288 0.80400002
-0.33686936 -0.17309755 0.80280012
-0.33199689 -0.1724924 0.8024286
-0.32846937 -0.17364345 0.80319995
-0.33308575 -0.16922288 0.80400008
-0.30750823 -0.24701984 0.80600005
-0.30372131 -0.24742924 0.80600011
-0.34670794 -0.24231176 0.80600011
-0.34235811 -0.24333525 0.80600005
-0.30116257 -0.24231176 0.80600011
-0.29770255 -0.24164414 0.80633348
-0.29359433 -0.24286765 0.80700004
-0.31088573 -0.23565906 0.80600005
-0.30781525 -0.23565906 0.80600011
-0.30205557 -0.2370359 0.80633342
-0.29747772 -0.23752128 0.8071112
-0.29395813 -0.23855239 0.80800003
-0.31216511 -0.23207685 0.80600011
-0.30763403 -0.23207003 0.80707693
-0.30287921 -0.23241095 0.8071667
-0.29934478 -0.23470478 0.80800003
-0.31196114 -0.22759281 0.80680007
-0.30781382 -0.22716287 0.80650014
-0.30310169 -0.22699073 0.80725008
-0.28600639 -0.22803557 0.80800003
-0.31549144 -0.22337715 0.80600005
-0.31190923 -0.22337715 0.80600011
-0.30858162 -0.22253779 0.80666679
-0.30273718 -0.22243236 0.80600005
-0.29749745 -0.22156002 0.8065716
-0.29241908 -0.22085334 0.80800003
-0.28658253 -0.22228305 0.80760002
-0.28478667 -0.22030668 0.80600005
-0.29690823 -0.21826592 0.8064
-0.29254311 -0.2176317 0.80675006
-0.28888068 -0.21825969 0.80600011
-0.29553336 -0.20034859 0.80600005
-0.29246292 -0.20096266 0.80600005
-0.28797624 -0.20119908 0.80633342
-0.28197208 -0.20213968 0.80600011
-0.2777375 -0.20145494 0.80633342
-0.29553336 -0.19727811 0.80600011
-0.29261398 -0.19766541 0.80688894
-0.28744477 -0.19906001 0.80700004
-0.27657145 -0.19744001 0.80666679
-0.30136725 -0.19175124 0.80600005
-0.29756594 -0.19271345 0.806889
-0.29395813 -0.19468954 0.80800003
-0.31190923 -0.18704319 0.80600011
-0.30742955 -0.18686382 0.80633348
-0.30265555 -0.18776003 0.80657142
-0.29897431 -0.18906763 0.80700004
-0.31702667 -0.18115811 0.80600011
-0.31254226 -0.18284178 0.80692309
-0.3076413 -0.18383303 0.806889
-0.33698478 -0.17885526 0.80600005
-0.32189122 -0.1770273 0.80622232
-0.31763855 -0.1776614 0.80755562
-0.31396574 -0.17852953 0.80800003
-0.32710311 -0.17154382 0.8070001
-0.32318509 -0.17383757 0.80714297
-0.3369067 -0.16747175 0.80622232
-0.33216518 -0.16715716 0.80660009
-0.32856289 -0.16870096 0.80700004
-0.29622859 -0.24145716 0.81000006
-0.29391432 -0.24145716 0.81000006
-0.29679668 -0.23581764 0.81050003
-0.29386669 -0.23664002 0.81200004
-0.30070287 -0.23250858 0.81000006
-0.29700005 -0.23220001 0.81
-0.29249415 -0.23254402 0.81120008
-0.28849399 -0.23136257 0.81066674
-0.30070287 -0.22788 0.81000006
-0.29724446 -0.22775872 0.81066674
-0.29258573 -0.22726637 0.81166685
-0.28825718 -0.22705716 0.81000006
-0.29661429 -0.22410002 0.81000006
-0.29275715 -0.22332859 0.81000006
-0.28851432 -0.22294287 0.81000006
-0.2830846 -0.20092307 0.81080008
-0.29160002 -0.19594288 0.81000006
-0.28732413 -0.19695655 0.81100005
-0.282408 -0.19775967 0.8120001
-0.27771431 -0.19517145 0.81000006
-0.2960743 -0.19177715 0.81000006
-0.29201829 -0.1923621 0.81116688
-0.28777558 -0.19331273 0.81300008
-0.28296193 -0.19458477 0.81400001
-0.27771431 -0.19362858 0.81000006
-0.30082515 -0.18606173 0.8120001
-0.29736236 -0.18722698 0.81261557
-0.29259583 -0.18850668 0.81320012
-0.28916383 -0.18915811 0.81400001
-0.27520955 -0.18838286 0.81400001
-0.27314228 -0.18631558 0.81400001
-0.31088573 -0.18128572 0.81000006
-0.30739859 -0.18134524 0.81200004
-0.30345413 -0.18312345 0.8120001
-0.29769146 -0.18373144 0.81400001
-0.27520955 -0.18218097 0.81400001
-0.2720587 -0.18204269 0.8120001
-0.32014287 -0.1751143 0.81000006
-0.31667146 -0.17550002 0.81000006
-0.31183255 -0.17721364 0.81092322
-0.30832875 -0.17822586 0.8131429
-0.32238686 -0.1718463 0.8106001
-0.31723112 -0.17212215 0.81044447
-0.31284484 -0.17270979 0.81254554
-0.33144996 -0.16626592 0.8120001
-0.32712716 -0.16714096 0.81250012
-0.32269591 -0.16720584 0.81306684
-0.31776592 -0.16786383 0.81300014
-0.31371304 -0.16963813 0.81333339
-0.33698338 -0.16243191 0.81216687
-0.33280513 -0.16408001 0.81266677
-0.32791281 -0.16403316 0.81320012
-0.32482478 -0.16357525 0.81400001
-0.33567816 -0.15737335 0.81400001
-0.33412763 -0.15814859 0.81400001
-0.28691471 -0.19160995 0.8164286
-0.2820203 -0.19234486 0.81715399
-0.27739191 -0.19180335 0.81700003
-0.29214498 -0.18591107 0.81540006
-0.28794661 -0.18789749 0.81788903
-0.28236002 -0.18798003 0.81900018
-0.27729508 -0.18730229 0.81739998
-0.27399525 -0.18706192 0.81500006
-0.30154353 -0.18196128 0.81533337
-0.2971603 -0.18157639 0.81700015
-0.29285115 -0.18298225 0.81816685
-0.28938001 -0.18486001 0.81900007
-0.28189203 -0.18454801 0.81900007
-0.27680555 -0.18302916 0.81780005
-0.30666789 -0.17660668 0.81611115
-0.30244455 -0.1773064 0.81757152
-0.29781336 -0.17759639 0.81860012
-0.27612001 -0.17862001 0.81900007
-0.31104717 -0.17107572 0.81650007
-0.30818573 -0.17253447 0.81772739
-0.30278507 -0.17248322 0.81881839
-0.29718003 -0.17394002 0.81900007
-0.31648907 -0.16602096 0.81650007
-0.31278801 -0.16754226 0.81754559
-0.30778798 -0.16863601 0.81900007
-0.30446002 -0.16874002 0.81900012
-0.33289081 -0.16150574 0.81585723
-0.32747549 -0.16179264 0.81675005
-0.32230213 -0.16257556 0.81677783
-0.31789264 -0.16331759 0.81788898
-0.31434003 -0.16458002 0.81900007
-0.33282369 -0.15766884 0.81772739
-0.32838002 -0.15900859 0.81900012
-0.32214001 -0.15990001 0.81900007
-0.33361524 -0.15376572 0.8175
-0.28748032 -0.18583271 0.82100004
-0.29102498 -0.1815583 0.82100004
-0.28703633 -0.18223271 0.82122231
-0.28263548 -0.18209836 0.82150006
-0.27813715 -0.18112096 0.82150006
-0.29634193 -0.17592858 0.82100004
-0.29243243 -0.17749238 0.82100004
-0.28750408 -0.17790309 0.82200003
-0.28317431 -0.17899145 0.82249999
-0.27884543 -0.17815779 0.82166672
-0.30103335 -0.17123716 0.82100004
-0.29745671 -0.17238401 0.82172734
-0.2926805 -0.17365098 0.82225001
-0.28844193 -0.17478953 0.82300001
-0.31041622 -0.16732763 0.82100004
-0.30728862 -0.16654572 0.82100004
-0.30271387 -0.16762002 0.82209098
-0.29866892 -0.16928858 0.82166672
-0.3229267 -0.16029048 0.82100004
-0.3168669 -0.16126788 0.82100004
-0.31204304 -0.16266873 0.82116669
-0.30805087 -0.16318555 0.8222
-0.30490193 -0.1638162 0.82300001
-0.33152765 -0.15559906 0.82100004
-0.32707375 -0.1569642 0.82160008
-0.32253623 -0.15754882 0.82200003
-0.31803191 -0.15901668 0.82250005
-0.31274003 -0.15911335 0.82300007
-0.30908224 -0.15859082 0.82300007
-0.33232671 -0.15376288 0.82233334
-0.32841623 -0.15441048 0.82300007
-0.28578794 -0.17635524 0.82666677
-0.28305113 -0.17811906 0.8263334
-0.27791241 -0.17922191 0.82900006
-0.29621431 -0.17050001 0.82500005
-0.29240292 -0.17109272 0.82533348
-0.28852859 -0.17283779 0.82700008
-0.30129239 -0.16637954 0.82600009
-0.29733932 -0.16712682 0.82746154
-0.29261863 -0.16720906 0.82816666
-0.28922892 -0.16790542 0.82900012
-0.30642861 -0.16185716 0.82500005
-0.30295116 -0.16303572 0.82766688
-0.29922953 -0.16343144 0.82900006
-0.29212382 -0.16343144 0.82900006
-0.32095906 -0.15575907 0.82600003
-0.31742063 -0.15682231 0.82579994
-0.31250894 -0.15638529 0.82700014
-0.30778235 -0.15778509 0.82700008
-0.30480859 -0.15988667 0.82700002
-0.3314265 -0.15193467 0.82660007
-0.32721689 -0.15212806 0.82609099
-0.32244039 -0.15271436 0.82623076
-0.31703848 -0.15236476 0.82761538
-0.31217775 -0.15332554 0.82900012
-0.33133686 -0.14869367 0.82900012
-0.32765242 -0.14843048 0.82900012
-0.32291529 -0.14843048 0.82900012
-0.31857288 -0.14882524 0.82900006
-0.28231379 -0.17632395 0.83188897
-0.27827749 -0.17662892 0.83166665
-0.28638411 -0.17219228 0.83100003
-0.2838994 -0.17208511 0.83266675
-0.27722225 -0.17187905 0.83166665
-0.28726313 -0.16689311 0.83150005
-0.2842778 -0.16845113 0.83300006
-0.30171478 -0.16115239 0.83150005
-0.29731664 -0.16235888 0.83160001
-0.29211226 -0.16195635 0.83185726
-0.28880605 -0.16355969 0.83233345
-0.3067244 -0.15740439 0.83220005
-0.30329955 -0.15877621 0.83150005
-0.29811287 -0.1593643 0.8325001
-0.29432669 -0.15946001 0.83300006
-0.33558002 -0.15152667 0.83300006
-0.33477432 -0.15274572 0.83100003
-0.31166828 -0.15187304 0.83200014
-0.30842048 -0.15421049 0.83250004
-0.33558002 -0.14914668 0.83300006
-0.33200765 -0.14632541 0.83200002
-0.32725334 -0.14579716 0.83200002
-0.32273889 -0.14592059 0.8318001
-0.31814304 -0.14701648 0.83185714
-0.31336671 -0.14994001 0.83300006
-0.32701203 -0.14264135 0.83300012
-0.32280096 -0.14249684 0.83277786
-0.31918448 -0.14306445 0.83300006
-0.28151429 -0.17256668 0.83500004
-0.28549048 -0.16620477 0.83500004
-0.28269824 -0.1670659 0.83733338
-0.27840123 -0.16799596 0.83700001
-0.29026192 -0.16143334 0.83500004
-0.28735232 -0.16247196 0.83663648
-0.28412098 -0.16360953 0.83800006
-0.30616668 -0.15586668 0.83500004
-0.30253536 -0.15634975 0.83522224
-0.29752475 -0.15697601 0.83590919
-0.29219422 -0.15765715 0.8372857
-0.28828335 -0.1585162 0.83850002
-0.3422862 -0.15228239 0.83825004
-0.33797622 -0.1518905 0.83500004
-0.31093812 -0.15030001 0.83500004
-0.30730805 -0.15157706 0.83522224
-0.30262953 -0.15236548 0.83681822
-0.29854119 -0.15318383 0.8386001
-0.29484859 -0.1542162 0.83900005
-0.34738597 -0.14762405 0.83900011
-0.34215587 -0.14754888 0.83744448
-0.33766386 -0.14694117 0.83579999
-0.33479527 -0.14552858 0.83500004
-0.31650481 -0.14711906 0.83500004
-0.31210577 -0.1472943 0.83599997
-0.30706257 -0.1475489 0.83744448
-0.30305716 -0.14893335 0.83850002
-0.34598765 -0.14462763 0.83900005
-0.34279144 -0.14462763 0.83900011
-0.33799335 -0.14283362 0.83785719
-0.33232138 -0.14242256 0.83544445
-0.32843336 -0.14155239 0.83500004
-0.32127622 -0.14075716 0.83500004
-0.31757575 -0.14236049 0.83625001
-0.31260288 -0.14274383 0.83733332
-0.30864763 -0.14334287 0.83850002
-0.33194846 -0.13818763 0.83871442
-0.32721812 -0.13886763 0.838
-0.32226083 -0.13850193 0.83785713
-0.31783003 -0.13975 0.83850002
-0.3132267 -0.13983335 0.83900005
-0.27745718 -0.1659943 0.84200001
-0.28616542 -0.16111907 0.8416667
-0.28226954 -0.16278574 0.84200001
-0.27774233 -0.16363183 0.84140009
-0.27472669 -0.1633943 0.84100002
-0.28676504 -0.15782192 0.84224999
-0.28340858 -0.15896572 0.84300005
-0.29738894 -0.15149875 0.8416667
-0.29281083 -0.15242065 0.84233344
-0.28902858 -0.15334573 0.84300005
-0.30552572 -0.14594573 0.84200001
-0.30243778 -0.14734022 0.84233338
-0.29826146 -0.14812715 0.84300005
-0.29464859 -0.14852858 0.84300005
-0.34562099 -0.1427381 0.84200001
-0.34301192 -0.14265382 0.84150004
-0.33827084 -0.14092287 0.84233332
-0.3115705 -0.14016667 0.84100002
-0.30725434 -0.14200582 0.84154546
-0.30428287 -0.14290857 0.84300005
-0.33639717 -0.13889429 0.84300005
-0.33279049 -0.13712478 0.84200007
-0.32746467 -0.13618547 0.84185719
-0.32212743 -0.13613048 0.84180003
-0.31777897 -0.13728476 0.8418889
-0.31282803 -0.13837543 0.84180003
-0.30749434 -0.13889429 0.84300011
-0.32676288 -0.13407716 0.84300011
-0.32355145 -0.13407715 0.84300005
-0.28139845 -0.16068414 0.84500003
-0.27797052 -0.16114192 0.84600008
-0.28569049 -0.15612382 0.84500003
-0.2819981 -0.15792002 0.84600008
-0.27782097 -0.15910096 0.84800005
-0.28775147 -0.15233938 0.84633338
-0.30098099 -0.14566192 0.84500003
-0.29695717 -0.14646669 0.84500015
-0.29258892 -0.1475019 0.8463335
-0.28890955 -0.14888096 0.84500003
-0.34604764 -0.14083335 0.84500003
-0.34282857 -0.14083335 0.84500003
-0.30500478 -0.14083335 0.84500003
-0.3020232 -0.14255399 0.84566677
-0.29781657 -0.14295942 0.84687507
-0.29397336 -0.14375621 0.84800005
-0.34727621 -0.1397181 0.84800005
-0.34202576 -0.13901493 0.84700012
-0.3370578 -0.13670224 0.84600008
-0.31602526 -0.1362462 0.84650004
-0.31242821 -0.13693829 0.84680003
-0.3073332 -0.13769478 0.84549999
-0.30296478 -0.13897315 0.84740013
-0.33558574 -0.13439524 0.84500003
-0.33202589 -0.13339986 0.84549999
-0.32702839 -0.13150902 0.84600008
-0.32241076 -0.13235047 0.84690922
-0.31836319 -0.13363652 0.84700006
-0.3275381 -0.12956667 0.84500003
-0.28576192 -0.15623811 0.85000002
-0.28228429 -0.15673476 0.85049999
-0.27810162 -0.15729335 0.85133338
-0.28593004 -0.15227857 0.85049999
-0.28324339 -0.15257701 0.85216677
-0.27868065 -0.15281907 0.85200012
-0.290847 -0.14663748 0.8506667
-0.28783667 -0.14757085 0.85246164
-0.28222668 -0.14884001 0.85400003
-0.27750859 -0.14930096 0.852
-0.30033335 -0.14004762 0.85000002
-0.29705033 -0.14082704 0.85080004
-0.29236862 -0.14212744 0.85180008
-0.28920668 -0.14379144 0.85300004
-0.34674859 -0.13777843 0.85266674
-0.34242633 -0.13726135 0.85080004
-0.33919051 -0.13519049 0.85000002
-0.31652382 -0.13519049 0.85000002
-0.31247622 -0.13519049 0.85000002
-0.30692923 -0.13605303 0.85033333
-0.30192021 -0.13683791 0.85220015
-0.29759595 -0.13782506 0.85342866
-0.29344049 -0.13818525 0.85350007
-0.3407867 -0.13338667 0.85400003
-0.33753335 -0.13284445 0.85400003
-0.33229619 -0.13048668 0.85100007
-0.32138097 -0.13033335 0.85000002
-0.31720695 -0.13146073 0.85075003
-0.3123568 -0.1322684 0.85100001
-0.30761123 -0.13229695 0.85222232
-0.30373609 -0.13276082 0.85371435
-0.33243132 -0.12760738 0.85342866
-0.32737529 -0.12732616 0.85155559
-0.3224248 -0.12729333 0.85133344
-0.31781548 -0.12764476 0.8526001
-0.31296998 -0.12762603 0.85355562
-0.30845669 -0.12789668 0.85400003
-0.3310267 -0.12444001 0.85400003
-0.32751817 -0.12352954 0.85333341
-0.32229859 -0.12396048 0.85350007
-0.31801337 -0.12362667 0.85400003
-0.31313339 -0.12362667 0.85400003
-0.30988002 -0.12362668 0.85400003
-0.28614858 -0.14592762 0.85600007
-0.28245464 -0.14716658 0.85688889
-0.27864572 -0.14708573 0.85800004
-0.29056287 -0.14120096 0.85700005
-0.28706309 -0.14303261 0.8571111
-0.28191432 -0.14463429 0.85800004
-0.27864572 -0.14463429 0.85800004
-0.35137147 -0.13891429 0.85800004
-0.34728575 -0.13646287 0.85800004
-0.34484574 -0.13614477 0.85600007
-0.29674667 -0.13614477 0.85600007
-0.29178715 -0.13793573 0.85699999
-0.28845143 -0.13891429 0.85800004
-0.34606004 -0.1331943 0.85800004
-0.34279147 -0.13278572 0.85800004
-0.33832383 -0.13125335 0.85600007
-0.30161566 -0.13261907 0.85640013
-0.29828715 -0.13332 0.85749996
-0.2949886 -0.13401145 0.85800004
-0.34565145 -0.12992573 0.85800004
-0.34156573 -0.12829144 0.85800004
-0.33703104 -0.12765417 0.85685718
-0.30632612 -0.12713145 0.85680002
-0.30342451 -0.1284384 0.85742861
-0.33584574 -0.12338858 0.85800004
-0.33286288 -0.1227473 0.85733336
-0.32700491 -0.12112463 0.85685718
-0.32257447 -0.12112463 0.85685718
-0.3177509 -0.12093029 0.85680002
-0.312601 -0.12079524 0.85700005
-0.30861107 -0.12354135 0.85680002
-0.31727576 -0.11882429 0.85750008
-0.2863937 -0.14060318 0.86000001
-0.2829361 -0.14187706 0.86111116
-0.27890795 -0.14191365 0.86133337
-0.35219115 -0.13634098 0.86066669
-0.34918734 -0.1356889 0.86000001
-0.29199052 -0.13555239 0.86000001
-0.28761381 -0.13673478 0.861
-0.28377593 -0.13764636 0.86200011
-0.34891433 -0.13186668 0.86000001
-0.3435905 -0.13063811 0.86000001
-0.30059049 -0.13022858 0.86000001
-0.29698667 -0.13088383 0.86000007
-0.2925503 -0.1319344 0.86044449
-0.28921765 -0.13250619 0.86150002
-0.34152508 -0.12605461 0.86133337
-0.33908576 -0.12613335 0.86000001
-0.30550477 -0.1253143 0.86000001
-0.30186045 -0.12676001 0.86028588
-0.29754481 -0.12704952 0.86066675
-0.29300404 -0.1272144 0.86177778
-0.2897962 -0.12806858 0.86200005
-0.34124255 -0.12341653 0.86200011
-0.33764338 -0.1221081 0.86049998
-0.33335242 -0.12040001 0.86000001
-0.31041908 -0.12040001 0.86000001
-0.30738407 -0.12200929 0.86125004
-0.30293149 -0.12314287 0.86200011
-0.29833412 -0.12330706 0.86200011
-0.33700097 -0.11698572 0.86200005
-0.33238047 -0.11729716 0.86018193
-0.32680002 -0.11712383 0.86000007
-0.32227716 -0.1169862 0.86050004
-0.31726399 -0.11684872 0.86142862
-0.31282955 -0.11848953 0.861
-0.30867809 -0.11903811 0.86200005
-0.33576953 -0.11247049 0.86200011
-0.33203134 -0.11286397 0.86142862
-0.32713738 -0.11232424 0.8608889
-0.32305622 -0.11297366 0.86166668
-0.33708307 -0.10852992 0.86200011
-0.33248574 -0.10918667 0.86200011
-0.32756001 -0.1087762 0.86200005
-0.32427621 -0.10918667 0.86200005
-0.28212577 -0.13707937 0.86533344
-0.27805093 -0.13778783 0.86633343
-0.27496287 -0.13624287 0.86700004
-0.28746882 -0.13250358 0.86550015
-0.28297347 -0.13295646 0.86809099
-0.27759019 -0.13351269 0.86833334
-0.27496287 -0.13128857 0.86700004
-0.29080477 -0.12604287 0.86500007
-0.28784174 -0.1279846 0.86700004
-0.28288144 -0.12986144 0.86849999
-0.27692136 -0.12861203 0.86900008
-0.34595463 -0.12266763 0.86833334
-0.34240925 -0.12183715 0.86633343
-0.30563337 -0.12110001 0.86500007
-0.30233812 -0.12110001 0.86500013
-0.29674572 -0.12192506 0.8658573
-0.29294953 -0.12293153 0.86736369
-0.28883907 -0.12497048 0.86900002
-0.34511715 -0.11834953 0.86900002
-0.34199053 -0.11858159 0.86666673
-0.31551906 -0.11615715 0.86500007
-0.31240612 -0.11653163 0.86780006
-0.30723524 -0.11727524 0.86720008
-0.30241188 -0.11752269 0.86736381
-0.2977595 -0.11835016 0.86766672
-0.34103954 -0.1134062 0.86600006
-0.33776194 -0.11245 0.86500007
-0.33364287 -0.1112143 0.86500007
-0.32168382 -0.11235557 0.86533344
-0.31713322 -0.11273018 0.86716676
-0.3128604 -0.11333086 0.86860001
-0.30870193 -0.11338381 0.86900002
-0.33639747 -0.10614844 0.86785722
-0.33218086 -0.10671524 0.86671436
-0.32698146 -0.10630834 0.8670001
-0.32229185 -0.10742927 0.86771429
-0.31799084 -0.10884319 0.86800003
-0.33104765 -0.10345238 0.86900002
-0.32671955 -0.10339192 0.86849999
-0.32277143 -0.10345238 0.86900002
-0.28634906 -0.12574476 0.87150007
-0.28236097 -0.12739429 0.87200016
-0.27769715 -0.12887144 0.87300003
-0.29121938 -0.12152573 0.8720001
-0.28756353 -0.12328129 0.87266678
-0.34591144 -0.11696286 0.87100005
-0.34425241 -0.11696286 0.87100005
-0.30609432 -0.11530381 0.87100005
-0.30277622 -0.11530381 0.87100005
-0.29707488 -0.11574153 0.87180007
-0.29381955 -0.11786049 0.87150007
-0.31213844 -0.11096414 0.87166679
-0.30715749 -0.11262446 0.87166679
-0.30272174 -0.11308401 0.87180007
-0.29897049 -0.11377525 0.87200004
-0.31673455 -0.10689334 0.87175012
-0.31220144 -0.10850143 0.87300003
-0.33649015 -0.10210826 0.87166679
-0.33227313 -0.10159036 0.87128592
-0.32799372 -0.10169963 0.87100011
-0.32231554 -0.1018279 0.87128592
-0.31807145 -0.10339382 0.8720001
-0.32675147 -0.098940007 0.87300003
-0.32342574 -0.098940007 0.87300003
-0.28083336 -0.12583335 0.87500006
-0.27750003 -0.12583336 0.87500012
-0.28659922 -0.12159699 0.87650007
-0.28233677 -0.12321539 0.87671447
-0.27813241 -0.12445049 0.87700003
-0.29156384 -0.11749392 0.87620002
-0.28764957 -0.11790287 0.87800014
-0.3075 -0.11083334 0.87500012
-0.30191144 -0.11131867 0.87620002
-0.29709229 -0.11315774 0.87687504
-0.29266667 -0.1145581 0.87800002
-0.31583336 -0.10583334 0.87500006
-0.31176466 -0.10670395 0.87628585
-0.30700499 -0.10796095 0.8774001
-0.30311906 -0.10828668 0.87800002
-0.32166669 -0.10083334 0.87500006
-0.31673917 -0.10236266 0.87700009
-0.31189907 -0.10368764 0.87800014
-0.30688193 -0.10410572 0.87800002
-0.30353716 -0.10452382 0.87800002
-0.33583337 -0.097500011 0.87500012
-0.3323054 -0.097469017 0.87609094
-0.32657716 -0.096886665 0.87700003
-0.32185718 -0.098214976 0.87714297
-0.3172507 -0.098837726 0.87800008
-0.33251214 -0.092824519 0.87663651
-0.32695049 -0.093653344 0.87800014
-0.3334356 -0.088157468 0.87600005
-0.2816 -0.12152382 0.88000005
-0.27815869 -0.12140109 0.88085723
-0.28595287 -0.11739857 0.88050002
-0.28275844 -0.11746414 0.88100004
-0.27875355 -0.11792839 0.88320011
-0.29668573 -0.11146668 0.88000005
-0.29276091 -0.11189334 0.88218188
-0.28801546 -0.11275106 0.88220006
-0.28476003 -0.1134 0.88200003
-0.30154666 -0.10777905 0.88000005
-0.29749423 -0.10796382 0.88127279
-0.29214096 -0.10860572 0.88400006
-0.31260955 -0.10140954 0.88000005
-0.30758095 -0.10208001 0.88000005
-0.30242833 -0.10290501 0.88025004
-0.29901662 -0.10287239 0.88228577
-0.3218286 -0.096380956 0.88000005
-0.31721908 -0.096799999 0.88000005
-0.31260958 -0.098057151 0.88000005
-0.30743915 -0.09754581 0.88090914
-0.30297124 -0.098301537 0.88220006
-0.2993781 -0.099231437 0.88300002
-0.33104765 -0.091352388 0.88000005
-0.32769525 -0.091352388 0.88000005
-0.32238844 -0.092971265 0.88090914
-0.3170478 -0.092623167 0.88230777
-0.31250218 -0.092739776 0.88325
-0.30879241 -0.093589842 0.88266671
-0.33183771 -0.087176092 0.88111115
-0.32722688 -0.088098481 0.88100004
-0.32262313 -0.088904046 0.88275003
-0.33104765 -0.084647626 0.88000005
-0.28130573 -0.11573239 0.88700002
-0.27728891 -0.11638255 0.8876667
-0.28721905 -0.11066382 0.88700002
-0.28284726 -0.11225963 0.88760006
-0.27758062 -0.11289429 0.88860005
-0.27347335 -0.11260667 0.88900006
-0.29616985 -0.10623779 0.8876667
-0.29261622 -0.10740509 0.88800001
-0.28764957 -0.10857366 0.88833332
-0.28194001 -0.10922001 0.88900006
-0.29769051 -0.10233144 0.88800013
-0.30318809 -0.09598811 0.88800001
-0.29853621 -0.098102868 0.88800001
-0.3150962 -0.090389527 0.88700002
-0.31087238 -0.090389527 0.88700002
-0.30710894 -0.092499062 0.88833344
-0.30395335 -0.093980007 0.88900006
-0.33030194 -0.085320957 0.88700002
-0.32692289 -0.085320964 0.88700002
-0.32192397 -0.08661022 0.8878572
-0.31710276 -0.087096415 0.88788891
-0.31246057 -0.087633342 0.88842869
-0.33248925 -0.083757155 0.88833332
-0.32753718 -0.08294192 0.88866675
-0.32258004 -0.083820008 0.88900012
-0.31834668 -0.083820008 0.88900006
-0.27578574 -0.11116286 0.89100003
-0.27408859 -0.11116286 0.89100003
-0.29195052 -0.10619049 0.89200008
-0.28717813 -0.10687524 0.89300007
-0.28213465 -0.10732255 0.89200002
-0.27779636 -0.10832205 0.8935715
-0.29586917 -0.10247487 0.89220011
-0.29249752 -0.10336224 0.89366668
-0.28636384 -0.1041581 0.89400005
-0.28182289 -0.10387429 0.89400005
-0.2767143 -0.10302287 0.89400005
-0.30089861 -0.096050009 0.89250004
-0.29656109 -0.097577505 0.89287496
-0.29331717 -0.098340005 0.89400005
-0.30667621 -0.09089905 0.89200008
-0.30276763 -0.093552396 0.89300001
-0.29748917 -0.093827434 0.89400005
-0.31177336 -0.085801914 0.89200008
-0.30780116 -0.087918863 0.89279997
-0.33518574 -0.082311437 0.89100003
-0.33216387 -0.081838101 0.89200008
-0.32627574 -0.081038579 0.89100003
-0.32300001 -0.08159858 0.89250004
-0.3179768 -0.081990361 0.89212501
-0.3126905 -0.082872704 0.89300007
-0.30906859 -0.084291436 0.89400005
-0.33120573 -0.079182863 0.89400005
-0.32706481 -0.079005718 0.89200008
-0.3209886 -0.077480003 0.89400005
-0.31949431 -0.078526676 0.89300007
-0.29098669 -0.10154667 0.89600003
-0.2878578 -0.10268446 0.89600003
-0.28245336 -0.10154667 0.89600009
-0.27815375 -0.10255376 0.89628577
-0.29166934 -0.097792007 0.89600003
-0.28785777 -0.098229848 0.89688897
-0.28287369 -0.09827809 0.89733338
-0.27838898 -0.097921915 0.89720005
-0.30250669 -0.091733336 0.89600003
-0.29738671 -0.091733336 0.89600003
-0.29276553 -0.093035989 0.89622223
-0.28924152 -0.09356305 0.89800006
-0.30634668 -0.08618667 0.89600003
-0.30279374 -0.087780394 0.89660007
-0.29702702 -0.088136971 0.89690912
-0.29249144 -0.08894477 0.89800006
-0.33731875 -0.081126995 0.89666671
-0.33365336 -0.081066675 0.89600003
-0.31658667 -0.081066675 0.89600003
-0.31146669 -0.081066675 0.89600003
-0.30721492 -0.082685031 0.89672732
-0.30224118 -0.08398439 0.89800006
-0.29762289 -0.084668577 0.89800006
-0.31298369 -0.078703418 0.89685726
-0.28660384 -0.09524858 0.90100002
-0.28231335 -0.09524858 0.90100002
-0.27802289 -0.09524858 0.90100002
-0.2908943 -0.090100005 0.90100002
-0.28764573 -0.091727629 0.90224999
-0.28309569 -0.092481785 0.90271437
-0.27950001 -0.092880011 0.90300006
-0.29293525 -0.08647652 0.90200007
-0.28982002 -0.088580005 0.90300006
-0.28466001 -0.088580005 0.90300006
-0.28184289 -0.090500012 0.90500009
-0.27870291 -0.092323825 0.90600008
-0.2873494 -0.086872272 0.90537512
-0.27820003 -0.092733338 0.91000003
