# .PCD v0.7 - Point Cloud Data file format
VERSION 0.7
FIELDS x y z
SIZE 4 4 4
TYPE F F F
COUNT 1 1 1
WIDTH 948
HEIGHT 1
VIEWPOINT 0 0 0 1 0 0 0
POINTS 948
DATA ascii
-0.31192288 -0.16594572 0.72300005
-0.30779144 -0.16594574 0.72300005
-0.31192288 -0.16319144 0.72300005
-0.32569429 -0.15630573 0.72300005
-0.3236286 -0.1569943 0.72300005
-0.31054574 -0.15630573 0.72300005
-0.30779144 -0.15630573 0.72300005
-0.32615507 -0.15378439 0.72280008
-0.32206148 -0.15284573 0.72226679
-0.31761852 -0.15199487 0.72280008
-0.31302458 -0.15107258 0.72300005
-0.30739799 -0.15138736 0.72300011
-0.32569429 -0.14942001 0.72300005
-0.32209539 -0.14746551 0.72276926
-0.31757537 -0.14748141 0.72284621
-0.31258425 -0.14734176 0.72293746
-0.30747366 -0.14772509 0.72300005
-0.31715605 -0.1433606 0.72300005
-0.31330001 -0.14312451 0.72300011
-0.33418667 -0.18234667 0.72800004
-0.32076001 -0.17079431 0.72900003
-0.31798285 -0.17010002 0.72900003
-0.32562003 -0.16662858 0.72900003
-0.32205665 -0.16691546 0.72722226
-0.31759143 -0.16695811 0.72620004
-0.3124395 -0.16732684 0.72557145
-0.308135 -0.16599882 0.72625005
-0.32620153 -0.16247772 0.72720003
-0.3225024 -0.16220143 0.72549993
-0.3176918 -0.16229956 0.72516668
-0.31214944 -0.16219725 0.72527266
-0.30737329 -0.16271405 0.72645456
-0.30421066 -0.16135256 0.7281667
-0.33117431 -0.1562143 0.72900003
-0.32719782 -0.15840796 0.72633338
-0.32212168 -0.15834777 0.72514284
-0.31761909 -0.15742861 0.72500008
-0.31228548 -0.15754718 0.72533345
-0.30717474 -0.15751135 0.72509086
-0.30371359 -0.1572362 0.72672731
-0.33072001 -0.15392001 0.72800004
-0.32864743 -0.15168217 0.7272501
-0.31554765 -0.1539762 0.72500002
-0.31239119 -0.15338437 0.72500002
-0.30691668 -0.15363097 0.72500002
-0.30343392 -0.15258358 0.72658336
-0.32687083 -0.147147 0.72766674
-0.32428002 -0.14589144 0.72600001
-0.30700541 -0.14645621 0.72766674
-0.30409002 -0.14910477 0.72650003
-0.32163063 -0.14266981 0.72671431
-0.31828541 -0.14151081 0.72600001
-0.3124378 -0.14296001 0.72633338
-0.30864286 -0.14430954 0.72500002
-0.31177527 -0.18524763 0.73400003
-0.35022289 -0.18105334 0.73400003
-0.34711242 -0.18088889 0.73333335
-0.34211221 -0.18116781 0.73220009
-0.33741596 -0.18125714 0.73199999
-0.33248344 -0.1823291 0.73299998
-0.32748628 -0.18341853 0.73228574
-0.31247431 -0.18384954 0.73400003
-0.35022292 -0.17825717 0.73400009
-0.34724694 -0.17824882 0.73325002
-0.34183431 -0.17965525 0.73400009
-0.33764002 -0.17965525 0.73400009
-0.33344573 -0.17965525 0.73400003
-0.32670954 -0.17103335 0.73300004
-0.32372859 -0.17056668 0.73100001
-0.31955144 -0.17195906 0.73100001
-0.32696003 -0.16940573 0.73200005
-0.33274668 -0.16078097 0.73400003
-0.32952335 -0.16302049 0.73150003
-0.30268764 -0.16008191 0.73400003
-0.33636242 -0.15683001 0.7335
-0.33318728 -0.15773658 0.73220003
-0.30216303 -0.15735668 0.73216671
-0.33624193 -0.15239239 0.73400003
-0.33398512 -0.15197416 0.7334286
-0.30210963 -0.15235464 0.73290914
-0.33624193 -0.14749905 0.73400003
-0.33232373 -0.14815226 0.73328578
-0.32866955 -0.14656542 0.73166674
-0.30688158 -0.14653869 0.73200005
-0.30376512 -0.14839366 0.73266673
-0.34043622 -0.14190668 0.73400003
-0.33791965 -0.14246592 0.73400003
-0.32707211 -0.14273797 0.73314297
-0.32276097 -0.14051905 0.73260003
-0.31693619 -0.14171335 0.73300004
-0.31269145 -0.14342743 0.73320001
-0.30869582 -0.1442261 0.73300004
-0.33857208 -0.13864446 0.73400009
-0.32505718 -0.13911049 0.73400003
-0.32086289 -0.13911049 0.73400003
-0.31052193 -0.18575239 0.73600006
-0.30743775 -0.18631315 0.73600006
-0.30288559 -0.18606003 0.73642868
-0.29771146 -0.18580572 0.73900002
-0.29489622 -0.18580572 0.73900002
-0.3458043 -0.18167096 0.73650002
-0.33575621 -0.18014477 0.73600006
-0.33136019 -0.1807545 0.73620003
-0.32714343 -0.18185942 0.73727274
-0.32240766 -0.18214127 0.73753858
-0.31719315 -0.18206699 0.73811108
-0.31230414 -0.18236879 0.73715395
-0.3075954 -0.18243907 0.73700011
-0.30292952 -0.18291706 0.73800009
-0.34709004 -0.17687954 0.73700005
-0.34266815 -0.17765249 0.73730004
-0.33780012 -0.17756645 0.73791671
-0.33282697 -0.17821936 0.73790002
-0.32728249 -0.17741066 0.73853856
-0.32265621 -0.17726855 0.73884624
-0.3174181 -0.17947143 0.73900002
-0.34849119 -0.17424598 0.73625004
-0.33571717 -0.17384097 0.73900002
-0.32727146 -0.17384097 0.73900002
-0.32028431 -0.17348811 0.73750007
-0.31882572 -0.17384097 0.73900002
-0.31319526 -0.17102572 0.73900002
-0.33818051 -0.16609906 0.73900002
-0.33325383 -0.16680287 0.73900002
-0.31038001 -0.16821049 0.73900002
-0.30897239 -0.16680287 0.73900002
-0.34181684 -0.1616416 0.73900002
-0.33786806 -0.16233684 0.73788893
-0.33387953 -0.16273192 0.73650002
-0.30615717 -0.16258001 0.73900002
-0.30474955 -0.16258001 0.73900002
-0.34838575 -0.15624572 0.73900002
-0.34215787 -0.15788248 0.73771435
-0.33918065 -0.15778574 0.73633337
-0.30126935 -0.15799467 0.73600006
-0.29941624 -0.15673715 0.73800004
-0.34650588 -0.15221034 0.73650002
-0.34281242 -0.15246992 0.73640007
-0.339261 -0.15280762 0.73600006
-0.30070859 -0.15280762 0.73600006
-0.29899895 -0.15246017 0.73771441
-0.34684405 -0.14700884 0.73600006
-0.34276578 -0.1472 0.73600006
-0.33817774 -0.14726372 0.73600006
-0.33323279 -0.14565791 0.73600006
-0.305987 -0.14563017 0.73633337
-0.30221838 -0.14699756 0.73700005
-0.29897213 -0.14833103 0.73814291
-0.29137716 -0.1470962 0.73900002
-0.3471286 -0.14235717 0.73633337
-0.34299946 -0.14231727 0.73612505
-0.33731392 -0.14260487 0.73600006
-0.33225149 -0.14229335 0.73600006
-0.32874668 -0.14089143 0.73600006
-0.32033527 -0.14089143 0.73600006
-0.31677586 -0.14121011 0.73620003
-0.31239429 -0.14120857 0.73766673
-0.30783775 -0.14251551 0.73781812
-0.30404574 -0.14357716 0.73900002
-0.34701511 -0.13764592 0.73636371
-0.34280476 -0.137402 0.73608345
-0.33748171 -0.13700925 0.73600006
-0.33227953 -0.13739818 0.73606253
-0.32751289 -0.13721223 0.73609096
-0.32251391 -0.13725875 0.73606676
-0.31739318 -0.13763079 0.73731261
-0.31303886 -0.13755567 0.73899996
-0.34603906 -0.13406383 0.73700005
-0.34308824 -0.13276707 0.73760003
-0.33765242 -0.1328385 0.73800004
-0.33231032 -0.13297926 0.73799998
-0.32771569 -0.13281876 0.73788887
-0.32261014 -0.13305557 0.73800009
-0.31812191 -0.13442762 0.73900002
-0.29670477 -0.1853524 0.74000001
-0.29247624 -0.18535241 0.74000001
-0.28965718 -0.1853524 0.74000001
-0.30093336 -0.18112382 0.74000001
-0.29740953 -0.18253335 0.73999995
-0.29247621 -0.18253337 0.74000001
-0.28895241 -0.18253335 0.74000001
-0.34674287 -0.17548573 0.74000001
-0.34251431 -0.17548573 0.74000001
-0.33828574 -0.17548573 0.74000001
-0.3323456 -0.17608982 0.74000007
-0.32113653 -0.17783493 0.74000001
-0.31717706 -0.17722213 0.74046153
-0.3124465 -0.17769367 0.74107695
-0.30719078 -0.17777258 0.74013329
-0.3023763 -0.17758361 0.74061543
-0.2976959 -0.1779952 0.74106658
-0.29249084 -0.17780942 0.74146664
-0.28805315 -0.17763112 0.7411111
-0.34747803 -0.17262955 0.74157149
-0.34232235 -0.17292593 0.7411111
-0.33810025 -0.17266454 0.74075007
-0.33307049 -0.17280763 0.73999995
-0.31608573 -0.17372382 0.74000001
-0.31171146 -0.1728597 0.74133337
-0.30753779 -0.17250352 0.74233335
-0.30263114 -0.17252709 0.74243742
-0.29720002 -0.17407429 0.74300003
-0.29208946 -0.17305216 0.74300003
-0.28761435 -0.17242575 0.74200004
-0.28478667 -0.17030668 0.74200004
-0.34764045 -0.16781342 0.74191666
-0.34262478 -0.16831145 0.74100006
-0.33742434 -0.16812487 0.74000001
-0.33363435 -0.16928382 0.74000001
-0.31107876 -0.16952954 0.74066675
-0.30749124 -0.16753101 0.74222225
-0.30301702 -0.16755675 0.74290919
-0.29710028 -0.16729572 0.74275005
-0.29233289 -0.16745192 0.74250007
-0.28739908 -0.16735418 0.74144453
-0.28427494 -0.1671778 0.74066675
-0.35027146 -0.16487525 0.74300003
-0.34804472 -0.16268642 0.74181825
-0.34350097 -0.16308193 0.74000001
-0.33758098 -0.16420953 0.74000001
-0.30627906 -0.16443144 0.74100006
-0.30204478 -0.16302095 0.74100006
-0.29760724 -0.16258851 0.74225008
-0.29263371 -0.16257483 0.74218744
-0.28754491 -0.16245416 0.74238455
-0.28359777 -0.16220704 0.74212503
-0.3502667 -0.15786669 0.74000001
-0.34691906 -0.1576905 0.74000001
-0.3446286 -0.15857145 0.74000001
-0.30093336 -0.15998097 0.74000001
-0.29730636 -0.15761413 0.74080008
-0.29256004 -0.15758669 0.74200004
-0.28780046 -0.15793292 0.74288893
-0.29666311 -0.152492 0.74060005
-0.29231957 -0.15242332 0.74015379
-0.28774652 -0.15243685 0.74143738
-0.28298506 -0.1524547 0.74257153
-0.27950954 -0.15355334 0.74300003
-0.29670477 -0.14729525 0.74000001
-0.29267758 -0.14729524 0.74000007
-0.28742465 -0.14719132 0.74099994
-0.28478667 -0.14840001 0.74200004
-0.30628955 -0.14109336 0.74000001
-0.30222401 -0.14215581 0.74040002
-0.29755992 -0.14243297 0.74037498
-0.2923547 -0.1422962 0.74071425
-0.28780329 -0.1430943 0.74171424
-0.31126988 -0.1364889 0.74000001
-0.30727625 -0.13742857 0.73999995
-0.30279601 -0.13763495 0.7411111
-0.29735771 -0.13721707 0.7414
-0.29283881 -0.13790078 0.7425456
-0.28828403 -0.13883486 0.74300003
-0.34251434 -0.13132066 0.74000001
-0.33758098 -0.13073334 0.74000001
-0.33307052 -0.13066287 0.74000001
-0.32800955 -0.13049842 0.74066675
-0.3223581 -0.13066287 0.74000001
-0.31694156 -0.13219324 0.73999995
-0.31238133 -0.13249585 0.74092305
-0.30746648 -0.13277845 0.74079996
-0.302542 -0.13305365 0.74233341
-0.29802477 -0.13361117 0.74228585
-0.34602574 -0.12737143 0.74300003
-0.34256011 -0.12708281 0.74250001
-0.33787772 -0.12794021 0.74220008
-0.33229023 -0.12822807 0.74163646
-0.32738248 -0.12798266 0.74244452
-0.32257211 -0.1281016 0.74222231
-0.31751257 -0.12863934 0.74157155
-0.3125352 -0.12835801 0.74188894
-0.30767557 -0.12872891 0.74266672
-0.34319526 -0.12383334 0.74300003
-0.30012858 -0.17170477 0.74500006
-0.2972905 -0.17170477 0.74500006
-0.29350638 -0.17194128 0.74500006
-0.30083811 -0.1695762 0.74500006
-0.29800004 -0.1695762 0.74500006
-0.28660882 -0.15681644 0.74675006
-0.28314859 -0.15580286 0.74700004
-0.28593811 -0.15112858 0.74500006
-0.28566477 -0.14675048 0.74800003
-0.28451908 -0.14829049 0.74500006
-0.28582102 -0.14204872 0.74628586
-0.28424001 -0.14105144 0.74800003
-0.29133049 -0.13608669 0.74500006
-0.28669786 -0.13719374 0.74575007
-0.30225715 -0.13126191 0.74500006
-0.29695004 -0.13145275 0.74609107
-0.29274631 -0.13250205 0.74685729
-0.28827927 -0.13303681 0.74772739
-0.33720326 -0.12565316 0.74540013
-0.33273277 -0.12635563 0.74620008
-0.32703668 -0.12583858 0.74650002
-0.32278344 -0.12635563 0.74620003
-0.31808805 -0.12648341 0.74671441
-0.31236452 -0.12658927 0.74614298
-0.30701414 -0.12734401 0.7470001
-0.30248195 -0.12817921 0.74676925
-0.29802331 -0.12830572 0.74785727
-0.34550482 -0.12181716 0.74800003
-0.3423892 -0.12275849 0.74680012
-0.33744285 -0.12244669 0.74750006
-0.33242282 -0.12243327 0.74741673
-0.32790929 -0.12315137 0.74745464
-0.3224929 -0.12387096 0.74750006
-0.31750932 -0.12387121 0.74750012
-0.31368512 -0.12371683 0.74800003
-0.28668448 -0.15847492 0.75066674
-0.28357145 -0.15785715 0.75000006
-0.28649083 -0.15172827 0.75266671
-0.28422767 -0.15370762 0.75300002
-0.28595001 -0.14763239 0.75250006
-0.28470573 -0.14844859 0.75300002
-0.28500003 -0.14357144 0.75000006
-0.28445369 -0.14258572 0.75233334
-0.28525338 -0.13750097 0.75066674
-0.28704703 -0.13207155 0.75162506
-0.31214288 -0.12500003 0.75000012
-0.30755049 -0.12516668 0.75100005
-0.30184746 -0.12551907 0.75140005
-0.29694203 -0.12678888 0.75130004
-0.29232702 -0.12753327 0.75231254
-0.28756547 -0.1277847 0.75263631
-0.34331524 -0.12087525 0.75100005
-0.32728732 -0.12124413 0.75033343
-0.32279596 -0.12162259 0.75057149
-0.31724882 -0.12146881 0.75025004
-0.31206304 -0.12233819 0.75199997
-0.3075631 -0.12259547 0.75277787
-0.30288085 -0.12290182 0.75290006
-0.29797286 -0.12370715 0.75300002
-0.28757429 -0.12406572 0.75300002
-0.34281674 -0.11742599 0.75273347
-0.33757076 -0.11741406 0.75175011
-0.33228767 -0.11749653 0.75147063
-0.3275528 -0.11754548 0.75258344
-0.32252347 -0.117702 0.75266677
-0.31755674 -0.11770616 0.75236374
-0.31271854 -0.1184013 0.75263643
-0.30801287 -0.11940429 0.75300002
-0.34398955 -0.11354762 0.75300002
-0.33490574 -0.11402572 0.75300002
-0.28876191 -0.16170669 0.75800002
-0.28546193 -0.15171906 0.75500005
-0.28276551 -0.1515393 0.75500005
-0.27970955 -0.15028097 0.75500005
-0.28525561 -0.14587209 0.75699997
-0.28297216 -0.14833526 0.75700003
-0.28584 -0.14040001 0.75600004
-0.28618097 -0.13661906 0.75500005
-0.28584 -0.13248001 0.75600004
-0.28440002 -0.13032001 0.75600004
-0.2860105 -0.12699667 0.75550008
-0.28440002 -0.12816 0.75600004
-0.30559525 -0.12008096 0.75500005
-0.30243143 -0.12065621 0.75500005
-0.29748994 -0.12170549 0.75541675
-0.29246247 -0.1221241 0.75557166
-0.28823853 -0.12295959 0.75600004
-0.32429048 -0.11576667 0.75500005
-0.31638098 -0.11576667 0.75500005
-0.31200498 -0.11608496 0.75520009
-0.30744296 -0.11725078 0.7553001
-0.30253196 -0.11741032 0.75633335
-0.29700974 -0.11808191 0.75755548
-0.29250517 -0.11847391 0.75760001
-0.28948382 -0.11911429 0.75800002
-0.34169781 -0.11293969 0.75533342
-0.33752671 -0.11202849 0.75536376
-0.33247435 -0.11226275 0.75562507
-0.32709441 -0.11282048 0.75550008
-0.32240185 -0.11279024 0.75609094
-0.31769052 -0.11239842 0.75686681
-0.3127887 -0.11360244 0.75655556
-0.30787715 -0.11425112 0.75766671
-0.34001717 -0.10900763 0.75800002
-0.33712956 -0.10900763 0.75800008
-0.33424193 -0.10900763 0.75800002
-0.2880924 -0.12212144 0.76100004
-0.30211812 -0.11537524 0.76000005
-0.29777527 -0.11566477 0.76000005
-0.29235926 -0.11633487 0.76060009
-0.28905544 -0.11861163 0.76220006
-0.34236193 -0.11074287 0.76000005
-0.33078098 -0.11074287 0.76000005
-0.32788575 -0.11074287 0.76000011
-0.3242667 -0.11074287 0.76000005
-0.31249255 -0.11140491 0.76028579
-0.30717707 -0.11200316 0.76070011
-0.30239591 -0.1124382 0.76070017
-0.29741985 -0.11223247 0.76118195
-0.29391336 -0.11357382 0.76200002
-0.34196308 -0.10761525 0.7604
-0.33762726 -0.10650374 0.76075006
-0.33241171 -0.10729787 0.76125002
-0.32772616 -0.10719708 0.76092315
-0.32246447 -0.10724535 0.76087511
-0.31770629 -0.10799708 0.76191676
-0.31192017 -0.10902164 0.76242864
-0.30701667 -0.10936335 0.76300001
-0.30229336 -0.109 0.76300001
-0.29793334 -0.10972667 0.76300001
-0.34139687 -0.10446985 0.76000011
-0.33991337 -0.10364096 0.76100004
-0.33063334 -0.10391334 0.76300001
-0.32755563 -0.10327753 0.76260006
-0.32356796 -0.10285367 0.76233339
-0.28653383 -0.14765191 0.76750004
-0.28342479 -0.14974762 0.76700002
-0.28999907 -0.14098191 0.76700002
-0.28854477 -0.13696128 0.76766676
-0.28781369 -0.13330573 0.7676667
-0.28733787 -0.12652929 0.76575005
-0.28769651 -0.12231526 0.76642859
-0.29070002 -0.11584286 0.76500005
-0.28760687 -0.11747336 0.76700002
-0.2955572 -0.11050001 0.76500005
-0.29220504 -0.11199247 0.76608336
-0.28802127 -0.11289023 0.76757139
-0.33587146 -0.10564286 0.76500005
-0.31651071 -0.10657239 0.76540005
-0.31237379 -0.10634627 0.76557153
-0.30780545 -0.10703018 0.76566666
-0.30246538 -0.10666632 0.76712501
-0.29780182 -0.10790917 0.76687497
-0.29252347 -0.10823369 0.76787502
-0.28818285 -0.10898286 0.76800001
-0.34117338 -0.10213239 0.76600003
-0.33756688 -0.10210103 0.76686674
-0.33256015 -0.10185287 0.76610005
-0.32761621 -0.10079607 0.7661429
-0.32221335 -0.10174009 0.76654559
-0.31753361 -0.10220789 0.76693344
-0.31250507 -0.10253172 0.7674287
-0.30759776 -0.10362917 0.76762503
-0.30281144 -0.10459429 0.76800001
-0.33682287 -0.098377153 0.76800001
-0.33216858 -0.098212391 0.7676667
-0.32768002 -0.098742865 0.76800001
-0.32200211 -0.097746193 0.76783341
-0.31792766 -0.098255247 0.76800007
-0.2869243 -0.14726144 0.77183342
-0.28416952 -0.14650193 0.77300012
-0.29041907 -0.14484191 0.77200001
-0.28736943 -0.14214504 0.7701335
-0.28359103 -0.1424792 0.77285725
-0.2865271 -0.13744465 0.77057147
-0.28490573 -0.13766763 0.77300012
-0.28711432 -0.13275969 0.77300012
-0.28490573 -0.13030572 0.77300006
-0.28705716 -0.12719674 0.77200007
-0.28392416 -0.12711556 0.77300012
-0.28661814 -0.12273143 0.77166671
-0.28441495 -0.12392541 0.77300012
-0.28619289 -0.11771382 0.77250004
-0.28490573 -0.11705429 0.77300006
-0.28646693 -0.1121612 0.77225006
-0.29738575 -0.1057362 0.77100003
-0.29261419 -0.10565089 0.7711429
-0.28767189 -0.10712098 0.77161556
-0.31020001 -0.10046668 0.77000004
-0.30721408 -0.10154692 0.77125001
-0.30250806 -0.10250898 0.77158332
-0.29761422 -0.10252558 0.77276927
-0.29226765 -0.10251453 0.77300012
-0.28852433 -0.10230811 0.77283335
-0.33620381 -0.09672191 0.7713334
-0.33266684 -0.097101368 0.77157146
-0.3278465 -0.097046487 0.77080005
-0.32340002 -0.096433342 0.77000004
-0.31741673 -0.096742712 0.77150005
-0.3126784 -0.097814813 0.77118188
-0.30762756 -0.097881369 0.77275002
-0.30306512 -0.098404132 0.77300012
-0.34041527 -0.092640005 0.77200001
-0.3381218 -0.093916878 0.77300012
-0.33275807 -0.09423238 0.77300012
-0.32731503 -0.093649529 0.77275002
-0.32266212 -0.093766093 0.77280009
-0.31729811 -0.094600484 0.77300006
-0.31288099 -0.09496858 0.77300012
-0.30993623 -0.09496858 0.77300006
-0.29154763 -0.14688097 0.77500004
-0.28357622 -0.14806192 0.77500004
-0.28342861 -0.14097621 0.77500004
-0.28564286 -0.13507144 0.77500004
-0.28309947 -0.13747784 0.77728581
-0.28342861 -0.13064286 0.77500004
-0.2826905 -0.12769049 0.77500004
-0.28564286 -0.12104763 0.77500004
-0.28281271 -0.12356033 0.7753334
-0.27924609 -0.12375398 0.77500004
-0.28564286 -0.11735715 0.77500004
-0.28416669 -0.11588096 0.77500004
-0.28619573 -0.1124062 0.77650005
-0.28619337 -0.1069981 0.77749997
-0.29302382 -0.10111906 0.77500004
-0.28701323 -0.10243497 0.77700007
-0.30778575 -0.095214292 0.77500004
-0.30203509 -0.096690655 0.77609098
-0.2975975 -0.098005563 0.77666676
-0.2921505 -0.098565347 0.77700001
-0.28841382 -0.099094771 0.77650005
-0.34026194 -0.090785719 0.77500004
-0.33745402 -0.091562867 0.7753334
-0.33282575 -0.091518782 0.77585721
-0.32834715 -0.091330484 0.77649999
-0.3223632 -0.091433972 0.77633333
-0.31724879 -0.092308767 0.7754001
-0.31224057 -0.092208005 0.77580005
-0.30752191 -0.09240362 0.7762
-0.3040356 -0.093359068 0.77800006
-0.27380002 -0.091760002 0.77700001
-0.34039813 -0.088056192 0.77700007
-0.33755338 -0.088275932 0.77772731
-0.33215907 -0.088970959 0.77850002
-0.32680908 -0.089399531 0.77900004
-0.32258549 -0.088611849 0.77814299
-0.31743264 -0.088999778 0.77875006
-0.3126387 -0.089176953 0.77900004
-0.3078905 -0.089770481 0.77900004
-0.28635526 -0.1222962 0.78300005
-0.28375432 -0.12288572 0.78200006
-0.28722224 -0.11265206 0.78333342
-0.28549591 -0.10764953 0.78133339
-0.28386128 -0.10797175 0.78366673
-0.28588495 -0.10238125 0.78142864
-0.28448001 -0.10378668 0.78400004
-0.29714286 -0.095828578 0.78000003
-0.29313144 -0.096125722 0.78000003
-0.28740248 -0.097240202 0.78179997
-0.30167317 -0.09183985 0.78083342
-0.29721293 -0.092466526 0.78153849
-0.29257655 -0.092214085 0.78230774
-0.2879864 -0.093011752 0.78323072
-0.28224003 -0.092586674 0.78400004
-0.27779621 -0.093095243 0.78200006
-0.34097144 -0.085428581 0.78000003
-0.33698326 -0.085769534 0.78039998
-0.3324829 -0.086280964 0.78100008
-0.32810074 -0.086810723 0.7807501
-0.32231677 -0.086127907 0.78057152
-0.31723922 -0.086190492 0.78114289
-0.31212646 -0.086680248 0.78125
-0.30743536 -0.087460622 0.78127271
-0.30248532 -0.08734858 0.78184617
-0.29741254 -0.087210596 0.78266668
-0.29322562 -0.087935247 0.78342861
-0.3417426 -0.083199695 0.78233337
-0.33774644 -0.083184227 0.78285724
-0.33242071 -0.083397575 0.78285718
-0.32797465 -0.083483815 0.78266668
-0.32297373 -0.083990104 0.78320003
-0.31733334 -0.08437334 0.7840001
-0.31360003 -0.08437334 0.78400004
-0.30762669 -0.08437334 0.78400004
-0.30214351 -0.083554924 0.78333342
-0.29829335 -0.084000006 0.78400004
-0.28691262 -0.12133429 0.78740007
-0.2833584 -0.12211321 0.78800005
-0.2871519 -0.11778811 0.78775007
-0.28300956 -0.11785842 0.78822231
-0.27992764 -0.11632381 0.78800005
-0.28643939 -0.11322731 0.78733337
-0.28268203 -0.11338745 0.78845459
-0.28308421 -0.10636343 0.78760004
-0.28520572 -0.10180572 0.78600001
-0.28231639 -0.10292832 0.78781831
-0.27916259 -0.10290286 0.78866673
-0.28565031 -0.097811818 0.78640002
-0.2830193 -0.09759216 0.78825009
-0.27919811 -0.096315242 0.787
-0.28669143 -0.091442868 0.787
-0.28441572 -0.092801429 0.78900003
-0.29230985 -0.086932398 0.78785723
-0.28789091 -0.088125616 0.78788894
-0.34618908 -0.081102386 0.78850007
-0.34322059 -0.081120007 0.78720003
-0.33766001 -0.081134766 0.78700006
-0.33228859 -0.080947623 0.78700006
-0.32738701 -0.081283547 0.78714293
-0.32268557 -0.081607796 0.78745461
-0.31754884 -0.081898764 0.78750008
-0.31278953 -0.082058676 0.78760004
-0.30791068 -0.08158838 0.78740007
-0.3023214 -0.081010893 0.78657156
-0.2975629 -0.082229532 0.78780001
-0.29395944 -0.084267631 0.78860009
-0.34640861 -0.078148574 0.78900003
-0.3425211 -0.077367343 0.78870004
-0.3375206 -0.077507444 0.78860009
-0.33296502 -0.077560008 0.78875005
-0.32782713 -0.077886999 0.78888893
-0.3221482 -0.07782653 0.78900009
-0.31766644 -0.077584997 0.78900003
-0.31259432 -0.077397145 0.78900003
-0.30706427 -0.077812254 0.78885722
-0.30297241 -0.078258865 0.78860009
-0.33739147 -0.07439144 0.78900003
-0.33363432 -0.074391432 0.78900003
-0.28223592 -0.11183779 0.79166669
-0.28202304 -0.10789087 0.79220003
-0.27948669 -0.10622001 0.79100001
-0.28374383 -0.092234612 0.79166669
-0.29078668 -0.085126676 0.79100001
-0.28668424 -0.086726122 0.79185718
-0.29630828 -0.080674611 0.79166669
-0.29228735 -0.082936525 0.79166669
-0.28925622 -0.083076194 0.79300004
-0.3466543 -0.076279052 0.79300004
-0.33222002 -0.07608667 0.79100001
-0.32770002 -0.07608667 0.79100007
-0.32267779 -0.07608667 0.79100007
-0.30761117 -0.07608667 0.79100007
-0.30171114 -0.07712318 0.79133338
-0.29877201 -0.078353718 0.79260004
-0.34514382 -0.071747623 0.79300004
-0.34290287 -0.07333 0.79175001
-0.33781263 -0.072387859 0.79174995
-0.33226845 -0.073393613 0.79214293
-0.32749653 -0.073950484 0.79233336
-0.3223362 -0.073987089 0.79157144
-0.31742004 -0.073888265 0.79166669
-0.31265348 -0.073824637 0.79214293
-0.30736941 -0.074013472 0.79185718
-0.30360574 -0.074768573 0.79300004
-0.28201145 -0.11068095 0.79600006
-0.2839286 -0.10978572 0.79500002
-0.28544289 -0.090100005 0.79500002
-0.28428572 -0.090970486 0.796
-0.28578097 -0.087289058 0.79700005
-0.28464288 -0.088808574 0.79700005
-0.29301432 -0.081392862 0.79500002
-0.28701496 -0.082563534 0.79646158
-0.28348002 -0.082840003 0.79800004
-0.29728651 -0.076844253 0.79646158
-0.29238126 -0.077574506 0.79676932
-0.28771418 -0.078812741 0.79762501
-0.34536669 -0.070591435 0.79700005
-0.34222859 -0.07041429 0.79500002
-0.33768573 -0.07041429 0.79500002
-0.33238575 -0.071171433 0.79500002
-0.32764426 -0.071113884 0.79557151
-0.32256538 -0.071355514 0.79585725
-0.31715173 -0.071139194 0.79585719
-0.3123343 -0.071260005 0.796
-0.30721766 -0.071638584 0.796
-0.30251458 -0.072781049 0.79681826
-0.29728711 -0.07252752 0.79788888
-0.2931343 -0.072789527 0.79780006
-0.34536669 -0.069073334 0.79700005
-0.34247336 -0.068342544 0.79733342
-0.33727017 -0.067553766 0.79699999
-0.33236939 -0.067715846 0.7972728
-0.32742277 -0.067611329 0.79766667
-0.32265824 -0.067797504 0.79762501
-0.31744727 -0.067590252 0.79741669
-0.31273812 -0.067844771 0.79785717
-0.32148004 -0.064600006 0.79800004
-0.31783205 -0.064296007 0.79800004
-0.31388003 -0.064600006 0.79800004
-0.28561145 -0.094182864 0.80400002
-0.2844905 -0.091771431 0.80299997
-0.2857143 -0.086095244 0.80000001
-0.28400502 -0.088056006 0.80120003
-0.28416291 -0.082389526 0.801
-0.29028574 -0.075428575 0.80000001
-0.28678671 -0.076550059 0.8011111
-0.2844905 -0.078770481 0.80300003
-0.3017143 -0.070857145 0.80000001
-0.29942858 -0.070857145 0.80000001
-0.29190344 -0.072022051 0.80085725
-0.28787559 -0.072540544 0.80177778
-0.34514287 -0.066285722 0.80000001
-0.34209532 -0.066285722 0.80000007
-0.32533336 -0.066285722 0.80000001
-0.31085986 -0.067537911 0.80039996
-0.30728531 -0.067166589 0.80215389
-0.30246371 -0.067503668 0.80285716
-0.29745591 -0.067504555 0.80244446
-0.29258591 -0.068047777 0.80283332
-0.28772813 -0.069636673 0.80350006
-0.34607053 -0.064010799 0.8033334
-0.34222135 -0.062845342 0.80280012
-0.33742666 -0.0626885 0.80200011
-0.33266097 -0.062531784 0.80163646
-0.32793435 -0.062814564 0.80157155
-0.32265925 -0.061949611 0.80127287
-0.31734762 -0.061599523 0.80100006
-0.31226131 -0.06250532 0.80211771
-0.3072806 -0.062312961 0.80380005
-0.30347812 -0.063043818 0.80400008
-0.3369143 -0.058194291 0.80400002
-0.33216688 -0.057734866 0.80400002
-0.32721528 -0.057683818 0.80400002
-0.32260829 -0.058400642 0.8033334
-0.31764036 -0.058169849 0.80366671
-0.31273961 -0.058303684 0.80400002
-0.30781716 -0.058960006 0.80400002
-0.28305754 -0.091174103 0.80720007
-0.28414667 -0.086519241 0.80680001
-0.28386554 -0.081828199 0.80600005
-0.28400609 -0.077260189 0.8064
-0.28611481 -0.073353812 0.80650002
-0.28428724 -0.072725341 0.80720007
-0.30013907 -0.065247625 0.80600005
-0.29630098 -0.065247625 0.80600005
-0.2920562 -0.065328576 0.80700004
-0.28846958 -0.06737747 0.8070001
-0.34696382 -0.061409529 0.80600005
-0.34466097 -0.060641907 0.80600005
-0.30209357 -0.061886568 0.80666679
-0.29781792 -0.063191622 0.80720007
-0.29472765 -0.063870482 0.80800003
-0.34705529 -0.057494424 0.80800003
-0.34206709 -0.057752766 0.80640012
-0.33698481 -0.056036197 0.80600011
-0.33237907 -0.056036193 0.80600005
-0.32777336 -0.056036193 0.80600005
-0.32255358 -0.056343239 0.80600005
-0.31702667 -0.056036197 0.80600011
-0.31165335 -0.056371052 0.80640012
-0.30768415 -0.05738572 0.8070001
-0.30435336 -0.059180006 0.80700004
-0.33705145 -0.054636195 0.80800003
-0.332654 -0.05454604 0.80666673
-0.32748309 -0.054247241 0.80680001
-0.32243049 -0.054636195 0.80800003
-0.31781337 -0.054636195 0.80800003
-0.31242669 -0.054636195 0.80800003
-0.28381336 -0.093573339 0.81200004
-0.28416288 -0.082850486 0.81300002
-0.2845124 -0.07674858 0.81400001
-0.28578001 -0.070286676 0.81100005
-0.28644693 -0.067024052 0.81124997
-0.35660952 -0.061243813 0.81400001
-0.35238227 -0.061608892 0.81200004
-0.30008572 -0.060942862 0.81000006
-0.29683736 -0.061590102 0.81040001
-0.29235086 -0.06239162 0.81080002
-0.28733855 -0.06275221 0.81163651
-0.28373718 -0.06201905 0.81400001
-0.35650668 -0.058773339 0.81200004
-0.35312447 -0.058725085 0.81133336
-0.34945717 -0.057857148 0.81000006
-0.30599368 -0.056874923 0.81066674
-0.30216891 -0.057678103 0.81145471
-0.29772574 -0.057462174 0.8123638
-0.29252493 -0.057597563 0.81257164
-0.28805634 -0.058364365 0.81400007
-0.2845124 -0.059693336 0.81400001
-0.34708691 -0.054313529 0.81240004
-0.34234905 -0.052405283 0.81200016
-0.33754525 -0.051972859 0.81150007
-0.33266935 -0.051606484 0.81119996
-0.32750878 -0.051824577 0.81220019
-0.32241237 -0.051875621 0.81300014
-0.31716311 -0.051826432 0.81225002
-0.31275648 -0.052474562 0.81200016
-0.30759478 -0.05409953 0.81150001
-0.30267128 -0.054340579 0.81280005
-0.29652858 -0.053103812 0.81400001
-0.29357338 -0.053963181 0.81333339
-0.34265527 -0.048840005 0.81400001
-0.33722863 -0.048840009 0.81400001
-0.33255965 -0.048171815 0.81320012
-0.31707239 -0.048840009 0.81400001
-0.28711718 -0.10504287 0.81700009
-0.29022953 -0.10348667 0.81700003
-0.2874614 -0.10211714 0.81671435
-0.28408575 -0.10090476 0.81500006
-0.2864143 -0.098576196 0.81500006
-0.28385243 -0.097279057 0.8152858
-0.28400478 -0.092590801 0.81700009
-0.28411001 -0.087702863 0.81675005
-0.28417814 -0.082480691 0.81814301
-0.28334141 -0.077790223 0.81754559
-0.27846003 -0.078780003 0.81900007
-0.28556097 -0.072362863 0.81700003
-0.28287771 -0.071966492 0.81780016
-0.27768004 -0.071760006 0.81900007
-0.28293604 -0.067625567 0.81616676
-0.27797455 -0.067888811 0.81699997
-0.2818706 -0.063493446 0.81633341
-0.27826577 -0.062685907 0.81660002
-0.29107144 -0.055109527 0.81500006
-0.2871654 -0.055930801 0.81566679
-0.2830117 -0.058214981 0.81700009
-0.27852544 -0.05944223 0.81766671
-0.3473829 -0.051290482 0.81600004
-0.32211906 -0.050452385 0.81500006
-0.31280482 -0.050452389 0.81500006
-0.30765361 -0.051275 0.81575006
-0.30221596 -0.051857151 0.81575
-0.29773813 -0.051098097 0.81540006
-0.29223758 -0.05157027 0.81633335
-0.28786936 -0.052519482 0.81766671
-0.28470001 -0.053040005 0.81900007
-0.3466768 -0.04708286 0.81580001
-0.34257942 -0.046608891 0.81566679
-0.33764288 -0.04657143 0.81500006
-0.33237889 -0.046150666 0.81580013
-0.32763234 -0.047529966 0.81572741
-0.32238254 -0.047385085 0.81566674
-0.31726715 -0.046656191 0.81650007
-0.31224954 -0.047605906 0.81680006
-0.30768201 -0.047514178 0.81788898
-0.30251563 -0.047384329 0.81809098
-0.29749146 -0.048119999 0.81825
-0.29292098 -0.049080003 0.81800008
-0.34625241 -0.044351432 0.81700003
-0.34236097 -0.042794924 0.81700009
-0.3373155 -0.042625003 0.8175
-0.33263811 -0.042959429 0.81720012
-0.32735944 -0.04286743 0.81840008
-0.32269269 -0.043299187 0.81814295
-0.31797972 -0.043903813 0.81833339
-0.31278002 -0.043680005 0.81900012
-0.30810001 -0.043680005 0.81900012
-0.30419999 -0.043680005 0.81900007
-0.34236193 -0.039682861 0.81700003
-0.28299299 -0.096940391 0.8222
-0.28278106 -0.09292499 0.82300001
-0.28246298 -0.08729919 0.82157153
-0.27982002 -0.087786674 0.82300001
-0.28200701 -0.081839368 0.82100004
-0.2788662 -0.081467144 0.82250005
-0.28187668 -0.076235719 0.82100004
-0.27861875 -0.076366037 0.82100004
-0.28265861 -0.073890001 0.82100004
-0.2783581 -0.074280955 0.82100004
-0.28285623 -0.056507625 0.82180005
-0.2783581 -0.057079051 0.82100004
-0.28652477 -0.050885715 0.82200003
-0.28389582 -0.052828766 0.82300007
-0.2965813 -0.046169847 0.82166672
-0.29248598 -0.047767859 0.82225001
-0.2887032 -0.048857465 0.82300007
-0.33074573 -0.041440956 0.82100004
-0.32214481 -0.041440956 0.82100004
-0.31729698 -0.04175372 0.82100004
-0.31198001 -0.041440956 0.82100004
-0.30728859 -0.041440956 0.82100004
-0.30209026 -0.042651668 0.82175004
-0.29850802 -0.043985713 0.82180005
-0.34206358 -0.038378917 0.82242858
-0.33754826 -0.03837429 0.8223334
-0.33301148 -0.038566194 0.82225001
-0.32792097 -0.038958099 0.82225001
-0.32183221 -0.039347243 0.82300007
-0.31783479 -0.039582383 0.82300001
-0.31274003 -0.039974287 0.82300007
-0.30803716 -0.039974287 0.82300007
-0.30490193 -0.039974287 0.82300001
-0.2852143 -0.093500003 0.82500005
-0.28128573 -0.090357147 0.82500005
-0.28128573 -0.085642859 0.82500005
-0.28128573 -0.084071435 0.82500005
-0.27892858 -0.084071435 0.82500005
-0.28207144 -0.055785719 0.82500005
-0.28297716 -0.052344766 0.82650006
-0.29150003 -0.046357147 0.82500005
-0.28700256 -0.047152825 0.82645464
-0.28433049 -0.048044764 0.82700002
-0.30250001 -0.040071435 0.82500005
-0.29721594 -0.041840479 0.8263334
-0.29254103 -0.042520478 0.82683349
-0.28820878 -0.043097228 0.82827282
-0.34272859 -0.035671432 0.82499999
-0.33707148 -0.035357144 0.82500005
-0.33235717 -0.035750002 0.82500005
-0.32741842 -0.036479592 0.82499999
-0.32315314 -0.0364796 0.82499999
-0.3174237 -0.036809094 0.82554549
-0.31214133 -0.036831811 0.82639998
-0.30757597 -0.037190717 0.82650006
-0.30272582 -0.036881302 0.82718182
-0.29803663 -0.037718233 0.82757157
-0.29251859 -0.038291909 0.82900006
-0.3415893 -0.032410715 0.82499993
-0.33716181 -0.032222539 0.82522219
-0.33224094 -0.032278739 0.82666671
-0.32694894 -0.032299791 0.82722229
-0.32256904 -0.032334499 0.82811117
-0.31799716 -0.033493333 0.8275001
-0.31347239 -0.03386762 0.82700002
-0.30554575 -0.033949528 0.82900006
-0.34100002 -0.02907143 0.82500005
-0.33730337 -0.029159524 0.8275001
-0.3327843 -0.02881762 0.82900006
-0.32844192 -0.029212384 0.82900006
-0.28174859 -0.056191433 0.83100003
-0.28197464 -0.053066991 0.83166671
-0.28412288 -0.04748572 0.83100003
-0.28689289 -0.040758573 0.83100003
-0.2848067 -0.042046666 0.83300006
-0.29661125 -0.036264576 0.83140004
-0.29188985 -0.036683813 0.83133334
-0.28800502 -0.037461668 0.83250004
-0.2848067 -0.038873337 0.83300006
-0.3205286 -0.030865716 0.83100003
-0.31761688 -0.03168191 0.83166671
-0.31234762 -0.032185148 0.83240014
-0.30742925 -0.03230786 0.83250004
-0.30285406 -0.032944903 0.83214295
-0.29785022 -0.033421636 0.83271444
-0.29274002 -0.033320002 0.83300012
-0.2895667 -0.034113336 0.83300006
-0.34192669 -0.027766671 0.83300006
-0.33716667 -0.026973335 0.83300006
-0.33200765 -0.026940001 0.83200014
-0.32725334 -0.027996508 0.83200002
-0.32289135 -0.028199866 0.83242863
-0.31812668 -0.029353335 0.83300006
-0.31376335 -0.028956668 0.83300006
-0.30781335 -0.029353335 0.83300006
-0.28224811 -0.050558571 0.83599997
-0.27852175 -0.050857719 0.83700001
-0.28224143 -0.047040798 0.83716673
-0.27886763 -0.047143813 0.83900005
-0.28305832 -0.042259794 0.83722228
-0.28602064 -0.036315873 0.83500004
-0.2833074 -0.037935104 0.83728582
-0.30219048 -0.031014288 0.83500004
-0.29741907 -0.031014288 0.83500004
-0.2914528 -0.031391811 0.83660001
-0.28710672 -0.033016197 0.83740008
-0.34195238 -0.02624286 0.83500004
-0.33956668 -0.02624286 0.83500004
-0.32763812 -0.02624286 0.83500004
-0.32167384 -0.026640479 0.83500004
-0.31777087 -0.026891619 0.83540004
-0.31240886 -0.027387893 0.83528578
-0.3072519 -0.027244762 0.83525002
-0.30255142 -0.027865523 0.83599997
-0.29794341 -0.028260848 0.83722222
-0.29275048 -0.029008573 0.83833337
-0.28765714 -0.029564764 0.83900005
-0.28019717 -0.047368575 0.84300005
-0.28066576 -0.042500958 0.84200001
-0.28211337 -0.037438098 0.84233332
-0.2795324 -0.03684381 0.84100002
-0.28594002 -0.031237144 0.84100002
-0.28257918 -0.03303472 0.84227276
-0.2795324 -0.031237144 0.84100002
-0.28024381 -0.042803813 0.84800005
-0.27925241 -0.037823811 0.84500003
