# .PCD v0.7 - Point Cloud Data file format
VERSION 0.7
FIELDS x y z
SIZE 4 4 4
TYPE F F F
COUNT 1 1 1
WIDTH 794
HEIGHT 1
VIEWPOINT 0 0 0 1 0 0 0
POINTS 794
DATA ascii
-0.016906668 -0.027171431 0.63400006
-0.0090571437 -0.028379049 0.634
-0.017027428 -0.023548573 0.634
-0.017510477 -0.019925715 0.634
-0.027060002 -0.041046668 0.63850003
-0.022511667 -0.042590432 0.63884997
-0.017154733 -0.042461019 0.63873339
-0.012406002 -0.041715529 0.63850003
-0.0091142859 -0.040710479 0.63800001
-0.031012859 -0.036486194 0.63850003
-0.027779879 -0.037485652 0.63686681
-0.022579953 -0.037655842 0.63715798
-0.017177146 -0.037603587 0.63741177
-0.012129286 -0.037599999 0.63674998
-0.0086774612 -0.037131749 0.63566673
-0.031394288 -0.033216193 0.63800001
-0.02783292 -0.032672919 0.63531262
-0.022819439 -0.032789309 0.63547075
-0.017427569 -0.032591984 0.63557899
-0.012100358 -0.032670118 0.63525015
-0.0082650809 -0.032858729 0.63500005
-0.031329289 -0.028895479 0.63875008
-0.027839111 -0.027838279 0.63543755
-0.02298988 -0.027830478 0.63525015
-0.017803743 -0.0280881 0.63521445
-0.012108275 -0.027848275 0.63568753
-0.0081891669 -0.028048933 0.63687509
-0.027449528 -0.022944903 0.63642865
-0.022980954 -0.022980953 0.63500011
-0.017632831 -0.022476304 0.63588244
-0.012426905 -0.02354278 0.63658345
-0.0091142859 -0.024912383 0.63800001
-0.026045715 -0.019988572 0.63600004
-0.022888193 -0.019738859 0.63580006
-0.017997144 -0.019614287 0.63700008
-0.046408892 -0.056222226 0.64400005
-0.027834922 -0.042057149 0.64000005
-0.029866669 -0.039619051 0.64000005
-0.033239685 -0.03262889 0.64233339
-0.033531751 -0.027254798 0.64166677
-0.032304578 -0.023001907 0.64240009
-0.029913336 -0.022586351 0.64100003
-0.013219683 -0.02054286 0.64066672
-0.030053336 -0.019013334 0.64400005
-0.025937146 -0.018584764 0.64333338
-0.021996669 -0.018632857 0.64150006
-0.017036056 -0.018258095 0.64214295
-0.013675875 -0.018574923 0.64300007
-0.015815556 -0.061413657 0.64700001
-0.0123325 -0.062900364 0.64749998
-0.0080228578 -0.063565724 0.648
-0.0039085718 -0.062742867 0.648
-0.051064767 -0.055986669 0.64600003
-0.04921905 -0.055986669 0.64600003
-0.042816725 -0.056748789 0.64533335
-0.037357729 -0.057682056 0.64661109
-0.032195315 -0.057516046 0.64723074
-0.027106356 -0.057290316 0.6468333
-0.022394815 -0.057735987 0.64722222
-0.017020479 -0.058336098 0.64749998
-0.012817991 -0.058882542 0.6477778
-0.0092571434 -0.05986286 0.648
-0.051876299 -0.052696407 0.64588886
-0.047838267 -0.052834239 0.64641178
-0.042638268 -0.052925203 0.6466471
-0.037675753 -0.053454552 0.64713329
-0.032355923 -0.054396737 0.64800006
-0.027154287 -0.054925717 0.648
-0.056488983 -0.047705039 0.64571428
-0.05295084 -0.048024647 0.64649999
-0.048368573 -0.04898591 0.64779997
-0.042274289 -0.049680006 0.648
-0.038262859 -0.049988575 0.648
-0.056558575 -0.044877622 0.64550006
-0.054840956 -0.044365719 0.64700001
-0.031401429 -0.04063667 0.64649999
-0.035794288 -0.035794288 0.648
-0.032880004 -0.037608258 0.64733332
-0.051222861 -0.030240001 0.648
-0.047108576 -0.030240003 0.648
-0.042053882 -0.030768981 0.64800006
-0.036813267 -0.03198 0.64669228
0.0082697151 -0.031968005 0.648
-0.051222861 -0.029005716 0.648
-0.046734553 -0.027098183 0.64799994
-0.042241666 -0.027134169 0.64749992
-0.037715536 -0.02692594 0.64592308
0.0073371432 -0.026674287 0.648
0.012342858 -0.025920002 0.648
0.015428573 -0.025302859 0.648
-0.047862452 -0.022036057 0.64785713
-0.042802271 -0.022051904 0.64716673
-0.037371881 -0.022176251 0.64576477
-0.032557145 -0.020762859 0.64500004
-0.02887143 -0.02027143 0.64500004
-0.010957334 -0.021300573 0.64640009
-0.0092571434 -0.022217145 0.648
0.011725715 -0.023451431 0.648
0.015428573 -0.024068573 0.648
-0.051163573 -0.017260715 0.64725006
-0.048016794 -0.017237619 0.64637494
-0.043063164 -0.017225776 0.6459375
-0.037537765 -0.017230334 0.64614999
-0.032142222 -0.017116955 0.64653331
-0.027313555 -0.016897876 0.64615387
-0.022102254 -0.016505197 0.64627272
-0.01723012 -0.015998928 0.64612496
-0.012122462 -0.017053735 0.64724994
-0.0085518388 -0.017897144 0.64800006
-0.051143814 -0.014172382 0.64700001
-0.0476881 -0.012471498 0.6455
-0.043021016 -0.012291132 0.64531255
-0.037697598 -0.012414586 0.64668423
-0.032131724 -0.01276674 0.6478461
-0.028080001 -0.013268572 0.648
-0.051840004 -0.0055542863 0.648
-0.046648577 -0.0082190484 0.64733338
-0.042552806 -0.0085652918 0.64755559
-0.03764572 -0.0092571434 0.648
-0.052797962 -0.0011457144 0.64785713
-0.049371433 -0.00061714288 0.648
-0.052607428 0.0017240001 0.64679998
-0.049525719 0.0010273017 0.64733338
-0.0069359052 -0.061561625 0.65030009
-0.0028958735 -0.060614925 0.6516667
-0.027238097 -0.05509524 0.65000004
-0.022043949 -0.055686671 0.65071434
-0.01735631 -0.055788934 0.65087503
-0.012012035 -0.056449782 0.65136367
-0.0075716833 -0.057226676 0.65173346
-0.002309456 -0.05747531 0.65292859
0.0018649526 -0.056576002 0.65280002
-0.04519048 -0.050142862 0.65000004
-0.04271429 -0.050142862 0.65000004
-0.03580267 -0.051164575 0.6504001
-0.032095902 -0.0516496 0.65100002
-0.027301192 -0.052118216 0.65149993
-0.022358095 -0.052168693 0.65212506
-0.017139185 -0.052394021 0.65271425
-0.012904525 -0.053172857 0.65300006
-0.0093285721 -0.053483814 0.65300006
-0.0012438096 -0.054105718 0.65300006
0.0026297439 -0.052365575 0.65276927
0.005588572 -0.050918099 0.65200001
-0.051628578 -0.0454381 0.65000004
-0.046820641 -0.046614766 0.65116668
-0.042010475 -0.046966419 0.65060002
-0.037170596 -0.04708346 0.6505
-0.032285061 -0.047187444 0.65193754
-0.027466225 -0.047350921 0.65246677
-0.022385797 -0.04788072 0.65291667
-0.016667049 -0.047637906 0.65300006
-0.013060001 -0.045896571 0.65300006
-0.00087066676 -0.04763791 0.65300006
0.0024854764 -0.047237266 0.65262496
0.0055928575 -0.047227144 0.65250003
-0.051784988 -0.042412233 0.65269232
-0.047233276 -0.042260654 0.6525625
-0.042249765 -0.042248569 0.65237504
-0.037228934 -0.042192027 0.65149999
-0.032653019 -0.042574447 0.65100002
-0.028770162 -0.043674927 0.65200007
-0.011194287 -0.04415524 0.65300006
-0.0071801743 -0.04211992 0.65300006
-0.0023440295 -0.041854072 0.65292311
0.0024870241 -0.042281669 0.65287495
0.0068374611 -0.042268574 0.65266669
-0.051338293 -0.037541147 0.65259999
-0.047192622 -0.037258338 0.65200007
-0.042172328 -0.037211251 0.65118748
-0.037579764 -0.037580244 0.65041673
-0.034047622 -0.039000001 0.65000004
-0.0063673817 -0.037737623 0.65224999
-0.0024845242 -0.037264645 0.65212506
0.0024838692 -0.03726089 0.65206259
0.0070215398 -0.037113853 0.65200001
-0.050787941 -0.032826986 0.6503334
-0.047240209 -0.032467011 0.65021437
-0.042026453 -0.033222221 0.65000004
-0.039000001 -0.033428572 0.65000004
-0.0061195926 -0.032548986 0.65185714
-0.0024838098 -0.032289524 0.65200007
0.002480417 -0.032256372 0.65131253
0.0070387893 -0.032265805 0.65036374
0.01052381 -0.030333335 0.65000004
-0.050761908 -0.026619051 0.6500001
-0.048409525 -0.028104765 0.65000004
-0.0064076199 -0.027077882 0.65111113
-0.0024826787 -0.027314223 0.65181255
0.0024801192 -0.027290957 0.65125
0.0075182323 -0.02786354 0.65014297
0.011266668 -0.026866669 0.65000004
-0.051238783 -0.022920685 0.65042865
-0.0068123024 -0.022294845 0.65025008
-0.0024804168 -0.022326848 0.65118754
0.0024814289 -0.02233286 0.65137506
0.0074352981 -0.022303751 0.65056252
0.012257144 -0.022038097 0.65000004
-0.01052381 -0.015476191 0.65000004
-0.0065353452 -0.016854499 0.6501112
-0.0024800003 -0.017359998 0.65100002
0.0024838098 -0.017379288 0.65175003
0.0073132617 -0.017828429 0.65246153
0.011630357 -0.018144406 0.651375
-0.035285715 -0.01052381 0.65000004
-0.031984128 -0.01052381 0.65000004
-0.02692857 -0.01207143 0.6500001
-0.022298098 -0.012387499 0.65037501
-0.017349109 -0.012390655 0.65056252
-0.012391131 -0.012390655 0.65056247
-0.0074454173 -0.012408989 0.65156251
-0.0027952385 -0.012938413 0.65216672
0.0018644445 -0.014289208 0.65233338
-0.050220001 -0.0055800006 0.65100002
-0.046683185 -0.0059898421 0.65066671
-0.041785717 -0.0063452385 0.65000004
-0.037017144 -0.0070027849 0.65030777
-0.03223661 -0.0074376776 0.65093762
-0.027279763 -0.0074382136 0.65100014
-0.022362145 -0.0074529764 0.65224999
-0.017157877 -0.0077893781 0.65238464
-0.012571136 -0.0078861546 0.65246153
-0.0084969848 -0.0084969848 0.6528334
-0.051623933 -0.0034110716 0.65112507
-0.047246911 -0.003729762 0.65275002
-0.041963052 -0.0033510481 0.65180004
-0.037266195 -0.0031044446 0.65216666
-0.032332502 -0.0037305953 0.65287501
-0.027363813 -0.0043533337 0.65300006
-0.024254287 -0.0043533337 0.65300006
-0.0056142863 -0.055519052 0.65500003
-0.0037428574 -0.055519052 0.65500003
-0.019338097 -0.051152386 0.65500003
-0.012010357 -0.051473934 0.65512502
-0.0072244904 -0.052266534 0.65557158
-0.0026747624 -0.052149463 0.65521443
0.0018714287 -0.051776193 0.65500009
-0.019338097 -0.048033338 0.65500009
-0.012199222 -0.048060354 0.65536374
-0.0074914293 -0.047446668 0.65550005
-0.0032324677 -0.047239397 0.65500009
-0.054271437 -0.041795246 0.65500009
-0.0072777783 -0.043874606 0.65500009
-0.0031190477 -0.044290479 0.65500009
-0.054271434 -0.039300002 0.65500003
-0.053735621 -0.022170667 0.65760005
-0.055773336 -0.017546669 0.65800005
-0.053050797 -0.018100319 0.6553334
0.0081095248 -0.015595239 0.65500009
0.010604762 -0.015595239 0.65500003
-0.0015640478 -0.010945477 0.65675002
0.0026444693 -0.012065716 0.65623087
0.0075037498 -0.012503749 0.65656245
0.010620954 -0.013744763 0.65600002
-0.018506352 -0.0060301591 0.65500009
-0.011852382 -0.0056142863 0.65500009
-0.0068707624 -0.0068703815 0.65590006
-0.0029732145 -0.0086079771 0.65737504
0.0023813336 -0.0091493344 0.65800005
-0.047244225 -0.0013383675 0.65642864
-0.042910635 -0.0010407937 0.65616667
-0.037500717 -0.00062499999 0.65625
-0.032481786 -0.0012484523 0.65587503
-0.027475718 -0.0018722224 0.65566677
-0.022488914 -0.0024970751 0.65592861
-0.017553996 -0.0029323082 0.6564616
-0.012635304 -0.0026255243 0.65680003
-0.008381715 -0.0038777143 0.65680003
-0.04748667 0.0013784763 0.65780002
-0.042326812 0.0011635374 0.65771431
-0.037578933 0.0012529764 0.65762502
-0.032568216 0.0012529764 0.65762502
-0.027573334 0.0012533334 0.65800005
-0.023813335 0.0006266667 0.65800005
-0.05594286 -0.02137143 0.66000003
-0.054685719 -0.020742858 0.66000003
-0.05594286 -0.019485716 0.66000003
-0.054685723 -0.018228572 0.66000003
-0.0020440479 -0.0064473818 0.66049999
0.0025753248 -0.0068090926 0.66100007
0.0075572622 -0.0075553581 0.66125005
0.011029286 -0.0066169053 0.66175008
-0.020742858 -0.00062857149 0.66000003
-0.017390478 -0.00062857149 0.66000003
-0.010685715 -0.00062857149 0.66000003
-0.0071567968 -0.0018883984 0.66136372
-0.0025229766 -0.002522262 0.66237503
0.0023142856 -0.0035758731 0.66266674
0.0082085729 -0.0039990479 0.66300005
0.011365715 -0.0037885716 0.66300005
-0.046584763 0.0031488889 0.66100007
-0.042988677 0.003565609 0.66055554
-0.037763931 0.0037767857 0.66087508
-0.032710478 0.0037747622 0.66050005
-0.027682977 0.0037755957 0.66062498
-0.022496736 0.0027912934 0.66142863
-0.017653693 0.0025239291 0.662
-0.012923097 0.0019981747 0.66191673
-0.007573572 0.00063119049 0.66275007
-0.0044200001 0.00063142861 0.66300005
-0.046690002 0.0056785718 0.66250002
-0.042424172 0.0064665484 0.66237509
-0.03786286 0.0066897157 0.6626001
-0.033097416 0.0062228581 0.66285723
-0.027761906 0.006310001 0.66250008
-0.024192384 0.0061009526 0.66266674
-0.017048573 0.0056828577 0.66300005
0.0028063948 -0.0011764627 0.66528577
0.0074643958 -0.0021937729 0.66592306
0.011808572 -0.0011422858 0.66660005
-0.011720715 0.0041183336 0.66525
-0.007610715 0.0031711906 0.66591662
-0.0024109844 0.0026685081 0.66659999
0.0023351323 0.0014856086 0.66833335
0.0070085721 0.00063714292 0.66900003
-0.045480322 0.0082492074 0.66633338
-0.043066673 0.0086555574 0.66500002
-0.038000003 0.009077779 0.66500002
-0.032722224 0.0086555565 0.66500002
-0.027866669 0.0088666677 0.66500002
-0.022463955 0.0079432232 0.66515392
-0.01779124 0.0077346037 0.66560006
-0.012699049 0.0076219044 0.66674989
-0.0077615883 0.0075092711 0.66806668
-0.0033677558 0.0066444906 0.66900009
-0.045719814 0.011844382 0.66860002
-0.042057388 0.01260913 0.66741675
-0.037477624 0.012708098 0.667
-0.032766122 0.012529119 0.66714281
-0.02814487 0.011639471 0.66655558
-0.022837739 0.011419644 0.666125
-0.017782263 0.011432739 0.66687506
-0.012821907 0.011368301 0.66842872
-0.0089200009 0.01083143 0.66900003
-0.035680003 0.015928572 0.66900003
0.0028262588 0.0039206808 0.67014289
0.0077555794 0.0028295917 0.67064291
0.01278369 0.0025573808 0.67112494
-0.047219053 0.0089333337 0.67000002
-0.0057428577 0.0095714293 0.67000002
-0.0019159788 0.0084488895 0.6708889
0.0024333973 0.0075587318 0.6724
0.0077529009 0.0069380095 0.67327267
0.012352619 0.0065773814 0.67374992
0.016047619 0.0057771434 0.67400002
-0.045942858 0.014676192 0.67000002
-0.043390479 0.014676192 0.67000002
-0.027802724 0.014129253 0.67000002
-0.023009168 0.014062025 0.67112499
-0.017910834 0.014072263 0.67162502
-0.012711535 0.013849101 0.67111117
-0.0074929264 0.01307075 0.67171425
-0.0030429764 0.011696072 0.67287499
-0.045440003 0.016641906 0.67200005
-0.041798793 0.017268054 0.67145455
-0.037255786 0.018172927 0.67114294
-0.032117907 0.018045528 0.67180002
-0.027341828 0.017305318 0.67291665
-0.022812793 0.016584219 0.6734286
-0.017706668 0.017065143 0.67360002
-0.013252065 0.016459685 0.67333335
-0.0089866668 0.016047619 0.67400002
-0.03723048 0.021182859 0.67400002
-0.033379048 0.021182859 0.67400002
0.0045000003 0.0096428581 0.67500001
0.007590286 0.0093914298 0.67540002
0.013362978 0.008854405 0.67612505
0.016454287 0.008712858 0.67750001
-0.0020904762 0.013992859 0.67550009
0.0024511749 0.012772826 0.67719996
0.0077441274 0.012264129 0.67766666
0.01226 0.011483239 0.67740005
0.017028891 0.011424446 0.67900008
-0.045845717 0.018725716 0.67800003
-0.043136671 0.01931381 0.676
-0.027000003 0.019928573 0.67500001
-0.022500001 0.019285716 0.67500007
-0.018433178 0.019504923 0.67516673
-0.012793758 0.018798413 0.67544454
-0.0074674296 0.017641528 0.67600006
-0.0027576629 0.017315585 0.67790908
0.0016813334 0.016684001 0.67900002
-0.042082649 0.022151852 0.67744446
-0.037306312 0.023156073 0.67537504
-0.03194543 0.022802195 0.67630005
-0.027092386 0.022579683 0.67733335
-0.022106905 0.022270478 0.67775005
-0.017562648 0.022296617 0.67744452
-0.012910636 0.022273019 0.67783332
-0.0079710064 0.020898836 0.67866665
-0.0045266668 0.020693336 0.67900002
-0.040680002 0.025182858 0.67800003
-0.036987502 0.026004883 0.67837501
-0.032543279 0.026077887 0.67888886
-0.028668892 0.025651112 0.67900008
0.0045333337 0.014895239 0.68000001
0.0077942861 0.014939048 0.68200004
0.0132813 0.013635759 0.68172735
0.016238097 0.01364 0.68200004
-0.00064761908 0.018780954 0.68000001
0.0032442182 0.018067893 0.68100005
0.0078032548 0.017557381 0.68275011
0.013017701 0.017574208 0.68341672
0.016937144 0.018240001 0.68400002
-0.050485719 0.023125716 0.68400002
-0.047480077 0.022113254 0.68291676
-0.044361908 0.022990478 0.68000001
-0.022234922 0.023961907 0.68000001
-0.018780954 0.023961907 0.68000001
-0.011041906 0.024032382 0.68200004
-0.0075069391 0.023447076 0.68114293
-0.0023176193 0.022259252 0.68164289
0.0026024408 0.022115417 0.68293756
0.0065142862 0.020845715 0.68400002
0.014331429 0.020845715 0.68400002
0.016611431 0.02117143 0.68400002
-0.050811432 0.025405716 0.68400002
-0.046957009 0.026687076 0.68342865
-0.043033663 0.027433019 0.68253344
-0.038076196 0.028354762 0.68049997
-0.032116193 0.028600002 0.68028575
-0.026899194 0.027600737 0.68123078
-0.022103216 0.027307739 0.682625
-0.017548654 0.027298814 0.68241668
-0.012999286 0.02730274 0.6825
-0.0082007628 0.026555622 0.68340009
-0.0029942859 0.025651431 0.68360007
-0.042342864 0.031268574 0.68400002
-0.037748691 0.031240597 0.68337506
-0.03251024 0.030561192 0.68274999
-0.028662859 0.030617144 0.68400002
-0.016937144 0.031920001 0.68400002
-0.014005715 0.030942861 0.68400002
-0.050380003 0.017663812 0.68700004
-0.048417147 0.017663812 0.68700004
-0.050996669 0.021574764 0.68650007
0.0082901604 0.022688892 0.68716669
0.012171715 0.022513047 0.68710005
0.015026668 0.02352 0.68600005
-0.048382387 0.027459525 0.68650007
-0.0071993656 0.028803177 0.68733335
-0.0026200002 0.028168574 0.68780011
0.0026184765 0.026573336 0.68720001
0.00721381 0.025900953 0.68850005
0.012467619 0.025591429 0.68900001
-0.045548417 0.032255404 0.68650007
-0.04246667 0.033973336 0.68600005
-0.037926313 0.034004647 0.686625
-0.032736905 0.032739047 0.6875
-0.027112806 0.032201488 0.68688893
-0.022104129 0.032569274 0.68666673
-0.01748012 0.033489645 0.68612498
-0.012287716 0.033073623 0.68629998
-0.0081900805 0.032220878 0.68808341
-0.0039371429 0.030840954 0.68900001
-0.045145717 0.035985716 0.68700004
-0.041933335 0.036038097 0.68800008
-0.037402861 0.036090478 0.68900001
-0.020998098 0.036090478 0.68900001
-0.01675592 0.036600549 0.68800008
-0.012714858 0.036573526 0.6882
-0.061202861 0.019084763 0.69100004
-0.059142858 0.019057143 0.69000006
-0.052271783 0.017095359 0.69037503
-0.061392657 0.022540683 0.69314295
-0.058833718 0.021190669 0.69100004
-0.052718293 0.021428764 0.69020003
-0.060060006 0.025740001 0.69300002
-0.058740005 0.025740001 0.69300002
-0.0006571429 0.029571431 0.69000006
0.0026326987 0.029161908 0.69066668
0.0079819066 0.027760321 0.69211125
0.011845715 0.026981907 0.69100004
-0.032857142 0.034828573 0.69000006
-0.027731432 0.034565717 0.69000006
-0.024314288 0.034828573 0.69000006
-0.0069021434 0.03451262 0.69025004
-0.0025794141 0.033027917 0.69038469
0.0015385714 0.031862698 0.69216669
-0.045572862 0.038308099 0.69350004
-0.042095598 0.038149171 0.69062501
-0.037465878 0.038123652 0.69016671
-0.032885164 0.037489448 0.69058341
-0.027613334 0.037475877 0.69033337
-0.022615716 0.037736859 0.69030011
-0.017480001 0.038508575 0.69000006
-0.012161192 0.038456906 0.69025004
-0.00790889 0.037576035 0.69216669
-0.0030390478 0.036341906 0.69380003
-0.042226911 0.040245481 0.69275004
-0.037282743 0.041244172 0.69287503
-0.032724358 0.040834833 0.69314295
-0.027525803 0.041439917 0.69263631
-0.022611085 0.041445542 0.69272739
-0.016855922 0.040776741 0.6921429
-0.012796381 0.040765528 0.69260001
-0.0085923821 0.040318098 0.69400001
-0.061557148 0.024490478 0.69500005
-0.058247622 0.023828574 0.69500005
-0.054573976 0.022319367 0.6960001
-0.061557148 0.025814287 0.69500005
-0.052398939 0.028078943 0.69644451
-0.049201589 0.029344447 0.69500005
0.0086047631 0.029785719 0.69500005
0.011940001 0.029188097 0.69650006
-0.051555879 0.031641588 0.69700003
-0.049121909 0.032526672 0.69700003
0.0037579366 0.032930639 0.69616675
0.0077040964 0.032275908 0.69730002
0.011965714 0.031908572 0.69800001
-0.04713048 0.039164763 0.69700003
-0.0021540476 0.038307622 0.69650006
0.0015501588 0.036085084 0.69733334
-0.046387244 0.042400192 0.69779998
-0.042469926 0.043133255 0.69675004
-0.037033066 0.043853205 0.69614297
-0.032465085 0.043728258 0.69566679
-0.028197145 0.044082861 0.69500011
-0.022132004 0.044133909 0.69580001
-0.017454604 0.043528896 0.69600004
-0.012616033 0.04338048 0.69716668
-0.007731271 0.04175096 0.69583344
-0.0031003177 0.040974289 0.69766665
-0.037226669 0.045868576 0.69800001
-0.032229766 0.046184529 0.69774997
-0.028114926 0.046267942 0.69733334
-0.023581907 0.0461681 0.69749999
-0.01768267 0.046400387 0.69800001
0.0086666672 0.034000002 0.70000005
0.011333334 0.034000002 0.70000005
-0.048068576 0.038721904 0.70100003
0.0033340005 0.03800562 0.70010006
0.0073385714 0.037360951 0.70050001
0.012021906 0.037401907 0.70125008
0.015355239 0.037386671 0.70100003
-0.050142866 0.04212191 0.70200002
-0.047944494 0.042796742 0.70057148
-0.010444446 0.044222228 0.70000005
-0.0070683816 0.044146102 0.70020002
-0.0024025717 0.043656863 0.70090008
0.0025208059 0.042332824 0.70207703
0.0073657148 0.041511115 0.70300001
0.012068572 0.040899049 0.70400006
-0.047000416 0.04719143 0.70071429
-0.042712308 0.047385003 0.70075005
-0.037367024 0.048043214 0.70062506
-0.032952387 0.048161145 0.70040005
-0.027790796 0.0482454 0.70033336
-0.022185359 0.047876544 0.70062506
-0.017058097 0.047934558 0.70042861
-0.012010477 0.047379211 0.70066679
-0.0073534399 0.04747048 0.70200002
-0.0031804761 0.047051433 0.70325005
-0.046598416 0.050613023 0.70233339
-0.043099787 0.05128837 0.70344448
-0.037328918 0.05197354 0.70350009
-0.032125715 0.052206427 0.70275003
-0.027730901 0.051671434 0.7025556
-0.022905841 0.05219968 0.70326674
-0.017280858 0.051442385 0.70330006
-0.013069287 0.050603099 0.70375001
-0.044858098 0.055570479 0.70300001
-0.034194287 0.055649526 0.70400006
0.0026857145 0.044985719 0.70500004
0.0073857149 0.04364286 0.7050001
0.011666985 0.042849213 0.70666671
0.015508573 0.042480003 0.708
-0.0016785716 0.048678577 0.70500004
0.0026937304 0.047454052 0.70675004
0.0072435718 0.046324998 0.70749998
0.010114286 0.045177147 0.708
-0.042735107 0.053684492 0.70585716
-0.038942859 0.054385718 0.70500004
-0.026633335 0.053938102 0.7050001
-0.020814287 0.053042859 0.70500004
-0.017680954 0.05371429 0.70500004
-0.011936019 0.052949529 0.70700008
-0.0075933342 0.051421914 0.70642859
-0.0027680427 0.051406566 0.70711106
0.0013485715 0.05057143 0.708
-0.042460643 0.055939373 0.70766664
-0.037411164 0.056453336 0.70685726
-0.032312863 0.056547783 0.70683336
-0.027620321 0.055913024 0.70733333
-0.022457525 0.056077331 0.70600003
-0.017234763 0.056957431 0.70689994
-0.013143573 0.056283101 0.70774996
0.01353381 0.043983337 0.7105
0.016477145 0.043562859 0.71100008
0.0047333338 0.049361907 0.71000004
0.0077792867 0.049041189 0.71025002
0.012342857 0.047603816 0.71200013
0.015623572 0.047550716 0.71325004
-0.010142858 0.054771431 0.71000004
-0.0071697147 0.054245908 0.71020001
-0.0026082997 0.054202866 0.71014291
0.0027728139 0.052653167 0.71127278
0.0070119053 0.051798891 0.71250004
0.012369144 0.051243432 0.71360004
0.015640002 0.051000003 0.71400005
-0.042314567 0.058390755 0.71171433
-0.037866667 0.058490481 0.71000004
-0.032078288 0.058607817 0.71060008
-0.027076431 0.05821453 0.71075004
-0.022597717 0.058320768 0.71040004
-0.018933335 0.058828574 0.71000004
-0.011687144 0.058106668 0.71149999
-0.0074660322 0.057693973 0.71266675
-0.0027149208 0.057693973 0.71266675
0.002491852 0.05638773 0.71333343
0.0061200005 0.055080004 0.71400005
-0.041480005 0.060520004 0.71400011
-0.037201148 0.062049717 0.71280009
-0.032596372 0.062479701 0.71306247
-0.027371606 0.061725542 0.71363646
-0.022296885 0.062320262 0.71336371
-0.017633811 0.062398929 0.71212506
-0.013340635 0.061283495 0.71233338
-0.019720001 0.065960005 0.71400005
0.0084142871 0.053440958 0.71633339
0.012178912 0.053296737 0.71614295
0.015683811 0.053188577 0.71600002
0.0034152386 0.058726355 0.71700001
0.0075204773 0.056516044 0.7178334
0.012308572 0.056073334 0.71799999
0.016399525 0.056033812 0.71750003
-0.040957384 0.062801197 0.71675003
-0.038213812 0.06482619 0.71650004
-0.026867051 0.064508192 0.71600002
-0.023866668 0.064780958 0.71600002
-0.011755873 0.063334711 0.7167778
-0.0075098416 0.062131431 0.7168889
-0.0027326988 0.062170796 0.71733332
0.0022809526 0.061314926 0.71800011
-0.04108572 0.065052383 0.71900004
-0.037162703 0.067257941 0.71816677
-0.032799847 0.067651905 0.71749997
-0.027349923 0.067690723 0.71791673
-0.022534287 0.067604341 0.71700007
-0.017585024 0.067797154 0.7177273
-0.012775557 0.066619374 0.71866673
-0.0078062862 0.065600194 0.71900004
-0.0041085719 0.065052383 0.71900004
-0.0342381 0.070530482 0.71900004
-0.021912381 0.070530482 0.71900004
-0.019858096 0.070530482 0.71900004
0.0078262864 0.059174862 0.7208001
0.012383929 0.059166312 0.72237509
0.017214289 0.059217148 0.72300005
0.0032038097 0.063373342 0.72066677
0.0075665615 0.062593654 0.72222227
0.011978286 0.061541345 0.72280008
0.017214287 0.061282866 0.72300005
-0.041248415 0.068059847 0.72183341
-0.038664766 0.068864137 0.72066677
-0.011667891 0.068542182 0.72071433
-0.0073595922 0.068400681 0.72128588
-0.0027487304 0.067342073 0.7215001
0.0022372622 0.066240832 0.72262502
-0.040625717 0.070922859 0.72300005
-0.0373239 0.072335497 0.72209102
-0.032141075 0.072361074 0.72187507
-0.027303379 0.072040536 0.72163647
-0.02312921 0.072363809 0.72133338
-0.017547758 0.071469396 0.72057158
-0.012837621 0.071300164 0.72216672
-0.0075742863 0.070922866 0.72300005
-0.035117146 0.075054288 0.72300005
0.012735647 0.063673072 0.72557139
0.016605716 0.063656673 0.72650003
-0.044091843 0.06737075 0.72500002
-0.0013809525 0.069738097 0.72500002
0.0030600005 0.068806402 0.72557145
0.0076092076 0.06710127 0.72633332
0.012296366 0.067153156 0.7282728
0.01643143 0.066882864 0.72900003
-0.040738098 0.072500005 0.72500002
-0.029690478 0.073880956 0.72500002
-0.020714287 0.073880956 0.72500002
-0.017285716 0.073982865 0.72600001
-0.01197635 0.073471591 0.72549999
-0.0076033338 0.073275402 0.72583336
-0.0029572297 0.072566941 0.7269091
0.0027752384 0.071809769 0.72850007
0.0073594288 0.070678294 0.72900003
0.010414287 0.07012286 0.72900003
-0.041255243 0.075826675 0.72600001
-0.03732137 0.077410892 0.72571433
-0.032639135 0.077292822 0.72636366
-0.027675878 0.076803654 0.72649997
-0.022356106 0.076768592 0.72736371
-0.017043494 0.077196941 0.72877783
-0.012650551 0.077239275 0.72861552
-0.0078322459 0.076639332 0.72871435
-0.0041657146 0.075677149 0.72900003
0.01462 0.068922862 0.73100001
0.016708571 0.068922862 0.73100001
-0.00069619052 0.074492387 0.73100001
0.0032047622 0.074254677 0.73140001
0.0078704767 0.073628858 0.73228574
0.012547336 0.071796671 0.73190004
0.016754288 0.071206674 0.73300004
-0.020189526 0.078669526 0.73100001
-0.018797144 0.078669526 0.73100001
-0.0069619054 0.078669526 0.73100001
-0.0025067623 0.077587724 0.7313
0.001922143 0.077393569 0.73375005
-0.036276191 0.082320482 0.73250002
-0.032405108 0.082886852 0.7324546
-0.027900402 0.081613585 0.73241675
-0.022338478 0.081399061 0.73300004
-0.017556367 0.082454033 0.73200005
-0.01239962 0.08234337 0.73146671
-0.007841072 0.081378467 0.731875
-0.003772191 0.080905907 0.73360002
-0.016034286 0.085748576 0.73200005
-0.013281907 0.085982859 0.73400009
0.014720001 0.073600002 0.73600006
0.016822858 0.073600002 0.73600006
0.0045578578 0.0781831 0.73625004
0.0077165086 0.077865079 0.73655558
0.012192382 0.076537497 0.7372728
0.016764766 0.077200964 0.73785722
-0.036449529 0.084815241 0.73600006
-0.027337145 0.084815249 0.73600006
-0.022440635 0.084386349 0.73633337
-0.0073600006 0.084464766 0.73600006
-0.0023588748 0.083465375 0.73645455
0.002618788 0.082036458 0.73736364
0.0077419053 0.080938101 0.73900002
0.010557144 0.080938101 0.73900002
0.016891429 0.080938101 0.73900002
-0.037246246 0.087845184 0.73788893
-0.032258421 0.087659381 0.73633337
-0.02735799 0.087685823 0.73655558
-0.022670826 0.087687112 0.73763639
-0.01783867 0.087224193 0.7374
-0.012206286 0.087410107 0.73660004
-0.007729366 0.087135725 0.73783338
-0.0038676192 0.086861908 0.7385
0.0014076191 0.085160956 0.73900002
-0.040117145 0.092199057 0.73900002
-0.037583429 0.091354482 0.73900002
-0.032068007 0.091843821 0.73839998
-0.027434478 0.091305338 0.73860002
-0.024633335 0.090791434 0.73900002
0.013672382 0.079074293 0.74000001
0.018323811 0.078228578 0.74000001
0.0049333335 0.083866671 0.74000001
0.0077628577 0.083275244 0.74100006
0.012900261 0.082728483 0.74127275
0.016960001 0.083386675 0.74200004
-0.020438097 0.089504771 0.74000001
-0.017636191 0.089585409 0.74066675
-0.012710001 0.089686185 0.74150008
-0.0077733337 0.089746676 0.74200004
-0.0025217689 0.088652931 0.74128574
0.0024034288 0.086684577 0.74240011
0.0077838106 0.085621916 0.74300003
0.012737144 0.085621908 0.74300003
0.016982857 0.085621908 0.74300003
-0.04017143 0.093733341 0.74000001
-0.037024289 0.093444295 0.74050003
-0.033828571 0.093733341 0.74000001
-0.027485715 0.093380958 0.74000001
-0.022819897 0.092462875 0.7411111
-0.017331192 0.091605961 0.74275005
-0.012493652 0.092171758 0.74255562
-0.0077817473 0.091970012 0.74283338
-0.0038919053 0.091636673 0.74300003
-0.032066669 0.095631629 0.74160004
-0.027572384 0.095442861 0.74233341
-0.024042383 0.095464289 0.74250007
0.0038394288 0.088313341 0.74660009
0.0078204777 0.088159531 0.74650013
0.012376001 0.087767243 0.74680007
0.016384764 0.087622866 0.74800003
-0.020603811 0.093783811 0.74600005
-0.018041715 0.093900383 0.74580008
-0.013480953 0.09436667 0.74500006
-0.0078047626 0.09436667 0.74500006
-0.0023355104 0.092871033 0.74600005
0.00071238098 0.091184765 0.74800003
-0.037205558 0.096928418 0.74650013
-0.033018641 0.098242052 0.74671435
-0.027708575 0.098046683 0.74600005
-0.022616003 0.096870862 0.74680007
-0.0049866671 0.096171431 0.74800003
0.012857143 0.089285724 0.75000006
0.015736192 0.089404769 0.75100005
0.002556599 0.092505723 0.75128579
0.0071582547 0.092348896 0.75166672
0.011820716 0.091345005 0.75225002
-0.046320003 0.075729527 0.77200001
