# .PCD v0.7 - Point Cloud Data file format
VERSION 0.7
FIELDS x y z
SIZE 4 4 4
TYPE F F F
COUNT 1 1 1
WIDTH 830
HEIGHT 1
VIEWPOINT 0 0 0 1 0 0 0
POINTS 830
DATA ascii
-0.11696 -0.15942763 0.73100001
-0.11487143 -0.15942763 0.73100001
-0.16539524 -0.19214001 0.73900002
-0.16258001 -0.19354764 0.73900002
-0.1412743 -0.19117621 0.73800004
-0.13967906 -0.19162001 0.73700005
-0.13090858 -0.19214001 0.73900002
-0.12738955 -0.1914362 0.73900002
-0.12410509 -0.19120161 0.73900002
-0.17806382 -0.16328382 0.73900002
-0.12082064 -0.16211081 0.73900002
-0.11694346 -0.16340584 0.73637503
-0.11441048 -0.16424572 0.73700005
-0.13141131 -0.15654737 0.73900002
-0.12762415 -0.15671493 0.73900002
-0.11721811 -0.15933239 0.73700011
-0.13161241 -0.15272667 0.73899996
-0.12738954 -0.15272667 0.73899996
-0.12372973 -0.15216362 0.73900002
-0.13161242 -0.1478 0.73900002
-0.12738955 -0.1478 0.73900002
-0.12260364 -0.14794075 0.73900008
-0.13133088 -0.14371791 0.73900002
-0.12718846 -0.14327553 0.73900002
-0.12351858 -0.14392906 0.73900002
-0.17272478 -0.19149482 0.74245465
-0.16751631 -0.19116798 0.74137497
-0.16230977 -0.19152409 0.74123073
-0.15763958 -0.19217554 0.74123079
-0.15287395 -0.1923801 0.74264294
-0.14739476 -0.19182476 0.74050009
-0.14315489 -0.19116752 0.74137509
-0.1372516 -0.19133039 0.74181825
-0.1323797 -0.19210415 0.74066675
-0.12826668 -0.19380954 0.74000001
-0.17192249 -0.18784133 0.74287504
-0.16760604 -0.1874067 0.74255562
-0.16277654 -0.18747282 0.74281824
-0.15816462 -0.18786365 0.74250007
-0.15208536 -0.1882937 0.74187505
-0.14753546 -0.18836422 0.74200004
-0.14241704 -0.18835753 0.74212503
-0.13726246 -0.18749788 0.74291676
-0.13199827 -0.18776082 0.74116671
-0.12735513 -0.18755265 0.74114281
-0.12271883 -0.18790859 0.74153847
-0.11911589 -0.18657558 0.74300003
-0.17195144 -0.18398097 0.74300003
-0.16668764 -0.18413399 0.74266672
-0.13175867 -0.18383943 0.74300003
-0.12737145 -0.18327335 0.74300003
-0.12270116 -0.18355639 0.74300003
-0.11704019 -0.17393278 0.74300003
-0.15779907 -0.16629049 0.74300003
-0.15284571 -0.16629049 0.74300003
-0.14860001 -0.16629049 0.74300003
-0.13204172 -0.16685659 0.74300003
-0.12708838 -0.1674227 0.74300003
-0.12236319 -0.16763112 0.74266672
-0.11804017 -0.16822462 0.7421667
-0.17878668 -0.16112 0.74200004
-0.16676223 -0.1611013 0.74300003
-0.16255541 -0.16222925 0.74284625
-0.15769319 -0.16264351 0.74250007
-0.15280733 -0.16271186 0.74281251
-0.14760934 -0.16190325 0.74300003
-0.14223145 -0.16275239 0.74300003
-0.13775371 -0.16279005 0.7429232
-0.13254765 -0.16271614 0.74136364
-0.1274346 -0.1631407 0.74089998
-0.12298095 -0.1628 0.74000001
-0.11910477 -0.16420953 0.74000001
-0.17761239 -0.15850669 0.74300003
-0.17195146 -0.15709144 0.74300003
-0.16753037 -0.15763432 0.74222231
-0.16260538 -0.15760003 0.74145466
-0.15782611 -0.15740326 0.74180007
-0.15264001 -0.15758669 0.74200004
-0.14743021 -0.15774946 0.74210012
-0.14257118 -0.15747769 0.742091
-0.13784128 -0.1576343 0.74222225
-0.13306929 -0.15862502 0.74024999
-0.12732701 -0.15880635 0.74000001
-0.12268965 -0.15794635 0.74037492
-0.1176125 -0.15815197 0.74244452
-0.11377334 -0.15829334 0.74200004
-0.17619716 -0.15496857 0.74300003
-0.17224051 -0.15284376 0.74250001
-0.16747999 -0.15264 0.74200004
-0.16290906 -0.15233192 0.74050009
-0.15791956 -0.15228072 0.74024987
-0.15256205 -0.15256347 0.74162489
-0.14769337 -0.15264 0.74200004
-0.14269882 -0.1525881 0.74174994
-0.13742857 -0.15222859 0.73999995
-0.13460954 -0.15222858 0.74000001
-0.12181552 -0.15345471 0.74057144
-0.11815353 -0.15221676 0.74200004
-0.17690478 -0.14647716 0.74300003
-0.17237453 -0.14711355 0.742643
-0.16755542 -0.14705193 0.74233335
-0.16304868 -0.14688919 0.74054539
-0.1578667 -0.14729525 0.73999995
-0.15250127 -0.14756034 0.74133337
-0.1469634 -0.14724655 0.74259996
-0.14225604 -0.14726885 0.74245465
-0.1375524 -0.14742668 0.74066669
-0.13460955 -0.14729525 0.74000001
-0.1205143 -0.14588572 0.74000001
-0.11714699 -0.14749399 0.74099994
-0.17619716 -0.14223143 0.74300003
-0.17336668 -0.14364667 0.74300003
-0.16735193 -0.14329286 0.74300003
-0.16234431 -0.14359787 0.74275005
-0.15769288 -0.1442567 0.74250007
-0.15262708 -0.14434382 0.74242866
-0.14641017 -0.1435816 0.74266672
-0.14200218 -0.14321443 0.74285722
-0.13745208 -0.1435816 0.74266672
-0.1328925 -0.14215367 0.74177784
-0.12755558 -0.14097017 0.74133343
-0.12221637 -0.14210328 0.74099994
-0.1174686 -0.14291213 0.74213338
-0.11385 -0.14284238 0.74250007
-0.13161716 -0.13940096 0.74300003
-0.12689969 -0.13892922 0.74300003
-0.12241811 -0.13869335 0.74300003
-0.11888001 -0.13940096 0.74300003
-0.15396668 -0.19511905 0.74500006
-0.17667145 -0.19086191 0.74500006
-0.18118224 -0.1873562 0.74800003
-0.17755254 -0.18749376 0.74571431
-0.17312381 -0.18625 0.74500006
-0.16744763 -0.18518573 0.74500006
-0.16248095 -0.18589525 0.74500006
-0.15696245 -0.18628941 0.745
-0.15254763 -0.18589525 0.74500006
-0.14758097 -0.18589523 0.745
-0.14267811 -0.1859781 0.74533343
-0.13764763 -0.18518573 0.74500006
-0.11920001 -0.18518573 0.74500006
-0.18023239 -0.18023239 0.74800003
-0.17767549 -0.1823732 0.74599993
-0.17226724 -0.18174455 0.74641669
-0.16785945 -0.18249735 0.74620003
-0.16206306 -0.18226622 0.7470001
-0.15734755 -0.18252733 0.74690014
-0.15240218 -0.18266295 0.7468183
-0.1475101 -0.1829301 0.74680012
-0.14239293 -0.18226197 0.74756253
-0.13739765 -0.18224669 0.74750006
-0.13308641 -0.18214492 0.74500006
-0.12771431 -0.18092859 0.74500006
-0.12186245 -0.18205206 0.74590909
-0.11826573 -0.18262738 0.74614292
-0.18023239 -0.17880763 0.74800003
-0.17690895 -0.17790478 0.74720013
-0.17234465 -0.17749275 0.74753857
-0.16775212 -0.17711185 0.74771434
-0.16242287 -0.17738289 0.74800009
-0.15715428 -0.17772782 0.74727285
-0.15224575 -0.17785716 0.74699998
-0.14726572 -0.17785716 0.7470001
-0.1424762 -0.17738289 0.74800009
-0.1377745 -0.17652802 0.74800009
-0.13258027 -0.17778914 0.74671435
-0.12753251 -0.17755093 0.74571437
-0.12288962 -0.17764089 0.7465834
-0.11773066 -0.17753451 0.74590921
-0.17651305 -0.17295396 0.74733341
-0.17223746 -0.17223829 0.74731255
-0.16724136 -0.17222391 0.74725008
-0.16230066 -0.17226748 0.74743754
-0.15711568 -0.17238097 0.74709105
-0.15248287 -0.17264001 0.7470001
-0.1475101 -0.17283088 0.74680012
-0.14230137 -0.17289659 0.74708343
-0.13738216 -0.17226264 0.74741673
-0.13280013 -0.17256942 0.74566668
-0.12771429 -0.1724143 0.745
-0.12274764 -0.1724143 0.745
-0.11801747 -0.17194128 0.745
-0.17667298 -0.16743143 0.74619997
-0.17210694 -0.16707127 0.74590921
-0.16715698 -0.16673127 0.74560004
-0.16265833 -0.16691548 0.745
-0.15765619 -0.16844097 0.74500006
-0.15254763 -0.16872478 0.74500006
-0.14719892 -0.16772053 0.745
-0.14261429 -0.16815716 0.745
-0.13772078 -0.16753791 0.74540007
-0.13303572 -0.16922143 0.74500006
-0.12913334 -0.1695762 0.74500006
-0.17667146 -0.16248097 0.745
-0.1724143 -0.16248095 0.745
-0.16863017 -0.16295397 0.74500006
-0.14687145 -0.16390002 0.74500006
-0.17596191 -0.15822382 0.74500006
-0.1724143 -0.15964286 0.74500006
-0.11717556 -0.15623558 0.74566674
-0.17610382 -0.15254763 0.74500006
-0.11565239 -0.15396668 0.74500006
-0.17596191 -0.14970954 0.74500006
-0.17383334 -0.1454524 0.74500006
-0.17540923 -0.14132033 0.74566674
-0.17215249 -0.14181361 0.74554551
-0.16768144 -0.14159691 0.74525005
-0.16228439 -0.14127031 0.74540007
-0.1575143 -0.14190477 0.745
-0.15263821 -0.14175166 0.74544448
-0.14806868 -0.14226139 0.7451818
-0.14261431 -0.14119527 0.74500006
-0.13765077 -0.14109974 0.74557149
-0.11565239 -0.14119525 0.74500006
-0.11423334 -0.14119525 0.74500006
-0.17595811 -0.1389143 0.74800003
-0.17256898 -0.13860381 0.74742866
-0.16662419 -0.13834774 0.74687505
-0.16229193 -0.13769777 0.74692863
-0.15731452 -0.13806589 0.74638462
-0.1522311 -0.13769765 0.74692863
-0.14715482 -0.13783793 0.74709105
-0.14238973 -0.1378362 0.74680007
-0.13767569 -0.13780469 0.74690914
-0.13277793 -0.13729967 0.7462728
-0.12790677 -0.13690169 0.7456668
-0.12252941 -0.13633512 0.74614292
-0.11754353 -0.1376524 0.74592304
-0.11423334 -0.13835716 0.74500006
-0.16218542 -0.13464001 0.74800003
-0.15743622 -0.13464001 0.74800003
-0.15387429 -0.13464001 0.74800003
-0.1424762 -0.13464001 0.74800003
-0.13820192 -0.13464001 0.74800003
-0.13260464 -0.1340294 0.74800009
-0.12748811 -0.13389763 0.74783337
-0.12246774 -0.13386013 0.74762511
-0.11789905 -0.13428381 0.74800003
-0.16690478 -0.18119049 0.75000012
-0.16500001 -0.18071429 0.75000006
-0.16642858 -0.17857143 0.75000006
-0.13750002 -0.17892857 0.75000006
-0.17613868 -0.13635962 0.75120002
-0.17249455 -0.13638549 0.75075001
-0.16833334 -0.13595238 0.75000012
-0.16357143 -0.13500001 0.75000006
-0.15142858 -0.13500001 0.75000006
-0.14785716 -0.13500002 0.75000012
-0.13642858 -0.13500001 0.75000006
-0.17626129 -0.13255367 0.7523334
-0.17267843 -0.13255334 0.75233346
-0.16778409 -0.13236433 0.75200003
-0.16270982 -0.13251345 0.75130004
-0.15742223 -0.13237649 0.75133336
-0.15241335 -0.13237652 0.7513333
-0.1474866 -0.1324504 0.75174999
-0.14239557 -0.13237651 0.7513333
-0.13753819 -0.13220416 0.75109094
-0.13214287 -0.13173471 0.75000012
-0.12718502 -0.13147217 0.75025004
-0.12219651 -0.13148668 0.75033343
-0.11723015 -0.13233213 0.75181824
-0.11330858 -0.13267145 0.75300002
-0.17641714 -0.12980287 0.75300002
-0.17283145 -0.12980287 0.75300002
-0.16733335 -0.12932479 0.75300002
-0.16279145 -0.12908573 0.75300002
-0.15769324 -0.12902109 0.75262499
-0.15268382 -0.12831113 0.75266677
-0.14785497 -0.12863821 0.75290006
-0.14271143 -0.12854788 0.75300002
-0.1375 -0.12774965 0.75273347
-0.13268955 -0.12773819 0.75236374
-0.12734823 -0.12838979 0.75236368
-0.12255001 -0.12756571 0.7525
-0.11877133 -0.12753366 0.75277787
-0.1219143 -0.12406572 0.75300002
-0.11976287 -0.12406572 0.75300002
-0.11656239 -0.13023382 0.75550008
-0.11376001 -0.13032001 0.75600004
-0.17621404 -0.12720406 0.75675005
-0.17264521 -0.12760052 0.7561819
-0.16793457 -0.12700367 0.75585723
-0.1625856 -0.12661488 0.75537503
-0.15754065 -0.12660794 0.75533342
-0.15248787 -0.12587501 0.7552501
-0.14752191 -0.12650858 0.75560009
-0.14251526 -0.12612097 0.75500005
-0.13068447 -0.12636827 0.75533342
-0.12727144 -0.12583336 0.75500005
-0.1165263 -0.12747256 0.75620002
-0.11396458 -0.12779467 0.75640005
-0.17734794 -0.12344572 0.75800008
-0.17181334 -0.12488953 0.75800002
-0.16748191 -0.12488953 0.75800002
-0.16221431 -0.12400287 0.75699997
-0.15763144 -0.1237243 0.75749993
-0.15256056 -0.12412954 0.7571429
-0.14704686 -0.1242461 0.75760001
-0.14216073 -0.12378167 0.75674999
-0.13748087 -0.12306648 0.75666666
-0.13269858 -0.12260073 0.75725007
-0.12762311 -0.12257342 0.75708342
-0.12308131 -0.12290084 0.75687504
-0.11815667 -0.12464239 0.75650001
-0.17829841 -0.12570161 0.76000011
-0.1744381 -0.12521906 0.76000005
-0.11596191 -0.12538382 0.76100004
-0.11408667 -0.12571335 0.76300001
-0.17666329 -0.12236751 0.76157153
-0.17239742 -0.12268816 0.76145458
-0.1673962 -0.1224654 0.76088899
-0.16292891 -0.12165302 0.76033342
-0.1576871 -0.12149662 0.76000011
-0.15233839 -0.12151933 0.76014298
-0.14775886 -0.12218065 0.76011121
-0.14288001 -0.12145525 0.76000005
-0.13879082 -0.12141176 0.76033342
-0.12521906 -0.1208762 0.76000005
-0.12200167 -0.12127786 0.76025003
-0.1178401 -0.12291857 0.76190013
-0.11408667 -0.12426001 0.76300001
-0.16713335 -0.11990001 0.76300001
-0.16192587 -0.11897975 0.76242864
-0.15734223 -0.11818603 0.76133341
-0.15224135 -0.11769874 0.76193357
-0.14750452 -0.11780425 0.76227278
-0.14267334 -0.11776741 0.76223081
-0.13727342 -0.11763666 0.76138473
-0.13246162 -0.11728918 0.76130772
-0.12749004 -0.1176267 0.76146674
-0.12272619 -0.11764144 0.76249999
-0.11990001 -0.11772001 0.76300001
-0.13637112 -0.11360222 0.76300001
-0.13298002 -0.11408667 0.76300001
-0.12135334 -0.11408667 0.76300001
-0.11554001 -0.11408667 0.76300001
-0.11408667 -0.11408667 0.76300001
-0.17704289 -0.1202143 0.76500005
-0.17267144 -0.1202143 0.76500005
-0.16975716 -0.12021429 0.76500005
-0.11700858 -0.12079715 0.76500005
-0.17720786 -0.11771167 0.7665
-0.17260496 -0.11730611 0.76600003
-0.16737275 -0.11743248 0.76500005
-0.16295716 -0.1168143 0.76500005
-0.15737145 -0.11584286 0.76500005
-0.14644286 -0.11584286 0.76500005
-0.14134288 -0.11584286 0.76500005
-0.11730002 -0.11730001 0.76499999
-0.17604478 -0.11468477 0.76700002
-0.17254192 -0.11429684 0.76766676
-0.16730414 -0.11323937 0.76711112
-0.16262545 -0.11294525 0.76710004
-0.15752743 -0.11255919 0.76646686
-0.15240446 -0.11229619 0.76566672
-0.14785342 -0.11216522 0.76592314
-0.14277786 -0.11244213 0.76566678
-0.13780801 -0.11155812 0.76560003
-0.13242248 -0.11199247 0.76608342
-0.12766668 -0.11234479 0.76600003
-0.12253443 -0.11213125 0.76553345
-0.117544 -0.11210624 0.76572734
-0.11392172 -0.11129506 0.76580006
-0.15213716 -0.10898286 0.76800001
-0.14848 -0.10898286 0.76800001
-0.14189714 -0.10898286 0.76800001
-0.13725545 -0.10860515 0.76740003
-0.13238859 -0.10898286 0.76800001
-0.12726858 -0.10898286 0.76800001
-0.12206906 -0.10818048 0.76750004
-0.11768334 -0.10818048 0.76750004
-0.11317588 -0.10806286 0.76666677
-0.17246255 -0.11219651 0.77166671
-0.16822541 -0.11092509 0.7713334
-0.16353336 -0.11073335 0.7700001
-0.17094345 -0.10792553 0.77300006
-0.16723657 -0.10781276 0.77220005
-0.16251914 -0.10738344 0.77107704
-0.15762976 -0.10702375 0.7709232
-0.15266445 -0.10679112 0.77066678
-0.14748305 -0.10679125 0.77119994
-0.14257848 -0.10666405 0.77076936
-0.13728654 -0.10645062 0.77085721
-0.13257715 -0.10629564 0.77079999
-0.12748988 -0.10654096 0.77054548
-0.1226781 -0.10578223 0.7713334
-0.11763811 -0.1058743 0.77199996
-0.11347176 -0.10611938 0.77200001
-0.16122572 -0.10380287 0.77300006
-0.15751965 -0.10304989 0.77287513
-0.15239143 -0.10306668 0.77300012
-0.1474389 -0.10246434 0.77300012
-0.14226882 -0.10251453 0.77300012
-0.13756096 -0.10254401 0.77240008
-0.13242857 -0.10299954 0.7725001
-0.12736097 -0.10380287 0.77300012
-0.12289017 -0.10375811 0.77266669
-0.11779048 -0.10380287 0.77300006
-0.11410953 -0.10380287 0.77300006
-0.17640477 -0.11145239 0.77500004
-0.17345239 -0.11145239 0.77500004
-0.17717358 -0.10744858 0.77675003
-0.17355143 -0.10757641 0.77544451
-0.16828573 -0.10554763 0.77500004
-0.17701849 -0.10401505 0.77900004
-0.17271589 -0.10377716 0.77833337
-0.16745482 -0.10224966 0.77800012
-0.16274233 -0.10194741 0.77633345
-0.15721431 -0.10111906 0.77500004
-0.15278572 -0.10111906 0.77500004
-0.14540477 -0.10111906 0.77500004
-0.14097621 -0.10111906 0.77500004
-0.13507144 -0.10111906 0.77500004
-0.13211906 -0.10111906 0.77500004
-0.12769048 -0.10185715 0.77500004
-0.1225631 -0.10188977 0.77525008
-0.11751144 -0.10159571 0.77725005
-0.11447763 -0.10187953 0.778
-0.16191366 -0.098383181 0.77866668
-0.15748614 -0.097646274 0.77842873
-0.15235935 -0.097792462 0.77746165
-0.14748684 -0.097847559 0.77700001
-0.14264801 -0.097544707 0.77730781
-0.13737381 -0.097742572 0.77633351
-0.1324597 -0.097679064 0.77700007
-0.12744382 -0.097803831 0.77800012
-0.12243658 -0.098274104 0.77820003
-0.11929334 -0.099286675 0.778
-0.15134859 -0.094221912 0.77900004
-0.13725239 -0.093850955 0.77900004
-0.13280097 -0.093480013 0.77900004
-0.12983334 -0.094221912 0.77900004
-0.17795078 -0.1014577 0.78085726
-0.17266124 -0.10092245 0.78000009
-0.17598954 -0.097688578 0.78300011
-0.17189418 -0.097479798 0.78133345
-0.16714287 -0.097314291 0.78000009
-0.16305716 -0.096200004 0.78000003
-0.12182859 -0.095828578 0.78000003
-0.11746615 -0.097428061 0.78200006
-0.11424001 -0.097813338 0.78400004
-0.17621334 -0.094826676 0.78400004
-0.17233336 -0.094746046 0.78333342
-0.16671938 -0.093420967 0.78266668
-0.16228075 -0.092459202 0.78246164
-0.15734303 -0.092500523 0.78184623
-0.15256552 -0.092073344 0.78220004
-0.14739342 -0.092821665 0.78200006
-0.14266478 -0.093370803 0.78155553
-0.1371343 -0.091172859 0.78150004
-0.13192335 -0.091173336 0.7815001
-0.12727286 -0.092288107 0.78150004
-0.12252419 -0.092897154 0.78160006
-0.1188162 -0.093710802 0.78299999
-0.13759032 -0.087495774 0.78399998
-0.13253334 -0.088480003 0.78400004
-0.11407239 -0.11632381 0.78800005
-0.11346572 -0.11496858 0.78900003
-0.11496858 -0.10144287 0.78900003
-0.11602858 -0.095068574 0.78600001
-0.11482286 -0.097311758 0.78800005
-0.17669372 -0.092468195 0.78680009
-0.17301778 -0.092125505 0.78644454
-0.16842857 -0.091699995 0.78600001
-0.15196002 -0.090577148 0.78600001
-0.14746858 -0.090577148 0.78600001
-0.14260286 -0.090951435 0.78600001
-0.13998286 -0.09207429 0.78600001
-0.12501144 -0.090577148 0.78600001
-0.12201715 -0.090577148 0.78600001
-0.11728939 -0.09200912 0.78728575
-0.11482286 -0.093059056 0.78800005
-0.17221826 -0.088862389 0.78850007
-0.16717266 -0.088249668 0.78814292
-0.1627617 -0.087754518 0.78755558
-0.15780917 -0.087520771 0.78680009
-0.15264471 -0.087798975 0.78672743
-0.14767705 -0.087705411 0.78711116
-0.14321968 -0.087730169 0.78733337
-0.13549143 -0.086085722 0.78600001
-0.13219772 -0.086684577 0.78600001
-0.12743168 -0.087702155 0.78708339
-0.12229313 -0.087779045 0.7877779
-0.1189762 -0.088919058 0.78900003
-0.16080573 -0.084911436 0.78900003
-0.15694907 -0.084106199 0.78850007
-0.15245716 -0.083791845 0.78857148
-0.14752167 -0.08400654 0.78857154
-0.14242034 -0.083015457 0.78844452
-0.13762769 -0.08268185 0.78721434
-0.13287112 -0.083325304 0.78822225
-0.12804137 -0.084251985 0.78885722
-0.12248287 -0.084911436 0.78900003
-0.11526 -0.11375334 0.79100001
-0.11243501 -0.11205834 0.79099995
-0.11555143 -0.10724382 0.79300004
-0.11290811 -0.10875429 0.79300004
-0.11526 -0.10320667 0.79100001
-0.11404096 -0.10195716 0.7930001
-0.11375334 -0.098686673 0.79100001
-0.11555143 -0.091383815 0.79300004
-0.17291553 -0.086295106 0.79185718
-0.16838039 -0.085772388 0.79140007
-0.16422668 -0.085126676 0.79100001
-0.12279334 -0.085126676 0.79100001
-0.11803693 -0.086873762 0.79166675
-0.17294954 -0.083831444 0.7930001
-0.16733919 -0.083184093 0.7930001
-0.16224033 -0.083005726 0.79233336
-0.15764573 -0.081461914 0.792
-0.15300477 -0.081250101 0.79139996
-0.14765334 -0.081360012 0.79099995
-0.14313334 -0.080606669 0.79100001
-0.13213468 -0.080908008 0.79100001
-0.12714355 -0.081711978 0.79128575
-0.12221922 -0.082233496 0.79216671
-0.11819477 -0.082320958 0.79300004
-0.1563343 -0.079300009 0.79300004
-0.15255812 -0.079300009 0.79300004
-0.14727144 -0.078695826 0.79300004
-0.1424289 -0.078259692 0.79266679
-0.13732263 -0.078469768 0.79225004
-0.13205492 -0.078478098 0.79233336
-0.12763524 -0.079300009 0.7930001
-0.12310382 -0.079300009 0.7930001
-0.11281429 -0.10789286 0.79500002
-0.11584286 -0.090100005 0.79500002
-0.1764143 -0.085557148 0.79500002
-0.11584286 -0.087071441 0.79500002
-0.11476 -0.087400004 0.79800004
-0.1764143 -0.084042862 0.79500002
-0.17262858 -0.081771441 0.79500002
-0.16732858 -0.08101429 0.79500002
-0.16278574 -0.08101429 0.79500002
-0.11644858 -0.082528569 0.79500002
-0.11398096 -0.082412198 0.79680008
-0.17534003 -0.078181908 0.79700011
-0.1723392 -0.078956679 0.79716671
-0.16747306 -0.078586273 0.79671437
-0.16261092 -0.077362284 0.79700011
-0.15757343 -0.077205166 0.79608339
-0.15233484 -0.076544769 0.7957778
-0.14780205 -0.076119602 0.79585725
-0.14286914 -0.076509148 0.79540008
-0.13721524 -0.075808577 0.796
-0.13266668 -0.075808585 0.79600012
-0.1276091 -0.076454468 0.79627275
-0.12227429 -0.077031866 0.79654551
-0.11784791 -0.077906571 0.79730004
-0.11415201 -0.078584008 0.79800004
-0.15656 -0.073720008 0.79800004
-0.15276001 -0.073720008 0.79800004
-0.14729364 -0.072675876 0.79766661
-0.1419576 -0.073081732 0.79709101
-0.13756001 -0.072200008 0.79799998
-0.13300002 -0.072634295 0.79800004
-0.12874402 -0.073112004 0.79800004
-0.11214191 -0.10679905 0.801
-0.11228 -0.10464191 0.80200005
-0.11504763 -0.091428578 0.80000001
-0.11332572 -0.091885716 0.80400002
-0.11504763 -0.087619051 0.80000001
-0.11279647 -0.087683007 0.80257148
-0.10922477 -0.086310484 0.80200005
-0.11161906 -0.082666673 0.80000007
-0.10922477 -0.084782861 0.80200005
-0.17309588 -0.07625334 0.80066675
-0.16812699 -0.075936511 0.80000007
-0.11657144 -0.075428575 0.80000007
-0.11187906 -0.076809049 0.80050004
-0.10895239 -0.076952383 0.80000001
-0.17534858 -0.072742864 0.80400002
-0.17220883 -0.073202148 0.80274999
-0.16722837 -0.072539687 0.80177784
-0.16242096 -0.072440006 0.80066675
-0.15798886 -0.071970895 0.80028576
-0.15270752 -0.071510211 0.80000007
-0.14704762 -0.070857145 0.80000001
-0.14400001 -0.070857145 0.80000001
-0.13231748 -0.070857152 0.80000007
-0.12673017 -0.071873024 0.80000007
-0.12273441 -0.072420321 0.80044448
-0.11793144 -0.072865918 0.80200005
-0.11380763 -0.074089527 0.80200005
-0.16209792 -0.069032773 0.80360001
-0.15688086 -0.068374179 0.80266666
-0.15199812 -0.067976512 0.80200005
-0.14726248 -0.067670859 0.80200005
-0.14256969 -0.067022711 0.80184627
-0.13758154 -0.067350045 0.80153853
-0.13239913 -0.067401029 0.80215389
-0.1278262 -0.068210959 0.80250001
-0.12346286 -0.068998098 0.80319995
-0.14012572 -0.063554287 0.80400002
-0.13706286 -0.063554287 0.80400002
-0.1161981 -0.10696381 0.80800003
-0.11190732 -0.10627556 0.80666673
-0.10850286 -0.10619429 0.80800003
-0.11384287 -0.10230382 0.80766672
-0.11619811 -0.097729534 0.80800003
-0.11256035 -0.097589612 0.80799997
-0.10850286 -0.096960008 0.80800003
-0.1161981 -0.094651438 0.80800003
-0.11200192 -0.093805723 0.80733341
-0.1089021 -0.092621729 0.8064
-0.11130477 -0.089043818 0.80600005
-0.10925779 -0.089299694 0.80600011
-0.11130477 -0.082135245 0.80600005
-0.10976953 -0.081367627 0.80600005
-0.17622097 -0.070026673 0.80800003
-0.17388192 -0.070934609 0.80666673
-0.11703112 -0.070934609 0.80666673
-0.11374953 -0.073781908 0.80700004
-0.17622097 -0.068487622 0.80800003
-0.17188209 -0.067546837 0.8075
-0.16719858 -0.067646526 0.8071667
-0.16235921 -0.066413611 0.80685729
-0.15794097 -0.065712385 0.80700004
-0.1527562 -0.065247625 0.80600011
-0.14891811 -0.065247625 0.80600005
-0.13586858 -0.065247625 0.80600005
-0.12691304 -0.065759376 0.80600011
-0.12184445 -0.067025818 0.80688894
-0.11917778 -0.06842985 0.80733341
-0.17160381 -0.063870482 0.80800003
-0.16544762 -0.063870482 0.80800003
-0.16236953 -0.063870482 0.80800003
-0.15775239 -0.063100964 0.80800003
-0.15236573 -0.063100956 0.80800003
-0.14685844 -0.063048258 0.80733341
-0.14233358 -0.062041674 0.80675012
-0.13748905 -0.062022865 0.80650008
-0.13252325 -0.062038671 0.80620015
-0.12761296 -0.062576771 0.80720007
-0.12235429 -0.063870482 0.80800003
-0.14236191 -0.059253342 0.80800003
-0.13736001 -0.058868576 0.80800003
-0.1323581 -0.058483813 0.80800003
-0.12774096 -0.059253339 0.80800003
-0.11163429 -0.10620762 0.81400001
-0.11108574 -0.1026 0.81000006
-0.10838573 -0.10221429 0.81000006
-0.11031429 -0.099514291 0.81000006
-0.10800001 -0.099514291 0.81000006
-0.11072286 -0.075879052 0.81300002
-0.1091743 -0.075879052 0.81300002
-0.17665716 -0.071742862 0.81000006
-0.1158562 -0.070286676 0.81100005
-0.11287072 -0.07266929 0.81174999
-0.17588574 -0.06634286 0.81000006
-0.11693658 -0.067042105 0.81100005
-0.11386667 -0.067390487 0.81333339
-0.17625259 -0.062359244 0.81240004
-0.17224145 -0.062368095 0.81099999
-0.16774787 -0.06234929 0.81075001
-0.16277143 -0.061714288 0.81000006
-0.15737143 -0.060942862 0.81000006
-0.15197144 -0.060942866 0.81000012
-0.14734286 -0.060942866 0.81000012
-0.12574287 -0.060942862 0.81000006
-0.12241314 -0.062193017 0.81066668
-0.11807715 -0.063297622 0.81300008
-0.16724667 -0.059620004 0.81300002
-0.16188319 -0.058513653 0.81200004
-0.15742695 -0.058882184 0.81200016
-0.15240858 -0.058795881 0.81233346
-0.14788859 -0.058844771 0.81300008
-0.14237954 -0.056485243 0.81250012
-0.13784525 -0.056451436 0.81200004
-0.13193382 -0.056100477 0.81250006
-0.12753887 -0.056802481 0.81260008
-0.12267619 -0.05839467 0.81320012
-0.11861144 -0.058918096 0.81400001
-0.14186859 -0.053491432 0.81400001
-0.13713287 -0.053845242 0.81349999
-0.13274477 -0.054057527 0.81320012
-0.12946478 -0.053491432 0.81400001
-0.10789049 -0.075290479 0.81500006
-0.11187714 -0.071383178 0.81766671
-0.10971144 -0.073139057 0.81700003
-0.11213588 -0.067748263 0.81766671
-0.11616985 -0.061836511 0.81500006
-0.11445001 -0.062282383 0.81750005
-0.17566159 -0.058120962 0.8173334
-0.17202364 -0.057340179 0.81663638
-0.16743717 -0.057054676 0.81620008
-0.16280827 -0.056166988 0.81533337
-0.1575667 -0.055885717 0.81500006
-0.15290955 -0.055885717 0.81500006
-0.1474762 -0.055885717 0.81500006
-0.12216985 -0.05564953 0.81533337
-0.11722318 -0.057444129 0.81633347
-0.17507143 -0.052910477 0.81700003
-0.1724162 -0.052406199 0.81825006
-0.16763112 -0.053018101 0.81866682
-0.16257021 -0.052631162 0.81785721
-0.1579963 -0.052146144 0.81722224
-0.15250668 -0.05213239 0.81700009
-0.14706001 -0.052132383 0.81699997
-0.14204286 -0.051561229 0.81500012
-0.13738573 -0.051228575 0.81500006
-0.13278225 -0.051249214 0.81533337
-0.12765789 -0.051701069 0.81566668
-0.12280668 -0.052307278 0.81754559
-0.11872287 -0.053256195 0.81833339
-0.15709202 -0.048828006 0.81900007
-0.1519143 -0.048300005 0.81800002
-0.14742002 -0.049140003 0.81900012
-0.14254084 -0.047957692 0.81785721
-0.13789144 -0.048300005 0.81800008
-0.13284069 -0.04821429 0.8184287
-0.12740722 -0.048402861 0.81785715
-0.12324001 -0.049140003 0.81900007
-0.11024858 -0.071153335 0.82100004
-0.10771689 -0.07259497 0.8221429
-0.11066953 -0.066837907 0.82180005
-0.10735986 -0.067393497 0.8228333
-0.11271716 -0.062794156 0.82271439
-0.1065981 -0.063488573 0.82300001
-0.11564796 -0.056127936 0.82233334
-0.11408159 -0.05769302 0.82233334
-0.17123716 -0.050823811 0.82100004
-0.16810954 -0.050823815 0.82100004
-0.16420001 -0.050823811 0.82100004
-0.11683398 -0.052110586 0.82211113
-0.11365239 -0.054082859 0.82300001
-0.17196782 -0.04906648 0.82300007
-0.16681556 -0.048033655 0.82233334
-0.16255164 -0.047746986 0.82188892
-0.15770535 -0.046825338 0.8222
-0.15272033 -0.046207309 0.82233334
-0.14796002 -0.046970479 0.82200003
-0.14308858 -0.046132386 0.82100004
-0.13761525 -0.046132386 0.82100004
-0.13214192 -0.046132386 0.82100004
-0.1274505 -0.046132386 0.82100004
-0.12257785 -0.047265444 0.82128578
-0.1181163 -0.048134502 0.8225556
-0.10816573 -0.047812384 0.82300001
-0.16068096 -0.044677146 0.82300001
-0.15754573 -0.04467715 0.82300007
-0.15284286 -0.04467715 0.82300007
-0.14618048 -0.043501429 0.82300001
-0.14227588 -0.043073341 0.82233334
-0.1373461 -0.04322286 0.8222
-0.13235651 -0.043073341 0.82233334
-0.12789567 -0.043526396 0.82242858
-0.12331106 -0.044028383 0.82260001
-0.11992286 -0.044677146 0.82300001
-0.11139905 -0.061072703 0.82566679
-0.10869086 -0.061815809 0.82580012
-0.11206219 -0.057436604 0.82614303
-0.1082643 -0.057387147 0.82825011
-0.11229549 -0.052510239 0.82600009
-0.10884897 -0.053085532 0.82700008
-0.17521429 -0.047142863 0.82500005
-0.17238574 -0.046985716 0.82499999
-0.16814286 -0.046357147 0.82500005
-0.11602382 -0.04688096 0.82500005
-0.11247778 -0.047978941 0.82588893
-0.10921429 -0.047928575 0.82500005
-0.17563906 -0.044894289 0.82700002
-0.17269716 -0.044159051 0.82800007
-0.16706976 -0.043487381 0.82650006
-0.1624842 -0.042349905 0.82660007
-0.15770043 -0.041894287 0.82655555
-0.15202169 -0.042571116 0.82611114
-0.14768395 -0.041502185 0.8267144
-0.1423305 -0.040103815 0.82566679
-0.13750002 -0.040071435 0.82500005
-0.13278572 -0.040071435 0.82500005
-0.12743905 -0.040643811 0.82600009
-0.12212393 -0.041523073 0.82611114
-0.11733064 -0.042520799 0.82683337
-0.11272065 -0.042564131 0.8276667
-0.10961144 -0.044159051 0.82800007
-0.14606191 -0.037897147 0.82900006
-0.14253049 -0.037518781 0.82814294
-0.13761677 -0.037043046 0.82760012
-0.13260476 -0.03831486 0.8278001
-0.12711334 -0.03868667 0.82900012
-0.1223762 -0.038291909 0.82900006
-0.11842858 -0.03868667 0.82900006
-0.17532668 -0.041253336 0.83300006
-0.17208509 -0.041236512 0.83266681
-0.16738716 -0.040758576 0.83100003
-0.15591145 -0.040362861 0.83100003
-0.15274572 -0.040362861 0.83100003
-0.17612001 -0.038873337 0.83300006
-0.17056668 -0.038873337 0.83300006
-0.16709501 -0.037461668 0.8325001
-0.16237304 -0.037225712 0.83166671
-0.15762064 -0.037225712 0.83166671
-0.15286827 -0.037225716 0.83166665
-0.1485517 -0.036995515 0.83157146
-0.14404002 -0.035614289 0.83100003
-0.1353343 -0.035614289 0.83100003
-0.13185202 -0.036247432 0.83100003
-0.12742001 -0.03640572 0.83100003
-0.12267144 -0.036247432 0.83100003
-0.11713599 -0.03669852 0.83166671
-0.11324239 -0.03840667 0.83150005
-0.16580668 -0.034113336 0.83300006
-0.16263334 -0.03411334 0.83300006
-0.157556 -0.03347867 0.83300012
-0.15311335 -0.03411334 0.83300006
-0.14740135 -0.03347867 0.83300012
-0.14262889 -0.033543497 0.83200014
-0.13708192 -0.033279054 0.83200002
-0.13248667 -0.03411334 0.83300006
-0.12772667 -0.033320006 0.83300012
-0.122695 -0.032704528 0.83250004
-0.11926445 -0.033584446 0.83300006
-0.17616858 -0.037465718 0.83700001
-0.17286929 -0.037198812 0.8355
-0.16938573 -0.035785716 0.83500004
-0.17227067 -0.033048574 0.83820003
-0.16784139 -0.032293018 0.83611107
-0.16235684 -0.031834289 0.83566666
-0.15698002 -0.03165048 0.83500004
-0.15207238 -0.031846672 0.83600008
-0.14760572 -0.031430479 0.8355
-0.14195001 -0.031411909 0.83500004
-0.13757619 -0.03101429 0.83500004
-0.13280477 -0.031809531 0.83500004
-0.12803334 -0.03101429 0.83500004
-0.12246668 -0.031014288 0.83500004
-0.11739715 -0.032669846 0.8366667
-0.17540859 -0.033640001 0.84100002
