# .PCD v0.7 - Point Cloud Data file format
VERSION 0.7
FIELDS x y z
SIZE 4 4 4
TYPE F F F
COUNT 1 1 1
WIDTH 811
HEIGHT 1
VIEWPOINT 0 0 0 1 0 0 0
POINTS 811
DATA ascii
-0.14282668 -0.1768 0.7280001
-0.13836122 -0.17684451 0.72900003
-0.14187634 -0.17300723 0.72871435
-0.13776615 -0.17347227 0.72900003
-0.13705969 -0.18173873 0.73300004
-0.1349162 -0.18384954 0.73400003
-0.14132668 -0.17892097 0.73100001
-0.13891906 -0.1794105 0.73300004
-0.1422655 -0.17155454 0.73225003
-0.13770735 -0.17156261 0.73185718
-0.1412528 -0.16820519 0.73371434
-0.1377368 -0.16783656 0.73345464
-0.1349162 -0.16777143 0.73400003
-0.14050858 -0.1642762 0.73400003
-0.13911049 -0.1642762 0.73400003
-0.1400581 -0.1836943 0.73900002
-0.14509715 -0.17313525 0.73600006
-0.14369525 -0.17033143 0.73600006
-0.13546763 -0.17056286 0.73700005
-0.14555715 -0.16806 0.7383334
-0.1429943 -0.16682668 0.73600006
-0.13598478 -0.16612573 0.73600006
-0.13357429 -0.16756669 0.73740005
-0.14549144 -0.16446763 0.73800004
-0.14265144 -0.16397144 0.73640007
-0.13713907 -0.16398615 0.73628581
-0.13354287 -0.16446763 0.73800004
-0.14024763 -0.1853524 0.74000001
-0.13836826 -0.18629208 0.74000001
-0.16122811 -0.18032144 0.74250007
-0.1592143 -0.18044287 0.74300003
-0.16264974 -0.17718078 0.74059993
-0.15833412 -0.17713888 0.74220008
-0.1622462 -0.17264377 0.74207139
-0.15848561 -0.17282899 0.74242866
-0.14688906 -0.17160144 0.74150002
-0.13601905 -0.17266668 0.74000001
-0.13361937 -0.17132542 0.74233341
-0.15119462 -0.16676223 0.74300003
-0.14856683 -0.16766843 0.74283338
-0.1317324 -0.16748923 0.74100006
-0.12878668 -0.16629049 0.74300003
-0.15143049 -0.16487525 0.74300003
-0.14742064 -0.16440353 0.74300003
-0.13205762 -0.16383573 0.74150002
-0.12677163 -0.16299203 0.74280006
-0.12231512 -0.16208585 0.74237508
-0.11900859 -0.16095653 0.74233341
-0.12581468 -0.15808211 0.74300003
-0.12226981 -0.15788887 0.74210006
-0.11832917 -0.15777227 0.74287504
-0.16228881 -0.15150572 0.74250007
-0.15789774 -0.15238002 0.74280006
-0.15496859 -0.15213811 0.74300003
-0.13232477 -0.15072286 0.74300003
-0.12666383 -0.1521381 0.74300009
-0.12270115 -0.15312879 0.74300003
-0.1183493 -0.15373024 0.74300003
-0.16237132 -0.14839798 0.74287504
-0.15779907 -0.14789237 0.74300003
-0.15294681 -0.14829674 0.74300009
-0.14930762 -0.14647715 0.74300003
-0.13232478 -0.14718476 0.74300003
-0.12775247 -0.1475658 0.74300003
-0.12312573 -0.14860001 0.74300003
-0.13232478 -0.14364669 0.74300003
-0.16160287 -0.19079001 0.7475
-0.16146031 -0.18751612 0.74750012
-0.15722573 -0.18781716 0.7470001
-0.15359309 -0.18740882 0.74750006
-0.14119525 -0.18802382 0.74500006
-0.16248095 -0.18258414 0.74500006
-0.15739663 -0.182566 0.74536371
-0.15231302 -0.18291906 0.74733341
-0.14888763 -0.18450668 0.74800003
-0.16718572 -0.17643429 0.74700004
-0.15592825 -0.1774613 0.74533343
-0.15219405 -0.17779811 0.74675
-0.14829049 -0.17738096 0.74500006
-0.13730572 -0.17572287 0.74700004
-0.17025906 -0.17097144 0.74800003
-0.16734533 -0.17192858 0.74700004
-0.15639932 -0.17221159 0.74500006
-0.15254763 -0.1724143 0.745
-0.14876351 -0.17265081 0.74500006
-0.13551906 -0.17383334 0.74500006
-0.1316926 -0.17261642 0.74655563
-0.12760857 -0.17139144 0.74750006
-0.12466668 -0.17025906 0.74800003
-0.17176561 -0.16701896 0.74766672
-0.16715613 -0.16758125 0.74750012
-0.16231906 -0.16772276 0.74686676
-0.1572177 -0.16781738 0.74592316
-0.15315579 -0.16815715 0.74500006
-0.13126191 -0.1695762 0.74500006
-0.12705293 -0.16741078 0.74528581
-0.12274182 -0.16697726 0.74670005
-0.17188272 -0.16404843 0.74783343
-0.16740954 -0.16456001 0.74800003
-0.16076064 -0.16313526 0.74800003
-0.15736651 -0.16235049 0.74766678
-0.15236242 -0.16198294 0.74623084
-0.14759922 -0.16202471 0.74592304
-0.1424395 -0.16226655 0.7470668
-0.13688248 -0.16309126 0.74780005
-0.132285 -0.16172968 0.74707699
-0.12889683 -0.16248098 0.74500006
-0.12023143 -0.16434 0.74700004
-0.1173062 -0.16257161 0.74650002
-0.11369239 -0.16116384 0.74766672
-0.16196923 -0.15698922 0.7470001
-0.15734173 -0.15705888 0.74620003
-0.15231225 -0.15740637 0.74616671
-0.14743088 -0.15695831 0.74640006
-0.14234874 -0.15729636 0.74733347
-0.13740806 -0.15734328 0.74755561
-0.13299716 -0.15717939 0.74677783
-0.12858149 -0.15696245 0.745
-0.1159362 -0.15765621 0.74500006
-0.1122786 -0.15705065 0.74616665
-0.10842438 -0.15772116 0.74800009
-0.16357367 -0.15363145 0.74566674
-0.15254763 -0.15254761 0.745
-0.14761351 -0.15258205 0.74516672
-0.1424821 -0.15285447 0.74579996
-0.13762158 -0.1526058 0.74590921
-0.13268095 -0.15325716 0.74500006
-0.12818731 -0.15302065 0.74500006
-0.12132858 -0.15183809 0.74500006
-0.11707143 -0.15193947 0.74500006
-0.11229715 -0.15229428 0.74550003
-0.10827752 -0.15167525 0.7470001
-0.10472 -0.15031239 0.74800003
-0.1668687 -0.14696346 0.74637496
-0.16229747 -0.14618573 0.74633336
-0.15708414 -0.14571272 0.74633336
-0.15290239 -0.14687143 0.745
-0.14743906 -0.14762828 0.745
-0.14261431 -0.14758098 0.745
-0.13764763 -0.14758098 0.74499995
-0.12605874 -0.1459254 0.74500006
-0.12239288 -0.14687145 0.745
-0.11785905 -0.14767906 0.74549997
-0.1126079 -0.14767089 0.7470001
-0.10813943 -0.14803277 0.74800009
-0.16740954 -0.14461334 0.74800003
-0.16179673 -0.14344077 0.74766672
-0.15737881 -0.14261778 0.74772733
-0.15237348 -0.14240406 0.74762505
-0.14729874 -0.142317 0.74716675
-0.14238936 -0.14210364 0.74680001
-0.13760953 -0.14277871 0.74654555
-0.13266295 -0.14191496 0.74730009
-0.12760961 -0.14272632 0.7462728
-0.12238944 -0.14340658 0.74666673
-0.11749017 -0.14383653 0.74766672
-0.11286151 -0.14400274 0.74800009
-0.10899429 -0.14461334 0.74800003
-0.15031239 -0.1389143 0.74800003
-0.14746287 -0.13891432 0.74800003
-0.14390096 -0.1389143 0.74800003
-0.17139715 -0.18000287 0.75300002
-0.16902097 -0.1811962 0.75200003
-0.13835579 -0.18218793 0.75271434
-0.13267143 -0.18072002 0.75300002
-0.12980287 -0.18000287 0.75300002
-0.17641714 -0.17570001 0.75300002
-0.17253762 -0.1768381 0.7525
-0.16927011 -0.17785755 0.75120008
-0.13683112 -0.1784925 0.75133336
-0.13240716 -0.1774981 0.75150001
-0.1279968 -0.17633346 0.75187504
-0.17677905 -0.17248049 0.75225008
-0.17274888 -0.17254479 0.75085717
-0.12547621 -0.17309526 0.75000012
-0.12289112 -0.17204922 0.75166672
-0.17623772 -0.16880459 0.75040001
-0.17357144 -0.16928573 0.75000006
-0.12087525 -0.16879717 0.75100005
-0.11772805 -0.16724065 0.7522223
-0.11402572 -0.16566001 0.75300002
-0.10757144 -0.16566001 0.75300002
-0.16753908 -0.16220851 0.75090915
-0.1629221 -0.1629221 0.75000012
-0.14071429 -0.16214287 0.75000006
-0.13826533 -0.16234694 0.75000012
-0.11785715 -0.16500001 0.75000006
-0.11176573 -0.16276446 0.75066674
-0.10804805 -0.16243197 0.75133336
-0.16697875 -0.15768921 0.75033343
-0.16428572 -0.15857144 0.75000006
-0.10714287 -0.1557143 0.75000006
-0.16642858 -0.14500001 0.75000006
-0.1067481 -0.14644431 0.75100005
-0.10413969 -0.14774859 0.75066674
-0.1707143 -0.14071429 0.75000006
-0.16805652 -0.14231007 0.75088888
-0.16357145 -0.14153062 0.75000012
-0.15785715 -0.14071429 0.75000006
-0.13714287 -0.14071429 0.75000006
-0.13142858 -0.14071429 0.75000006
-0.12607144 -0.14107144 0.75000006
-0.12185716 -0.14128573 0.75000006
-0.1171812 -0.14147548 0.75025004
-0.11206695 -0.14189552 0.75085723
-0.10730996 -0.14258218 0.75163633
-0.10389366 -0.14258446 0.7523334
-0.17116953 -0.13894096 0.75200003
-0.1677281 -0.13762204 0.75262505
-0.16257572 -0.13750683 0.75199997
-0.15750952 -0.13746071 0.75174999
-0.15266003 -0.13729481 0.7519092
-0.14737192 -0.13663954 0.7511667
-0.14223613 -0.13716218 0.7511819
-0.1374862 -0.1374843 0.75187504
-0.13231906 -0.13732384 0.75100005
-0.12740721 -0.1374265 0.75156248
-0.12264419 -0.13797371 0.75219995
-0.1175073 -0.13828543 0.7523334
-0.11313486 -0.13894515 0.75280005
-0.10972287 -0.13984287 0.75300002
-0.16824172 -0.13381888 0.75300002
-0.16422573 -0.13410573 0.75300002
-0.15848859 -0.13410573 0.75300002
-0.15275145 -0.13410573 0.75300002
-0.14773144 -0.13410573 0.75300002
-0.14271145 -0.13410573 0.75300002
-0.13694429 -0.13335891 0.75283337
-0.1324162 -0.13303035 0.75271434
-0.12808172 -0.13381888 0.75300002
-0.13776256 -0.18584764 0.7573334
-0.1373381 -0.1838365 0.75500005
-0.13252452 -0.1829412 0.75625002
-0.12832858 -0.18095906 0.75700003
-0.12707905 -0.17892049 0.75600004
-0.12296001 -0.17629714 0.7568
-0.12119929 -0.17334788 0.7552501
-0.11796906 -0.17179003 0.75683343
-0.11656239 -0.16908811 0.75550008
-0.11251546 -0.16777366 0.75677782
-0.10900763 -0.16820382 0.75800002
-0.10749763 -0.14057381 0.75500005
-0.10426191 -0.14021429 0.75500005
-0.12151906 -0.13590001 0.75500005
-0.11720477 -0.13590001 0.75500005
-0.11178429 -0.13724831 0.7553001
-0.1072327 -0.13745876 0.75566673
-0.10414263 -0.13729405 0.75675005
-0.16732784 -0.13179682 0.75622225
-0.16242704 -0.13249083 0.75607151
-0.15749221 -0.13223524 0.75572735
-0.15252247 -0.13165772 0.75541675
-0.14736944 -0.13166659 0.75630009
-0.14232834 -0.13185784 0.75581819
-0.137906 -0.13152859 0.75585723
-0.13243267 -0.13078858 0.75514293
-0.12732764 -0.13164319 0.75533342
-0.12236911 -0.13244602 0.75581259
-0.11743762 -0.13256621 0.75650012
-0.11255047 -0.13293743 0.75685722
-0.10751587 -0.13421492 0.75766671
-0.10395429 -0.1342743 0.75800002
-0.16712096 -0.12849906 0.75800002
-0.16242859 -0.12922096 0.75800008
-0.15706587 -0.12860219 0.75800002
-0.15225431 -0.12844223 0.75766671
-0.14716546 -0.12860219 0.75800002
-0.1425762 -0.12886001 0.75800002
-0.13743287 -0.12877478 0.75750005
-0.1326903 -0.12792954 0.7572
-0.12766477 -0.12766349 0.75733328
-0.12309144 -0.12785335 0.75760001
-0.11911429 -0.12922096 0.75800002
-0.16820382 -0.12488953 0.75800002
-0.12633334 -0.12488953 0.75800002
-0.1391543 -0.19206192 0.76100004
-0.14024667 -0.18966001 0.76300001
-0.13734268 -0.18810382 0.76140004
-0.13225335 -0.18602668 0.76300001
-0.13181953 -0.18469287 0.76050007
-0.12685634 -0.18257172 0.76114291
-0.1235597 -0.18110828 0.76166672
-0.1222581 -0.17853087 0.76140004
-0.11896515 -0.17706878 0.76260006
-0.11620929 -0.17304739 0.76025003
-0.11238828 -0.1716035 0.76133341
-0.10936715 -0.17093191 0.76050007
-0.11219049 -0.13100953 0.76000005
-0.10715499 -0.131422 0.76163644
-0.10382255 -0.13141049 0.76233339
-0.16681811 -0.12689756 0.76014298
-0.16288075 -0.12668498 0.76011121
-0.15805452 -0.12620245 0.76011121
-0.15242451 -0.12593363 0.7605716
-0.14754871 -0.12636657 0.76037508
-0.1424799 -0.12654752 0.76037508
-0.1381672 -0.1264182 0.76044452
-0.13281678 -0.12586401 0.76040006
-0.12763177 -0.12521908 0.76000011
-0.12174477 -0.12608764 0.76000005
-0.11728668 -0.12743373 0.76113337
-0.11265776 -0.12796788 0.76227278
-0.10963081 -0.12850636 0.76233339
-0.16692744 -0.12283906 0.76140004
-0.16225086 -0.12390421 0.76260006
-0.15768668 -0.12353334 0.76300001
-0.15225637 -0.12282036 0.76227278
-0.14738381 -0.12342477 0.76233339
-0.14242668 -0.12426001 0.76300001
-0.13682246 -0.12292124 0.76242864
-0.13282551 -0.12266234 0.76211113
-0.12759866 -0.12252392 0.76125002
-0.12269937 -0.1226981 0.76233339
-0.11990001 -0.12426001 0.76300001
-0.16742001 -0.11958572 0.76100004
-0.13685557 -0.11941557 0.76300001
-0.13225335 -0.11990001 0.76300001
-0.13681129 -0.19158652 0.76683331
-0.13268116 -0.19148801 0.76800007
-0.13624287 -0.18870001 0.76500005
-0.13253322 -0.18842737 0.76642859
-0.12780873 -0.18707241 0.76685727
-0.12361144 -0.18505144 0.76800001
-0.12209827 -0.18290685 0.76616669
-0.11770827 -0.18058446 0.7676667
-0.11699159 -0.17780018 0.76616669
-0.11245677 -0.17744979 0.76675004
-0.11147144 -0.17412858 0.76500005
-0.11074287 -0.12604287 0.76500005
-0.10709395 -0.12711889 0.76590914
-0.1035473 -0.12760985 0.76566672
-0.16591215 -0.12178929 0.76575005
-0.16283967 -0.12162679 0.76587498
-0.15742357 -0.12098215 0.76525003
-0.15227143 -0.1202143 0.76500005
-0.14759254 -0.12092859 0.76557153
-0.14270261 -0.12188963 0.76554555
-0.13927843 -0.12177621 0.76566672
-0.12760985 -0.12031905 0.76566672
-0.12177747 -0.12104763 0.76566672
-0.11740191 -0.1225051 0.76566684
-0.11247347 -0.12269846 0.76687497
-0.10893556 -0.12355715 0.7676667
-0.16164574 -0.11873525 0.76800001
-0.15744716 -0.11782887 0.7675001
-0.15271398 -0.11764032 0.76722229
-0.14762034 -0.11765715 0.76733345
-0.1425252 -0.11767419 0.76744449
-0.13763641 -0.1171962 0.7664445
-0.13258885 -0.11759836 0.76609093
-0.12732518 -0.11855157 0.76771438
-0.1219396 -0.11817797 0.76800007
-0.11792491 -0.11813361 0.76771432
-0.11373715 -0.11885716 0.76800001
-0.13714287 -0.11446857 0.76800001
-0.13385144 -0.11483429 0.76800001
-0.13126667 -0.19286668 0.77000004
-0.12780453 -0.19171071 0.77125001
-0.1232061 -0.19121297 0.77280009
-0.11852668 -0.19067335 0.77300012
-0.12657335 -0.18934669 0.77000004
-0.12240168 -0.18736643 0.77075005
-0.11890301 -0.18744914 0.77271438
-0.11730741 -0.18343291 0.77144444
-0.11241858 -0.1822224 0.77150005
-0.10513905 -0.12572572 0.77200001
-0.10366858 -0.12572572 0.77200001
-0.16793334 -0.12100001 0.77000004
-0.10727358 -0.12270525 0.77149999
-0.17006001 -0.11852667 0.77300006
-0.16709222 -0.11747889 0.77227277
-0.16260234 -0.11679619 0.77022225
-0.15766668 -0.11513334 0.7700001
-0.15253335 -0.11513334 0.77000004
-0.14740002 -0.11513334 0.7700001
-0.14226669 -0.11513334 0.77000004
-0.132 -0.11513334 0.77000004
-0.12755513 -0.11614434 0.77022225
-0.12276001 -0.11572001 0.77000004
-0.11701907 -0.11576191 0.7700001
-0.11221267 -0.11705897 0.77109998
-0.10866597 -0.11822692 0.77225006
-0.16709144 -0.11262074 0.77288896
-0.16258118 -0.11255557 0.77244455
-0.15742612 -0.11255153 0.77241671
-0.15217197 -0.11247376 0.77188897
-0.1474884 -0.11234287 0.77200001
-0.14243516 -0.11262443 0.77200007
-0.13717262 -0.11219738 0.77125001
-0.13232833 -0.1124782 0.77191675
-0.12723303 -0.1125234 0.77222222
-0.12267874 -0.11239304 0.77133328
-0.11791611 -0.11277057 0.7719
-0.11263715 -0.11410954 0.77300012
-0.16637906 -0.1089562 0.77300006
-0.1636797 -0.1092016 0.77300012
-0.14171667 -0.10932429 0.77300006
-0.13759677 -0.10875221 0.77260005
-0.1325143 -0.10969239 0.77300006
-0.12730668 -0.10964509 0.77266669
-0.1228643 -0.10888524 0.77250004
-0.11926287 -0.10969239 0.77300006
-0.12104763 -0.19264287 0.77500004
-0.11653125 -0.18860666 0.7754001
-0.11351797 -0.18680371 0.7761429
-0.10212 -0.12580001 0.77700001
-0.10554763 -0.12178572 0.77500004
-0.10295429 -0.122332 0.7766
-0.17050001 -0.11661905 0.77500004
-0.10671879 -0.11727607 0.77585721
-0.10286 -0.11766001 0.77700001
-0.11647271 -0.11105493 0.77566671
-0.11245446 -0.11171477 0.77683347
-0.10763336 -0.11275994 0.77776933
-0.10299238 -0.11262288 0.77800012
-0.16572097 -0.10613048 0.77566671
-0.1620086 -0.1076754 0.77616662
-0.15729812 -0.10780169 0.77653843
-0.15251891 -0.10791583 0.77653843
-0.14746575 -0.10809007 0.77585715
-0.14272931 -0.10690739 0.7755
-0.1371741 -0.10690343 0.77520007
-0.13234635 -0.10720667 0.77633339
-0.12749411 -0.10695828 0.77560002
-0.1221662 -0.10682596 0.77625006
-0.11771943 -0.10764934 0.77740008
-0.11331419 -0.10787482 0.7787779
-0.10831811 -0.10906 0.77900004
-0.10312478 -0.10906001 0.77900004
-0.16593939 -0.10361938 0.77900004
-0.16346636 -0.10411398 0.77900004
-0.15753113 -0.10460858 0.77900004
-0.15209049 -0.10460858 0.77900004
-0.14737348 -0.10351035 0.77871436
-0.1425478 -0.10291662 0.7784546
-0.13720901 -0.10235011 0.77746165
-0.13254525 -0.10218429 0.77750009
-0.12767866 -0.10258625 0.77814305
-0.12258083 -0.10351035 0.77871436
-0.11833381 -0.10423762 0.77900004
-0.11499525 -0.10460858 0.77900004
-0.13725239 -0.098673336 0.77900004
-0.13354287 -0.098673336 0.77900004
-0.11112809 -0.10629572 0.78049999
-0.10716544 -0.10670741 0.78184617
-0.10225073 -0.10634643 0.78225005
-0.16661239 -0.10115715 0.78100002
-0.16225754 -0.10187429 0.78080004
-0.15733859 -0.10220715 0.78050005
-0.1523291 -0.1018 0.7802223
-0.14812572 -0.10088 0.78000003
-0.14262858 -0.10028572 0.78000003
-0.12628573 -0.10028572 0.78000003
-0.1222743 -0.10088002 0.78000003
-0.11733298 -0.10177733 0.78109103
-0.11261958 -0.10259499 0.78218186
-0.10910667 -0.10253906 0.78360003
-0.16501334 -0.099306673 0.78400004
-0.16183999 -0.098000005 0.78399998
-0.15750244 -0.09778519 0.78377777
-0.15241714 -0.097608507 0.7834546
-0.14725089 -0.09805961 0.78257149
-0.14251029 -0.097685151 0.78179997
-0.13760477 -0.096694291 0.78100008
-0.13213371 -0.097164959 0.78120011
-0.12735431 -0.097561277 0.78199995
-0.12289548 -0.098278344 0.78324997
-0.11722668 -0.099306673 0.7840001
-0.13706669 -0.094186686 0.78400004
-0.13216001 -0.094080016 0.78400004
-0.12768 -0.094826683 0.7840001
-0.10669525 -0.1024139 0.78657156
-0.10275704 -0.10275557 0.78755558
-0.099728905 -0.102727 0.78733337
-0.16641116 -0.097063147 0.78657156
-0.16281429 -0.095442861 0.78600001
-0.15794858 -0.095068574 0.78600001
-0.15270859 -0.095068574 0.78600001
-0.14776801 -0.095667437 0.78600001
-0.14297716 -0.095068574 0.78600001
-0.12501144 -0.095068574 0.78600001
-0.12184708 -0.096172526 0.7862857
-0.11767462 -0.096687093 0.787
-0.11255335 -0.097544178 0.78787512
-0.10735144 -0.098530248 0.78825009
-0.10282974 -0.098325185 0.78811115
-0.099813342 -0.098312393 0.78800005
-0.16606572 -0.093928576 0.78900003
-0.1622574 -0.0935231 0.78875005
-0.1575662 -0.093038253 0.78783339
-0.1530962 -0.093308583 0.78800011
-0.14751501 -0.093463585 0.78825009
-0.14263502 -0.093087867 0.78825009
-0.13756573 -0.09174531 0.78685725
-0.1326935 -0.091460161 0.78716677
-0.12765275 -0.092347279 0.78718185
-0.12235319 -0.093078576 0.7881667
-0.11824458 -0.093303621 0.78880006
-0.11496858 -0.093928576 0.78900003
-0.14051715 -0.089420006 0.78900003
-0.13713571 -0.089044288 0.78900003
-0.13300286 -0.089420006 0.78900003
-0.10772667 -0.096050009 0.79100001
-0.10409048 -0.09579429 0.79200006
-0.16669621 -0.092398576 0.79200006
-0.16272001 -0.091906667 0.79100001
-0.15744668 -0.091153346 0.79100007
-0.15255001 -0.09153001 0.79100001
-0.14776096 -0.091799051 0.79100001
-0.14268135 -0.09205734 0.79100001
-0.12580667 -0.091153339 0.79100001
-0.12279334 -0.091153346 0.79100007
-0.11701779 -0.091655552 0.79100001
-0.11224667 -0.09266001 0.79099995
-0.10793768 -0.092841804 0.79255563
-0.1049781 -0.093649529 0.79300004
-0.16539715 -0.089873336 0.79300004
-0.1623762 -0.089118108 0.7930001
-0.15765597 -0.08855167 0.7930001
-0.15286021 -0.088664956 0.79300016
-0.14727144 -0.088362865 0.7930001
-0.14258085 -0.087761171 0.79211122
-0.13773048 -0.086322442 0.79122216
-0.13232081 -0.087082073 0.79166669
-0.1275008 -0.087513827 0.79216671
-0.12288181 -0.088026419 0.79245466
-0.11740749 -0.089161232 0.79242867
-0.11253049 -0.089118108 0.7930001
-0.10950953 -0.089118101 0.79300004
-0.14122954 -0.083076194 0.79300004
-0.13745335 -0.083076194 0.7930001
-0.13246877 -0.08322724 0.79300004
-0.10145715 -0.096157148 0.79500002
-0.17078573 -0.094121911 0.79700005
-0.16872881 -0.091377385 0.79624999
-0.10644476 -0.090535238 0.79550004
-0.10219029 -0.092941351 0.796
-0.16661143 -0.08766906 0.79700005
-0.16285461 -0.086350173 0.79533339
-0.15794002 -0.085860014 0.79500002
-0.15188287 -0.086162865 0.79500002
-0.14764288 -0.085557148 0.79500002
-0.14385715 -0.085557148 0.79500002
-0.12152144 -0.085935727 0.79500002
-0.11745493 -0.086386047 0.79566669
-0.11250219 -0.086298376 0.79585719
-0.10718029 -0.087169051 0.79590005
-0.10336001 -0.088920005 0.79800004
-0.16232209 -0.08292105 0.7974546
-0.15699144 -0.082665719 0.79633331
-0.1524833 -0.082688361 0.79655558
-0.14769153 -0.082572095 0.79689997
-0.14303851 -0.08240068 0.79585719
-0.13704287 -0.08101429 0.79500002
-0.13212144 -0.081392862 0.79500002
-0.12755144 -0.08248391 0.79590911
-0.12254001 -0.082907818 0.7971999
-0.11778339 -0.082828254 0.79788888
-0.11268729 -0.082978189 0.79800004
-0.15808001 -0.079800002 0.79800004
-0.14163512 -0.078468584 0.79771435
-0.1374836 -0.078235768 0.79755557
-0.13278115 -0.077936195 0.79759997
-0.12796773 -0.078574002 0.79789996
-0.12312001 -0.079800002 0.79800004
-0.10361905 -0.090666674 0.80000001
-0.16929525 -0.0873143 0.80000001
-0.10438096 -0.086857148 0.80000001
-0.16716193 -0.081980951 0.80000013
-0.16228575 -0.080000006 0.80000007
-0.15619048 -0.080000006 0.80000001
-0.15238096 -0.080000006 0.80000001
-0.14704764 -0.080000006 0.80000007
-0.12114286 -0.080000006 0.80000001
-0.11733334 -0.080000006 0.80000001
-0.11161906 -0.080380961 0.80000001
-0.1076508 -0.082455248 0.80166674
-0.10464191 -0.084782861 0.80200005
-0.16612858 -0.077524766 0.80199999
-0.16269144 -0.077142224 0.80199999
-0.15744555 -0.076952375 0.80145454
-0.15215126 -0.077219054 0.80120009
-0.14725229 -0.077057995 0.80111122
-0.14315772 -0.076380573 0.80039996
-0.13790479 -0.075428575 0.80000007
-0.13282542 -0.075428575 0.80000007
-0.12693335 -0.0760381 0.80000001
-0.12273441 -0.076994292 0.80044454
-0.11743112 -0.077015251 0.80066675
-0.11224805 -0.077122115 0.80177784
-0.1091143 -0.077720001 0.80400002
-0.15697144 -0.074274294 0.80400008
-0.15237716 -0.074274294 0.80400008
-0.14740001 -0.073891431 0.80400002
-0.142352 -0.072705917 0.80360001
-0.13719754 -0.072804004 0.80300009
-0.13217612 -0.072579898 0.80222225
-0.12786596 -0.072819293 0.80275005
-0.1235242 -0.073624767 0.80360001
-0.11770049 -0.074135721 0.80250001
-0.11256 -0.074274294 0.80400008
-0.13706286 -0.069680005 0.80400002
-0.13093714 -0.069680005 0.80400002
-0.12940572 -0.069680005 0.80400002
-0.10533779 -0.082272395 0.80733341
-0.1066381 -0.077433817 0.8070001
-0.16690476 -0.073991247 0.80760002
-0.16204731 -0.072461836 0.80709094
-0.15757927 -0.071485721 0.8071112
-0.15260001 -0.071304396 0.80680007
-0.14766572 -0.071431912 0.80650008
-0.12588954 -0.071388572 0.80600005
-0.1219731 -0.071261674 0.80675012
-0.11757483 -0.071466044 0.806889
-0.11228 -0.072290003 0.80750006
-0.10836762 -0.07416667 0.80700004
-0.15621334 -0.068487622 0.80800003
-0.15236571 -0.068487622 0.80800003
-0.14688811 -0.068829045 0.80750006
-0.14212699 -0.068373337 0.80666679
-0.13755879 -0.067415424 0.80690914
-0.13280717 -0.067234449 0.80683339
-0.12739269 -0.067803815 0.80692309
-0.12338033 -0.067974612 0.80800003
-0.13158858 -0.063870482 0.80800003
-0.10295168 -0.087114051 0.81124997
-0.1030781 -0.082928263 0.8137778
-0.10303828 -0.077580266 0.8123638
-0.16686553 -0.071469717 0.81040001
-0.1643143 -0.070200004 0.81000006
-0.11262858 -0.070200004 0.81000006
-0.10723286 -0.072260961 0.81149995
-0.10388191 -0.073647626 0.81400001
-0.16549143 -0.068051428 0.81200004
-0.16217417 -0.06745144 0.81142867
-0.15762943 -0.067014821 0.81088889
-0.15209717 -0.066396832 0.81066674
-0.14734286 -0.066342868 0.81000006
-0.14271431 -0.065571442 0.81000012
-0.12574287 -0.065571435 0.81000006
-0.12224319 -0.066653982 0.81066668
-0.11752176 -0.067265242 0.8118335
-0.11216402 -0.067297146 0.81222236
-0.10858096 -0.067688771 0.8132
-0.16124953 -0.064344764 0.81400001
-0.15737334 -0.064344764 0.81400001
-0.15253431 -0.063490488 0.81300008
-0.14788859 -0.06349048 0.81300008
-0.14266816 -0.062689744 0.81266671
-0.13731951 -0.06272278 0.8112728
-0.13207714 -0.061789528 0.81100005
-0.12749483 -0.062586881 0.81133348
-0.1226433 -0.062906846 0.81363648
-0.11706096 -0.063569531 0.81400007
-0.11279715 -0.063957147 0.81400001
-0.10930858 -0.064344764 0.81400001
-0.14186858 -0.059693336 0.81400001
-0.13721715 -0.0589181 0.81400007
-0.13256572 -0.0589181 0.81400007
-0.1282244 -0.059073146 0.81400007
-0.12481334 -0.059693336 0.81400001
-0.1063381 -0.070633337 0.81500006
-0.10364439 -0.071323626 0.81580013
-0.16532858 -0.065976195 0.81500006
-0.1637762 -0.065976195 0.81500006
-0.10638954 -0.066940002 0.81540006
-0.10322787 -0.067846902 0.81650001
-0.16573429 -0.064581908 0.81700003
-0.16256559 -0.062335651 0.81671435
-0.15756667 -0.062095247 0.81500006
-0.15290955 -0.061319053 0.81500006
-0.1474762 -0.061319053 0.81500006
-0.12030953 -0.061319053 0.81500006
-0.11720478 -0.061319053 0.81500006
-0.11223716 -0.061940003 0.81500006
-0.1073535 -0.062492229 0.8168335
-0.10296001 -0.064740002 0.81900007
-0.16106573 -0.059913337 0.81700003
-0.1577286 -0.059105717 0.81814295
-0.1523324 -0.05930762 0.81785733
-0.14711937 -0.059157781 0.8173334
-0.14231525 -0.056768365 0.81655562
-0.13744254 -0.055908259 0.81533337
-0.13272858 -0.055885717 0.81500006
-0.12738191 -0.056220002 0.81611115
-0.12250279 -0.058032822 0.81645465
-0.11746001 -0.058338735 0.81677783
-0.11316451 -0.058862459 0.81785721
-0.10937049 -0.058971118 0.81833339
-0.14158508 -0.053256195 0.81833339
-0.13769267 -0.052649394 0.81814301
-0.1330253 -0.052361164 0.81788898
-0.12781462 -0.053256199 0.81833339
-0.16498192 -0.060988575 0.82100004
-0.10555715 -0.060988575 0.82100004
-0.10321143 -0.061770484 0.82100004
-0.16538382 -0.058001906 0.82300001
-0.16214882 -0.056917384 0.82150006
-0.15729113 -0.056342226 0.82166672
-0.15259463 -0.056342226 0.82166672
-0.14778002 -0.056297146 0.82100004
-0.12197715 -0.055515241 0.82100004
-0.11806762 -0.055515241 0.82100004
-0.11225919 -0.056185443 0.82100004
-0.10723282 -0.057137556 0.82185721
-0.10372414 -0.058263179 0.82300007
-0.16224858 -0.054082863 0.82300007
-0.15715382 -0.053690955 0.82300001
-0.15284288 -0.052515239 0.82300001
-0.14814001 -0.052515246 0.82300001
-0.14360985 -0.051866353 0.82100004
-0.13917905 -0.050823811 0.82100004
-0.13136001 -0.050823811 0.82100004
-0.12705953 -0.051214766 0.82100004
-0.12292478 -0.052457254 0.82211113
-0.11752318 -0.052493341 0.82266676
-0.11228072 -0.052711189 0.82300001
-0.10894953 -0.054082859 0.82300001
-0.14500476 -0.048596196 0.82300001
-0.14181209 -0.048053659 0.82266665
-0.13734612 -0.047921147 0.8222
-0.13232033 -0.04775947 0.82211113
-0.12789565 -0.048225988 0.82242864
-0.12410318 -0.048857465 0.82300007
-0.16683334 -0.057357147 0.82500005
-0.10607143 -0.055785719 0.82500005
-0.10345238 -0.056309532 0.82500005
-0.16578573 -0.05264286 0.82500005
-0.16264288 -0.051857144 0.82499999
-0.15824287 -0.051700003 0.82499999
-0.11078572 -0.051071431 0.82500005
-0.1075443 -0.052492857 0.82574999
-0.10317809 -0.052376673 0.82700008
-0.16578573 -0.048714288 0.82500005
-0.16224724 -0.047726672 0.82700008
-0.15758637 -0.047273017 0.82733333
-0.15232818 -0.04743797 0.82628578
-0.14769112 -0.047128785 0.82633334
-0.14300001 -0.046357147 0.82500005
-0.12728572 -0.046357147 0.82500005
-0.12202625 -0.047162686 0.82663643
-0.11740224 -0.047273021 0.82733345
-0.11287143 -0.047511086 0.82772732
-0.10733771 -0.047354296 0.82871449
-0.10270804 -0.047543813 0.82744455
-0.1555362 -0.043423813 0.82900006
-0.15237811 -0.043423813 0.82900012
-0.14594446 -0.043387622 0.82833338
-0.14247048 -0.043022286 0.82740015
-0.13768563 -0.043271217 0.82611114
-0.13271287 -0.042660162 0.82700002
-0.12751819 -0.043508481 0.82790917
-0.1226322 -0.043402102 0.82860005
-0.11763906 -0.043423813 0.82900012
-0.10500667 -0.043423813 0.82900006
-0.10239048 -0.04331905 0.82700002
-0.16303429 -0.045111433 0.83100003
-0.11080001 -0.045111433 0.83100003
-0.16620001 -0.043528575 0.83100003
-0.16274899 -0.042470071 0.83242869
-0.15783429 -0.041784294 0.83174998
-0.15292954 -0.041202866 0.83200002
-0.1485517 -0.041747354 0.83157146
-0.14272097 -0.040362861 0.83100003
-0.13691716 -0.040362861 0.83100003
-0.13058573 -0.040362861 0.83100003
-0.12742001 -0.040362861 0.83100003
-0.12267144 -0.040996004 0.83100003
-0.11755008 -0.041068986 0.8315714
-0.11256032 -0.042506564 0.83166671
-0.10695307 -0.041987892 0.83185726
-0.10367715 -0.041945718 0.83100003
-0.14613202 -0.036969334 0.83300012
-0.14243025 -0.037835002 0.83200008
-0.13764334 -0.038476668 0.83300006
-0.13248669 -0.038873337 0.83300006
-0.12772667 -0.038873337 0.83300006
-0.12296668 -0.038873337 0.83300006
-0.16660286 -0.040654287 0.83700001
-0.16222858 -0.040557146 0.83500004
-0.11133334 -0.040557146 0.83500004
-0.10894763 -0.040557146 0.83500004
-0.10362858 -0.040654287 0.83700001
-0.16580415 -0.03858953 0.83833337
-0.16176572 -0.037697621 0.83775002
-0.15687121 -0.037424233 0.83611113
-0.15205261 -0.037414715 0.83588886
-0.14870954 -0.037376195 0.83500004
-0.14155239 -0.035785716 0.83500004
-0.13738915 -0.036456194 0.83579999
-0.13296382 -0.036623813 0.83599997
-0.12775308 -0.036516331 0.8361429
-0.12201548 -0.037021905 0.83599997
-0.11708668 -0.037434604 0.83633333
-0.11245642 -0.037484765 0.83744448
-0.10821784 -0.037743539 0.83814293
-0.15707742 -0.033194155 0.83842868
-0.15249747 -0.033532701 0.83833337
-0.14740428 -0.032910477 0.83774996
-0.14287758 -0.032724973 0.83811122
-0.13756424 -0.032593336 0.8384546
-0.13213031 -0.032912578 0.83880007
-0.12694763 -0.032733653 0.83833343
-0.12241715 -0.03295048 0.83875006
-0.11746001 -0.033719812 0.83900005
-0.11266571 -0.034359049 0.83900011
-0.16659811 -0.03684381 0.84100002
-0.16419525 -0.036042858 0.84100002
-0.10652667 -0.037644763 0.84100002
-0.16619144 -0.034522861 0.84300005
-0.16253906 -0.033068571 0.84175003
