# .PCD v0.7 - Point Cloud Data file format
VERSION 0.7
FIELDS x y z rgb
SIZE 4 4 4 4
TYPE F F F F
COUNT 1 1 1 1
WIDTH 795
HEIGHT 1
VIEWPOINT 0 0 0 1 0 0 0
POINTS 795
DATA ascii
-0.11128572 -0.25744095 0.77900004 1.5766406e-38
-0.11255366 -0.25765842 0.78266668 1.761145e-38
-0.1076181 -0.25657049 0.78200006 1.5211424e-38
-0.14560001 -0.24117334 0.78400004 2.341769e-38
-0.14224002 -0.24154668 0.78400004 2.341769e-38
-0.13716692 -0.24153455 0.78275001 2.341769e-38
-0.13315557 -0.24167113 0.7840001 2.341769e-38
-0.14681381 -0.23691528 0.78350002 2.341769e-38
-0.14229038 -0.23764701 0.78222227 2.341769e-38
-0.13712239 -0.23773098 0.78249997 2.341769e-38
-0.13229579 -0.2372364 0.78399998 2.341769e-38
-0.12917334 -0.23520002 0.78400004 2.341769e-38
-0.15008001 -0.23146668 0.78400004 2.341769e-38
-0.1470392 -0.23264195 0.78257149 2.341769e-38
-0.1424004 -0.23272422 0.78120011 2.341769e-38
-0.13763197 -0.23232999 0.78246146 2.341769e-38
-0.13282049 -0.23243764 0.78350008 2.341769e-38
-0.12842667 -0.23221336 0.78400004 2.341769e-38
-0.14718573 -0.22748286 0.78250003 2.3234019e-38
-0.14252828 -0.22753987 0.7802667 2.341769e-38
-0.13758393 -0.22683007 0.78088892 2.341769e-38
-0.13262349 -0.22724985 0.78233337 2.341769e-38
-0.12842667 -0.22773336 0.78400004 2.2958511e-38
-0.14616096 -0.22296858 0.78299999 2.2038361e-38
-0.14217296 -0.22249869 0.78240007 2.2957794e-38
-0.13740669 -0.22206065 0.78200006 2.3049629e-38
-0.13239294 -0.22239347 0.7828573 2.157739e-38
-0.1285101 -0.22343735 0.78360003 2.0559658e-38
-0.13690415 -0.2193943 0.78266668 2.1667425e-38
-0.16155717 -0.26375145 0.78900003 2.0371198e-38
-0.15698159 -0.26364002 0.78866673 1.898861e-38
-0.14101809 -0.26174763 0.78900003 1.8631746e-38
-0.13901429 -0.26074573 0.78900003 2.2861215e-38
-0.13826287 -0.25924286 0.78900003 2.1942927e-38
-0.13300286 -0.25774002 0.78900003 1.5962859e-38
-0.12742083 -0.25709593 0.78900009 1.8538559e-38
-0.12248287 -0.25774002 0.78900003 1.9273959e-38
-0.11737512 -0.25865102 0.78785723 1.8627821e-38
-0.11290043 -0.25709325 0.78855556 2.1115662e-38
-0.10836478 -0.25652164 0.78833342 1.9910243e-38
-0.11121143 -0.25473431 0.78900003 2.2773405e-38
-0.10707857 -0.25435859 0.78900003 1.4930303e-38
-0.10444858 -0.25323144 0.78900003 1.0683139e-38
-0.13600858 -0.24571715 0.78900003 2.3417689e-38
-0.13450572 -0.24571715 0.78900003 2.3417686e-38
-0.14746819 -0.24228154 0.78760004 2.277484e-38
-0.14222857 -0.24403431 0.78600001 2.341769e-38
-0.13149905 -0.2417886 0.78600001 2.341769e-38
-0.12911239 -0.2409943 0.78666675 2.2587579e-38
-0.15122144 -0.23752668 0.78800005 2.2131993e-38
-0.14896573 -0.2387943 0.78600001 2.341769e-38
-0.12763123 -0.23753177 0.78677779 2.2865239e-38
-0.15256219 -0.23296846 0.78800005 1.7440129e-38
-0.12583485 -0.2327154 0.78714293 2.2405706e-38
-0.15188634 -0.22770162 0.78733337 1.7067763e-38
-0.14896573 -0.22532001 0.78600001 2.0753026e-38
-0.12602602 -0.22753319 0.78700012 2.0563251e-38
-0.15140477 -0.22410764 0.78700006 1.4029294e-38
-0.14732739 -0.22155264 0.78725004 1.6977359e-38
-0.14372572 -0.22082859 0.78600001 2.0475358e-38
-0.12725736 -0.22226544 0.78755558 1.7248916e-38
-0.14502573 -0.21866573 0.78900003 1.6326617e-38
-0.14211294 -0.21857798 0.78714293 1.7338595e-38
-0.13739875 -0.21795665 0.78644454 1.7522626e-38
-0.13303258 -0.21912137 0.78740007 1.7610512e-38
-0.12983239 -0.21988954 0.78800005 1.7434738e-38
-0.1502924 -0.26508859 0.79300004 1.7518899e-38
-0.14802667 -0.26508859 0.79300004 1.6774496e-38
-0.16706328 -0.26218793 0.79271436 1.466416e-38
-0.16269182 -0.26220688 0.79159999 2.0566471e-38
-0.1577559 -0.26191992 0.79255563 2.0105867e-38
-0.15089659 -0.26176557 0.79300004 1.6700758e-38
-0.14697295 -0.26210424 0.79220003 1.779771e-38
-0.14328401 -0.26291335 0.79100001 1.6777779e-38
-0.16698988 -0.25806281 0.79209095 1.1439476e-38
-0.16205621 -0.25868541 0.79266667 2.1670658e-38
-0.1586 -0.25904667 0.79300004 2.2129835e-38
-0.15104763 -0.25904667 0.79300004 1.633233e-38
-0.14727144 -0.2575362 0.7930001 1.9178525e-38
-0.14244065 -0.25774798 0.79133338 1.8168342e-38
-0.1374801 -0.25735697 0.79118186 2.0378859e-38
-0.13273734 -0.25673601 0.79099995 1.8073638e-38
-0.12731335 -0.25538 0.79100007 1.7338957e-38
-0.12279334 -0.25613338 0.79100001 1.8356678e-38
-0.11784287 -0.25602576 0.79100001 2.1852529e-38
-0.11375334 -0.25538 0.79100001 2.3048549e-38
-0.14198478 -0.25451526 0.79300004 1.7906125e-38
-0.13745335 -0.25451526 0.79300004 2.0017621e-38
-0.13246001 -0.25397718 0.79250002 1.9737807e-38
-0.12732571 -0.25295287 0.79224998 1.8264492e-38
-0.12246989 -0.2526924 0.79245466 1.9276833e-38
-0.11715659 -0.25270763 0.79159993 2.0382092e-38
-0.11234127 -0.25257811 0.79166663 2.0475005e-38
-0.107915 -0.25217834 0.79099995 1.6781404e-38
-0.10409144 -0.25193048 0.792 1.1147011e-38
-0.14265001 -0.24793811 0.79250002 2.0472134e-38
-0.13820858 -0.24771813 0.79300004 2.1026018e-38
-0.13350859 -0.24740669 0.79200006 1.8991278e-38
-0.11555143 -0.24998383 0.79300004 8.6924295e-39
-0.11202699 -0.24897686 0.7930001 1.1630448e-38
-0.10796878 -0.24840331 0.79277784 1.0889636e-38
-0.10413525 -0.24826321 0.79233336 9.4054144e-39
-0.1525581 -0.24167621 0.79300004 1.9560599e-38
-0.14840668 -0.24408001 0.79100001 2.176465e-38
-0.12731335 -0.24182002 0.79100001 1.8433452e-38
-0.1563343 -0.23714477 0.79300004 1.3015155e-38
-0.1541543 -0.23782763 0.79149997 1.449063e-38
-0.12580667 -0.23880668 0.79100001 1.8445649e-38
-0.12430001 -0.23579335 0.79100001 1.899559e-38
-0.1563343 -0.23261334 0.79300004 1.2460912e-38
-0.15443334 -0.23127335 0.79100001 1.1090561e-38
-0.12285849 -0.23258784 0.79240006 1.549974e-38
-0.11675983 -0.23125391 0.79300004 1.3016601e-38
-0.11404096 -0.23034763 0.79300004 1.3755233e-38
-0.1563343 -0.22808191 0.79300004 1.1728389e-38
-0.15443334 -0.22600001 0.79100001 1.1265983e-38
-0.12400605 -0.22763717 0.79233336 1.8168352e-38
-0.11655843 -0.22707495 0.7930001 1.292405e-38
-0.11404096 -0.22732668 0.7930001 1.3570844e-38
-0.15195106 -0.22287105 0.79220003 1.1636908e-38
-0.14941111 -0.22223334 0.79100007 1.4122203e-38
-0.12641494 -0.22141495 0.79166669 1.4028943e-38
-0.12461429 -0.22279525 0.7930001 1.1904168e-38
-0.11706192 -0.22279525 0.7930001 1.292405e-38
-0.11404096 -0.22279525 0.7930001 1.3202067e-38
-0.1465162 -0.21901906 0.79300004 1.3937462e-38
-0.14262003 -0.21757685 0.79233336 1.4305517e-38
-0.13774475 -0.21623906 0.79250002 1.4761469e-38
-0.13245164 -0.2176861 0.79200006 1.5223875e-38
-0.12813875 -0.21876733 0.7930001 1.2272586e-38
-0.12046048 -0.21864145 0.79300004 1.2921896e-38
-0.11689409 -0.21809599 0.7930001 1.3107002e-38
-0.11353748 -0.21927081 0.7930001 1.2924406e-38
-0.15218572 -0.26575717 0.79500002 1.8152773e-38
-0.15521429 -0.2627286 0.79500002 1.6697875e-38
-0.15341811 -0.26327336 0.79550004 1.6134281e-38
-0.16255622 -0.25655976 0.79600006 1.7711683e-38
-0.15716903 -0.25740203 0.7954616 1.8630033e-38
-0.15237506 -0.2570385 0.79520005 1.7153816e-38
-0.14764288 -0.25515717 0.79500002 1.596789e-38
-0.14461429 -0.25515717 0.79500002 1.6613252e-38
-0.16644001 -0.25004002 0.79800004 1.1898729e-38
-0.16203201 -0.25262403 0.79799998 1.1172711e-38
-0.1573036 -0.25229347 0.79791665 1.0712817e-38
-0.15271215 -0.25224027 0.79775 1.1448575e-38
-0.14801431 -0.25276285 0.79699999 1.0248609e-38
-0.14243662 -0.25255561 0.79590911 1.5771292e-38
-0.13734974 -0.25269198 0.79677778 1.6784717e-38
-0.13247691 -0.25225598 0.796 1.237267e-38
-0.12841715 -0.25115049 0.79550004 1.0619188e-38
-0.12265715 -0.25061432 0.79500002 1.1455032e-38
-0.11811429 -0.25061432 0.79500002 1.080357e-38
-0.1663705 -0.24689749 0.79766673 1.2083137e-38
-0.16243328 -0.24718612 0.79784614 1.3570839e-38
-0.1572983 -0.24696586 0.79788888 1.3385018e-38
-0.15281308 -0.24716875 0.79714286 1.494227e-38
-0.14801431 -0.24896765 0.79700005 1.8351307e-38
-0.14310001 -0.24910001 0.79500002 1.8906989e-38
-0.13780001 -0.24910001 0.79500002 1.9004561e-38
-0.13185272 -0.24779272 0.79566669 1.5959626e-38
-0.12730314 -0.24777485 0.79700005 1.1908824e-38
-0.12229612 -0.24763009 0.79758334 1.2368728e-38
-0.11767747 -0.24750081 0.79716671 1.2459843e-38
-0.11354546 -0.24689676 0.79557151 1.264495e-38
-0.10751429 -0.24607144 0.79500002 7.9422906e-39
-0.10372858 -0.24607144 0.79500002 9.9550625e-39
-0.16616192 -0.24203685 0.79666674 1.2736791e-38
-0.16245326 -0.24216168 0.79708338 1.3848862e-38
-0.15723942 -0.24221277 0.79662502 1.3109867e-38
-0.15294287 -0.24380001 0.79500002 1.7801731e-38
-0.12666844 -0.24304478 0.79642856 1.4210807e-38
-0.12220667 -0.24213621 0.79699999 1.2281916e-38
-0.11765239 -0.2421362 0.79699999 1.3202067e-38
-0.11238352 -0.24220495 0.79607701 1.402966e-38
-0.10789849 -0.24322478 0.79560012 7.2958773e-39
-0.10372858 -0.24455716 0.79500002 1.2357545e-38
-0.16688077 -0.23733793 0.79720002 1.2459092e-38
-0.1630145 -0.23731738 0.79611111 1.3295696e-38
-0.15900001 -0.23698573 0.79500002 1.2558497e-38
-0.12217048 -0.23752223 0.79566669 1.2924044e-38
-0.11745556 -0.23718575 0.79566669 1.3110948e-38
-0.11223137 -0.23735854 0.79625005 1.3570122e-38
-0.10854381 -0.23834097 0.79700005 1.0415767e-38
-0.16788806 -0.23247527 0.79700005 1.2641659e-38
-0.16292351 -0.23263781 0.79566669 1.3293903e-38
-0.15900001 -0.23244289 0.79500002 1.2924763e-38
-0.12089048 -0.23193811 0.79500002 1.0893258e-38
-0.11773573 -0.23320001 0.79500002 1.2831854e-38
-0.11186334 -0.23270586 0.79633331 1.2372316e-38
-0.16717185 -0.22754982 0.79528576 1.2647802e-38
-0.16292223 -0.2280924 0.79566669 1.2741095e-38
-0.15849915 -0.22718449 0.79544449 1.26489e-38
-0.12146736 -0.22790004 0.79500002 1.089649e-38
-0.11836668 -0.22840479 0.79500002 1.2647466e-38
-0.1115756 -0.22769919 0.79562503 1.2644952e-38
-0.10978572 -0.22638573 0.79500002 1.1082315e-38
-0.16742037 -0.22297189 0.7960909 1.5129878e-38
-0.16246554 -0.22283863 0.79640007 1.3107719e-38
-0.15720677 -0.22287534 0.7967273 1.2740018e-38
-0.15271983 -0.22126766 0.79619998 1.2093939e-38
-0.14915715 -0.22032858 0.79500002 1.1545077e-38
-0.12231299 -0.22280648 0.79500002 1.172229e-38
-0.111949 -0.2229245 0.79500002 1.3566534e-38
-0.10791646 -0.22211075 0.79645461 1.6328748e-38
-0.16694669 -0.21913335 0.79800004 1.8635776e-38
-0.16222636 -0.21794747 0.79783338 1.8167989e-38
-0.15732002 -0.21736002 0.79800004 1.5039488e-38
-0.1527442 -0.2173371 0.79791665 1.356582e-38
-0.1479805 -0.21684319 0.79750001 1.2002463e-38
-0.14289072 -0.2163281 0.79699999 1.2738223e-38
-0.13721715 -0.21605715 0.796 1.3747694e-38
-0.13250002 -0.21578573 0.79500002 1.2827548e-38
-0.12745239 -0.21679525 0.79500002 1.1907039e-38
-0.12311144 -0.21714859 0.79500002 1.2277254e-38
-0.11786191 -0.2162905 0.79500002 1.3014805e-38
-0.112625 -0.21711074 0.79500002 1.5963229e-38
-0.10802268 -0.2172579 0.79540008 1.6785766e-38
-0.15732001 -0.21356001 0.79800004 1.7892475e-38
-0.15238 -0.21318002 0.79800004 1.7891052e-38
-0.14733145 -0.21290858 0.79800004 1.6229043e-38
-0.14207549 -0.21273287 0.79775 1.4206503e-38
-0.13748834 -0.21268801 0.79758334 1.3655129e-38
-0.13284723 -0.2125544 0.79708338 1.3656573e-38
-0.12763913 -0.21232729 0.79680002 1.485294e-38
-0.12240456 -0.21264499 0.79676926 1.6143306e-38
-0.11755382 -0.21235338 0.79633343 1.8538561e-38
-0.11276586 -0.21240532 0.79630774 1.9826402e-38
-0.10736246 -0.21396655 0.79628581 1.613823e-38
-0.13604 -0.20900001 0.79800004 1.9920738e-38
-0.13224 -0.20900001 0.79800004 1.9732059e-38
-0.12768 -0.20900001 0.79800004 1.991859e-38
-0.12236001 -0.20900002 0.79800004 1.9734566e-38
-0.1178 -0.20900002 0.79800004 1.955018e-38
-0.11362001 -0.20786001 0.79800004 1.9548377e-38
-0.16533335 -0.25600001 0.80000001 1.3567571e-38
-0.16727684 -0.25307429 0.80200005 1.1714672e-38
-0.16380954 -0.2514286 0.80000001 1.2559219e-38
-0.1087143 -0.2365251 0.80200005 1.1714743e-38
-0.1090462 -0.23263097 0.80350006 1.4573483e-38
-0.10855849 -0.22796039 0.8016001 1.6516027e-38
-0.16990477 -0.2201905 0.80000001 1.5125896e-38
-0.17115381 -0.21689668 0.80049998 7.9350501e-39
-0.16791689 -0.21674287 0.80109102 1.6604624e-38
-0.16304764 -0.21561906 0.80000001 1.8075773e-38
-0.17032954 -0.21463048 0.80200005 9.8625067e-39
-0.16595334 -0.2141324 0.80300003 1.7889946e-38
-0.16255292 -0.21254425 0.80200005 1.6690625e-38
-0.15797207 -0.21218033 0.80044448 1.6232906e-38
-0.15288889 -0.21155557 0.80000007 1.8904815e-38
-0.14742857 -0.2114286 0.80000001 1.8537117e-38
-0.1424762 -0.21104763 0.80000001 1.724889e-38
-0.1104762 -0.21180955 0.80000001 1.7425379e-38
-0.10756286 -0.21207528 0.80100006 1.5676539e-38
-0.10464191 -0.21233907 0.80200005 1.4380776e-38
-0.16080001 -0.20904002 0.80400002 1.3930884e-38
-0.15657988 -0.20851785 0.80200011 1.4761725e-38
-0.15226498 -0.20861809 0.80180007 1.8812608e-38
-0.1473543 -0.20766668 0.80166674 1.9089204e-38
-0.142542 -0.20749672 0.80169243 1.9548383e-38
-0.1376816 -0.20741241 0.80166668 1.945691e-38
-0.13257404 -0.20721854 0.80127275 1.945619e-38
-0.12734415 -0.20664701 0.80066675 1.9457265e-38
-0.1229343 -0.2067948 0.80050004 1.954946e-38
-0.11728106 -0.2070411 0.80022234 1.9365073e-38
-0.11144619 -0.2076243 0.80150002 1.8441674e-38
-0.10787762 -0.20927288 0.80050004 1.5951689e-38
-0.14854857 -0.20444573 0.80400002 1.8906613e-38
-0.14472 -0.20444573 0.80400002 1.9641293e-38
-0.13553144 -0.20444573 0.80400002 1.9549462e-38
-0.13246858 -0.20444575 0.80400008 1.9365069e-38
-0.12811621 -0.20373145 0.80360001 1.8997724e-38
-0.12255381 -0.2036162 0.80299997 1.9364354e-38
-0.11750229 -0.20398574 0.80219996 1.9364713e-38
-0.11292857 -0.20393494 0.80299997 1.9272157e-38
-0.10873143 -0.20138288 0.80400002 1.6322256e-38
-0.10247524 -0.24205668 0.80750006 1.373462e-38
-0.09849906 -0.24086097 0.80800003 1.2629303e-38
-0.10836858 -0.23749049 0.80700004 1.2095367e-38
-0.10142324 -0.23809068 0.80800003 1.2538209e-38
-0.09849906 -0.23932192 0.80800003 1.2812624e-38
-0.10823429 -0.23335621 0.80600005 1.6883365e-38
-0.10604038 -0.22731733 0.80800003 1.6599912e-38
-0.10388572 -0.22777906 0.80800003 1.4852137e-38
-0.16777277 -0.21201925 0.80660009 1.6146127e-38
-0.16573 -0.20841096 0.80750006 1.835086e-38
-0.16236229 -0.20710285 0.80720007 1.6876797e-38
-0.15813373 -0.20669375 0.80680007 1.7616885e-38
-0.1527562 -0.20648953 0.80600011 1.8998446e-38
-0.10757667 -0.2072138 0.80683339 1.5124444e-38
-0.15678859 -0.20443906 0.80700004 1.8809733e-38
-0.15242533 -0.20400137 0.80657154 1.7157435e-38
-0.14691429 -0.20269755 0.80680007 1.70656e-38
-0.14215605 -0.20285922 0.80683339 1.7157434e-38
-0.13766772 -0.20262322 0.80672735 1.6606424e-38
-0.13262211 -0.20192914 0.80680007 1.8630029e-38
-0.12715882 -0.20168644 0.80675012 1.8077581e-38
-0.12210128 -0.20119905 0.80633342 1.9639861e-38
-0.1175435 -0.20128193 0.80666679 1.9273948e-38
-0.11236786 -0.20187929 0.80675012 1.862786e-38
-0.10756595 -0.20226502 0.80675012 1.5769445e-38
-0.12543239 -0.19930668 0.80800003 1.7437965e-38
-0.1223543 -0.1993067 0.80800003 1.9457267e-38
-0.11773714 -0.1993067 0.80800003 1.9273589e-38
-0.11260699 -0.1993067 0.80800003 1.8813686e-38
-0.10850286 -0.19930668 0.80800003 1.6138593e-38
-0.10706413 -0.24199495 0.81266677 1.6148663e-38
-0.10663302 -0.23721907 0.81133336 1.7433644e-38
-0.10383277 -0.23722175 0.81240004 1.4934959e-38
-0.10645714 -0.23220003 0.81000006 1.6599911e-38
-0.10414287 -0.23142859 0.81000006 1.5215882e-38
-0.171047 -0.21129207 0.81266677 1.236147e-38
-0.17169373 -0.20699202 0.81280005 1.1988688e-38
-0.16807812 -0.2069222 0.81114286 1.8078293e-38
-0.1728781 -0.20156193 0.81400001 1.2539634e-38
-0.16686636 -0.20354509 0.81366676 1.9090647e-38
-0.16217449 -0.20337562 0.81320012 1.9273236e-38
-0.15748858 -0.20239602 0.81300002 1.7064164e-38
-0.1523993 -0.2014593 0.81125003 1.5041643e-38
-0.14906953 -0.20081811 0.81100005 1.4947296e-38
-0.1523343 -0.19884859 0.81400001 1.5960712e-38
-0.14760524 -0.19867334 0.8125 1.6695396e-38
-0.14285527 -0.1979486 0.812154 1.5777759e-38
-0.13736954 -0.19826071 0.81228584 1.5869952e-38
-0.13229398 -0.19805145 0.81233346 1.7801366e-38
-0.12765525 -0.1976272 0.81145459 1.5224948e-38
-0.12261925 -0.19699565 0.8118 1.9366151e-38
-0.11767578 -0.19698329 0.81111109 1.9365429e-38
-0.11282229 -0.19782498 0.81139994 1.8994486e-38
-0.10710239 -0.19818574 0.81050009 1.539996e-38
-0.12636381 -0.19458477 0.81400001 1.6050386e-38
-0.12248763 -0.19458477 0.81400001 1.9366151e-38
-0.11706096 -0.19458477 0.81400001 1.9457626e-38
-0.10764001 -0.25038001 0.81900007 1.1535743e-38
-0.10691106 -0.24759069 0.81700009 1.4491328e-38
-0.10866667 -0.24450001 0.81500006 1.0445562e-38
-0.10478572 -0.24139525 0.81500006 1.6132795e-38
-0.10400952 -0.23518573 0.81500006 1.4840606e-38
-0.10323334 -0.23363335 0.81500006 1.4379613e-38
-0.17309049 -0.20569049 0.81500006 1.253891e-38
-0.16998573 -0.20569049 0.81500006 1.5770926e-38
-0.1719262 -0.20297383 0.81500006 1.2357463e-38
-0.16798982 -0.20192043 0.81500012 1.7430422e-38
-0.16300002 -0.20103335 0.81500006 1.9273236e-38
-0.17139018 -0.19865589 0.81800008 1.3646085e-38
-0.16747208 -0.1986289 0.81788892 1.8262326e-38
-0.16255352 -0.19793431 0.81736368 1.9641294e-38
-0.15792081 -0.1975929 0.81683344 1.7063812e-38
-0.15304977 -0.19636144 0.81575006 1.4117541e-38
-0.1482524 -0.1963762 0.81500006 1.5959988e-38
-0.14049049 -0.1963762 0.81500006 1.8354535e-38
-0.11190858 -0.19583906 0.81600004 1.8444179e-38
-0.10957715 -0.19583906 0.81600004 1.6322979e-38
-0.15522002 -0.19422001 0.81900007 1.2541983e-38
-0.15187715 -0.19393392 0.81780005 1.2186849e-38
-0.14691889 -0.19317673 0.81700015 1.3930283e-38
-0.14242017 -0.193004 0.81716675 1.2923681e-38
-0.13780715 -0.19308242 0.81750011 1.3288504e-38
-0.132865 -0.19285724 0.81730789 1.4209378e-38
-0.12796028 -0.1925395 0.81609094 1.3933146e-38
-0.12256166 -0.19207263 0.81590915 1.9274312e-38
-0.11736372 -0.19197874 0.81611115 1.9364347e-38
-0.11418002 -0.19330992 0.81780005 1.9364349e-38
-0.13104001 -0.18876001 0.81900007 1.1261671e-38
-0.12708828 -0.18868288 0.8186667 1.4851848e-38
-0.122772 -0.18891601 0.81900007 1.9273236e-38
-0.11882001 -0.18902002 0.81900012 1.9640213e-38
-0.11024858 -0.24786383 0.82100004 4.541897e-39
-0.17201906 -0.19625811 0.82100004 1.3831172e-38
-0.16810954 -0.19625811 0.82100004 1.7986095e-38
-0.16498192 -0.19625811 0.82100004 2.0009707e-38
-0.17186277 -0.19292074 0.82233334 1.4290695e-38
-0.16724096 -0.19269858 0.82249999 1.8814055e-38
-0.16227686 -0.19274352 0.82192314 1.9916799e-38
-0.15747942 -0.19234642 0.82190913 1.5399281e-38
-0.15251835 -0.19142906 0.82125002 1.1170903e-38
-0.14817098 -0.19039384 0.82100004 1.3288868e-38
-0.14308858 -0.19000289 0.82100004 1.2462699e-38
-0.13761525 -0.19000287 0.82100004 1.4763251e-38
-0.13370572 -0.19000287 0.82100004 1.5038037e-38
-0.11650382 -0.19000287 0.82100004 1.9731691e-38
-0.1128924 -0.19193619 0.82175004 1.8626774e-38
-0.17322192 -0.1888981 0.82300001 1.4843827e-38
-0.16068096 -0.1888981 0.82300001 2.0469972e-38
-0.15754573 -0.18811429 0.82300007 1.6319788e-38
-0.15260096 -0.18746905 0.82275003 1.2832897e-38
-0.14740668 -0.18698001 0.82209098 1.2920445e-38
-0.1423493 -0.18693167 0.82125008 1.3656912e-38
-0.13749292 -0.18714051 0.82154554 1.3932432e-38
-0.13241185 -0.18649295 0.82128584 1.3564373e-38
-0.1274505 -0.18609336 0.82100004 1.5867797e-38
-0.12262055 -0.18655744 0.82157153 1.9457988e-38
-0.11742802 -0.18678857 0.82200003 1.9640937e-38
-0.11328286 -0.18817924 0.82260001 1.8995188e-38
-0.15127525 -0.18419525 0.82300001 1.4763615e-38
-0.1473562 -0.18419525 0.82300001 1.3657286e-38
-0.14218307 -0.18356822 0.82300007 1.4950151e-38
-0.13716668 -0.18419525 0.82300007 1.3100533e-38
-0.13277735 -0.18356819 0.82300007 1.2004251e-38
-0.12721382 -0.18357953 0.82200003 1.1910624e-38
-0.12295716 -0.18404606 0.82233334 1.8907336e-38
-0.11835524 -0.18419525 0.82300007 1.9826044e-38
-0.11105429 -0.19611716 0.82700002 1.6409792e-38
-0.17128572 -0.19092858 0.82500005 1.4201748e-38
-0.11105429 -0.19296668 0.82700002 1.6140031e-38
-0.1716451 -0.18820415 0.82800007 1.3557097e-38
-0.16751994 -0.187269 0.82699996 1.9181405e-38
-0.16295831 -0.18736041 0.82660007 2.0009358e-38
-0.15812001 -0.18565241 0.82600009 1.724102e-38
-0.15478572 -0.1862143 0.82500005 1.191778e-38
-0.11179525 -0.18711494 0.82666677 1.7428591e-38
-0.1089543 -0.18632764 0.82900006 1.595599e-38
-0.17132668 -0.18395907 0.82900006 1.291464e-38
-0.16027334 -0.18395907 0.82900006 1.9459071e-38
-0.15699017 -0.18381113 0.82833338 1.3283124e-38
-0.15255429 -0.18326049 0.82675004 1.1358889e-38
-0.14736433 -0.18203524 0.82744449 1.099082e-38
-0.14228532 -0.18142493 0.8267144 1.1810871e-38
-0.13755088 -0.1818238 0.82720011 1.4304783e-38
-0.13242224 -0.18145621 0.82600009 1.1721921e-38
-0.12784688 -0.1815362 0.82660007 1.393099e-38
-0.12230667 -0.18196438 0.8264001 1.9826403e-38
-0.11708458 -0.18207714 0.82620001 1.973313e-38
-0.11272182 -0.18243043 0.82663631 1.8811525e-38
-0.10781685 -0.1817921 0.8263334 1.5587926e-38
-0.14685144 -0.17922191 0.82900006 1.1817328e-38
-0.14290382 -0.17882715 0.82900006 1.1442446e-38
-0.13974573 -0.17922191 0.82900006 6.3000137e-39
-0.11606001 -0.17922191 0.82900006 2.0102634e-38
-0.11369143 -0.17922191 0.82900006 1.973204e-38
-0.1089543 -0.17922191 0.82900006 1.6694261e-38
-0.11009683 -0.19722256 0.83166671 1.5489645e-38
-0.10749668 -0.19793667 0.83300006 1.4757817e-38
-0.10392667 -0.19674668 0.83300006 1.4939285e-38
-0.11027334 -0.19278002 0.83300006 1.5676546e-38
-0.11000858 -0.18915144 0.83100003 1.6141097e-38
-0.10842572 -0.18915144 0.83100003 1.5770534e-38
-0.16691601 -0.1840345 0.83220005 1.9827844e-38
-0.16263829 -0.18354116 0.83140004 1.9918243e-38
-0.15743858 -0.18159762 0.83174998 1.0986151e-38
-0.15321012 -0.18077697 0.8318001 8.3157465e-39
-0.15628667 -0.17850001 0.83300006 4.8123546e-39
-0.15219875 -0.17782764 0.83233345 1.2365799e-38
-0.14801481 -0.17682418 0.83190918 1.2089603e-38
-0.14209279 -0.17675801 0.8314445 9.8801715e-39
-0.137027 -0.17821305 0.83166677 1.6421298e-38
-0.13207355 -0.17783944 0.83140004 7.5760221e-39
-0.12754747 -0.17745607 0.83183348 1.4950522e-38
-0.12297639 -0.17772722 0.83209103 2.0009717e-38
-0.11793576 -0.17800373 0.83233339 1.8257285e-38
-0.11233278 -0.17855944 0.8318001 1.7245293e-38
-0.10652629 -0.17870459 0.83100003 1.5403895e-38
-0.14324859 -0.17490573 0.83100003 1.0068157e-38
-0.1105381 -0.20119525 0.83500004 1.5399953e-38
-0.10729545 -0.20103946 0.83700001 1.4758164e-38
-0.10442572 -0.20088002 0.83700001 1.4569761e-38
-0.10770065 -0.19625273 0.83766669 1.50344e-38
-0.1105381 -0.19324286 0.83500004 1.5669013e-38
-0.108252 -0.1924303 0.83700001 1.521773e-38
-0.17097621 -0.18529049 0.83500004 1.623335e-38
-0.17129335 -0.18247241 0.83850002 1.6230106e-38
-0.16768369 -0.18202738 0.83671433 1.9367233e-38
-0.16278382 -0.18155983 0.83540004 1.9642017e-38
-0.15984286 -0.18051906 0.83500004 2.0004329e-38
-0.17059669 -0.17858715 0.83900005 1.6510602e-38
-0.16695167 -0.1783338 0.83875012 1.9457989e-38
-0.16216525 -0.17772192 0.83775002 2.0009005e-38
-0.15735263 -0.17724454 0.8355 1.2733173e-38
-0.15348096 -0.17654288 0.83500004 1.8715725e-38
-0.13757619 -0.17574763 0.83500004 1.2742852e-38
-0.1336 -0.17574763 0.83500004 1.0521547e-38
-0.1208762 -0.17574763 0.83500004 1.9178143e-38
-0.11690001 -0.17574763 0.83500004 1.6767e-38
-0.11286191 -0.17746952 0.83750004 1.4755293e-38
-0.16207907 -0.1748524 0.83833337 2.0009358e-38
-0.15728794 -0.17405336 0.83833337 1.8442413e-38
-0.15202709 -0.17343388 0.83700007 1.8812255e-38
-0.14747143 -0.17297748 0.83700007 1.7332446e-38
-0.14280193 -0.17231718 0.83766669 1.5866345e-38
-0.13769874 -0.17255431 0.83816671 1.5126276e-38
-0.13262919 -0.17236529 0.83754551 1.5493252e-38
-0.12754206 -0.17218044 0.83699995 1.5405374e-38
-0.1222294 -0.17239569 0.83715391 1.9548015e-38
-0.11765875 -0.17298445 0.83788902 1.6319407e-38
-0.13104382 -0.16859905 0.83900005 2.028737e-38
-0.12704858 -0.16859905 0.83900011 2.0009357e-38
-0.1222543 -0.16859905 0.83900011 2.0193746e-38
-0.17190668 -0.1767143 0.84150004 1.5305956e-38
-0.16739906 -0.17580906 0.84100002 1.9549104e-38
-0.11277354 -0.17630039 0.84219998 1.4386163e-38
-0.10999144 -0.17743143 0.84300005 1.7151655e-38
-0.17160763 -0.17321049 0.84200001 1.4939331e-38
-0.16779715 -0.17341715 0.84300005 1.9643811e-38
-0.16265716 -0.17307399 0.84133339 2.0285938e-38
-0.15797526 -0.17160669 0.84200001 2.0562525e-38
-0.15337583 -0.17132477 0.84140009 2.0101911e-38
-0.14817619 -0.17060289 0.84100002 2.0102628e-38
-0.13776381 -0.17060287 0.84100002 1.9368656e-38
-0.11676413 -0.17127208 0.8416667 1.5497184e-38
-0.11320286 -0.17261429 0.84299999 1.5401741e-38
-0.15206115 -0.16843943 0.84300005 1.9180675e-38
-0.14734063 -0.16766319 0.84233332 1.9365785e-38
-0.14229123 -0.16779697 0.84219998 1.9825687e-38
-0.13710763 -0.16757472 0.8418889 2.0194101e-38
-0.13252069 -0.16711037 0.84185719 2.0102267e-38
-0.12740254 -0.16666383 0.84133339 2.0010431e-38
-0.12269144 -0.16679525 0.84200001 2.0103344e-38
-0.11835049 -0.16890097 0.84250009 2.0285212e-38
-0.14371143 -0.16458572 0.84300005 1.945655e-38
-0.1276543 -0.16458574 0.84300011 2.0010433e-38
-0.11064382 -0.18009906 0.84800005 1.6323698e-38
-0.11025239 -0.17624287 0.84500003 1.7977091e-38
-0.10710877 -0.17717165 0.84560013 1.4665264e-38
-0.17121524 -0.17121525 0.84800005 1.5776643e-38
-0.16768762 -0.17091095 0.84650004 2.0653643e-38
-0.16336668 -0.1714143 0.84500003 2.0284862e-38
-0.1102524 -0.17302382 0.84500003 1.7057299e-38
-0.1074796 -0.17291419 0.84671432 1.4850022e-38
-0.16717717 -0.16879241 0.84800005 2.0470332e-38
-0.16204374 -0.16849154 0.84650004 2.0101548e-38
-0.15741879 -0.16756676 0.84590006 1.991752e-38
-0.15290478 -0.1673905 0.84500003 1.9179962e-38
-0.11677277 -0.16718571 0.84560013 1.9457253e-38
-0.1119612 -0.16753691 0.84575009 1.6692123e-38
-0.10743182 -0.16782953 0.84560013 1.521735e-38
-0.1562251 -0.16428986 0.84700006 2.0010073e-38
-0.15217786 -0.16415715 0.84671432 1.9826396e-38
-0.14744572 -0.1635581 0.84600008 1.9363631e-38
-0.14237325 -0.16284792 0.84650004 1.9455465e-38
-0.13773644 -0.16270405 0.84575009 1.9733847e-38
-0.13268228 -0.16267541 0.84592324 2.0010075e-38
-0.12737668 -0.16284907 0.84650004 1.9734569e-38
-0.12253954 -0.16284765 0.8465001 1.9365786e-38
-0.11767183 -0.16285852 0.84725016 1.964093e-38
-0.11387429 -0.16313905 0.84800005 1.8903731e-38
-0.17425239 -0.17182001 0.85100007 1.4379974e-38
-0.17628668 -0.1689743 0.85300004 1.4937102e-38
-0.17274457 -0.16787049 0.85244453 1.4848926e-38
-0.1674235 -0.16634032 0.85200006 2.0379573e-38
-0.16379367 -0.16649207 0.85000008 2.019446e-38
-0.16202632 -0.16397603 0.85320008 2.0193742e-38
-0.15774953 -0.16234764 0.85233343 2.0377775e-38
-0.15332381 -0.16174288 0.85000002 2.0194461e-38
-0.14814287 -0.16109525 0.85000008 2.0008276e-38
-0.14490478 -0.16109525 0.85000002 1.9824244e-38
-0.13033335 -0.16109525 0.85000002 1.9180686e-38
-0.12709525 -0.16109525 0.85000008 1.9272163e-38
-0.11238857 -0.16220097 0.85049999 1.6782882e-38
-0.10847619 -0.1627143 0.85000002 1.5307745e-38
-0.15616001 -0.15860002 0.85400003 2.0102271e-38
-0.15211494 -0.15879472 0.85311121 2.0009714e-38
-0.14709841 -0.15847494 0.85333341 2.0101192e-38
-0.14203662 -0.15826774 0.85222226 1.9641286e-38
-0.13721192 -0.1575062 0.85250014 1.9179592e-38
-0.13241811 -0.15760002 0.8530001 1.8811536e-38
-0.12754381 -0.15760002 0.8530001 1.8904451e-38
-0.12266953 -0.15760002 0.8530001 1.8903729e-38
-0.11793058 -0.1578045 0.85290921 1.8350561e-38
-0.17609143 -0.16630858 0.85600007 1.4475762e-38
-0.17120001 -0.16549334 0.85600007 1.8718993e-38
-0.17554921 -0.16248383 0.85733336 1.3831098e-38
-0.1722381 -0.16244169 0.8571111 1.6323692e-38
-0.1672978 -0.16239959 0.85688889 2.0286301e-38
-0.1622324 -0.16141716 0.85600007 2.0378852e-38
-0.15897144 -0.16060191 0.85600007 2.0287015e-38
-0.11168762 -0.16060191 0.85600013 1.5585041e-38
-0.10842668 -0.16060191 0.85600007 1.503511e-38
-0.17568572 -0.15934287 0.85800004 1.3738903e-38
-0.17405143 -0.15934287 0.85800004 1.3648916e-38
-0.16669716 -0.15852574 0.85800004 2.0654e-38
-0.16232437 -0.15812248 0.8577143 2.0194462e-38
-0.15767948 -0.15697905 0.85657144 2.0103706e-38
-0.15285715 -0.15611811 0.85600007 2.0009714e-38
-0.14755809 -0.15571049 0.85600013 2.0285581e-38
-0.14266668 -0.15571049 0.85600013 2.0101551e-38
-0.11657906 -0.15571049 0.85600007 1.7707344e-38
-0.11338429 -0.15784001 0.85649997 1.567545e-38
-0.10842668 -0.15897144 0.85600007 1.4756724e-38
-0.15661907 -0.15389526 0.85800004 2.0286657e-38
-0.15240841 -0.1537143 0.85760003 1.9916801e-38
-0.14747293 -0.15306751 0.85685718 2.010227e-38
-0.14277779 -0.152567 0.85666668 2.0009357e-38
-0.13788255 -0.152567 0.85666668 1.9273231e-38
-0.13320406 -0.15278596 0.85675001 1.8718628e-38
-0.12778515 -0.15242742 0.85680002 1.6140398e-38
-0.12265207 -0.152567 0.85666668 1.4942228e-38
-0.11750286 -0.15259086 0.85680002 1.475891e-38
-0.11349335 -0.15432002 0.85733336 1.4014846e-38
-0.11848572 -0.14953715 0.85800004 1.1807943e-38
-0.17609525 -0.1580762 0.86000001 1.4292804e-38
-0.17276502 -0.15800786 0.86075008 1.6413003e-38
-0.16789429 -0.1566186 0.86100006 2.0196262e-38
-0.16380954 -0.15643811 0.86000001 2.0471758e-38
-0.11138172 -0.15698478 0.86120003 1.263586e-38
-0.10847925 -0.15705752 0.86160004 1.4389748e-38
-0.1658324 -0.15351811 0.86200005 2.0749064e-38
-0.16203539 -0.1531298 0.86114293 2.0471401e-38
-0.15798509 -0.15251842 0.861 2.0011868e-38
-0.15284491 -0.15120518 0.86085725 1.973385e-38
-0.14906669 -0.15152381 0.86000001 2.0009718e-38
-0.13186668 -0.15152381 0.86000001 1.7429335e-38
-0.11302135 -0.15239124 0.86120003 1.3835109e-38
-0.10918667 -0.15351811 0.86200005 1.6875399e-38
-0.15105525 -0.1485924 0.86200005 2.0101908e-38
-0.14683621 -0.14874986 0.86133337 2.0102987e-38
-0.14243311 -0.14899074 0.86075008 1.9365431e-38
-0.13677454 -0.14866692 0.86125004 1.7521536e-38
-0.13207112 -0.1484762 0.86133337 1.5216285e-38
-0.12734213 -0.14866692 0.86125004 1.3004657e-38
-0.12218001 -0.14923908 0.861 1.1248277e-38
-0.11726096 -0.14923906 0.861 1.180758e-38
-0.17547144 -0.15570001 0.86500007 1.4382891e-38
-0.17217621 -0.15570001 0.86500013 1.7338564e-38
-0.17248668 -0.15267673 0.86655563 1.6693551e-38
-0.16757974 -0.15203363 0.86557162 2.0930586e-38
-0.16229048 -0.15075716 0.86500013 2.0194464e-38
-0.15817145 -0.15075715 0.86500007 1.9826396e-38
-0.1123127 -0.15185557 0.86500013 1.4664878e-38
-0.10956667 -0.15240477 0.86500007 1.7430362e-38
-0.17190039 -0.14840591 0.86860001 1.6603526e-38
-0.16807742 -0.148469 0.8681429 2.0840185e-38
-0.16266572 -0.14780031 0.86700004 2.0470328e-38
-0.15771145 -0.14780031 0.86700004 2.0009708e-38
-0.15269104 -0.14703934 0.86528587 2.0101908e-38
-0.14779143 -0.14647335 0.86500007 2.0378854e-38
-0.14218955 -0.14647335 0.86500007 1.8810109e-38
-0.13798811 -0.1462262 0.86500007 1.6783594e-38
-0.13263336 -0.1458143 0.86500013 1.3554607e-38
-0.12727857 -0.1462262 0.86500007 1.2633361e-38
-0.12288953 -0.14680669 0.86600012 1.1059565e-38
-0.11738786 -0.14730428 0.86650008 1.2085218e-38
-0.11312287 -0.1494543 0.86700004 1.4571602e-38
-0.15256858 -0.14397125 0.86780006 2.0194101e-38
-0.14780287 -0.14367239 0.86700004 2.0193745e-38
-0.14301334 -0.14383906 0.86800003 1.9087762e-38
-0.13794857 -0.1437286 0.86733335 1.5862717e-38
-0.13278668 -0.14350764 0.86600012 1.3187613e-38
-0.1278381 -0.14350764 0.86600012 1.2172025e-38
-0.1227207 -0.14374465 0.8681429 1.0697228e-38
-0.11903906 -0.14466667 0.86800003 1.2364311e-38
-0.10808572 -0.15547715 0.87300003 1.5032596e-38
-0.17502953 -0.15014382 0.87100005 1.4846338e-38
-0.11224286 -0.15215144 0.87300003 1.6147899e-38
-0.10717238 -0.15203527 0.87233341 1.4296818e-38
-0.17523049 -0.14699239 0.87200004 1.4567962e-38
-0.17242192 -0.14583144 0.87250006 1.6692116e-38
-0.16729581 -0.14603029 0.87220001 2.0563244e-38
-0.16175717 -0.14516668 0.87100005 2.0378494e-38
-0.15760952 -0.14516668 0.87100005 2.0101908e-38
-0.11594509 -0.14583081 0.87166679 1.3737904e-38
-0.11390572 -0.14882572 0.87300003 1.4390452e-38
-0.10559144 -0.14882572 0.87300003 1.3096496e-38
-0.17543145 -0.14383715 0.87300003 1.429139e-38
-0.17252144 -0.14342144 0.87300003 1.63219e-38
-0.16711716 -0.14383715 0.87300003 2.0655436e-38
-0.16171287 -0.14342144 0.87300003 2.0838389e-38
-0.15679811 -0.14225906 0.87225008 2.0010067e-38
-0.15197715 -0.14118001 0.8720001 2.01941e-38
-0.14688256 -0.14107271 0.87133348 2.0195179e-38
-0.1419035 -0.14107271 0.87133348 1.8349837e-38
-0.13687146 -0.14101905 0.87100017 1.4017004e-38
-0.13194413 -0.14107271 0.87133348 1.3556377e-38
-0.12706287 -0.14118001 0.8720001 1.1711734e-38
-0.12212604 -0.14123431 0.87233341 1.0051871e-38
-0.11774033 -0.14267367 0.87266678 1.4105624e-38
-0.1460543 -0.13829431 0.87300003 2.0746912e-38
-0.14184172 -0.13818344 0.87300009 1.9642718e-38
-0.13774002 -0.13774 0.87300009 1.6137499e-38
-0.13219714 -0.13884859 0.87300003 1.4478692e-38
-0.12679288 -0.13843288 0.87300003 1.3644237e-38
-0.12305143 -0.13884859 0.87300003 1.2819532e-38
-0.11121334 -0.15302287 0.87800002 1.7888103e-38
-0.11416668 -0.14666668 0.87500006 1.6410484e-38
-0.17240211 -0.14169316 0.87620002 1.7706282e-38
-0.16788384 -0.14198953 0.87700003 2.0932022e-38
-0.16283335 -0.14150003 0.87500012 2.0655427e-38
-0.15916668 -0.14083335 0.87500006 2.0285935e-38
-0.11652128 -0.14154986 0.87600005 1.7436145e-38
-0.11442763 -0.14282382 0.87700003 1.7524018e-38
-0.17613477 -0.13773859 0.87650001 1.272657e-38
-0.17476381 -0.13964382 0.87800002 1.2638751e-38
-0.1625012 -0.13910644 0.87725002 2.0192663e-38
-0.15762848 -0.13800156 0.87687516 1.9917877e-38
-0.15276144 -0.13856906 0.87650007 2.0378491e-38
-0.14822605 -0.13710064 0.87600011 2.0470329e-38
-0.14291668 -0.13625 0.87500006 2.037921e-38
-0.1363889 -0.1363889 0.87500012 1.9362861e-38
-0.13250001 -0.13666667 0.87500012 1.8256175e-38
-0.12800935 -0.1366863 0.87620014 1.7516824e-38
-0.12238111 -0.13715689 0.87585723 1.8259059e-38
-0.11772192 -0.13776128 0.87666672 1.7707331e-38
-0.17583334 -0.13333334 0.87500006 1.1711694e-38
-0.14716953 -0.13462667 0.87800002 2.0286299e-38
-0.14226922 -0.13335842 0.87700003 2.0010794e-38
-0.13776129 -0.13275048 0.87666672 1.973349e-38
-0.13287763 -0.13371383 0.87750006 1.6326949e-38
-0.12793715 -0.13462667 0.87800002 1.6239071e-38
-0.12292001 -0.13462667 0.87800002 1.6329461e-38
-0.11901778 -0.13406923 0.87800002 1.2359663e-38
-0.11211112 -0.15069145 0.88066673 1.7340326e-38
-0.10895239 -0.15001906 0.88000005 1.4108831e-38
-0.11144572 -0.1471262 0.88150001 1.5768344e-38
-0.10836001 -0.14700001 0.88200009 1.4384693e-38
-0.11183544 -0.14222972 0.88160002 1.3927348e-38
-0.10848287 -0.14296097 0.88300002 1.5128722e-38
-0.17556003 -0.13692001 0.88200009 1.1620651e-38
-0.17220001 -0.13775715 0.88200009 1.8167608e-38
-0.16721006 -0.13744348 0.88145459 2.0652921e-38
-0.16249715 -0.13667087 0.88040012 2.0193744e-38
-0.15504763 -0.13660954 0.88000005 2.0377775e-38
-0.15253335 -0.13660954 0.88000005 2.0470329e-38
-0.11298572 -0.13749772 0.88140005 1.3648946e-38
-0.17556001 -0.13272001 0.88200003 1.0972032e-38
-0.17259049 -0.13386287 0.88400006 1.7152385e-38
-0.16697779 -0.1333016 0.88400006 2.1576667e-38
-0.16195644 -0.13338548 0.88225007 2.1023137e-38
-0.15708001 -0.13355747 0.88199997 2.0838028e-38
-0.1520116 -0.13269192 0.88183331 1.9825684e-38
-0.14773981 -0.13197525 0.8804 1.9640936e-38
-0.14443177 -0.1321397 0.88000005 1.9917521e-38
-0.13237031 -0.13102858 0.88080007 1.5312089e-38
-0.12756304 -0.13175927 0.88120002 1.411574e-38
-0.12250048 -0.13172905 0.88100004 1.3750524e-38
-0.11744615 -0.13218477 0.88155556 1.1429774e-38
-0.11265981 -0.13233332 0.88280004 1.2268189e-38
-0.10860572 -0.13133715 0.88400006 8.1223085e-39
-0.14688742 -0.12746222 0.8824445 1.7155649e-38
-0.14237905 -0.12767714 0.88200009 1.7524063e-38
-0.13759087 -0.12818135 0.88200009 1.8444552e-38
-0.13309842 -0.12889525 0.88266677 1.5775948e-38
-0.12754858 -0.12839049 0.88400006 1.5780277e-38
-0.12193906 -0.12824477 0.88300002 1.4395559e-38
-0.11786668 -0.12881143 0.88400006 1.5317072e-38
-0.10922001 -0.14139335 0.88900006 1.4202851e-38
-0.17280169 -0.13203095 0.88725007 1.5407861e-38
-0.16818345 -0.13234876 0.88740009 2.0381733e-38
-0.16303906 -0.1309381 0.88700002 2.1484829e-38
-0.15797049 -0.1309381 0.88700002 2.1299001e-38
-0.11573239 -0.1309381 0.88700002 1.5211214e-38
-0.17526001 -0.12954001 0.88900006 1.2541128e-38
-0.17230083 -0.12853131 0.88871437 1.1256971e-38
-0.16679335 -0.12869334 0.88900006 9.4228129e-39
-0.16150168 -0.12805834 0.889 1.2646374e-38
-0.15736191 -0.12774953 0.88833344 1.4393762e-38
-0.15301768 -0.12765409 0.8876667 1.4948008e-38
-0.14952287 -0.12586953 0.88700002 1.2273308e-38
-0.13685143 -0.12586953 0.88700002 1.4033591e-38
-0.13228972 -0.12654535 0.88700002 1.2927993e-38
-0.12722115 -0.12654535 0.88700002 1.5042363e-38
-0.12249049 -0.12654534 0.88700002 1.4211895e-38
-0.1173313 -0.12723906 0.88814288 1.5222036e-38
-0.11235335 -0.12924859 0.88700002 1.0053763e-38
-0.15155335 -0.12446001 0.88900006 8.3064335e-39
-0.1477621 -0.12372668 0.88860005 7.2101472e-39
-0.1430324 -0.12356668 0.88866675 8.0362996e-39
-0.13790256 -0.12352001 0.88833344 8.959311e-39
-0.13292669 -0.12361334 0.88900006 1.1166974e-38
-0.12784669 -0.12361334 0.88900006 1.154257e-38
-0.12276667 -0.12446001 0.88900012 1.2558859e-38
-0.11768668 -0.12446001 0.88900012 1.1444948e-38
-0.10776858 -0.14171144 0.89100003 1.2990681e-38
-0.17565429 -0.12643716 0.89100003 1.2449285e-38
-0.17226002 -0.12643716 0.89100003 1.0792778e-38
-0.16716859 -0.12643716 0.89100003 8.9575244e-39
-0.1637743 -0.12643716 0.89100003 9.9662799e-39
-0.11370858 -0.12728573 0.89100003 8.6754948e-39
-0.17215143 -0.12422686 0.89220011 1.1715079e-38
-0.16745001 -0.12409858 0.8925001 1.2092144e-38
-0.16235003 -0.12409857 0.8925001 1.1813408e-38
-0.15696982 -0.12370451 0.89228582 1.1169112e-38
-0.15235594 -0.12273308 0.89228582 1.1444976e-38
-0.14734116 -0.12082801 0.89220011 9.7847613e-39
-0.14225644 -0.12102215 0.89175004 9.4177809e-39
-0.13746858 -0.12134572 0.89100003 9.5085374e-39
-0.13322574 -0.12134572 0.89100003 8.8639078e-39
-0.1281343 -0.12134572 0.89100003 8.9582517e-39
-0.12235714 -0.12150744 0.89219999 1.0066023e-38
-0.11776972 -0.12252744 0.89220011 9.5074275e-39
-0.11380358 -0.12399501 0.89175004 7.9393745e-39
-0.14510572 -0.11964858 0.89100003 9.5092632e-39
-0.14086287 -0.11964858 0.89100003 9.5099821e-39
-0.13723545 -0.11886858 0.89280003 9.4174291e-39
-0.13259858 -0.11899858 0.8925001 9.3252349e-39
-0.1271268 -0.11841036 0.89287508 9.6936461e-39
-0.12292644 -0.11824786 0.89325005 9.9695225e-39
-0.10861524 -0.14111429 0.89800006 1.180149e-38
-0.10853462 -0.13759241 0.89733338 9.5895184e-39
-0.16791467 -0.12145144 0.89680004 1.1721577e-38
-0.16310732 -0.12126287 0.89666671 1.2458052e-38
-0.15827924 -0.12105639 0.89639997 1.2642442e-38
-0.15274668 -0.12032001 0.89600009 1.2825035e-38
-0.11648 -0.12074667 0.89600003 8.9542706e-39
-0.11349334 -0.12202667 0.89600003 8.4907392e-39
-0.11703716 -0.11789049 0.89700007 9.3223412e-39
-0.1106943 -0.14158572 0.90100002 1.3280561e-38
-0.11163493 -0.13825431 0.90166676 1.1253696e-38
