# .PCD v0.7 - Point Cloud Data file format
VERSION 0.7
FIELDS x y z
SIZE 4 4 4
TYPE F F F
COUNT 1 1 1
WIDTH 769
HEIGHT 1
VIEWPOINT 0 0 0 1 0 0 0
POINTS 769
DATA ascii
-0.027116572 -0.041222859 0.63840002
-0.022508096 -0.042279765 0.63875008
-0.017025536 -0.042561963 0.63843751
-0.012406478 -0.04172134 0.63860005
-0.0091285724 -0.04077429 0.63900006
-0.027504472 -0.037497144 0.63738471
-0.022464719 -0.037646528 0.63755006
-0.017022323 -0.037691016 0.63831258
-0.012155893 -0.03768399 0.63818753
-0.0085133333 -0.037702389 0.63850003
-0.02789494 -0.03274399 0.63668752
-0.022475241 -0.032805718 0.63789999
-0.017024167 -0.032830957 0.63837504
-0.012152382 -0.032811433 0.63800013
-0.0082922764 -0.032969106 0.63711113
-0.031442862 -0.027588574 0.63900006
-0.02785274 -0.027852623 0.63575
-0.023027919 -0.027878394 0.63631254
-0.017446516 -0.027782857 0.63631582
-0.012136905 -0.027918095 0.63725007
-0.0080020791 -0.028091431 0.63745463
-0.027325792 -0.023119926 0.63761544
-0.023129636 -0.022842018 0.6361177
-0.017611928 -0.022857098 0.63557142
-0.012134108 -0.023059584 0.6371876
-0.008814048 -0.024009764 0.63824999
-0.021855718 -0.019427147 0.63750005
-0.017138097 -0.019411907 0.63700002
-0.013346666 -0.01941143 0.63700008
-0.057040002 -0.046613336 0.64400005
-0.028038098 -0.042057145 0.64000005
-0.021739684 -0.043682545 0.64000005
-0.031134287 -0.036628574 0.64100003
-0.029882226 -0.03842064 0.64033341
-0.032275811 -0.03251734 0.64180005
-0.036186669 -0.028826669 0.64400005
-0.033511944 -0.02721143 0.6415385
-0.020114288 -0.029866669 0.64000005
-0.031663653 -0.023083653 0.64350009
-0.028662544 -0.021750797 0.64033341
-0.026373334 -0.019013334 0.64400005
-0.02278889 -0.01811016 0.64100003
-0.017107144 -0.01771762 0.6415
-0.0067809531 -0.06596636 0.64733338
-0.0043200003 -0.066034287 0.648
-0.015428573 -0.061097145 0.648
-0.012548572 -0.062537149 0.648
-0.0076399283 -0.063257955 0.64776921
-0.002057143 -0.061508577 0.648
-0.050985716 -0.055900004 0.64500004
-0.047530159 -0.056338415 0.64533341
-0.043065481 -0.056602146 0.64599997
-0.037018482 -0.057350535 0.64566672
-0.03214154 -0.057419047 0.64615393
-0.027108653 -0.057298176 0.64691663
-0.022814501 -0.058166672 0.64744449
-0.016964763 -0.059068337 0.64774996
-0.014194286 -0.05986286 0.648
-0.052705783 -0.052616943 0.64564294
-0.047828522 -0.052824713 0.64629418
-0.042520896 -0.052919708 0.64706248
-0.037516788 -0.053386912 0.64712495
-0.032275133 -0.054065187 0.64755553
-0.02751562 -0.054661907 0.64780003
-0.056180384 -0.048066862 0.64540005
-0.053086169 -0.047867343 0.64682347
-0.048040181 -0.049049184 0.6474545
-0.042336002 -0.049741715 0.648
-0.055986669 -0.044912383 0.64600003
-0.054925717 -0.043817144 0.648
-0.031474289 -0.040114287 0.648
-0.035794288 -0.035794288 0.648
-0.033060797 -0.036962382 0.64683342
0.0092476197 -0.037606351 0.64733338
0.011707621 -0.036971431 0.64700001
-0.051222861 -0.033325717 0.648
-0.049988575 -0.030240001 0.648
-0.041965716 -0.030240001 0.648
-0.036636192 -0.032018095 0.64649999
-0.033811904 -0.033197619 0.64550006
-0.046726536 -0.027242454 0.64799994
-0.04200248 -0.027028255 0.6479333
-0.037674982 -0.02692589 0.64654547
-0.051222861 -0.023451431 0.648
-0.047955636 -0.022326052 0.64799988
-0.042414084 -0.022100201 0.647421
-0.036979765 -0.022186665 0.64712501
-0.032352064 -0.021270161 0.64633334
-0.02887143 -0.02027143 0.64500004
-0.051422287 -0.016894286 0.64740008
-0.048044406 -0.017247263 0.64675003
-0.042507093 -0.017249383 0.64685005
-0.036982566 -0.017257683 0.64718747
-0.032055363 -0.017259287 0.64724994
-0.027260747 -0.016970273 0.64635724
-0.022178216 -0.016017739 0.64687502
-0.017242501 -0.016011311 0.64662498
-0.013696191 -0.016657336 0.64780003
-0.051422294 -0.012702286 0.64740008
-0.048021853 -0.012313632 0.64643753
-0.043074649 -0.012307025 0.64612496
-0.037594434 -0.012326428 0.64714998
-0.032297149 -0.013371429 0.648
-0.027154287 -0.014194286 0.648
-0.022217143 -0.014194286 0.648
-0.017074287 -0.013371429 0.648
-0.014194286 -0.012960001 0.648
-0.051143814 -0.0086266678 0.64700001
-0.047592387 -0.0080186101 0.64769226
-0.042182714 -0.0081134085 0.64769226
-0.038468577 -0.0080228578 0.648
-0.011590206 -0.060958371 0.65028584
-0.0072222231 -0.060460322 0.6500001
-0.0024778573 -0.06007072 0.65025002
0.0012419048 -0.060232386 0.65200001
-0.021695454 -0.05627175 0.65088892
-0.017562225 -0.056507789 0.65083337
-0.012406787 -0.057070602 0.651375
-0.0075330613 -0.057341784 0.65142858
-0.0023065989 -0.057411782 0.65221429
0.0017266668 -0.057244554 0.65255553
-0.04519048 -0.053857148 0.65000004
-0.036757622 -0.050594445 0.65050006
-0.032080092 -0.05136044 0.65118188
-0.027181335 -0.052001659 0.65160006
-0.022647418 -0.052400209 0.65278572
-0.016972749 -0.052351944 0.65261543
-0.014303811 -0.052240003 0.65300006
0.0028607622 -0.050623056 0.65300006
0.0060117468 -0.050788891 0.65300006
-0.051692575 -0.045493718 0.65080005
-0.04677961 -0.046572786 0.65058339
-0.042018987 -0.046975564 0.65073335
-0.037231017 -0.047159225 0.65156257
-0.032666009 -0.047492381 0.65284616
-0.027239429 -0.047306228 0.65300006
-0.021766668 -0.046642859 0.65300006
-0.017040191 -0.047762293 0.65300006
-0.014303811 -0.04788667 0.65300006
-0.00062190479 -0.047264766 0.65300006
0.0024876192 -0.04726477 0.653
0.0060117464 -0.047264766 0.65300012
-0.051410794 -0.043118738 0.65300012
-0.047241967 -0.042268395 0.65268749
-0.042053442 -0.043295987 0.65255558
-0.036894687 -0.042698495 0.65291667
-0.032647181 -0.042590048 0.65246159
-0.028800001 -0.043718737 0.65266675
-0.0069791544 -0.041944027 0.65300006
-0.0024876194 -0.042289529 0.653
0.0024876192 -0.042289529 0.653
0.0067258021 -0.042108662 0.6528182
-0.050258577 -0.037232861 0.65150005
-0.047220245 -0.037279651 0.65237498
-0.042066399 -0.0370083 0.65228581
-0.037604131 -0.0376046 0.65083337
-0.033428572 -0.039000001 0.65000004
-0.006130205 -0.037580818 0.65300012
-0.0024866075 -0.037289824 0.6525625
0.0024845239 -0.037272025 0.65225005
0.0070196339 -0.037105206 0.65184617
0.010556191 -0.035394289 0.65200001
-0.050142866 -0.032809526 0.65000004
-0.047070064 -0.03220661 0.65031248
-0.042118583 -0.032474354 0.65035719
-0.039000001 -0.032809526 0.65000004
-0.0061289803 -0.032598913 0.65285724
-0.0024863097 -0.032308452 0.65237504
0.0024818454 -0.032274347 0.65168762
0.0074477387 -0.03227143 0.6516251
0.010804572 -0.031916957 0.65200001
-0.050968256 -0.02620635 0.6500001
-0.048904769 -0.027444448 0.65000004
-0.041476194 -0.02909524 0.65000004
-0.005988731 -0.026846511 0.65050006
-0.0024801192 -0.027280713 0.65100008
0.0024796431 -0.027275477 0.65087509
0.0074494649 -0.027308516 0.6516875
0.011179168 -0.027327027 0.652125
-0.052465584 -0.022029933 0.65028584
-0.011142857 -0.020428572 0.65000004
-0.0071676881 -0.022120887 0.65035713
-0.002476905 -0.022293814 0.65025002
0.0024795239 -0.022311194 0.65074998
0.0074451198 -0.02233286 0.65137506
0.011172858 -0.022345953 0.65175003
-0.053229909 -0.018240191 0.65140003
-0.011352805 -0.017270053 0.65022224
-0.0074376795 -0.017354583 0.65081257
-0.0024816073 -0.017374465 0.65156257
0.0024847023 -0.01738756 0.65206254
0.0073991357 -0.018130047 0.6523636
0.011185716 -0.01739905 0.65250003
-0.031938776 -0.01105905 0.65028584
-0.027266033 -0.011773336 0.65066671
-0.022305442 -0.012125307 0.65057147
-0.017468002 -0.011768382 0.6504001
-0.012278859 -0.01236178 0.65120012
-0.0076317019 -0.012689525 0.65228575
-0.0026924869 -0.013462645 0.65244448
0.001865397 -0.014296509 0.65266675
-0.047419053 -0.0058190483 0.65000004
-0.04209524 -0.0055714292 0.65000004
-0.036843814 -0.0072915759 0.65061539
-0.03226709 -0.0074451789 0.65156257
-0.027321907 -0.0074500008 0.65200001
-0.022371313 -0.0074560721 0.65249997
-0.017442785 -0.007884251 0.65230769
-0.012638731 -0.0084946044 0.65266669
-0.0093285721 -0.0093285721 0.65300006
-0.047285717 -0.0040952386 0.65160006
-0.042704131 -0.0039387308 0.65300012
-0.03711316 -0.0032193079 0.65245456
-0.032598101 -0.0038193204 0.65285718
-0.028607622 -0.0043533337 0.65300006
-0.0068619051 -0.055519052 0.65500003
-0.0037428574 -0.055519052 0.65500003
0.0031190477 -0.055519056 0.65500009
-0.020585716 -0.051152386 0.65500003
-0.019338097 -0.051776193 0.65500009
-0.011856748 -0.05241945 0.65525007
-0.0074959523 -0.052469645 0.65587509
-0.0024972623 -0.052430127 0.65537506
0.0023251085 -0.053137239 0.65500009
-0.030982543 -0.046369843 0.65500009
-0.02931905 -0.046785716 0.65500003
-0.022513857 -0.048146755 0.65500009
-0.019338097 -0.048657149 0.65500003
-0.012224627 -0.047382042 0.65585726
-0.0074986303 -0.047487088 0.65606254
-0.0031190477 -0.047409527 0.65500009
-0.052915629 -0.041932572 0.65520006
-0.042686399 -0.041082315 0.65500003
-0.038676195 -0.041171432 0.65500003
-0.011228573 -0.044290479 0.65500003
-0.0074857147 -0.044290479 0.65500003
-0.051776193 -0.037740476 0.65500003
-0.043666668 -0.039300002 0.65500003
-0.054271434 -0.020585716 0.65500003
0.0076104775 -0.015844762 0.65500003
-0.0062423814 -0.010612858 0.65550005
-0.0022304764 -0.01115592 0.65600002
0.0026470332 -0.012078242 0.65692317
0.0073864777 -0.012642984 0.65726674
0.010653334 -0.012533334 0.65800005
-0.017258734 -0.0056142863 0.65500009
-0.012221226 -0.0061553745 0.65571433
-0.0073795565 -0.0073779062 0.65666676
-0.0026750651 -0.0082542859 0.65754551
0.0018800001 -0.0094000008 0.65800011
-0.046719048 -0.0017169048 0.65625006
-0.042214956 -0.0016225715 0.65570009
-0.037848957 -0.00087409531 0.65580004
-0.032279365 -0.0014567197 0.65600002
-0.02731728 -0.0022295241 0.65614295
-0.022628002 -0.0026230477 0.65633339
-0.017508572 -0.002767619 0.65657151
-0.013006985 -0.0034078311 0.65733337
-0.0081466679 -0.0043866672 0.65800011
-0.047000002 0.0006266667 0.65800011
-0.042237338 0.00087733346 0.65800005
-0.037586428 0.00062642863 0.65775007
-0.032952193 0.00087714288 0.65780008
-0.028200001 0.0006266667 0.65800011
-0.054685719 -0.022000002 0.66000003
0.0094285719 -0.010685715 0.66000003
0.010685715 -0.010685715 0.66000003
-0.0021373336 -0.0059102862 0.66020006
0.0026619048 -0.0071126018 0.66053855
0.0075598224 -0.0075576794 0.66143751
0.011265988 -0.0072989119 0.66242862
-0.020742858 -0.00062857149 0.66000003
-0.0176 -0.00062857149 0.66000003
-0.01195524 -0.0013478913 0.66071433
-0.0076179234 -0.0023469268 0.66154552
-0.0025210716 -0.0025200003 0.66175008
0.0021837365 -0.0028618318 0.66230774
0.0073065315 -0.0038787762 0.66300005
-0.046549052 0.0031458731 0.66050005
-0.042978968 0.00326329 0.66100007
-0.037776433 0.0031491276 0.66108334
-0.032537062 0.0032600006 0.66045457
-0.027543597 0.0029542861 0.66076928
-0.022797652 0.0023951114 0.6612668
-0.017523684 0.0023968264 0.66186684
-0.01314611 0.0022094445 0.66258347
-0.0094714295 0.00063142861 0.66300005
-0.046094287 0.0056828577 0.66300005
-0.042657692 0.0062228581 0.66285723
-0.037675239 0.0065247626 0.66300005
-0.032821909 0.006312144 0.66275007
-0.02819635 0.0061023822 0.66283339
-0.023994287 0.0056828577 0.66300005
-0.016417144 0.0056828577 0.66300005
-0.0063333339 -0.0006333334 0.66500002
0.0040133335 -0.0010558732 0.66533339
0.0078263497 -0.0014798944 0.66633332
0.011796287 -0.0022814285 0.66589993
-0.020900002 0.0044333334 0.66500002
-0.019633334 0.0044333334 0.66500002
-0.011083335 0.0034833336 0.66500002
-0.0074782232 0.0026624766 0.66546673
-0.0025373811 0.0025401192 0.66624999
0.002069405 0.001432262 0.66812503
-0.045833658 0.0082380958 0.66533339
-0.043066669 0.0085500004 0.66500002
-0.038271435 0.0089571439 0.66500008
-0.032933339 0.0088666677 0.66500002
-0.027621338 0.008489524 0.6652
-0.02264034 0.0078800684 0.66564292
-0.017939661 0.0078837415 0.6659286
-0.012692142 0.0076174997 0.66637504
-0.007630833 0.007633572 0.66775
-0.0029285718 0.0068777152 0.66860008
-0.0450681 0.011426191 0.66650003
-0.041949172 0.011759881 0.66737503
-0.03729381 0.012292858 0.66750002
-0.032942701 0.012183651 0.66733336
-0.028209433 0.011818572 0.66709995
-0.022893574 0.011447858 0.66775
-0.017565334 0.011837143 0.66820014
-0.013153653 0.011245399 0.66833341
0.0030327383 0.0036715479 0.67037505
0.0076698218 0.0025577976 0.67106253
0.012508777 0.002557755 0.67107147
0.016000001 0.0025600002 0.67200005
-0.046720002 0.0096000005 0.67200005
-0.0019152382 0.0089380965 0.67033339
0.0025605359 0.0076807751 0.67193747
0.0078295236 0.0069308574 0.67379999
0.012196193 0.0057771439 0.67400002
-0.046125334 0.012904763 0.67080003
-0.042406265 0.014135513 0.67028582
-0.03764762 0.014676193 0.67000002
-0.031904764 0.014676192 0.67000002
-0.027664131 0.014258097 0.67033339
-0.022996429 0.014054287 0.67075002
-0.018324288 0.014276033 0.67116666
-0.012528573 0.013680572 0.67119998
-0.0078074932 0.01267492 0.67200005
-0.0028357827 0.011441226 0.67271441
0.0032095241 0.010912382 0.67400002
-0.046217147 0.016047619 0.67400002
-0.04194675 0.017398812 0.67241669
-0.03710679 0.017916072 0.67174995
-0.032121271 0.018047368 0.67186671
-0.027656272 0.017515004 0.67274994
-0.023072857 0.016665239 0.67299998
-0.017867485 0.016584219 0.6734286
-0.013258732 0.01646762 0.67366672
-0.03723048 0.021182859 0.67400002
0.007501747 0.0090023819 0.67516673
0.012689439 0.0084788762 0.67536378
-0.0057857148 0.014785715 0.67500001
-0.0023597886 0.013950265 0.67600006
0.0023953065 0.012899797 0.67707139
0.0077450005 0.012265637 0.67774999
0.012621335 0.011979238 0.67620009
0.01609524 0.011588572 0.67600006
-0.051428575 0.019285716 0.67500001
-0.046725556 0.018647779 0.67516673
-0.043392859 0.019607145 0.67500001
-0.026357144 0.019928573 0.67500007
-0.022500005 0.019285716 0.67500007
-0.018083284 0.01908455 0.67544448
-0.012868691 0.018660359 0.67562509
-0.0077341273 0.017406192 0.67683339
-0.0030690478 0.01696286 0.6785
0.00064666668 0.016166668 0.67900002
-0.052174713 0.022545928 0.67633337
-0.048409764 0.021946907 0.67775005
-0.042297151 0.022310479 0.67699999
-0.037346002 0.022795716 0.67610002
-0.032206349 0.022546351 0.67633343
-0.027079213 0.022568893 0.67700005
-0.022123983 0.022478098 0.67781824
-0.01726393 0.022427024 0.677625
-0.012871724 0.022116415 0.67838466
-0.0081911115 0.020477779 0.67900002
-0.051011432 0.025182858 0.67800003
-0.049362224 0.025651112 0.67900008
-0.040740002 0.025220001 0.67900002
-0.03711867 0.025478667 0.67900002
-0.032333333 0.025866669 0.67899996
-0.028065337 0.025737334 0.67900002
-0.016813334 0.025220001 0.67900002
-0.014226668 0.025220001 0.67900002
0.0045333337 0.014895239 0.68000001
0.0077973814 0.014944525 0.68225002
0.013446191 0.014531588 0.68316668
0.016238097 0.014289524 0.68200004
-0.001619524 0.018470954 0.68050003
0.0027739399 0.017639915 0.68136364
0.0073050801 0.01728561 0.6834445
-0.047187783 0.022728097 0.68183339
-0.044038098 0.023961907 0.68000001
-0.020076191 0.023961907 0.68000001
-0.018780954 0.023961907 0.68000001
-0.011009525 0.023961907 0.68000001
-0.0075309533 0.022984479 0.68170005
-0.0026003574 0.022110004 0.68275005
0.0024183677 0.021856328 0.68357146
0.014114287 0.021062858 0.68400002
-0.047219053 0.02711683 0.68333334
-0.043049276 0.027443685 0.68279999
-0.037854467 0.028052727 0.682091
-0.032465715 0.028569289 0.68175006
-0.026827101 0.027890131 0.68099999
-0.022226667 0.027169146 0.68240005
-0.017545715 0.027512487 0.68233335
-0.012813811 0.027581025 0.6825
-0.0084627224 0.026133748 0.68357152
-0.0045600003 0.025405716 0.68400002
-0.046251431 0.030617144 0.68400002
-0.042994291 0.030617144 0.68400002
-0.037782863 0.030617144 0.68400002
-0.032571428 0.030617144 0.68400002
-0.027577145 0.030617144 0.68400002
-0.016937144 0.030617144 0.68400002
0.0093692075 0.018520322 0.68633342
0.012427832 0.017660214 0.68677789
0.016240716 0.017881192 0.68900007
0.0039233337 0.024190955 0.68650007
0.0076765316 0.021996122 0.68792862
0.012189048 0.022544477 0.68810004
0.015026668 0.02352 0.68600005
-0.020253334 0.029400002 0.68600005
-0.018946668 0.029400002 0.68600005
-0.0073416936 0.028426137 0.68700004
-0.0028367462 0.027274048 0.68725008
0.0023398641 0.026094427 0.68742865
0.013780001 0.025591429 0.68900001
-0.045628957 0.033078481 0.68640012
-0.042507939 0.03335302 0.68666679
-0.03791175 0.033336833 0.68633336
-0.032682542 0.033336826 0.68633342
-0.027493335 0.033059366 0.68733335
-0.0224283 0.032428846 0.68685716
-0.016862566 0.032869894 0.68707711
-0.012441669 0.032744527 0.68758345
-0.0088114291 0.03226392 0.68822223
-0.040027622 0.036090478 0.68900001
-0.037402861 0.036090478 0.68900001
-0.032678287 0.036352959 0.68900007
-0.029528573 0.036090478 0.68900001
-0.016404763 0.036090478 0.68900001
-0.01312381 0.036090478 0.68900001
0.0092000011 0.024314288 0.69000006
-0.0010955557 0.029147621 0.69033337
0.0026354764 0.028659765 0.69175005
0.0076759798 0.026540108 0.69088888
0.011837144 0.02630524 0.69050002
-0.026942858 0.034828573 0.69000006
-0.021028573 0.034828573 0.69000006
-0.019057143 0.034828573 0.69000006
-0.0066665313 0.033521499 0.69014293
-0.0029854216 0.032551143 0.6910001
0.0013219048 0.031064764 0.69400001
-0.045605719 0.036352385 0.69400001
-0.042143434 0.037534669 0.69140005
-0.037484296 0.038142383 0.69050002
-0.032958232 0.038216196 0.69014293
-0.027420782 0.037576623 0.69000006
-0.022373494 0.037511911 0.6910001
-0.017333969 0.037956826 0.69111115
-0.012305716 0.037856739 0.69042861
-0.0078995246 0.037530959 0.69133329
-0.0036323813 0.036326192 0.69349998
-0.04095 0.040289052 0.69350004
-0.037620004 0.040260002 0.69300002
-0.032476071 0.041048933 0.692375
-0.027660837 0.042150598 0.69149995
-0.023249948 0.04158815 0.69311112
-0.017155955 0.040245481 0.69275004
-0.012814859 0.04082362 0.69360006
-0.0079314299 0.040318098 0.69400001
-0.025777144 0.045605719 0.69400001
0.016812382 0.021048574 0.69500011
0.0046333335 0.029785717 0.69500005
0.0082341507 0.029242862 0.69557154
0.01193143 0.029166669 0.6960001
-0.00066190481 0.033757146 0.69500005
0.0029181903 0.032750767 0.69610006
0.0077066668 0.032289524 0.69760001
0.011965714 0.031243812 0.69800001
-0.046224132 0.038261592 0.69666672
-0.044347622 0.039052382 0.69500005
-0.0019872382 0.037793528 0.69620007
0.0018279763 0.036389407 0.69787502
-0.042467859 0.041142143 0.69675004
-0.037187386 0.042499766 0.69725007
-0.032480955 0.043748576 0.6960001
-0.021494696 0.043276198 0.69600004
-0.017267304 0.043168887 0.69733334
-0.012620764 0.043173525 0.69740003
-0.0084003182 0.042223182 0.69633341
-0.0029409525 0.041086808 0.69742858
-0.031243812 0.045868576 0.69800001
-0.028202144 0.046118814 0.69675004
-0.023254922 0.045846671 0.69766665
0.0086666672 0.034000002 0.70000005
0.012285715 0.033428576 0.70000011
-0.04810429 0.039417624 0.70150006
0.0035000003 0.038166672 0.70000005
0.007337858 0.037356433 0.70041674
0.01202381 0.037408456 0.70137507
0.01535524 0.036719054 0.70100009
-0.047075454 0.042613652 0.7027778
-0.042970862 0.043637529 0.70060009
-0.037333336 0.04466667 0.70000005
-0.034000002 0.04466667 0.70000005
-0.011333334 0.04466667 0.70000005
-0.0070666671 0.044133335 0.70000005
-0.0024468785 0.043841172 0.70100009
0.0024834697 0.042500481 0.70192868
0.007360477 0.041481748 0.70250005
0.011663429 0.041155621 0.70380002
-0.046810638 0.047478579 0.70216674
-0.042841118 0.047525875 0.70283335
-0.037413813 0.047435716 0.70150012
-0.032549422 0.047675554 0.70066673
-0.027803496 0.048046034 0.70066679
-0.022515558 0.047930587 0.70222229
-0.017348494 0.047373734 0.7005834
-0.012016351 0.047402542 0.70100009
-0.0073583075 0.047500744 0.70244449
-0.003349524 0.046759814 0.70340008
-0.046733335 0.050071433 0.70100003
-0.041960191 0.050807815 0.70380002
-0.037257146 0.051329907 0.70360005
-0.032336365 0.051458795 0.70336372
-0.027749527 0.050807815 0.70380002
-0.022349209 0.050732709 0.70400012
-0.017331429 0.051100109 0.70288891
-0.012458858 0.050511058 0.70340008
-0.049014289 0.042971432 0.70500004
0.0040285718 0.044985719 0.70500004
0.0073939688 0.043684132 0.70566672
0.012111906 0.042726673 0.70649999
-0.0022063949 0.048266809 0.70528579
0.0025093509 0.047648232 0.70645458
0.0072205453 0.046112794 0.70757145
0.010114286 0.045177147 0.708
-0.045113336 0.053193342 0.70700002
-0.042864051 0.053119525 0.70599997
-0.038066354 0.053963818 0.70533335
-0.031825718 0.054117151 0.70500004
-0.027392518 0.053535651 0.70642859
-0.023122668 0.053372383 0.7058
-0.017553063 0.053810213 0.70500004
-0.011917316 0.053234372 0.70590907
-0.0074009523 0.052484926 0.70649999
-0.0030564107 0.052175533 0.70723075
0.0011238096 0.051020958 0.70800006
-0.042480003 0.055965718 0.70800006
-0.037218098 0.056988258 0.70766664
-0.032602575 0.056989051 0.70730013
-0.027963813 0.056263339 0.70749998
-0.02249524 0.056172192 0.70719999
-0.01750762 0.056560956 0.70700002
-0.012354287 0.056829631 0.70755559
-0.0080914292 0.055965718 0.708
0.012860319 0.043993652 0.71066666
0.0047333338 0.049361907 0.71000004
0.0077131437 0.048848767 0.71040004
0.012342032 0.047598798 0.71193349
0.015623573 0.047550716 0.71325004
-0.0011273017 0.054346353 0.71033335
0.0029799049 0.052674767 0.71090001
0.0072957147 0.052081428 0.71250004
0.012524491 0.051552247 0.71357149
0.015640002 0.051680002 0.71400005
-0.042042382 0.058317624 0.71200001
-0.039463177 0.058405399 0.71033335
-0.031104764 0.058828574 0.71000004
-0.026773743 0.058284495 0.7104286
-0.022604382 0.058336955 0.71060002
-0.017587382 0.05884929 0.71025002
-0.011500001 0.058856197 0.71033335
-0.007258777 0.057980411 0.71142858
-0.0028989611 0.057553682 0.71245462
0.0027175006 0.056031555 0.71312511
0.0061200005 0.055080004 0.71400005
-0.040120002 0.060520004 0.71400005
-0.037113335 0.061517626 0.71175003
-0.032346945 0.062084358 0.7118572
-0.027175713 0.062506422 0.71337515
-0.022416908 0.062495634 0.7132501
-0.017596066 0.062286861 0.71240008
-0.013057143 0.061560243 0.71224999
-0.0081600007 0.060520004 0.71400005
0.0088647623 0.053870481 0.71600002
0.011872001 0.053627815 0.71640009
0.015705716 0.053945716 0.71700001
-0.044354767 0.058685243 0.71650004
-0.00068190478 0.059325717 0.71600002
0.0030277555 0.058882728 0.71771437
0.0077899056 0.05616286 0.71740007
0.011354858 0.055951815 0.71820009
-0.041909121 0.062031299 0.71800011
-0.037522223 0.064356513 0.71633339
-0.034095243 0.064780958 0.71600002
-0.01841143 0.064780958 0.71600002
-0.011601633 0.063468307 0.71657145
-0.0073209535 0.062580824 0.7175715
-0.0027326988 0.062184609 0.71750009
0.0023281907 0.061217714 0.71900004
-0.040400956 0.065052383 0.71900004
-0.037661906 0.065965399 0.71900004
-0.033101626 0.067434393 0.71810001
-0.027329169 0.066956073 0.71737504
-0.022343677 0.067227483 0.71714294
-0.017701561 0.067514546 0.71736366
-0.012762859 0.066557147 0.71800011
-0.0089019053 0.065052383 0.71900004
-0.003766191 0.065394767 0.71900004
0.0075568259 0.059081271 0.72133344
0.012810909 0.058434807 0.72181827
0.016605308 0.058461636 0.72214293
-0.043947622 0.063173339 0.72100008
0.0030408169 0.063259602 0.72085726
0.0073763272 0.062254421 0.72285724
0.010328572 0.061971433 0.72300005
-0.041647241 0.066387817 0.72160006
-0.037956193 0.068359464 0.72085726
-0.03154286 0.069257148 0.72000003
-0.027446192 0.069305241 0.72050005
-0.023314288 0.069257148 0.72000003
-0.018514287 0.069257148 0.72000003
-0.01166585 0.068528444 0.72057158
-0.0074368832 0.067559309 0.72181833
-0.0024040476 0.067890726 0.72125006
0.002065503 0.066618092 0.72277784
-0.037157625 0.071562067 0.72250009
-0.033114478 0.071041338 0.72140008
-0.027542859 0.070922859 0.72300005
-0.022416765 0.071375623 0.72200006
-0.017860003 0.071439289 0.72125006
-0.012846986 0.071349211 0.72266674
-0.0075742863 0.070922866 0.72300005
-0.0034428574 0.070922866 0.72300005
0.0082857152 0.064214289 0.72500002
0.012846668 0.062989153 0.72519994
0.016437715 0.062574863 0.7252
-0.045128573 0.068734288 0.72900003
-0.04286921 0.068220958 0.72600001
0.0034569527 0.068432957 0.72580004
0.007444405 0.067001313 0.72712505
0.012485001 0.066583581 0.72825009
0.016424129 0.066852704 0.72866672
-0.042478859 0.072602674 0.72880006
-0.037754286 0.073706292 0.72600007
-0.032176193 0.073328577 0.72500002
-0.027619049 0.07319048 0.72499996
-0.022509526 0.073604763 0.72500002
-0.017285716 0.073982865 0.72600001
-0.011979683 0.073488578 0.7256667
-0.0076161916 0.073393345 0.72700012
-0.0025402119 0.073185936 0.7272222
0.0030528575 0.071700677 0.72810006
0.0069428571 0.07081715 0.72900003
-0.04096286 0.075677149 0.72900003
-0.037248388 0.077402048 0.7269333
-0.032541428 0.077548899 0.727
-0.027834352 0.077410989 0.727
-0.022190405 0.077004179 0.72638464
-0.017204002 0.077280581 0.72840011
-0.012839762 0.077155478 0.72875011
-0.0079148579 0.076232575 0.72900003
-0.0041657146 0.075677149 0.72900003
-0.037144288 0.081578575 0.72900003
-0.033325717 0.081231438 0.72900003
-0.028465716 0.081231438 0.72900003
-0.022911429 0.081231438 0.72900003
0.0090504764 0.068922862 0.73100001
0.012536429 0.068946436 0.73125005
0.016708571 0.068922862 0.73100001
-0.045283336 0.071060479 0.73150003
0.0027883335 0.074568816 0.73175001
0.0078965081 0.072703496 0.73166674
0.012339895 0.071471334 0.73333341
0.016754286 0.071206674 0.73300004
-0.010442858 0.078669526 0.73100001
-0.0073121432 0.078348339 0.73125005
-0.0025086671 0.07765229 0.73189998
0.0022695239 0.076965719 0.73300004
-0.036276191 0.083715722 0.73250002
-0.032541227 0.083293885 0.73142856
-0.027445143 0.083032005 0.73140001
-0.022350259 0.082274221 0.73161548
-0.017431146 0.082276098 0.73210001
-0.01254626 0.082248718 0.73185718
-0.0078491671 0.081462272 0.73262501
-0.0044273022 0.080856517 0.73400009
-0.031457148 0.085982859 0.73400009
-0.027262859 0.085982859 0.73400009
-0.023068573 0.085982859 0.73400009
-0.013980953 0.085982859 0.73400003
0.013318097 0.073600009 0.73600006
0.016822858 0.073600002 0.73600006
0.0038569053 0.078884058 0.73625004
0.0078481389 0.077393077 0.73690921
0.012413969 0.076121062 0.73777783
0.016880002 0.077368096 0.7385
-0.02032762 0.084815241 0.73600006
-0.018925715 0.084815241 0.73600006
-0.010514286 0.084815241 0.73600006
-0.0073621431 0.08449357 0.73625004
-0.002572143 0.083012469 0.73658341
0.0022644447 0.081860855 0.73744446
0.0063342862 0.080938101 0.73900002
-0.036523655 0.087799214 0.73750007
-0.032507308 0.088166997 0.73666668
-0.027355716 0.088380486 0.73650002
-0.022242963 0.088273451 0.73755556
-0.017548572 0.087036841 0.73699999
-0.012166033 0.087270796 0.73699999
-0.0080083823 0.086967625 0.73760003
-0.0028152382 0.086216673 0.73900002
0.00070380955 0.085160956 0.73900002
-0.032375243 0.090791434 0.73900002
-0.027096668 0.09114334 0.73900002
-0.022937525 0.092033714 0.73879999
0.012987757 0.079034023 0.74000007
0.0044679372 0.083472393 0.74066675
0.0079458337 0.082816079 0.74162507
0.012724366 0.082708329 0.74224997
0.017256329 0.082649797 0.74171436
-0.038761906 0.089504771 0.74000001
-0.017619049 0.089504771 0.74000001
-0.012700954 0.089625716 0.74100006
-0.0074157147 0.089333817 0.74150002
-0.0028254762 0.088658102 0.74175
0.0024032383 0.086378865 0.74220008
0.012737144 0.085621908 0.74300003
-0.04017143 0.090914294 0.74000001
-0.037402861 0.091743819 0.74100006
-0.032459404 0.093138933 0.74087507
-0.027783239 0.093220197 0.74040002
-0.020438097 0.093028575 0.74000001
-0.017639365 0.092435576 0.74088889
-0.012914981 0.092468232 0.7421819
-0.0081345253 0.091605961 0.74275005
-0.0049533336 0.091282859 0.74300003
-0.031093337 0.095400006 0.74200004
-0.027215479 0.095785961 0.74225008
-0.02287497 0.095839597 0.74071437
-0.017690478 0.095528588 0.74300003
-0.014860001 0.09552858 0.74300003
0.0035580953 0.088217787 0.7470001
0.007822223 0.087468579 0.74666673
0.012562753 0.087626249 0.74666673
0.016813971 0.086442553 0.74600005
-0.037604764 0.09436667 0.74500006
-0.010642858 0.09436667 0.74500006
-0.0075323815 0.093951054 0.74620003
-0.0023090478 0.092246443 0.74650002
0.00071238098 0.091184765 0.74800003
-0.036790162 0.096603498 0.74766672
-0.033018671 0.097777918 0.74720001
-0.028014669 0.09826801 0.74660009
-0.021706907 0.098566912 0.74725002
-0.017781748 0.098156355 0.74683332
-0.012802501 0.097094417 0.74687499
0.015714288 0.089285724 0.75000006
0.0025523813 0.092382587 0.7502858
0.0071555553 0.092307948 0.75133336
0.011961634 0.091910757 0.75142866
0.015413573 0.092122629 0.75275004
