# .PCD v0.7 - Point Cloud Data file format
VERSION 0.7
FIELDS x y z
SIZE 4 4 4
TYPE F F F
COUNT 1 1 1
WIDTH 1168
HEIGHT 1
VIEWPOINT 0 0 0 1 0 0 0
POINTS 1168
DATA ascii
-0.12652762 -0.18175238 0.73400003
-0.12316193 -0.18102477 0.73200005
-0.15029524 -0.1773251 0.73400009
-0.12582858 -0.17895621 0.73400003
-0.12218754 -0.17773128 0.7323637
-0.11868314 -0.17687717 0.73242867
-0.15029524 -0.17126667 0.73400003
-0.14889716 -0.17126667 0.73400003
-0.12128477 -0.17231524 0.73400003
-0.11791175 -0.17271641 0.73355561
-0.15229127 -0.16753976 0.73381835
-0.14811344 -0.16690755 0.73327273
-0.12211174 -0.167467 0.73266673
-0.11886287 -0.16836002 0.73200005
-0.15665524 -0.16171907 0.7335
-0.15262879 -0.16238584 0.73177779
-0.14775971 -0.162397 0.7318334
-0.14450572 -0.16335335 0.73300004
-0.1267024 -0.16148001 0.73400009
-0.12222287 -0.16319494 0.73333335
-0.15635367 -0.15821779 0.73400009
-0.15230691 -0.15876167 0.73275006
-0.14839368 -0.1588597 0.73266673
-0.13118796 -0.15635367 0.73400009
-0.12885779 -0.15728572 0.73400009
-0.13132112 -0.1520928 0.73400009
-0.13142097 -0.14889716 0.73400003
-0.13020477 -0.18510191 0.73900002
-0.12879716 -0.18510191 0.73900002
-0.15687937 -0.18150127 0.73866671
-0.15291192 -0.18026716 0.73650002
-0.12906335 -0.18167001 0.73650002
-0.15694954 -0.17736004 0.73900002
-0.15262614 -0.17767921 0.73657149
-0.14758918 -0.17719838 0.73700005
-0.13020477 -0.17736001 0.73900002
-0.12717812 -0.17734574 0.73675007
-0.12336762 -0.17593905 0.73600006
-0.15706229 -0.17210631 0.73820001
-0.15248752 -0.17305833 0.73633337
-0.14716001 -0.17263256 0.73661548
-0.14381176 -0.17149493 0.73900002
-0.13055667 -0.17208144 0.73900002
-0.12700218 -0.17261009 0.73675007
-0.12350782 -0.17341565 0.73600006
-0.16609906 -0.16539524 0.73900002
-0.16231662 -0.16734165 0.73871434
-0.15795366 -0.1677814 0.73711109
-0.15491049 -0.16892953 0.73600006
-0.1454969 -0.16793548 0.73625004
-0.14335002 -0.16794652 0.73783338
-0.1318135 -0.16760723 0.73900002
-0.1274931 -0.16754504 0.73663646
-0.16199414 -0.16263016 0.73690921
-0.15876572 -0.16332191 0.73600006
-0.14563017 -0.16105811 0.73633337
-0.14297546 -0.16294329 0.73711115
-0.1324392 -0.16216031 0.73800009
-0.12818502 -0.16343144 0.73650002
-0.12406858 -0.16332191 0.73600006
-0.16188157 -0.15802275 0.73662502
-0.15763506 -0.15679087 0.73760003
-0.15281509 -0.15726113 0.73716676
-0.14717345 -0.15788585 0.737625
-0.14248943 -0.15784529 0.73900002
-0.13702859 -0.1571465 0.73859996
-0.13323675 -0.15789799 0.73685724
-0.12792169 -0.15722525 0.73700005
-0.14163652 -0.15289304 0.73866671
-0.13734885 -0.15214884 0.73681825
-0.13353144 -0.15280764 0.73600006
-0.12927485 -0.15274259 0.73714292
-0.14223398 -0.14738762 0.73811114
-0.13745715 -0.14727537 0.73637503
-0.13263839 -0.14679953 0.73610008
-0.12932478 -0.14760001 0.73799998
-0.14194277 -0.14207006 0.73881817
-0.13731234 -0.14202471 0.73721445
-0.13231029 -0.14181723 0.73746163
-0.1289143 -0.14297843 0.7383334
-0.14076191 -0.13865049 0.73900002
-0.13696134 -0.13808744 0.73900002
-0.13294801 -0.13857467 0.73860008
-0.13586286 -0.18751906 0.74300003
-0.13258526 -0.18618239 0.74050003
-0.15998097 -0.18112382 0.74000001
-0.13294333 -0.18244287 0.74250007
-0.16242838 -0.17747049 0.74044442
-0.15998097 -0.17760001 0.74000001
-0.14588572 -0.17900953 0.74000001
-0.1442205 -0.17666145 0.74050003
-0.13282397 -0.17733288 0.74183339
-0.16663201 -0.17143737 0.74200004
-0.16289864 -0.17277081 0.74044442
-0.15998097 -0.17337143 0.74000001
-0.14198309 -0.17318816 0.74088889
-0.13763942 -0.17266215 0.74230766
-0.13355762 -0.17254668 0.741
-0.16643669 -0.16784716 0.74050003
-0.16373971 -0.1693778 0.74000001
-0.14095239 -0.16773333 0.74000001
-0.13767619 -0.16732825 0.74133331
-0.13404572 -0.16759239 0.74000001
-0.16597143 -0.1631524 0.74000001
-0.14081144 -0.16251811 0.74000001
-0.1375524 -0.16294752 0.74066669
-0.13460954 -0.16350478 0.74000001
-0.12649333 -0.16041334 0.74200004
-0.16182667 -0.15617335 0.74200004
-0.15998097 -0.15575239 0.74000001
-0.15222858 -0.15575239 0.74000001
-0.14704333 -0.15621001 0.74050003
-0.14165716 -0.15744382 0.74000001
-0.13813335 -0.15998097 0.74000001
-0.12666382 -0.15638381 0.74300003
-0.16041334 -0.15476 0.74200004
-0.15738858 -0.15427735 0.74240011
-0.15281989 -0.1542349 0.74287504
-0.14743134 -0.1529422 0.7421
-0.14419429 -0.15236954 0.74000001
-0.1265581 -0.15237284 0.7416364
-0.12326725 -0.15185505 0.74300003
-0.14711905 -0.1473543 0.74266672
-0.14447621 -0.148 0.74000001
-0.12630266 -0.14747259 0.74088889
-0.12322682 -0.14748804 0.74300009
-0.14664191 -0.14296459 0.74240011
-0.14447621 -0.14165716 0.74000001
-0.12662442 -0.14254269 0.74127269
-0.12383334 -0.14364667 0.74300003
-0.14506191 -0.13798572 0.74300003
-0.14223406 -0.13729835 0.74024999
-0.13778096 -0.13637143 0.74000001
-0.13208413 -0.13678826 0.74077779
-0.12829694 -0.13772446 0.74244452
-0.14204097 -0.13426605 0.74200004
-0.13747983 -0.13338076 0.74180007
-0.13324323 -0.13352592 0.74260008
-0.14162216 -0.19179359 0.74725008
-0.13906667 -0.19086191 0.74500006
-0.14116319 -0.18797949 0.74733347
-0.13743789 -0.18716912 0.74600005
-0.14135675 -0.18206424 0.74800009
-0.13752231 -0.1826501 0.74740016
-0.14189933 -0.17826398 0.74657148
-0.1372996 -0.17804162 0.74611121
-0.12636286 -0.16124715 0.7475
-0.12252954 -0.16211757 0.74800009
-0.11896763 -0.16028573 0.74800003
-0.12602477 -0.15726572 0.74550009
-0.12225556 -0.15708637 0.74633336
-0.11752518 -0.15741302 0.74788898
-0.16061716 -0.15302478 0.74733341
-0.15721928 -0.15184847 0.7462222
-0.15280941 -0.15159145 0.74528581
-0.14970954 -0.15183809 0.74500006
-0.12168334 -0.15290239 0.74500006
-0.11875916 -0.15261114 0.74670005
-0.15601143 -0.14817524 0.74800003
-0.15269871 -0.14765577 0.74636376
-0.14942573 -0.14772287 0.74500006
-0.12119608 -0.14731918 0.74637508
-0.11883924 -0.14815734 0.74720001
-0.15110216 -0.14291453 0.74750006
-0.14855589 -0.14144668 0.74633336
-0.12558572 -0.14119525 0.74500006
-0.12301668 -0.14266506 0.74750012
-0.14695063 -0.13760559 0.74642867
-0.12651703 -0.13706858 0.74571437
-0.12466668 -0.1389143 0.74800003
-0.1460381 -0.13464001 0.74800003
-0.14223833 -0.13156906 0.74675006
-0.13750111 -0.13080315 0.74585718
-0.13120034 -0.13120034 0.74600005
-0.1283059 -0.13300021 0.74680012
-0.14075145 -0.12840858 0.74766672
-0.13724251 -0.12762965 0.74762505
-0.13350299 -0.12834656 0.74662507
-0.13464001 -0.12466668 0.74800003
-0.14704117 -0.19247088 0.75240004
-0.14357144 -0.19285716 0.75000006
-0.14578915 -0.18822078 0.75260007
-0.14345358 -0.18638264 0.75125003
-0.14596039 -0.18291621 0.75200003
-0.14357144 -0.18285716 0.75000006
-0.1216216 -0.16654287 0.75266671
-0.11727744 -0.16674142 0.75270003
-0.11402572 -0.16566001 0.75300002
-0.12500001 -0.16500001 0.75000006
-0.11694807 -0.16227274 0.75000012
-0.11240826 -0.16252764 0.75177777
-0.10824001 -0.1627194 0.75266671
-0.16422573 -0.15705429 0.75300002
-0.11528573 -0.15671431 0.75000006
-0.11239143 -0.15749207 0.75166667
-0.10877179 -0.15823036 0.75262511
-0.16232525 -0.15229143 0.75250006
-0.15928572 -0.15071429 0.75000006
-0.11606423 -0.15199621 0.7502858
-0.11267656 -0.1528037 0.75237501
-0.16114287 -0.14896762 0.75200003
-0.15805162 -0.14716972 0.75160003
-0.11680508 -0.14711192 0.75166667
-0.11402572 -0.14988287 0.75300002
-0.15646708 -0.14275308 0.75214297
-0.15321429 -0.14178571 0.75000006
-0.12128573 -0.14185715 0.75000006
-0.11786809 -0.14264545 0.75190002
-0.15562001 -0.13984287 0.75300002
-0.15246676 -0.13799231 0.75229996
-0.14902811 -0.13616143 0.75050008
-0.12500003 -0.13642858 0.75000012
-0.1223731 -0.13740009 0.75141668
-0.11923176 -0.13810796 0.75266671
-0.15131715 -0.13410573 0.75300002
-0.14771405 -0.13234831 0.75190908
-0.12618764 -0.13211362 0.75100011
-0.12366596 -0.13298549 0.75275004
-0.14657688 -0.12854886 0.75285715
-0.14269303 -0.12679228 0.75122225
-0.13830715 -0.12544048 0.75050008
-0.13194202 -0.12669884 0.75066668
-0.12843238 -0.12827303 0.75244451
-0.14158881 -0.12294882 0.75275004
-0.13755517 -0.1225085 0.75225008
-0.13297974 -0.122743 0.75242865
-0.13554001 -0.11904572 0.75300002
-0.13338858 -0.11976287 0.75300002
-0.15713462 -0.19611749 0.75800008
-0.15325904 -0.19642955 0.75550008
-0.15520954 -0.19202667 0.75800002
-0.15200779 -0.19279651 0.75583339
-0.15121679 -0.1872526 0.7568
-0.14822239 -0.18779574 0.75550008
-0.15028097 -0.18479525 0.75500005
-0.14884287 -0.18479525 0.75500005
-0.12055811 -0.17614478 0.75800002
-0.11863303 -0.1763854 0.75800008
-0.12107201 -0.17244495 0.75760001
-0.11718763 -0.1725421 0.75572735
-0.11233481 -0.17245772 0.75513339
-0.10737439 -0.17223008 0.75666666
-0.10467619 -0.17253526 0.75800002
-0.17614478 -0.16820382 0.75800002
-0.17325716 -0.16820382 0.75800002
-0.121627 -0.16912542 0.75566673
-0.11864287 -0.1689762 0.75500005
-0.11198858 -0.1676892 0.75509101
-0.10727639 -0.16769354 0.75699997
-0.10178858 -0.16748191 0.75800002
-0.097457156 -0.1660381 0.75800002
-0.16820382 -0.16098477 0.75800002
-0.10584001 -0.16200002 0.75600004
-0.10431524 -0.16278954 0.75800002
-0.16709539 -0.15741567 0.7567144
-0.16466191 -0.15603334 0.75500005
-0.10673881 -0.15713882 0.75600004
-0.16676001 -0.15232192 0.75800008
-0.16446154 -0.15208708 0.75540012
-0.11096123 -0.1518905 0.75585723
-0.10817833 -0.15289073 0.75725001
-0.16676001 -0.1494343 0.75800002
-0.16274726 -0.14708297 0.75612503
-0.11252454 -0.14759326 0.75658333
-0.10900763 -0.1494343 0.75800002
-0.16125366 -0.1439489 0.75699997
-0.15860263 -0.1413393 0.7552501
-0.11616453 -0.1413393 0.7552501
-0.11388423 -0.14289349 0.75614291
-0.15732792 -0.13777606 0.75628579
-0.15397859 -0.13599001 0.75550008
-0.11721763 -0.13738477 0.75625002
-0.11478286 -0.13860571 0.75800002
-0.15593144 -0.1342743 0.75800002
-0.15274341 -0.13225895 0.75611115
-0.12182589 -0.13214779 0.7561667
-0.11847391 -0.13376991 0.75760001
-0.15150049 -0.12841381 0.75750005
-0.1480983 -0.1267962 0.75560009
-0.12688437 -0.12708981 0.75514299
-0.12326351 -0.12758942 0.75688893
-0.14607893 -0.12298615 0.75771433
-0.14283223 -0.12170621 0.7561667
-0.13805714 -0.12008096 0.75500005
-0.13081321 -0.12197567 0.75528586
-0.12748137 -0.12243962 0.75625002
-0.12418097 -0.12360268 0.75720006
-0.14174968 -0.11783184 0.75771433
-0.1376093 -0.11710215 0.75550008
-0.13249263 -0.11737216 0.75608343
-0.12805288 -0.11867478 0.75750005
-0.14077143 -0.11478286 0.75800002
-0.13743286 -0.1143462 0.75750005
-0.13369945 -0.1140842 0.75720006
-0.15914001 -0.19547334 0.76300001
-0.15768819 -0.19272819 0.76200002
-0.15344763 -0.19036192 0.76000005
-0.15731411 -0.18868934 0.76260006
-0.15380953 -0.18782859 0.76000005
-0.1231281 -0.17238048 0.76050007
-0.10309117 -0.17071566 0.76000011
-0.17776239 -0.16687827 0.76183337
-0.17302875 -0.16651288 0.76016676
-0.10292572 -0.16705525 0.76000017
-0.098438099 -0.16864763 0.76000005
-0.17609866 -0.16302302 0.76271433
-0.17216392 -0.16293967 0.76100016
-0.10204694 -0.16212797 0.7609092
-0.097519472 -0.16384491 0.76171434
-0.17512667 -0.15841335 0.76300001
-0.17161468 -0.15812096 0.76160008
-0.16864763 -0.15561906 0.76000005
-0.10518255 -0.15740985 0.76166672
-0.10353982 -0.15814172 0.76240003
-0.17076668 -0.15332669 0.76300001
-0.16864763 -0.15272382 0.76000011
-0.10586679 -0.15227371 0.76137507
-0.16726704 -0.14769369 0.76112503
-0.16430478 -0.14548573 0.76000005
-0.11074287 -0.14620954 0.76000005
-0.10842288 -0.14798233 0.76114297
-0.16640668 -0.14460668 0.76300001
-0.16310315 -0.14218287 0.76114291
-0.11213049 -0.14236261 0.76100004
-0.10972667 -0.14388001 0.76300001
-0.16155732 -0.13785413 0.76183337
-0.1592381 -0.13680001 0.76000005
-0.11561874 -0.1358943 0.76033342
-0.11367639 -0.13806573 0.76220006
-0.15735191 -0.13236262 0.76050007
-0.1170862 -0.13249357 0.76125008
-0.11408667 -0.13443334 0.76300001
-0.15623873 -0.1291924 0.76066673
-0.15316084 -0.12706287 0.76114297
-0.14982858 -0.12521906 0.76000005
-0.12122934 -0.12702249 0.7604
-0.11918049 -0.12812461 0.76150006
-0.15092249 -0.1230322 0.76260006
-0.14806786 -0.12200168 0.76025009
-0.12521906 -0.1208762 0.76000005
-0.12252994 -0.12252995 0.76128584
-0.15042001 -0.11990001 0.76300001
-0.14704867 -0.11765005 0.76127291
-0.14367621 -0.11617143 0.76000005
-0.13100953 -0.11508572 0.76000005
-0.12757343 -0.11699191 0.76110005
-0.12426001 -0.11990001 0.76300001
-0.14237811 -0.11240244 0.76144457
-0.13764466 -0.11206223 0.76022232
-0.13206105 -0.11217991 0.76190007
-0.12850636 -0.11398699 0.76233339
-0.14097334 -0.10972667 0.76300001
-0.13705894 -0.10801641 0.76233339
-0.13327067 -0.10914534 0.76300001
-0.13734001 -0.10391334 0.76300001
-0.16143525 -0.19211525 0.76700008
-0.15955715 -0.19088572 0.76500005
-0.17995715 -0.16538572 0.76500005
-0.18042763 -0.16362667 0.76700002
-0.17813572 -0.16210717 0.76500005
-0.097581483 -0.16182764 0.76655561
-0.094354294 -0.1609143 0.76800001
-0.17770611 -0.15872364 0.76660001
-0.17364287 -0.15567145 0.76500005
-0.10182476 -0.15714894 0.76618189
-0.098264411 -0.15835512 0.76712507
-0.17332874 -0.15263508 0.76683342
-0.10267619 -0.15277582 0.76680005
-0.098742865 -0.15433145 0.76800001
-0.17177415 -0.14765224 0.76750004
-0.16975716 -0.14717144 0.76500005
-0.10699271 -0.1469015 0.76655561
-0.10403858 -0.14813858 0.7675001
-0.17042287 -0.14336002 0.76800001
-0.16743471 -0.14245971 0.76622224
-0.11081477 -0.14143477 0.76550007
-0.10836934 -0.14288364 0.76780003
-0.16629192 -0.13851523 0.76749998
-0.16364495 -0.13619886 0.76640004
-0.11176143 -0.13769478 0.76700008
-0.16224083 -0.13302477 0.76685727
-0.15955715 -0.13041429 0.76500005
-0.11632858 -0.13090001 0.76500005
-0.11397921 -0.13297415 0.76716673
-0.16018286 -0.12873143 0.76800001
-0.15738314 -0.12692764 0.76657146
-0.11734107 -0.12723462 0.7663334
-0.11483429 -0.12800001 0.76800001
-0.15592459 -0.12289639 0.76719999
-0.15347731 -0.12209953 0.76616669
-0.12129444 -0.12192164 0.76657146
-0.11917113 -0.12355715 0.7676667
-0.15219662 -0.11777104 0.76671433
-0.14935715 -0.11584286 0.76500005
-0.12604287 -0.11657144 0.76500005
-0.12318877 -0.11778306 0.76720011
-0.14762573 -0.11272533 0.76660007
-0.14425716 -0.11074287 0.76500005
-0.13041429 -0.11001429 0.76500005
-0.12711191 -0.11203002 0.76633346
-0.12426144 -0.11475953 0.76750004
-0.14555429 -0.10898286 0.76800001
-0.14244391 -0.10737896 0.76700002
-0.13830701 -0.10622065 0.76566672
-0.13246314 -0.10693325 0.76590002
-0.12788795 -0.10815683 0.76733339
-0.14116572 -0.10459429 0.76800001
-0.13696513 -0.10230745 0.76681823
-0.13283393 -0.10302267 0.76719999
-0.12946287 -0.10459429 0.76800001
-0.18025002 -0.15597096 0.77250004
-0.17793658 -0.15618877 0.77140003
-0.096743338 -0.1567481 0.77150005
-0.094815008 -0.15728834 0.77175003
-0.18036668 -0.15386382 0.77300006
-0.177463 -0.15208441 0.77237505
-0.10089858 -0.15153097 0.77050006
-0.097673237 -0.1520182 0.77111113
-0.094151124 -0.15225938 0.77233338
-0.17649511 -0.14781445 0.77216673
-0.17402571 -0.14758955 0.77100009
-0.10178181 -0.1471649 0.77133334
-0.097702384 -0.14758372 0.77249998
-0.094477788 -0.1479743 0.77300012
-0.17205924 -0.14237733 0.77140003
-0.16940001 -0.14006668 0.77000004
-0.10675048 -0.14149208 0.77066672
-0.10314451 -0.14298607 0.77209103
-0.098521911 -0.14484191 0.77200001
-0.1707962 -0.13840382 0.77300006
-0.16823944 -0.1373823 0.77140003
-0.11073334 -0.13640001 0.77000004
-0.10733153 -0.13747439 0.77191681
-0.10380287 -0.13914001 0.77300006
-0.16610287 -0.13255811 0.77240008
-0.16374573 -0.1307019 0.77100003
-0.11191968 -0.13216497 0.7714445
-0.10802509 -0.13353893 0.77277792
-0.16564287 -0.12883334 0.77300006
-0.16227764 -0.12739763 0.77100003
-0.15913334 -0.12540001 0.77000004
-0.11586668 -0.12540001 0.77000004
-0.11276793 -0.12763017 0.77166671
-0.10969239 -0.12736095 0.77300006
-0.16122572 -0.12368001 0.77300006
-0.15891792 -0.12245848 0.77180004
-0.11701335 -0.12244687 0.77079999
-0.11346153 -0.12317429 0.77260005
-0.15674096 -0.11896573 0.77266669
-0.15339938 -0.1162108 0.77066672
-0.12136668 -0.11623334 0.77000004
-0.11771195 -0.11771347 0.77153349
-0.11410953 -0.11999906 0.77300006
-0.15213878 -0.112449 0.77171439
-0.14886668 -0.11073334 0.77000004
-0.12540001 -0.11073334 0.77000004
-0.12260678 -0.11232911 0.77088886
-0.11879268 -0.11270096 0.77200007
-0.15091906 -0.10969239 0.77300006
-0.14778344 -0.10734344 0.77200001
-0.14484191 -0.10513905 0.77200001
-0.12675022 -0.10683075 0.77057147
-0.12312815 -0.10793133 0.77211124
-0.11999906 -0.10969239 0.77300006
-0.14561848 -0.10262497 0.77300006
-0.14216667 -0.10231631 0.77166665
-0.13860001 -0.10046668 0.77000004
-0.13135095 -0.10089858 0.7705
-0.12807029 -0.10295014 0.77163649
-0.14156367 -0.098382704 0.77283335
-0.13735206 -0.097687103 0.77122223
-0.13249481 -0.097885109 0.77172726
-0.13671334 -0.093741529 0.77260011
-0.1339431 -0.094201677 0.77275002
-0.17640477 -0.14540477 0.77500004
-0.17492858 -0.14540477 0.77500004
-0.095214292 -0.14761907 0.77500004
-0.093738101 -0.14688097 0.77500004
-0.17648478 -0.14196914 0.77814287
-0.17419049 -0.14245239 0.77500004
-0.10088541 -0.14183207 0.77700007
-0.09750592 -0.14307736 0.7768001
-0.094060645 -0.14294128 0.77766669
-0.17583144 -0.1387362 0.77900004
-0.17269485 -0.13758355 0.77728575
-0.16902383 -0.13507144 0.77500004
-0.10283164 -0.137604 0.7768001
-0.17138001 -0.13428476 0.77900004
-0.16878229 -0.13209581 0.77660006
-0.10710164 -0.13158329 0.77557147
-0.10396135 -0.13302878 0.77860004
-0.16650002 -0.1268345 0.77700001
-0.16459525 -0.1262143 0.77500004
-0.1108562 -0.12563714 0.77600002
-0.10784624 -0.12753753 0.77684617
-0.10460858 -0.12909144 0.77900004
-0.16544478 -0.1238981 0.77900004
-0.16255334 -0.12234478 0.77700007
-0.11150996 -0.12219334 0.7765556
-0.10906 -0.1231562 0.77900004
-0.16099334 -0.11944667 0.77900004
-0.157986 -0.11740477 0.77671438
-0.11588096 -0.11588096 0.77500004
-0.11343953 -0.11788239 0.77725005
-0.15700559 -0.11338545 0.77814299
-0.15466002 -0.11174001 0.77700001
-0.11681321 -0.11216179 0.77700007
-0.11440223 -0.11440223 0.77833337
-0.1550581 -0.10906 0.77900004
-0.15244001 -0.10803746 0.77700007
-0.14983334 -0.10554763 0.77500004
-0.12144953 -0.10666858 0.77600002
-0.11884401 -0.10818496 0.77700007
-0.15088096 -0.10342858 0.77850002
-0.14829163 -0.10186458 0.77620006
-0.12558611 -0.10162228 0.77660006
-0.12264512 -0.10284442 0.77790922
-0.11944667 -0.10460858 0.77900004
-0.14657621 -0.098103002 0.77785724
-0.14306825 -0.096280962 0.77566671
-0.13950001 -0.095214292 0.77500004
-0.13113493 -0.095706359 0.77500004
-0.12768887 -0.097750492 0.77757156
-0.14263383 -0.09373001 0.778
-0.13740383 -0.092094615 0.77566671
-0.13218929 -0.092255004 0.77649999
-0.12910648 -0.092938863 0.77820003
-0.13661648 -0.088286676 0.77900004
-0.13398801 -0.087989911 0.77900004
-0.10028572 -0.14040001 0.78000003
-0.097501427 -0.14104143 0.78150004
-0.094584771 -0.14076 0.78200006
-0.17628287 -0.13686001 0.78100002
-0.17382857 -0.13594286 0.78000003
-0.10084001 -0.13688497 0.78200001
-0.098417148 -0.13808247 0.78371435
-0.094826676 -0.13962668 0.78400004
-0.17576382 -0.13480191 0.78200006
-0.17204002 -0.13211925 0.78200001
-0.10203049 -0.1321962 0.78200006
-0.16920511 -0.12746033 0.78266668
-0.10562 -0.12570381 0.78100002
-0.1034682 -0.12758553 0.78160006
-0.16720764 -0.12250341 0.78228581
-0.16417144 -0.12108573 0.78000003
-0.10743 -0.12269905 0.78200006
-0.1660089 -0.11722668 0.7840001
-0.16293716 -0.117552 0.78120011
-0.11132286 -0.11702573 0.78100002
-0.10962001 -0.11782096 0.78299999
-0.16182001 -0.11297525 0.78300005
-0.15860687 -0.11193105 0.78039998
-0.11529049 -0.11157048 0.78100002
-0.11311163 -0.11311163 0.78240007
-0.10976001 -0.11424001 0.78400004
-0.16053334 -0.10976001 0.78400004
-0.1570093 -0.10765072 0.78225005
-0.15396859 -0.10562 0.78100002
-0.11679324 -0.10752381 0.78222221
-0.11424001 -0.10976001 0.78400004
-0.15605335 -0.10378668 0.78400004
-0.15310343 -0.10181852 0.78200001
-0.12182859 -0.10028572 0.78000003
-0.11875024 -0.10255693 0.78175008
-0.15165667 -0.097997628 0.78250003
-0.14903858 -0.097004294 0.78049999
-0.12554286 -0.095828578 0.78000003
-0.1221643 -0.097583652 0.78216672
-0.15008001 -0.094826676 0.78400004
-0.14690509 -0.092963502 0.78299999
-0.14271668 -0.091359526 0.7815001
-0.1389143 -0.091371432 0.78000003
-0.12689354 -0.091932766 0.78100008
-0.12309398 -0.093253985 0.78333336
-0.14164536 -0.087613337 0.78360003
-0.13832001 -0.086617164 0.78000003
-0.13150287 -0.087555513 0.78090912
-0.12817779 -0.087857783 0.78400004
-0.13782181 -0.082690813 0.78222233
-0.13292296 -0.082899757 0.78290915
-0.12917334 -0.08437334 0.78400004
-0.13589334 -0.079146676 0.78400004
-0.13290668 -0.079893336 0.78400004
-0.09637858 -0.13680144 0.78600001
-0.1759143 -0.13324572 0.78600001
-0.17441717 -0.13249716 0.78600001
-0.10105715 -0.13100001 0.78600001
-0.097477786 -0.13272162 0.78733343
-0.17545858 -0.12661572 0.78900003
-0.17261608 -0.12764934 0.78688896
-0.10227485 -0.12711947 0.78714293
-0.09731105 -0.12869658 0.78840011
-0.17658572 -0.12398572 0.78900003
-0.17121714 -0.12240477 0.78850007
-0.16917714 -0.12201715 0.78600001
-0.10633619 -0.12193315 0.78740007
-0.10444858 -0.12323429 0.78900003
-0.17057429 -0.11947715 0.78900003
-0.16816144 -0.11722524 0.78650004
-0.10746977 -0.117975 0.78775001
-0.16628543 -0.11327144 0.78766674
-0.16350515 -0.11135049 0.78680009
-0.11156826 -0.11156826 0.78622234
-0.10825388 -0.1129747 0.78857154
-0.16242532 -0.10753199 0.78800005
-0.15908192 -0.10613716 0.78666675
-0.11602858 -0.10554858 0.78600001
-0.11323419 -0.10772752 0.78855562
-0.16055526 -0.10294573 0.78900003
-0.15790066 -0.10268477 0.78700006
-0.11674553 -0.10235848 0.78680009
-0.11433829 -0.10321982 0.78880006
-0.15677164 -0.097700328 0.78844452
-0.15353525 -0.096913539 0.78640002
-0.12052001 -0.095068574 0.78600001
-0.11782356 -0.097653337 0.78709102
-0.15554573 -0.093928576 0.78900003
-0.15211192 -0.092466198 0.78775001
-0.14831191 -0.091383338 0.78650004
-0.12501144 -0.090577148 0.78600001
-0.12147963 -0.091521531 0.78640002
-0.11842477 -0.092636824 0.78866673
-0.14765692 -0.087992623 0.78800011
-0.14410001 -0.087208577 0.78600001
-0.12611559 -0.087157473 0.78666675
-0.12285318 -0.088323973 0.7881667
-0.14652859 -0.084911436 0.78900003
-0.14286041 -0.083485454 0.78771436
-0.1392343 -0.080097146 0.78600001
-0.13100001 -0.080845714 0.78600001
-0.12801291 -0.082727887 0.78772736
-0.12398572 -0.084911436 0.78900003
-0.1404281 -0.07809858 0.78850007
-0.13722065 -0.07698223 0.78733337
-0.1327398 -0.077243075 0.78744447
-0.12999715 -0.078900002 0.78900003
-0.13600858 -0.074391432 0.78900003
-0.13375428 -0.074391432 0.78900003
-0.10069557 -0.1263089 0.79100007
-0.097619057 -0.12626287 0.79149997
-0.17597049 -0.12385906 0.79300004
-0.17386334 -0.12257096 0.792
-0.10199573 -0.12237127 0.79233348
-0.097929224 -0.1241108 0.7930001
-0.094404764 -0.12461429 0.79300004
-0.17197716 -0.11842191 0.79200006
-0.16992858 -0.11555143 0.79300004
-0.10622001 -0.11601334 0.79100001
-0.10405786 -0.11763072 0.79175001
-0.16698891 -0.11325112 0.79100007
-0.10659667 -0.11187001 0.79100001
-0.10438635 -0.1134416 0.79233336
-0.16642477 -0.10755239 0.79250002
-0.16498001 -0.10772667 0.79100001
-0.11124223 -0.10672223 0.79100007
-0.10879487 -0.10819143 0.79220003
-0.16539715 -0.1049781 0.79300004
-0.16235493 -0.10228794 0.79166669
-0.11526 -0.10019334 0.79100001
-0.1124231 -0.10261548 0.7922501
-0.16123398 -0.098349534 0.79233336
-0.1591543 -0.096547626 0.79200006
-0.11578239 -0.096925251 0.792
-0.11353748 -0.098432712 0.7930001
-0.15771209 -0.093821913 0.79233336
-0.15482382 -0.091383815 0.79300004
-0.11658192 -0.092754476 0.79180002
-0.15172629 -0.088015437 0.79260004
-0.14916 -0.085880011 0.79100001
-0.12141702 -0.086727224 0.79185718
-0.11897494 -0.089294299 0.79233336
-0.14716586 -0.082692116 0.79242861
-0.14331526 -0.080708578 0.79200006
-0.12626287 -0.081787623 0.79149997
-0.12355493 -0.082789212 0.79266667
-0.14265096 -0.078119054 0.79250002
-0.13936667 -0.07608667 0.79100001
-0.13032667 -0.076840006 0.79100001
-0.12792777 -0.077920139 0.79214293
-0.12461429 -0.079300009 0.79300004
-0.14122954 -0.074768573 0.79300004
-0.1378389 -0.072245806 0.79245466
-0.13253002 -0.072425559 0.79216683
-0.12914573 -0.074768573 0.79300004
-0.13594286 -0.068726674 0.79300004
-0.1766362 -0.12129429 0.796
-0.17490001 -0.12038572 0.79500002
-0.097939603 -0.1223992 0.79542863
-0.17582953 -0.11810525 0.79750007
-0.17317176 -0.11654317 0.79633343
-0.10154223 -0.11745429 0.79566669
-0.098758422 -0.11775049 0.79766673
-0.17215154 -0.11274105 0.79769993
-0.16898446 -0.11139207 0.79566669
-0.10537525 -0.11068096 0.796
-0.10262519 -0.11240657 0.79688889
-0.099053346 -0.11425334 0.79800004
-0.17252001 -0.10868001 0.79800004
-0.1689032 -0.10711589 0.79766673
-0.10710887 -0.10695744 0.79650003
-0.10412001 -0.10868001 0.79800004
-0.16666858 -0.10344001 0.79666674
-0.16450667 -0.10158382 0.796
-0.11068096 -0.10158476 0.796
-0.10816709 -0.10274259 0.79742867
-0.16329449 -0.097490668 0.796
-0.11191567 -0.097411126 0.79699999
-0.10868001 -0.098800004 0.79800004
-0.16036001 -0.093480006 0.79800004
-0.15746494 -0.091242395 0.79616666
-0.11659175 -0.090793654 0.79666674
-0.11292773 -0.093024455 0.79700005
-0.15678081 -0.087888092 0.79783338
-0.15351477 -0.086801425 0.796
-0.12038572 -0.085557148 0.79500002
-0.11767241 -0.087306127 0.79714286
-0.15210886 -0.082937695 0.79685718
-0.14764287 -0.08101429 0.79500002
-0.1214962 -0.082092389 0.79566669
-0.11927017 -0.082804769 0.79766673
-0.15124001 -0.079800002 0.79800004
-0.14770965 -0.078309409 0.79637504
-0.14432667 -0.07651858 0.79550004
-0.1260265 -0.076282479 0.79619998
-0.12279949 -0.077793427 0.79727268
-0.11932001 -0.079800002 0.79800004
-0.14516 -0.073720008 0.79800004
-0.14237811 -0.07223025 0.79624999
-0.13098572 -0.07041429 0.79500002
-0.12777129 -0.072488099 0.79700005
-0.1414662 -0.068074763 0.79716676
-0.13743186 -0.067035928 0.79600006
-0.13273969 -0.067507096 0.79644442
-0.12917288 -0.067625567 0.79783338
-0.13718 -0.064220004 0.79800004
-0.13338001 -0.064220004 0.79800004
-0.17927143 -0.1220562 0.801
-0.095847629 -0.12236191 0.80000001
-0.093714289 -0.12266668 0.80000007
-0.17831905 -0.11690858 0.80100006
-0.096029766 -0.11736929 0.80025005
-0.093772866 -0.11740525 0.80049998
-0.17676193 -0.11276191 0.80000001
-0.17447621 -0.11123811 0.80000001
-0.10133334 -0.11123811 0.80000001
-0.09746927 -0.11203931 0.80127287
-0.093566671 -0.11189809 0.80200005
-0.17157143 -0.10751684 0.80066669
-0.16990477 -0.10590477 0.80000001
-0.10229715 -0.10764306 0.8016001
-0.097245723 -0.10873143 0.80400002
-0.093184769 -0.10846096 0.80200005
-0.17130762 -0.10477239 0.80300003
-0.16792256 -0.10166985 0.80266666
-0.10590477 -0.10285716 0.80000007
-0.10325109 -0.1025588 0.80200005
-0.16651145 -0.097003818 0.80200005
-0.16304764 -0.095238104 0.80000001
-0.1104762 -0.096000008 0.80000001
-0.1072301 -0.097314678 0.80080014
-0.10418592 -0.097454481 0.80320007
-0.1628336 -0.092200719 0.80175
-0.11504763 -0.090666674 0.80000001
-0.11168811 -0.091485247 0.80049998
-0.10829525 -0.093006358 0.80266666
-0.10490286 -0.094182864 0.80400002
-0.16185601 -0.088185921 0.80240005
-0.15873018 -0.086603187 0.80000007
-0.11550048 -0.087291911 0.80049998
-0.11227874 -0.087836839 0.80199999
-0.10949715 -0.088822857 0.80400002
-0.1600343 -0.083462864 0.80400002
-0.15717989 -0.083225042 0.80171436
-0.15415874 -0.081523821 0.80000007
-0.11664334 -0.082337312 0.80050009
-0.11294477 -0.08285968 0.80311114
-0.1518909 -0.077089265 0.80142868
-0.14780954 -0.075428575 0.80000001
-0.12114286 -0.076190479 0.80000001
-0.11760017 -0.077127472 0.80183339
-0.11358096 -0.078358099 0.80400008
-0.15123111 -0.073702231 0.8033334
-0.14742382 -0.072280481 0.80100006
-0.12571429 -0.070857145 0.80000001
-0.12254324 -0.072488382 0.80120003
-0.11930192 -0.074181914 0.80300003
-0.14702922 -0.068544134 0.80266666
-0.14388905 -0.066408098 0.80150002
-0.1264762 -0.067809537 0.80000007
-0.12343143 -0.067829996 0.80250001
-0.14167684 -0.063191757 0.80266666
-0.13773835 -0.061618336 0.80124998
-0.13203794 -0.062032387 0.80054551
-0.12772295 -0.062853344 0.8021819
-0.1246562 -0.064239055 0.80300003
-0.13706288 -0.058960006 0.80400008
-0.13235939 -0.0581454 0.80333328
-0.12940572 -0.058960006 0.80400002
-0.17468192 -0.10542477 0.80800003
-0.1005581 -0.10593144 0.80600005
-0.097567633 -0.10601842 0.80666679
-0.093765721 -0.10606191 0.80700004
-0.17188239 -0.10266715 0.80750006
-0.16964382 -0.10132572 0.80600005
-0.10100429 -0.10177191 0.80650002
-0.098114289 -0.10350095 0.80800003
-0.1708343 -0.09849906 0.80800003
-0.16908477 -0.097606674 0.80700004
-0.10196286 -0.097608589 0.8070001
-0.16698667 -0.093112394 0.80800003
-0.1065308 -0.091677472 0.80666679
-0.10362858 -0.094417147 0.80600005
-0.16524287 -0.089153342 0.80700004
-0.16312638 -0.085787944 0.80666673
-0.10888033 -0.087104462 0.8070001
-0.16160001 -0.083108574 0.80800003
-0.15851685 -0.081178427 0.80666673
-0.11067334 -0.082237147 0.8070001
-0.10850286 -0.083108574 0.80800003
-0.15678954 -0.078394294 0.80700004
-0.15429144 -0.07599429 0.80600005
-0.11246636 -0.077113979 0.8070001
-0.15267582 -0.072108954 0.80720007
-0.12066572 -0.070707619 0.80700004
-0.11787011 -0.073302478 0.80680001
-0.11388953 -0.074643813 0.80800003
-0.15005715 -0.066948578 0.80800003
-0.14833429 -0.066480957 0.80700004
-0.12161753 -0.067189336 0.80720007
-0.14544001 -0.063870482 0.80800003
-0.14315176 -0.061203815 0.80666673
-0.12573716 -0.061203819 0.80666673
-0.1232781 -0.063304767 0.80733341
-0.14198439 -0.058608383 0.80760002
-0.13751811 -0.056850165 0.80666679
-0.13211095 -0.056070954 0.80650002
-0.12827097 -0.058375724 0.80650002
-0.13697524 -0.05386667 0.80800003
-0.13281982 -0.05402058 0.80800003
-0.17576288 -0.10220382 0.81300008
-0.17378572 -0.10195334 0.81100005
-0.097874925 -0.10147937 0.81133342
-0.1724539 -0.097107492 0.8120001
-0.10087302 -0.096230492 0.81266677
-0.099243186 -0.098727629 0.81200004
-0.17132764 -0.092253342 0.81400001
-0.16871773 -0.092153154 0.81040001
-0.10568572 -0.090257145 0.81000006
-0.10323953 -0.092604294 0.8120001
-0.16766934 -0.08778134 0.81280005
-0.10676286 -0.087421283 0.81233346
-0.16290542 -0.082610801 0.81066674
-0.10809588 -0.082817152 0.81266677
-0.16095193 -0.078153819 0.8125
-0.15833811 -0.076850481 0.81099999
-0.11078706 -0.076791629 0.81120008
-0.10870223 -0.077975884 0.81333339
-0.15660143 -0.072498575 0.81199998
-0.1535143 -0.070200004 0.81000006
-0.11694307 -0.071575455 0.8120001
-0.11328381 -0.072371058 0.81360006
-0.15582287 -0.068220958 0.81400001
-0.15273607 -0.067034297 0.81171435
-0.12111429 -0.065571435 0.81000006
-0.11851303 -0.067390479 0.81333339
-0.15098572 -0.06349048 0.81300002
-0.14765635 -0.062617421 0.81171429
-0.12176025 -0.06204024 0.81174999
-0.11923906 -0.064265713 0.81300002
-0.14711525 -0.059620004 0.81300002
-0.14318904 -0.056734767 0.81050003
-0.12675756 -0.057034023 0.81085718
-0.12345977 -0.058052145 0.81274998
-0.1421909 -0.052383497 0.81288898
-0.13744991 -0.051889908 0.81080002
-0.1317312 -0.051763576 0.81124997
-0.12837692 -0.053053576 0.81325006
-0.14031811 -0.048840005 0.81400001
-0.13690706 -0.048219815 0.81400007
-0.13359939 -0.048323181 0.81400001
-0.17974001 -0.10504287 0.81700003
-0.1812962 -0.10193048 0.81700003
-0.17872614 -0.10230218 0.8164286
-0.095969342 -0.10218953 0.81660002
-0.093759537 -0.10309476 0.81700003
-0.17747906 -0.097300321 0.81733346
-0.17464288 -0.096247628 0.81500006
-0.10012858 -0.095471434 0.81500006
-0.097619243 -0.097621523 0.81739998
-0.094380006 -0.099060006 0.81900007
-0.18018001 -0.094380006 0.81900007
-0.17634763 -0.093818106 0.8175
-0.17347857 -0.09197858 0.81500006
-0.10099601 -0.092281342 0.81700009
-0.098818101 -0.09414953 0.81700003
-0.17257303 -0.088226996 0.81500006
-0.16946827 -0.086674616 0.81500006
-0.10504287 -0.086368576 0.81700003
-0.10344831 -0.088338107 0.81671441
-0.17061144 -0.084136195 0.81800008
-0.16704525 -0.082840726 0.81674999
-0.1637762 -0.081500009 0.81500006
-0.10604963 -0.082368158 0.81677788
-0.16614 -0.078000009 0.81900007
-0.16306137 -0.076922588 0.81585723
-0.10694414 -0.077094294 0.81766671
-0.16217081 -0.072911121 0.8173334
-0.15911905 -0.071409523 0.81500006
-0.11145144 -0.071840957 0.81550002
-0.10945573 -0.072840482 0.81800002
-0.16126287 -0.068555243 0.81800008
-0.15823279 -0.067399874 0.81614292
-0.1156524 -0.067528576 0.81500006
-0.11285196 -0.067712285 0.8172223
-0.15658763 -0.063490957 0.81800008
-0.15329398 -0.062922224 0.81566679
-0.14980477 -0.061319053 0.81500006
-0.11722276 -0.062453866 0.81633341
-0.11404668 -0.064167306 0.81833339
-0.15156516 -0.058724768 0.81780005
-0.14774811 -0.056959767 0.81650001
-0.12165882 -0.056747384 0.81625003
-0.11852985 -0.058875881 0.81700009
-0.14607096 -0.052584287 0.81800008
-0.12659574 -0.050871432 0.81550002
-0.1240251 -0.052671745 0.8173334
-0.14219335 -0.047396876 0.81585723
-0.13777381 -0.046183333 0.81500006
-0.13221113 -0.046830162 0.81500006
-0.12752682 -0.047434129 0.81650007
-0.14173506 -0.043190289 0.81860012
-0.13761133 -0.042758629 0.81633335
-0.13261163 -0.042596195 0.81620008
-0.12834138 -0.043522585 0.81814295
-0.13338003 -0.039780002 0.81900012
-0.18341145 -0.10111143 0.82300001
-0.093828574 -0.10086572 0.82100004
-0.18145192 -0.098368101 0.82300001
-0.096695565 -0.096695565 0.82100004
-0.093828581 -0.097347155 0.82100004
-0.1784924 -0.093160003 0.82200003
-0.098242104 -0.092913724 0.82260001
-0.093943819 -0.094725721 0.82200003
-0.10182954 -0.086851291 0.82157153
-0.098578915 -0.087612666 0.82242858
-0.17087048 -0.081516191 0.82300001
-0.16889143 -0.081318095 0.82100004
-0.10251144 -0.082166672 0.82166672
-0.17008668 -0.079164766 0.82300001
-0.16772477 -0.077471435 0.82166672
-0.10555715 -0.076626673 0.82100004
-0.10356896 -0.077872194 0.82260001
-0.16695143 -0.074461907 0.82300001
-0.16446064 -0.071674608 0.82100004
-0.10723171 -0.072793067 0.82185721
-0.10424668 -0.074461907 0.82300001
-0.16538382 -0.069759049 0.82300001
-0.16283333 -0.068106666 0.82200003
-0.11031573 -0.067283332 0.8215
-0.10832249 -0.068504952 0.82300007
-0.16048571 -0.064193338 0.82200003
-0.15762953 -0.061517149 0.82180005
-0.11586192 -0.060280003 0.82200003
-0.11276501 -0.062646911 0.82225007
-0.1559781 -0.058785718 0.82300001
-0.15293354 -0.056821145 0.82180005
-0.11774246 -0.05713864 0.82185721
-0.15127525 -0.053299051 0.82300001
-0.14886382 -0.052125145 0.82180005
-0.12182077 -0.052074857 0.82100004
-0.11923753 -0.052802481 0.82260007
-0.14712821 -0.048101909 0.82260007
-0.1446524 -0.046132386 0.82100004
-0.1231031 -0.047949765 0.82200003
-0.11992286 -0.049380004 0.82300001
-0.14500476 -0.042325716 0.82300001
-0.14404477 -0.043055244 0.82200003
-0.12674524 -0.0422481 0.82150006
-0.1241581 -0.043474287 0.82249999
-0.14134699 -0.038929209 0.82300007
-0.13729949 -0.037793163 0.82209098
-0.13230239 -0.037576191 0.82200003
-0.12765621 -0.039941907 0.82233334
-0.096562624 -0.092235483 0.82600009
-0.17685334 -0.086058103 0.82900006
-0.17448477 -0.086058103 0.82900006
-0.096388578 -0.087199688 0.82733339
-0.093953341 -0.088426672 0.82900006
-0.17659017 -0.08395271 0.82900012
-0.17356573 -0.082255244 0.82650006
-0.097900018 -0.082342871 0.82499993
-0.17170191 -0.07797429 0.82700002
-0.16892858 -0.076214291 0.82500005
-0.10125715 -0.077386349 0.8263334
-0.09791062 -0.078757152 0.828143
-0.17112002 -0.074124768 0.82800007
-0.16855602 -0.072687052 0.8278001
-0.10607143 -0.071500003 0.82500005
-0.10412247 -0.072618477 0.82700008
-0.16553684 -0.067109525 0.82900012
-0.16342857 -0.066785723 0.82500005
-0.10643201 -0.066914864 0.82660007
-0.10342763 -0.068688579 0.82900006
-0.16225049 -0.062221907 0.82700002
-0.15950002 -0.060500003 0.82500005
-0.11139905 -0.061072703 0.82566679
-0.10826334 -0.062512383 0.82825005
-0.16027334 -0.05763524 0.82900006
-0.15779494 -0.057403497 0.82566679
-0.15478572 -0.055785719 0.82500005
-0.11611716 -0.056354608 0.82566679
-0.1128931 -0.057727385 0.82750005
-0.10921746 -0.05868794 0.82900012
-0.15604335 -0.052802384 0.82749999
-0.15321429 -0.05264286 0.82499999
-0.11686355 -0.052526671 0.82671434
-0.1140862 -0.053292863 0.82900006
-0.1555362 -0.049740002 0.82900006
-0.15176907 -0.048225716 0.8267501
-0.14850001 -0.046357147 0.82500005
-0.12082572 -0.046439528 0.82650006
-0.11783058 -0.047920104 0.82788897
-0.15061715 -0.044159051 0.82800007
-0.14763308 -0.042837419 0.82642865
-0.14378573 -0.040071432 0.82500005
-0.12255125 -0.041900955 0.82700008
-0.14606191 -0.03868667 0.82900006
-0.14283498 -0.036579728 0.82728589
-0.13907143 -0.035357144 0.82500005
-0.132 -0.035357144 0.82500005
-0.12764287 -0.037032068 0.82733339
-0.12316573 -0.03868667 0.82900006
-0.14132479 -0.032370478 0.82900012
-0.13783462 -0.032291114 0.82700008
-0.13250418 -0.032140691 0.82681823
-0.12797076 -0.033035513 0.82871431
-0.1373442 -0.027626289 0.82880014
-0.13261484 -0.028279867 0.82814294
-0.093388572 -0.08626572 0.83100003
-0.17754382 -0.082044765 0.83100003
-0.095762864 -0.083891436 0.83100003
-0.09338858 -0.083100013 0.83100003
-0.17706001 -0.07814572 0.83220005
-0.17437813 -0.077032387 0.83100003
-0.10142381 -0.075276196 0.83200002
-0.097009525 -0.076813817 0.83150005
-0.093598239 -0.077977829 0.83185726
-0.17532668 -0.072193339 0.83300006
-0.17238574 -0.07184381 0.83124995
-0.10300858 -0.072107628 0.83200008
-0.1714178 -0.067614928 0.83200014
-0.1680223 -0.066986486 0.83140004
-0.10287487 -0.067052007 0.83220005
-0.17136002 -0.064260006 0.83300006
-0.16659944 -0.063247055 0.83220005
-0.16382572 -0.060940005 0.83100003
-0.10565572 -0.062127143 0.83100003
-0.10309176 -0.062647626 0.83266675
-0.16253573 -0.058274291 0.8325001
-0.11080001 -0.056191433 0.83100003
-0.10691579 -0.057813477 0.83157146
-0.10392667 -0.058706671 0.83300006
-0.15854953 -0.053025719 0.83100003
-0.11156002 -0.052907147 0.83225006
-0.10868667 -0.05394667 0.83300006
-0.15698619 -0.048364285 0.8325001
-0.15392478 -0.045675244 0.83166671
-0.11640906 -0.04553429 0.83150005
-0.11347334 -0.048518572 0.83175004
-0.15234065 -0.042506989 0.83166671
-0.14896858 -0.040411431 0.83200002
-0.12108858 -0.041945718 0.83100003
-0.11826167 -0.04219405 0.83200002
-0.14791207 -0.037241906 0.83200002
-0.12244532 -0.036744904 0.83100003
-0.11979334 -0.038873337 0.83300006
-0.14570892 -0.032526668 0.83300006
-0.14373049 -0.032862861 0.83150005
-0.12636477 -0.031393334 0.83100003
-0.12276901 -0.032473762 0.83166671
-0.12376001 -0.029353335 0.83300006
-0.097019054 -0.075547621 0.83500004
-0.10145333 -0.072011426 0.8355
-0.097996511 -0.072500639 0.83655554
-0.094784461 -0.072480962 0.83633339
-0.10131779 -0.06780985 0.83766669
-0.097454056 -0.068697385 0.83875012
-0.17097621 -0.061233338 0.83500004
-0.16859049 -0.062028579 0.83500004
-0.10131779 -0.06302318 0.83766669
-0.17072986 -0.059395876 0.83900011
-0.16654572 -0.058022182 0.83785713
-0.16301303 -0.055578105 0.83766669
-0.10589334 -0.055732384 0.83600003
-0.10290111 -0.057774022 0.8375715
-0.16540287 -0.053536195 0.83900005
-0.16193049 -0.051848032 0.83757144
-0.1105381 -0.050100002 0.83500004
-0.10754906 -0.052180476 0.83649999
-0.10467525 -0.053536195 0.83900005
-0.16060857 -0.048741907 0.83900005
-0.15797493 -0.045931116 0.83633339
-0.11177556 -0.046461906 0.83633339
-0.10900477 -0.04751429 0.83850002
-0.15608135 -0.042565908 0.83700007
-0.15286954 -0.040605716 0.83600003
-0.1157762 -0.041774288 0.8355
-0.11296722 -0.042518508 0.83785719
-0.15211113 -0.037495561 0.83766675
-0.12008096 -0.036580954 0.83500004
-0.11775684 -0.038012069 0.83733338
-0.15102001 -0.034359049 0.83900005
-0.14835754 -0.03234686 0.83660001
-0.12036858 -0.032682858 0.83700007
-0.1002381 -0.065755241 0.84200001
-0.097328581 -0.065900005 0.84180003
-0.093711436 -0.06647905 0.84100002
-0.10035716 -0.061820008 0.84300011
-0.093131438 -0.06262286 0.84300005
-0.17060287 -0.05606667 0.84100002
-0.16820002 -0.05606667 0.84100002
-0.10264286 -0.056134291 0.84200001
-0.17080572 -0.052924767 0.84200001
-0.16759811 -0.052390166 0.84200001
-0.16419525 -0.050460003 0.84100002
-0.10562509 -0.051075242 0.84233332
-0.10356858 -0.053791434 0.84300005
-0.16252033 -0.047312386 0.84200001
-0.10745524 -0.047311429 0.84200001
-0.1613743 -0.044157147 0.84300005
-0.15898065 -0.042482864 0.8416667
-0.11146477 -0.041698098 0.84200001
-0.10986096 -0.04330191 0.84200001
-0.15637144 -0.038490482 0.84200001
-0.15476763 -0.03688667 0.84200001
-0.11418255 -0.038773656 0.84233344
-0.095766671 -0.065185718 0.84500003
-0.094157152 -0.065185718 0.84500003
-0.097415246 -0.061990481 0.8453334
-0.093352392 -0.060357146 0.84500003
-0.17525335 -0.058956195 0.84800005
-0.17302382 -0.0571381 0.84500003
-0.10108691 -0.056785002 0.84575003
-0.097604774 -0.058886673 0.84700006
-0.093683816 -0.058956195 0.84800005
-0.17292716 -0.051997144 0.84650004
-0.169 -0.050700005 0.84500003
-0.10267067 -0.052706864 0.84619999
-0.16702929 -0.048009768 0.84725004
-0.16497619 -0.047480956 0.84500003
-0.10608508 -0.047537148 0.84600008
-0.10418286 -0.048457146 0.84800005
-0.16556191 -0.04441905 0.84800005
-0.16230454 -0.04269024 0.84575003
-0.11025239 -0.041042861 0.84500003
-0.10836159 -0.043828256 0.84700006
-0.097553477 -0.056588575 0.85057139
-0.094937146 -0.057611432 0.85200006
-0.10136715 -0.051494762 0.85150003
-0.098280556 -0.0532596 0.85285729
-0.17175239 -0.048954926 0.852
-0.16878352 -0.046718739 0.8506667
-0.10604762 -0.046142861 0.85000002
-0.10202076 -0.047898844 0.85244447
-0.098413341 -0.048800007 0.85400003
-0.093045719 -0.057132386 0.85699999
-0.095846191 -0.052612863 0.85650003
-0.094409533 -0.055003814 0.86200005
