# .PCD v0.7 - Point Cloud Data file format
VERSION 0.7
FIELDS x y z
SIZE 4 4 4
TYPE F F F
COUNT 1 1 1
WIDTH 1162
HEIGHT 1
VIEWPOINT 0 0 0 1 0 0 0
POINTS 1162
DATA ascii
-0.18899429 -0.16776668 0.71900004
-0.16174076 -0.15653658 0.71900004
-0.15886477 -0.15681049 0.71900004
-0.16160381 -0.15270191 0.71900004
-0.15760235 -0.1525009 0.71863633
-0.15338668 -0.15133239 0.71900004
-0.16091906 -0.14996287 0.71900004
-0.15749526 -0.14927812 0.71899998
-0.15338668 -0.1492781 0.71900004
-0.18599905 -0.17087287 0.72200006
-0.1907343 -0.16594572 0.72300005
-0.18699901 -0.1672696 0.72150016
-0.18384859 -0.16663429 0.72300005
-0.16112572 -0.16594572 0.72300005
-0.15826145 -0.16583097 0.72250009
-0.15492858 -0.16594572 0.72300005
-0.1907343 -0.16388002 0.72300005
-0.18754914 -0.16394587 0.72285724
-0.16625176 -0.16074763 0.72233343
-0.16218801 -0.16287677 0.72160017
-0.15752912 -0.16252996 0.72172737
-0.15308677 -0.16197746 0.7223078
-0.14942001 -0.16112572 0.72300005
-0.18935716 -0.15630573 0.72300005
-0.16651955 -0.15757382 0.72250009
-0.16290614 -0.15840003 0.72000003
-0.15702859 -0.15794286 0.72000009
-0.1524381 -0.15724669 0.72100013
-0.14942001 -0.15768287 0.72300005
-0.19128515 -0.15382688 0.72300005
-0.18908173 -0.15244973 0.72300005
-0.16631846 -0.15257132 0.72162509
-0.16361144 -0.15181717 0.72000003
-0.15565716 -0.15428573 0.72000003
-0.15194559 -0.15286209 0.72083348
-0.14857402 -0.15211445 0.72271436
-0.18522573 -0.14804287 0.72300005
-0.18293048 -0.14712478 0.72300005
-0.16632827 -0.14774477 0.72266674
-0.16289145 -0.14708114 0.72166675
-0.15771431 -0.14674287 0.72000003
-0.15194392 -0.14707811 0.72072744
-0.14770456 -0.14707041 0.72238469
-0.17711589 -0.14284031 0.72300005
-0.17420858 -0.14184573 0.72300005
-0.16141453 -0.14351739 0.72275007
-0.15756516 -0.14368878 0.72120011
-0.15268452 -0.14344157 0.72127283
-0.14812206 -0.14281458 0.72242868
-0.1761366 -0.137852 0.72300005
-0.17361838 -0.13741919 0.72300011
-0.17617594 -0.13250083 0.72300011
-0.17310686 -0.13193031 0.72300005
-0.17310686 -0.12821202 0.72300005
-0.17749335 -0.18096001 0.72800004
-0.17315811 -0.18075749 0.72533339
-0.18046287 -0.17631429 0.72600001
-0.17723103 -0.17733023 0.72814292
-0.17356819 -0.17792982 0.72857153
-0.18239811 -0.17271876 0.72600001
-0.17809753 -0.17254674 0.72858346
-0.19310319 -0.16548413 0.72500008
-0.18232825 -0.16740783 0.72635716
-0.17906407 -0.16795976 0.72874999
-0.16570668 -0.16570668 0.72800004
-0.16432001 -0.16709335 0.72800004
-0.15656541 -0.16763398 0.72633332
-0.15196478 -0.16620533 0.72671437
-0.14916906 -0.16651478 0.72850001
-0.19312795 -0.16194913 0.72566664
-0.18760784 -0.16182624 0.72511107
-0.18273157 -0.16222897 0.72733331
-0.17982002 -0.16038001 0.72900003
-0.17010002 -0.16038001 0.72900003
-0.16778572 -0.16226192 0.72500002
-0.15062717 -0.16375571 0.72549999
-0.14752275 -0.16239822 0.72637504
-0.14388722 -0.1613166 0.72785729
-0.19247662 -0.15830654 0.72585714
-0.18762371 -0.15771894 0.72542852
-0.18292733 -0.15736718 0.72692317
-0.17781542 -0.15737906 0.72854555
-0.17273487 -0.15664116 0.72840005
-0.16971111 -0.15724383 0.72733343
-0.14713843 -0.15750095 0.72533333
-0.14347579 -0.15733905 0.72777784
-0.18697847 -0.15279442 0.72512496
-0.18249397 -0.15277112 0.7258333
-0.1773707 -0.15244979 0.72693324
-0.17281628 -0.15234153 0.72784615
-0.16940001 -0.1521143 0.72600001
-0.14664462 -0.15309097 0.72516674
-0.14359869 -0.15246306 0.727
-0.18741763 -0.1482262 0.72616667
-0.18080615 -0.14805785 0.72500002
-0.17747937 -0.14709419 0.72511107
-0.17281716 -0.14724082 0.7258333
-0.16880058 -0.14695716 0.72580004
-0.14569049 -0.14845239 0.72500008
-0.14363295 -0.14758885 0.7265715
-0.18217811 -0.14240444 0.7268182
-0.17883335 -0.14085716 0.72500002
-0.17223166 -0.14247313 0.72538465
-0.16732608 -0.14243382 0.72599995
-0.16245516 -0.14154255 0.72655559
-0.1574724 -0.1412607 0.7265715
-0.15333602 -0.14142174 0.72720003
-0.14681208 -0.14312574 0.72600001
-0.14460811 -0.14391477 0.72650003
-0.18242893 -0.13743429 0.72781825
-0.17791271 -0.13763493 0.72500002
-0.17135572 -0.13749954 0.72550005
-0.16727124 -0.13746816 0.72646159
-0.16225305 -0.13729125 0.72806245
-0.15811469 -0.13868001 0.72880006
-0.18195672 -0.132827 0.72766668
-0.17855716 -0.13215715 0.72500002
-0.17108636 -0.13309334 0.72533339
-0.16755506 -0.13268876 0.72639996
-0.16274458 -0.13263831 0.72840011
-0.18150572 -0.1292505 0.72833335
-0.17764361 -0.1278743 0.7257778
-0.17233057 -0.12646754 0.7256363
-0.16768494 -0.12749532 0.72756249
-0.16419858 -0.12879001 0.72900003
-0.17622811 -0.12419191 0.72850001
-0.17206429 -0.12349763 0.72850007
-0.16859525 -0.12384477 0.72850007
-0.16357715 -0.18524763 0.73400003
-0.17126286 -0.18031335 0.73100001
-0.16740096 -0.18108629 0.73299998
-0.1642762 -0.18245144 0.73400003
-0.17158274 -0.17715681 0.73162502
-0.16865753 -0.1777402 0.73360008
-0.17683241 -0.17126286 0.73100001
-0.17304479 -0.17276695 0.73206675
-0.16831516 -0.17235407 0.73400009
-0.18031335 -0.16638954 0.73100001
-0.17719875 -0.16713461 0.73155558
-0.17297941 -0.16740012 0.73237514
-0.16798425 -0.16845007 0.73255563
-0.16313145 -0.16940573 0.73200005
-0.14725792 -0.16679925 0.73280007
-0.14470287 -0.1656743 0.73400003
-0.18031335 -0.16360477 0.73100007
-0.17759934 -0.16277456 0.7318182
-0.17293964 -0.16247886 0.73220009
-0.1684781 -0.16499716 0.73100001
-0.1468962 -0.16499716 0.73100001
-0.14221716 -0.16243429 0.73200005
-0.1761362 -0.15942763 0.73100001
-0.17335144 -0.15907954 0.73100001
-0.19084001 -0.14749905 0.73400003
-0.18816453 -0.14635025 0.73175007
-0.19084001 -0.14260572 0.73400003
-0.18772945 -0.14245914 0.73227268
-0.15168174 -0.14079791 0.73260003
-0.1484613 -0.14194509 0.73300004
-0.18757269 -0.13774657 0.73270005
-0.15684719 -0.13734381 0.73136365
-0.15304221 -0.13782124 0.73310012
-0.18662021 -0.13302021 0.73280007
-0.18449049 -0.13088381 0.73100001
-0.1612231 -0.13127644 0.73124999
-0.1576069 -0.1325013 0.73225009
-0.15379049 -0.13421714 0.73400003
-0.1861797 -0.12839176 0.73400009
-0.18262261 -0.1272267 0.7322858
-0.17822477 -0.12601048 0.73100001
-0.16219509 -0.12721401 0.73238468
-0.15857477 -0.12888621 0.73350006
-0.18088889 -0.12361779 0.73333335
-0.17786288 -0.12224438 0.73180002
-0.17291386 -0.12138752 0.73111111
-0.16702406 -0.12207356 0.73175001
-0.16361871 -0.12332371 0.73262507
-0.17706265 -0.11760107 0.73355561
-0.17276046 -0.11743225 0.73271441
-0.16808383 -0.11779809 0.73333335
-0.1642762 -0.1188381 0.73400003
-0.17546096 -0.11394477 0.73400003
-0.17336382 -0.11394477 0.73400003
-0.1618762 -0.18580572 0.73900002
-0.15782928 -0.18703738 0.73899996
-0.15272668 -0.18885557 0.73900002
-0.14850383 -0.18721335 0.73900002
-0.16612574 -0.18248129 0.73600006
-0.1630294 -0.18226866 0.73761547
-0.16668649 -0.17706059 0.73600006
-0.16399483 -0.17743397 0.73833334
-0.16659304 -0.17406985 0.73600006
-0.16304813 -0.17245899 0.73730004
-0.15744287 -0.1714981 0.73800004
-0.15244985 -0.17071716 0.73766673
-0.19683209 -0.14615779 0.73900002
-0.19326261 -0.14712873 0.73714292
-0.14568858 -0.1470962 0.73900002
-0.19671477 -0.14322525 0.73900002
-0.19378914 -0.14205688 0.73685718
-0.14624465 -0.14203179 0.73737502
-0.14428096 -0.14428096 0.73900002
-0.19258603 -0.13767134 0.73711115
-0.18995811 -0.13528381 0.73600006
-0.15098515 -0.13696611 0.73600006
-0.14769892 -0.13757268 0.73700017
-0.19141857 -0.13270906 0.73825002
-0.18855622 -0.13248001 0.73600006
-0.15254587 -0.13195653 0.73699999
-0.14873701 -0.13327762 0.73783338
-0.18745981 -0.12764077 0.73720002
-0.18435049 -0.12617144 0.73600006
-0.16051811 -0.12547049 0.73600006
-0.15681458 -0.12734149 0.73684627
-0.15321076 -0.12809376 0.73842865
-0.18557112 -0.12316668 0.73900002
-0.18296139 -0.12200627 0.73685724
-0.16164699 -0.12203407 0.73688889
-0.158425 -0.12325883 0.7385
-0.18161288 -0.11787128 0.73816675
-0.17874287 -0.1163581 0.73600006
-0.16682668 -0.1163581 0.73600006
-0.16309898 -0.11748258 0.73690003
-0.17763126 -0.11233427 0.73720002
-0.17231765 -0.11190552 0.73635733
-0.16777009 -0.11250865 0.73758334
-0.16446763 -0.11386286 0.73800004
-0.17595239 -0.10909048 0.73900002
-0.17243335 -0.10909049 0.73900002
-0.1696181 -0.10909048 0.73900002
-0.1575143 -0.18570478 0.74000001
-0.15241344 -0.18670546 0.74090004
-0.14729524 -0.18535241 0.74000001
-0.16041334 -0.18020001 0.74200004
-0.15807894 -0.18237498 0.741
-0.15395588 -0.18366224 0.74266672
-0.14733143 -0.18377449 0.74160004
-0.16140205 -0.17755122 0.74077779
-0.15797597 -0.1774355 0.74300003
-0.16139048 -0.1740762 0.74000001
-0.15785894 -0.17357656 0.74162501
-0.15324827 -0.17352478 0.74266672
-0.14930762 -0.17053621 0.74300003
-0.14506191 -0.16629049 0.74300003
-0.20205271 -0.15867113 0.74266672
-0.19998668 -0.15900001 0.74200004
-0.14506191 -0.15638381 0.74300003
-0.1408162 -0.15638381 0.74300003
-0.13940096 -0.15638381 0.74300003
-0.13232477 -0.15779905 0.74300003
-0.12767629 -0.15750907 0.74230009
-0.2002562 -0.15072286 0.74300003
-0.19716096 -0.15122764 0.74200004
-0.19459525 -0.1521381 0.74300003
-0.14191695 -0.15229535 0.74300003
-0.13826875 -0.15270421 0.74300003
-0.13231009 -0.15282851 0.74291676
-0.12736434 -0.15261944 0.74213332
-0.12474287 -0.15293334 0.74000001
-0.20110534 -0.14732629 0.74300003
-0.19758211 -0.14793791 0.74040002
-0.14547381 -0.14759667 0.74150002
-0.14262339 -0.14763775 0.74236369
-0.13754858 -0.14783812 0.74272728
-0.1330324 -0.14789239 0.74300003
-0.12779602 -0.14902459 0.74300003
-0.2002562 -0.14293906 0.74300003
-0.19814591 -0.14201716 0.74040002
-0.14228413 -0.14228438 0.74033326
-0.13853864 -0.14298463 0.74271435
-0.19646874 -0.13693795 0.74116671
-0.14588572 -0.13601905 0.74000001
-0.14311078 -0.13788562 0.74169999
-0.19602972 -0.13299315 0.74200004
-0.19358811 -0.1315262 0.74050003
-0.1501143 -0.13038096 0.74000001
-0.14700742 -0.13218002 0.74139994
-0.14411072 -0.13422072 0.74175006
-0.1910962 -0.12772743 0.74260008
-0.18842572 -0.12561619 0.74100006
-0.15114787 -0.12663168 0.74074996
-0.1487689 -0.12778541 0.74266672
-0.18737698 -0.12217095 0.74150008
-0.15709145 -0.12182906 0.74049997
-0.15356621 -0.12290867 0.74169999
-0.18620716 -0.11836573 0.74200004
-0.1837263 -0.1162219 0.74140006
-0.16084744 -0.11678725 0.74140006
-0.1582219 -0.11862263 0.74250007
-0.15496857 -0.11958763 0.74300003
-0.18166231 -0.11323676 0.74220008
-0.16632381 -0.11064763 0.74000001
-0.1626254 -0.11280338 0.7415455
-0.17670368 -0.1072916 0.74116677
-0.1724278 -0.10645932 0.74118185
-0.16755752 -0.10737612 0.74138463
-0.16400169 -0.1088631 0.74225008
-0.16912097 -0.10402001 0.74300003
-0.15112858 -0.18518573 0.74500006
-0.15609524 -0.18092859 0.74500006
-0.15225492 -0.18224858 0.74588895
-0.1477537 -0.18220536 0.745875
-0.14442001 -0.18141429 0.74700004
-0.15574048 -0.17844525 0.74500006
-0.15196618 -0.17784086 0.74633336
-0.14726636 -0.17785589 0.7470001
-0.14357851 -0.17710942 0.74685723
-0.15062001 -0.17406668 0.74600005
-0.14752373 -0.17261864 0.7470001
-0.14274022 -0.17214376 0.74778581
-0.1389143 -0.17025906 0.74800003
-0.1454524 -0.16886668 0.74500006
-0.14219473 -0.16743733 0.7475456
-0.13793351 -0.16689764 0.74783343
-0.14255945 -0.16288573 0.74620003
-0.13772114 -0.16266952 0.7464546
-0.13296477 -0.16162954 0.74500006
-0.12984286 -0.16106191 0.74500006
-0.21072859 -0.15609524 0.74500006
-0.20713761 -0.15679058 0.74554551
-0.20255309 -0.15689002 0.74625009
-0.19887368 -0.15668193 0.74666679
-0.1428981 -0.15779811 0.745
-0.13726558 -0.15789634 0.745
-0.2105526 -0.15246801 0.7474001
-0.20718053 -0.15236177 0.74676925
-0.20252834 -0.15282786 0.74550009
-0.19724762 -0.15396668 0.74500006
-0.14564763 -0.15275429 0.74600005
-0.14403334 -0.15396668 0.74500006
-0.13587382 -0.15254763 0.74500006
-0.21062732 -0.1484127 0.74800003
-0.20690168 -0.14772829 0.74728578
-0.20345889 -0.14808477 0.74540013
-0.13622859 -0.14616191 0.74500006
-0.13197145 -0.14687143 0.74500006
-0.1275208 -0.14674243 0.745
-0.12416667 -0.1454524 0.74500006
-0.20279649 -0.14261743 0.74714297
-0.13661107 -0.14176251 0.74612504
-0.13243452 -0.14271775 0.74669242
-0.12728985 -0.1436435 0.74666679
-0.12433334 -0.14351524 0.74600005
-0.20089144 -0.13748953 0.74800003
-0.19955462 -0.13847969 0.74566674
-0.14108382 -0.13658699 0.74566674
-0.13824449 -0.1381024 0.74670011
-0.13464001 -0.1389143 0.74800003
-0.20017906 -0.13464001 0.74800003
-0.19706573 -0.1316143 0.74700004
-0.1454524 -0.13126191 0.74500006
-0.14255366 -0.13259223 0.74716675
-0.1389143 -0.13464001 0.74800003
-0.19590478 -0.12894095 0.74800003
-0.19337985 -0.12725955 0.74650002
-0.14674421 -0.12756649 0.74580002
-0.14420882 -0.12782928 0.74774998
-0.19198464 -0.12266982 0.7470001
-0.18944287 -0.12132858 0.74500006
-0.15109867 -0.12166981 0.7458573
-0.14866227 -0.12305585 0.74687505
-0.1909181 -0.11754286 0.74800003
-0.18857403 -0.11756613 0.74557149
-0.15703429 -0.1165781 0.74525005
-0.15234512 -0.11771178 0.74650007
-0.14888763 -0.11896763 0.74800003
-0.18663526 -0.11297619 0.74725008
-0.18339562 -0.11122953 0.74580008
-0.16073176 -0.11149366 0.74566674
-0.15784724 -0.11305325 0.7465834
-0.15371978 -0.11386644 0.74725008
-0.18145478 -0.1079224 0.74716675
-0.17951715 -0.10742572 0.7470001
-0.16531906 -0.10642858 0.74500006
-0.16226079 -0.10784971 0.74636376
-0.15886097 -0.10899429 0.74800003
-0.17637524 -0.1024093 0.74675006
-0.17240903 -0.10213224 0.74592304
-0.16774589 -0.10259016 0.74633336
-0.16338192 -0.10429382 0.74750006
-0.17595811 -0.099020958 0.74800003
-0.17235762 -0.098523974 0.74783337
-0.1688343 -0.099020958 0.74800003
-0.21261907 -0.15119049 0.75000012
-0.2119924 -0.14610288 0.75200003
-0.2082545 -0.14564878 0.75040007
-0.21098542 -0.14264762 0.75266671
-0.2075301 -0.14240745 0.75139999
-0.20357144 -0.14071429 0.75000006
-0.13214287 -0.14071429 0.75000012
-0.12743881 -0.14175835 0.75174999
-0.20568335 -0.13903287 0.75250006
-0.20335351 -0.13747764 0.75183338
-0.13617526 -0.13637933 0.75085717
-0.13245121 -0.13746074 0.75174999
-0.1275668 -0.13759966 0.7525
-0.20124954 -0.13321143 0.75200003
-0.19896716 -0.13169001 0.75150001
-0.14131556 -0.13130668 0.75066674
-0.13796625 -0.13287207 0.75233334
-0.13123715 -0.13410573 0.75300002
-0.12550001 -0.13410573 0.75300002
-0.19757287 -0.12765144 0.75300002
-0.19500001 -0.12500001 0.75000006
-0.1457143 -0.12500001 0.75000006
-0.1422873 -0.12719324 0.75145453
-0.13955602 -0.12750801 0.75300002
-0.19664955 -0.12257779 0.75266671
-0.19452381 -0.12214287 0.75000012
-0.14654097 -0.12220787 0.75150001
-0.14315763 -0.12308207 0.75283337
-0.19552001 -0.11960382 0.75200003
-0.19291838 -0.11705825 0.75142866
-0.15142858 -0.11500001 0.75000006
-0.14806746 -0.11770991 0.7518
-0.1909143 -0.11254096 0.75266671
-0.18906002 -0.11229049 0.75100011
-0.15679698 -0.11105905 0.75040007
-0.15234321 -0.11224322 0.75187504
-0.14947453 -0.11291215 0.75275004
-0.18644913 -0.10766604 0.75200009
-0.18345812 -0.10621144 0.75100005
-0.16085716 -0.1065219 0.75066674
-0.15771013 -0.10747188 0.75192308
-0.15370762 -0.10924476 0.75300002
-0.18223102 -0.10284605 0.75166667
-0.17940524 -0.10292429 0.75050002
-0.16609906 -0.10128 0.75066674
-0.16275191 -0.10234658 0.75150007
-0.15893129 -0.10300653 0.75283337
-0.18143716 -0.099204771 0.75300002
-0.1772052 -0.097158968 0.75163633
-0.17226616 -0.096202455 0.75142866
-0.16784534 -0.097650252 0.75208342
-0.16303469 -0.099082671 0.75280005
-0.17558333 -0.093166202 0.75250006
-0.17313215 -0.093555965 0.75275004
-0.16996287 -0.093945719 0.75300002
-0.21210733 -0.14100382 0.75666666
-0.20852381 -0.14021429 0.75500005
-0.21079621 -0.13860571 0.75800002
-0.20811462 -0.13770065 0.75700009
-0.20492859 -0.13590001 0.75500005
-0.20619336 -0.13481811 0.75700003
-0.20260273 -0.13201444 0.75628579
-0.13709843 -0.13110635 0.75500005
-0.13249239 -0.13229938 0.75580019
-0.12810349 -0.13314128 0.75566673
-0.20105717 -0.12755112 0.75666666
-0.19926415 -0.127327 0.75533342
-0.13727131 -0.12737703 0.75562507
-0.13441868 -0.12777714 0.75800002
-0.20213334 -0.12488953 0.75800002
-0.19886479 -0.12225639 0.75600004
-0.14180173 -0.12164705 0.75580007
-0.13851383 -0.12336334 0.75750005
-0.19633876 -0.11751334 0.75699997
-0.14636654 -0.1168535 0.75583339
-0.14315501 -0.11809452 0.75725001
-0.19257849 -0.11191601 0.75620002
-0.15100002 -0.11001429 0.75500005
-0.14685039 -0.11226446 0.75660008
-0.14365906 -0.11406095 0.75800002
-0.19113652 -0.10746794 0.7573334
-0.18919301 -0.10718477 0.75533342
-0.15613668 -0.10648905 0.75550008
-0.1525524 -0.10722546 0.75654554
-0.14840606 -0.10799715 0.75766671
-0.18746905 -0.10259497 0.75650001
-0.18479525 -0.10138572 0.75500005
-0.15689114 -0.10175113 0.75683343
-0.15297559 -0.10414889 0.75766671
-0.18552953 -0.098900959 0.75800002
-0.18234144 -0.097019531 0.75600004
-0.1665794 -0.096112713 0.75500005
-0.16216426 -0.097140878 0.75554556
-0.15822501 -0.097605012 0.75774997
-0.18152003 -0.094005093 0.7573334
-0.17810458 -0.092131861 0.75644445
-0.17236084 -0.09198723 0.75542867
-0.16740376 -0.092136197 0.75700015
-0.16281335 -0.093391113 0.75755554
-0.15954097 -0.094569527 0.75800002
-0.17614478 -0.088794291 0.75800002
-0.17264114 -0.088843442 0.75719994
-0.1684926 -0.088216774 0.75800002
-0.21207622 -0.13752382 0.76000011
-0.20918097 -0.13535239 0.76000005
-0.21000668 -0.13298 0.76300001
-0.20756538 -0.13251418 0.76137501
-0.20483811 -0.13100953 0.76000005
-0.13007334 -0.13007334 0.76300001
-0.1287654 -0.13069747 0.76100004
-0.20510763 -0.12900762 0.76100004
-0.20339049 -0.12883811 0.76000005
-0.13535239 -0.12521906 0.76000005
-0.13203518 -0.12756152 0.7617501
-0.12862001 -0.12862001 0.76300001
-0.2015489 -0.12237748 0.76033342
-0.13686 -0.12237683 0.76033342
-0.13371105 -0.12296782 0.76220006
-0.20128667 -0.11844668 0.76300001
-0.19840723 -0.11664178 0.76071435
-0.14172192 -0.11624382 0.76000005
-0.13781656 -0.11750691 0.76162505
-0.13443334 -0.11917335 0.76300001
-0.19679764 -0.11292192 0.76250005
-0.19496097 -0.1123381 0.76100004
-0.14192115 -0.11225965 0.76136374
-0.13830891 -0.11360224 0.76300001
-0.19547334 -0.10972667 0.76300001
-0.19325715 -0.10929525 0.76000005
-0.14653431 -0.1068662 0.76075006
-0.14343376 -0.10837825 0.76228583
-0.19133106 -0.10268953 0.7604
-0.1889143 -0.10060953 0.76000005
-0.15198553 -0.10161895 0.76033342
-0.14864798 -0.10332775 0.76137507
-0.19111335 -0.099553339 0.76300001
-0.18756323 -0.09749537 0.76112503
-0.15598096 -0.097352386 0.76000005
-0.15265691 -0.09786056 0.76208341
-0.18530001 -0.093740009 0.76300001
-0.18256032 -0.092245415 0.76066673
-0.16203068 -0.090789534 0.76020002
-0.15767178 -0.092759117 0.76092875
-0.15431526 -0.093677633 0.76250005
-0.18070287 -0.088536195 0.76200002
-0.17774858 -0.086970009 0.76100004
-0.17226668 -0.086133339 0.76000005
-0.16671747 -0.08709842 0.76000011
-0.16267565 -0.087622464 0.76141679
-0.17594127 -0.083976835 0.76233339
-0.17202647 -0.082804337 0.76115394
-0.16767161 -0.082877837 0.76154554
-0.16473716 -0.084181912 0.76200002
-0.21717165 -0.13771218 0.7677778
-0.21416906 -0.13595667 0.76750004
-0.21183763 -0.13294478 0.76699996
-0.20910001 -0.13041429 0.76500005
-0.2075686 -0.12792477 0.76580006
-0.20472859 -0.12750001 0.76500005
-0.13041429 -0.12604287 0.76500005
-0.12779145 -0.12662573 0.76500005
-0.20661604 -0.12255572 0.76750004
-0.20400001 -0.12240001 0.76500005
-0.13161412 -0.12214001 0.76520002
-0.1278322 -0.12330344 0.76700008
-0.20539764 -0.11841477 0.76750004
-0.20317286 -0.11708905 0.76600003
-0.13309164 -0.1175215 0.7664445
-0.20128065 -0.11414731 0.76666677
-0.19868116 -0.11138363 0.76640004
-0.1406143 -0.11001429 0.76500005
-0.13713205 -0.11218676 0.76627284
-0.19621192 -0.10735573 0.76683342
-0.19452858 -0.10855715 0.76500005
-0.14220977 -0.10683978 0.76574999
-0.13924667 -0.10781477 0.76750004
-0.14626858 -0.10176762 0.76600009
-0.14335477 -0.10317834 0.76700002
-0.19080858 -0.096983187 0.76566672
-0.18870001 -0.095442861 0.76500005
-0.15130001 -0.09592858 0.76500005
-0.14782925 -0.097635388 0.76638466
-0.14409144 -0.098742865 0.76800001
-0.18766329 -0.092735104 0.76671439
-0.18432859 -0.091071434 0.76500005
-0.15518573 -0.091071434 0.76500005
-0.15218787 -0.092406429 0.76550001
-0.14924058 -0.093111433 0.76740003
-0.18578288 -0.089965723 0.76800001
-0.18244025 -0.087569773 0.76625001
-0.17995715 -0.08524286 0.76500005
-0.16164033 -0.085802868 0.76566672
-0.15769163 -0.087605417 0.76656252
-0.15328923 -0.088951759 0.7676667
-0.18042763 -0.084004767 0.76700002
-0.17748384 -0.082018517 0.76600003
-0.16587144 -0.081357151 0.76500005
-0.16252013 -0.082868099 0.76730007
-0.15823239 -0.083626673 0.76800001
-0.17701621 -0.07800287 0.76725006
-0.17248029 -0.077119604 0.76600009
-0.16772179 -0.077767335 0.76646161
-0.16457143 -0.078994289 0.76800001
-0.17261715 -0.073874287 0.76800001
-0.21649811 -0.13264415 0.77233338
-0.21410573 -0.13203874 0.77166671
-0.21570383 -0.12736097 0.77300012
-0.21266796 -0.12730604 0.77266675
-0.20900001 -0.12613334 0.77000004
-0.2129989 -0.12379505 0.77280009
-0.20869207 -0.12208255 0.77066672
-0.12670438 -0.12171239 0.77080005
-0.12352001 -0.12131429 0.77200001
-0.20822828 -0.11832192 0.77166671
-0.13186857 -0.11596636 0.77066672
-0.12771657 -0.11772305 0.77160013
-0.12399334 -0.11810916 0.77220005
-0.20307355 -0.11219696 0.77200001
-0.13584286 -0.11161049 0.77100003
-0.13317607 -0.11320519 0.77257144
-0.12736097 -0.11410953 0.77300006
-0.1244162 -0.11410953 0.77300006
-0.20136097 -0.10840135 0.77220005
-0.19881739 -0.10620596 0.77175003
-0.1372904 -0.10709248 0.77163637
-0.13454857 -0.10955048 0.77200001
-0.19671462 -0.10288763 0.77166671
-0.19458573 -0.10133048 0.77100003
-0.14136954 -0.10221355 0.77088892
-0.13762784 -0.10230064 0.77277786
-0.19619478 -0.097545251 0.77300006
-0.19397764 -0.097723335 0.77150005
-0.14593334 -0.096066676 0.77000004
-0.14240003 -0.0976298 0.77181828
-0.13815843 -0.098894939 0.77300012
-0.19509049 -0.09496858 0.77300006
-0.19242038 -0.092714176 0.77262509
-0.18920001 -0.090933338 0.77000004
-0.15033334 -0.090200007 0.77000004
-0.14698271 -0.092354141 0.77166665
-0.14351963 -0.094060585 0.77280003
-0.19140953 -0.089079052 0.77300006
-0.1872979 -0.087404124 0.77122223
-0.18406668 -0.086533338 0.77000004
-0.15218075 -0.087066248 0.77111107
-0.14864604 -0.087568574 0.77266669
-0.18715715 -0.083643816 0.77266669
-0.18322726 -0.08228153 0.77139997
-0.16133335 -0.081400007 0.77000004
-0.15674244 -0.081810318 0.77136362
-0.15284066 -0.083113439 0.7723
-0.14944668 -0.083925724 0.77300006
-0.18188874 -0.077950962 0.77216667
-0.17917781 -0.077000007 0.7700001
-0.16646668 -0.075533338 0.77000004
-0.1626358 -0.077594437 0.7707144
-0.15777573 -0.077600002 0.77233338
-0.15312763 -0.078772388 0.77300006
-0.18036668 -0.074355245 0.77300006
-0.17712764 -0.07276082 0.77171439
-0.17255716 -0.071959049 0.77100009
-0.16754249 -0.072748497 0.77158344
-0.16311842 -0.073341593 0.77266669
-0.15901715 -0.074355245 0.77300006
-0.17594953 -0.069938101 0.77300006
-0.17222403 -0.06844762 0.77280009
-0.16771485 -0.06908381 0.77285731
-0.20794001 -0.11618002 0.77700007
-0.2070432 -0.11277461 0.77733338
-0.13173938 -0.11179366 0.77566671
-0.12738904 -0.11174192 0.7761668
-0.1247381 -0.11292858 0.77500004
-0.20598382 -0.1074362 0.778
-0.20373017 -0.10740667 0.77600002
-0.13507144 -0.10702382 0.77500004
-0.13253222 -0.1077866 0.77663642
-0.1273624 -0.1073681 0.77750009
-0.20198087 -0.10251249 0.77811116
-0.19854763 -0.10111906 0.77500004
-0.13507144 -0.10259525 0.77500004
-0.13309237 -0.10293005 0.7787779
-0.12805279 -0.10401505 0.77900004
-0.2010562 -0.098673336 0.77900004
-0.19855982 -0.097136199 0.7762
-0.14097621 -0.095214292 0.77500004
-0.13724491 -0.097203307 0.77638465
-0.13428476 -0.098673336 0.77900004
-0.19659334 -0.093485408 0.77700007
-0.19411907 -0.090785719 0.77500004
-0.14540477 -0.090785719 0.77500004
-0.1420331 -0.092283815 0.77675003
-0.1382962 -0.093531631 0.77820003
-0.19512096 -0.087544769 0.77900004
-0.19243361 -0.086872786 0.77585721
-0.14633097 -0.087205239 0.77600008
-0.14392935 -0.088492006 0.77820003
-0.19042477 -0.082985714 0.778
-0.18788414 -0.081013665 0.77566671
-0.15150382 -0.080925249 0.77600002
-0.14847279 -0.082741909 0.77671438
-0.18642838 -0.078034483 0.77740002
-0.18352193 -0.076220006 0.77700007
-0.1557381 -0.076023817 0.77500004
-0.15235525 -0.077535562 0.77700001
-0.14912286 -0.079383813 0.77900004
-0.18252192 -0.073106356 0.77800006
-0.17901938 -0.070671439 0.77566671
-0.16217598 -0.071430169 0.7767778
-0.15729901 -0.072462052 0.77823091
-0.15347478 -0.074513346 0.77850002
-0.18028288 -0.068997145 0.77900004
-0.17718318 -0.067367628 0.77733338
-0.17282525 -0.066101909 0.77550006
-0.16683787 -0.066698343 0.77600002
-0.16287477 -0.068003342 0.7782501
-0.15876764 -0.068997145 0.77900004
-0.17583144 -0.064545721 0.77900004
-0.17271589 -0.063006669 0.77833349
-0.1678804 -0.063325524 0.77860016
-0.16396096 -0.064545721 0.77900004
-0.21151239 -0.1154381 0.78200006
-0.21160224 -0.11250636 0.78233337
-0.20874287 -0.11217143 0.78000003
-0.21130668 -0.10901334 0.78400004
-0.20817183 -0.1072842 0.78120005
-0.20640819 -0.10219593 0.78000009
-0.2039651 -0.10185716 0.78066671
-0.13115779 -0.1014054 0.78100002
-0.12809905 -0.10128573 0.78200006
-0.20579383 -0.097127147 0.78150004
-0.2029486 -0.097385041 0.78057152
-0.13302335 -0.097812384 0.78250009
-0.12842667 -0.099306673 0.78400004
-0.20183049 -0.094584771 0.78200006
-0.19868192 -0.093015879 0.78133339
-0.14040001 -0.091371432 0.78000003
-0.13662034 -0.09193588 0.78200001
-0.13403621 -0.094248265 0.78333342
-0.19736192 -0.089369528 0.78200006
-0.14201701 -0.087265119 0.78072739
-0.13873225 -0.087625317 0.78257149
-0.19297843 -0.082598105 0.78133339
-0.14613119 -0.082365185 0.78114295
-0.14272165 -0.083245724 0.78342861
-0.13912891 -0.083875559 0.7840001
-0.19222794 -0.079327628 0.78333342
-0.18862553 -0.076966867 0.78160006
-0.1508 -0.075771436 0.78000003
-0.14805476 -0.077570334 0.78316677
-0.14410667 -0.079893336 0.78400004
-0.18594223 -0.072241902 0.78200006
-0.18398097 -0.07205715 0.78000009
-0.15525715 -0.07057143 0.78000003
-0.15185106 -0.072205342 0.78160006
-0.14858668 -0.073920004 0.78400004
-0.18592001 -0.069440007 0.78400004
-0.18221906 -0.067772076 0.78200006
-0.17902859 -0.066114292 0.78000003
-0.16194287 -0.066114292 0.78000003
-0.1572284 -0.067319818 0.78020012
-0.15310596 -0.068067387 0.78324997
-0.18144001 -0.064213336 0.78400004
-0.17795411 -0.062542677 0.78180009
-0.17234288 -0.060171433 0.78000003
-0.16661112 -0.060743809 0.78100008
-0.1624627 -0.062775418 0.78218192
-0.15752153 -0.063484192 0.78240001
-0.15456001 -0.064960003 0.78400004
-0.17581525 -0.058438733 0.78333342
-0.17218731 -0.058139689 0.78266668
-0.16821018 -0.057891436 0.78266668
-0.21109715 -0.10629715 0.78600001
-0.21034859 -0.10405143 0.78600001
-0.20638096 -0.095310479 0.78800005
-0.20436001 -0.095068574 0.78600001
-0.13166551 -0.096314676 0.78640002
-0.12855929 -0.097028822 0.78825009
-0.20514001 -0.093928576 0.78900003
-0.20170733 -0.092729531 0.78733343
-0.19986859 -0.09207429 0.78600001
-0.13549143 -0.090577148 0.78600001
-0.13271335 -0.092224091 0.78728575
-0.1294962 -0.093427621 0.78900003
-0.19687431 -0.086085722 0.78600001
-0.13635492 -0.08765652 0.78666675
-0.13408738 -0.08826454 0.78875005
-0.19658399 -0.081929371 0.78683341
-0.14222859 -0.080845714 0.78600001
-0.13795395 -0.082309626 0.78763646
-0.19599858 -0.07809858 0.78850007
-0.19284287 -0.07677184 0.78700012
-0.14597145 -0.07710287 0.78600001
-0.14272779 -0.077125892 0.78763646
-0.13883668 -0.07842429 0.78800005
-0.19155358 -0.073240712 0.78875005
-0.18888003 -0.072702862 0.78700006
-0.15046287 -0.071114287 0.78600001
-0.1473214 -0.072618529 0.78788894
-0.14284857 -0.074053146 0.78860009
-0.18656878 -0.067392766 0.78800005
-0.18414858 -0.066622861 0.78600001
-0.15142778 -0.066670761 0.78657156
-0.14859432 -0.068342865 0.78857154
-0.18548524 -0.063079529 0.78850007
-0.1826735 -0.06172302 0.78716677
-0.16169144 -0.060634289 0.78600001
-0.15794858 -0.060634293 0.78600001
-0.15322874 -0.062396891 0.78763634
-0.1495343 -0.063871436 0.78900003
-0.18198113 -0.058323659 0.78850007
-0.17813748 -0.05721302 0.78700006
-0.17292002 -0.056142859 0.78600001
-0.16650257 -0.05716477 0.78633344
-0.1626233 -0.05770392 0.78688896
-0.15758246 -0.057779454 0.78791678
-0.15347683 -0.058836829 0.78866673
-0.17652978 -0.053709764 0.78875005
-0.17235953 -0.052782699 0.78800011
-0.16750412 -0.052679636 0.78761554
-0.1627492 -0.052631367 0.78861547
-0.15848383 -0.054831117 0.78866673
-0.17057429 -0.048842859 0.78900003
-0.16722552 -0.048229337 0.78880006
-0.16381145 -0.048842859 0.78900003
-0.20920096 -0.095915243 0.79300004
-0.12656 -0.095673338 0.79100001
-0.20315906 -0.092894293 0.79300004
-0.13124478 -0.091268577 0.79200006
-0.12749729 -0.092792794 0.79214293
-0.20089334 -0.088362858 0.79300004
-0.19963335 -0.08663334 0.79100001
-0.13215208 -0.087138414 0.79216671
-0.12839049 -0.089873336 0.79300004
-0.20013811 -0.081565723 0.79300004
-0.19963335 -0.083620004 0.79100001
-0.13577048 -0.08146286 0.79200006
-0.134067 -0.083257467 0.79233336
-0.19795716 -0.077722862 0.79233336
-0.13727905 -0.077691436 0.792
-0.1924251 -0.071688585 0.79233336
-0.14539334 -0.070813343 0.79100001
-0.14232619 -0.071445242 0.79175001
-0.13934648 -0.072918288 0.79260004
-0.19107525 -0.067971438 0.79300004
-0.18882954 -0.066711426 0.79149997
-0.14685002 -0.066920958 0.79175001
-0.14269453 -0.067383334 0.79275006
-0.18786536 -0.062621526 0.79220003
-0.15142001 -0.061020005 0.79100001
-0.14816882 -0.062775247 0.79175001
-0.14425048 -0.064195246 0.79300004
-0.18555334 -0.058833338 0.79200006
-0.18329144 -0.055816196 0.79200006
-0.15236525 -0.057702385 0.79200006
-0.14878191 -0.058908574 0.79300004
-0.18092327 -0.053868383 0.79220003
-0.17768542 -0.051520325 0.79166669
-0.17402001 -0.050473336 0.79100001
-0.16046001 -0.051226668 0.79100001
-0.15783255 -0.052897286 0.7918573
-0.17597049 -0.049090479 0.79300004
-0.1727003 -0.047510348 0.79185712
-0.16777544 -0.04627791 0.79140002
-0.16254763 -0.047519535 0.792
-0.17143905 -0.04455905 0.79300004
-0.16766287 -0.04455905 0.79300004
-0.21052001 -0.093480006 0.79800004
-0.20802648 -0.093922473 0.79660004
-0.20418382 -0.091085717 0.79700005
-0.12600191 -0.091085717 0.79700005
-0.12412604 -0.091766678 0.79633343
-0.20215717 -0.087071441 0.79500002
-0.12741208 -0.087216824 0.79633331
-0.12372477 -0.088808574 0.79700005
-0.20232669 -0.082596518 0.79566669
-0.13211444 -0.082341366 0.79528582
-0.12772599 -0.082873501 0.79700005
-0.20182256 -0.078147627 0.79666662
-0.19887048 -0.075904772 0.79700005
-0.13607763 -0.076566674 0.79600006
-0.13320306 -0.077764578 0.7974
-0.12882002 -0.079420008 0.79800004
-0.19638178 -0.072883025 0.79716671
-0.19307144 -0.07041429 0.79500002
-0.1372482 -0.072339438 0.79620004
-0.13452001 -0.073720008 0.79800004
-0.19532001 -0.069160007 0.79800004
-0.19293572 -0.067090958 0.796
-0.14082858 -0.067007147 0.79500002
-0.13800858 -0.068118103 0.79766673
-0.19133696 -0.062666103 0.79660004
-0.14663336 -0.061833337 0.79500002
-0.14250259 -0.062913619 0.79590005
-0.13908 -0.064600006 0.79800004
-0.18764609 -0.056728937 0.796875
-0.15195869 -0.055904955 0.79540008
-0.14768076 -0.057537038 0.79611111
-0.14497811 -0.059964765 0.79700005
-0.18696001 -0.053960003 0.79800004
-0.18286611 -0.051965531 0.79540008
-0.15635398 -0.051781267 0.79566669
-0.15283987 -0.052825991 0.7972858
-0.14972001 -0.053960003 0.79800004
-0.18190621 -0.048229527 0.79750001
-0.17817429 -0.047525242 0.79525006
-0.17490001 -0.046185717 0.79500002
-0.16081572 -0.046272859 0.79650003
-0.15820506 -0.048687484 0.79700011
-0.18012001 -0.044840004 0.79800004
-0.17655411 -0.043568194 0.79700005
-0.1724125 -0.042457052 0.79610008
-0.16749208 -0.041682124 0.7957778
-0.16301879 -0.0431168 0.79681826
-0.17176001 -0.038760003 0.79800004
-0.16796002 -0.038380004 0.79800004
-0.21257144 -0.095238104 0.80000001
-0.21218732 -0.092147939 0.80111116
-0.20762715 -0.091599524 0.80150002
-0.21143976 -0.088180967 0.80314291
-0.20775621 -0.087838106 0.80200005
-0.2049524 -0.087619059 0.80000007
-0.21095428 -0.08384572 0.80400002
-0.2078862 -0.082541913 0.80250001
-0.20495239 -0.082285717 0.80000001
-0.20241272 -0.076444447 0.80000007
-0.13104764 -0.076190479 0.80000001
-0.12799159 -0.076924361 0.80200011
-0.20147872 -0.072500959 0.80133343
-0.19834924 -0.071365088 0.80000007
-0.13275205 -0.072455943 0.80236369
-0.12864003 -0.072742864 0.80400002
-0.20113239 -0.068827622 0.80300003
-0.197575 -0.067575008 0.80175006
-0.13615398 -0.066677146 0.80166668
-0.13324736 -0.068755388 0.80342859
-0.19678858 -0.063554287 0.80400002
-0.19366209 -0.062111624 0.80120003
-0.1897143 -0.06019048 0.80000001
-0.14177182 -0.060585529 0.80120003
-0.13811684 -0.06290286 0.80222225
-0.19256096 -0.057308264 0.80233335
-0.14608666 -0.056832388 0.801
-0.14244464 -0.058179058 0.80228579
-0.19119143 -0.053534288 0.80300003
-0.18755697 -0.052344002 0.80120003
-0.15123811 -0.051428575 0.80000001
-0.14798446 -0.053233974 0.80233335
-0.18606858 -0.049005717 0.80400002
-0.18392509 -0.046551116 0.80133337
-0.15676621 -0.04615191 0.801
-0.15263303 -0.047990799 0.80200005
-0.1493143 -0.049005717 0.80400002
-0.18171081 -0.042753339 0.80166668
-0.17818034 -0.041430481 0.80066675
-0.17447621 -0.040380955 0.80000001
-0.16167621 -0.041295242 0.80000001
-0.15807517 -0.042453337 0.80254549
-0.17762211 -0.038093716 0.80319995
-0.17335647 -0.036936872 0.80085725
-0.16723812 -0.036761902 0.80000007
-0.16261017 -0.037786458 0.80244446
-0.17534858 -0.034457143 0.80400002
-0.17204084 -0.032877829 0.80285716
-0.16762041 -0.033002861 0.80220002
-0.1638522 -0.033198483 0.80320007
-0.20175049 -0.06686572 0.80700004
-0.19881335 -0.065247625 0.80600005
-0.13219336 -0.066609219 0.8070001
-0.12903954 -0.068743333 0.80650002
-0.20084573 -0.063870482 0.80800003
-0.19778173 -0.061931055 0.80680007
-0.13633667 -0.06183096 0.80650008
-0.13404256 -0.063304767 0.80733341
-0.19612667 -0.057187624 0.80600005
-0.14508002 -0.056036193 0.80600005
-0.14180097 -0.056489527 0.80700004
-0.13791469 -0.058579814 0.80720007
-0.1969981 -0.054636195 0.80800003
-0.19317144 -0.052402671 0.80680007
-0.18960191 -0.051430479 0.80600005
-0.14622001 -0.051877618 0.8070001
-0.14297064 -0.053077832 0.80771434
-0.18741572 -0.047622386 0.80650002
-0.15134478 -0.045326989 0.80666673
-0.14813843 -0.047926988 0.80733341
-0.18622477 -0.043093339 0.80800003
-0.1844562 -0.042269528 0.80700004
-0.15582667 -0.041451432 0.80600005
-0.15278916 -0.042466868 0.80779999
-0.18138286 -0.037659049 0.80700004
-0.17885526 -0.036845718 0.80600005
-0.16107684 -0.036619686 0.80666673
-0.15784667 -0.037874762 0.80750006
-0.17710096 -0.032805081 0.80733341
-0.17446572 -0.030741906 0.80700004
-0.16202596 -0.032481667 0.80725008
-0.15852192 -0.034628574 0.80800003
-0.17174096 -0.029058291 0.80720007
-0.16718915 -0.029309392 0.80685723
-0.20391428 -0.066085719 0.81000012
-0.13130382 -0.065652385 0.81100005
-0.20321909 -0.062844448 0.81133336
-0.19980001 -0.060942862 0.81000006
-0.13500001 -0.060942862 0.81000006
-0.13233145 -0.062683545 0.81257147
-0.20029335 -0.058773339 0.81200004
-0.19825716 -0.058628574 0.81000006
-0.13660048 -0.05699667 0.81150001
-0.13334095 -0.058918096 0.81400001
-0.19517145 -0.053228576 0.81000006
-0.1924032 -0.050225399 0.81133336
-0.14178859 -0.051377147 0.81000006
-0.13865922 -0.052831691 0.8125456
-0.1912486 -0.048004765 0.81300002
-0.18923335 -0.046341907 0.81100005
-0.14672571 -0.046440002 0.81000006
-0.14246945 -0.04730304 0.81181824
-0.13876763 -0.048840005 0.81400001
-0.18792257 -0.042020321 0.81200004
-0.15042858 -0.041657146 0.81000006
-0.1475033 -0.042474706 0.81088895
-0.14420687 -0.042905524 0.8132
-0.18678415 -0.037922543 0.81266677
-0.18400893 -0.037831113 0.81066674
-0.15544286 -0.03741429 0.81000006
-0.15217862 -0.03785143 0.81111109
-0.14914143 -0.038350005 0.81350005
-0.18605715 -0.034885716 0.81400001
-0.18191716 -0.032981273 0.81166667
-0.17897144 -0.031628575 0.81000006
-0.16149271 -0.03013524 0.81133336
-0.15719314 -0.032268867 0.8112309
-0.15317556 -0.03383778 0.8136667
-0.18063049 -0.028683811 0.81400001
-0.17684691 -0.027250238 0.81175005
-0.17224097 -0.026260002 0.81100005
-0.16708881 -0.026300717 0.81225002
-0.16246447 -0.028108254 0.81233346
-0.15892382 -0.028683811 0.81400001
-0.17227811 -0.023615241 0.81300002
-0.16845411 -0.023400381 0.8136
-0.12884763 -0.065976195 0.81500006
-0.20697334 -0.061469529 0.81700003
-0.20413812 -0.061319053 0.81500006
-0.1311762 -0.061319053 0.81500006
-0.12816687 -0.06283696 0.81660002
-0.20619525 -0.059913337 0.81700003
-0.2034359 -0.059345718 0.81633341
-0.1322528 -0.056753337 0.81633341
-0.12942192 -0.058875881 0.81700009
-0.13622144 -0.051616672 0.81500006
-0.13354382 -0.052372389 0.81728584
-0.19307017 -0.047425084 0.81633341
-0.14049049 -0.04579524 0.81500006
-0.13740049 -0.047225244 0.81625003
-0.13477525 -0.048300005 0.81800008
-0.1915686 -0.042484004 0.81700003
-0.18861429 -0.042690478 0.81500006
-0.14169782 -0.042498101 0.81557149
-0.13892782 -0.043190289 0.81860012
-0.19086668 -0.037392382 0.81800002
-0.18861429 -0.036480956 0.81500006
-0.14678696 -0.037101392 0.81627274
-0.14314929 -0.037976909 0.81800008
-0.18763068 -0.032203432 0.81680006
-0.18374066 -0.030839687 0.81633341
-0.15169345 -0.031513125 0.81588894
-0.1487602 -0.032865338 0.81780005
-0.18798001 -0.028860003 0.81900007
-0.18196416 -0.027255557 0.81766671
-0.17930001 -0.025614288 0.81500006
-0.16183573 -0.026002385 0.81500006
-0.15751763 -0.026996192 0.81575
-0.15304668 -0.027401144 0.8174001
-0.18018001 -0.024180003 0.81900007
-0.17740637 -0.022564128 0.81700009
-0.17340098 -0.021578096 0.81500006
-0.16693895 -0.021851568 0.8152858
-0.16253302 -0.022551645 0.81655556
-0.1580378 -0.022946989 0.81833345
-0.15366001 -0.024180003 0.81900007
-0.17651305 -0.017910793 0.81766671
-0.17270763 -0.018079866 0.8152858
-0.16782716 -0.017870001 0.81583345
-0.16284268 -0.017919259 0.81811118
-0.15990001 -0.018720001 0.81900007
-0.17550001 -0.014820001 0.81900007
-0.17181544 -0.014174287 0.81780005
-0.16784744 -0.014181525 0.81820005
-0.12666857 -0.060988575 0.82100004
-0.20642288 -0.057860956 0.82100004
-0.20366621 -0.056399524 0.82250005
-0.1305781 -0.055515241 0.82100004
-0.12740929 -0.056952145 0.82200003
-0.12384191 -0.057218097 0.82300007
-0.20927715 -0.05173143 0.82300001
-0.20143907 -0.054082859 0.82300001
-0.19987144 -0.054082859 0.82300001
-0.13133162 -0.052124381 0.82180005
-0.12772167 -0.052694768 0.82274997
-0.12375792 -0.052725144 0.82140011
-0.19736066 -0.047773018 0.82233334
-0.1946943 -0.046132386 0.82100004
-0.13526954 -0.046132386 0.82100004
-0.13253763 -0.047964763 0.82225001
-0.12932858 -0.049380004 0.82300001
-0.19569114 -0.043109529 0.82300007
-0.1946943 -0.044568576 0.82100004
-0.13648069 -0.042810753 0.82157153
-0.13403144 -0.043893337 0.82300001
-0.19313049 -0.039877146 0.82100004
-0.14137779 -0.036257461 0.82166672
-0.13860692 -0.038370714 0.82225001
-0.19203335 -0.033703811 0.82300001
-0.14659494 -0.031561591 0.82166672
-0.1432616 -0.032879688 0.82200003
-0.18598318 -0.02843143 0.82166672
-0.18419525 -0.026649527 0.82300001
-0.15109144 -0.026616193 0.82200003
-0.14828065 -0.027932383 0.82233334
-0.18184382 -0.022730477 0.82300001
-0.15612033 -0.021632701 0.82100004
-0.15314192 -0.02310762 0.82249999
-0.1790562 -0.017201906 0.82100004
-0.16029048 -0.016420001 0.82100004
-0.15759715 -0.01820619 0.82225001
-0.20742857 -0.055785719 0.82500005
-0.20657119 -0.052477386 0.82550001
-0.20236287 -0.052246943 0.82585728
-0.19878572 -0.051071431 0.82500005
-0.12807144 -0.051071431 0.82500005
-0.20678572 -0.048610479 0.82766676
-0.20236415 -0.048031855 0.82677788
-0.13121429 -0.046357147 0.82500005
-0.12791382 -0.047746196 0.82525003
-0.12492858 -0.049500003 0.82500005
-0.20231941 -0.042753335 0.82718194
-0.19810429 -0.041901428 0.82625008
-0.13592859 -0.040071432 0.82500005
-0.13241637 -0.042278875 0.82627273
-0.12819029 -0.044306099 0.8278001
-0.19659144 -0.03868667 0.82900006
-0.19422826 -0.036957145 0.82566679
-0.13651937 -0.036754292 0.82700008
-0.1340562 -0.038640004 0.82800007
-0.19296668 -0.032292385 0.82700002
-0.14172211 -0.031616192 0.82580006
-0.13897924 -0.032654289 0.82820004
-0.18846573 -0.026608957 0.82660007
-0.14678477 -0.026997147 0.82566679
-0.14288476 -0.027787147 0.82775003
-0.13974573 -0.029212384 0.82900006
-0.18610287 -0.022867622 0.82800001
-0.18385714 -0.022785716 0.82500005
-0.15167879 -0.022374559 0.82642865
-0.14752096 -0.024455559 0.82833338
-0.14448287 -0.024475239 0.82900006
-0.13058573 -0.041154288 0.83100003
-0.12868097 -0.041484132 0.83233345
-0.20071335 -0.038873337 0.83300006
-0.19785716 -0.037988573 0.83100003
-0.1353343 -0.035614289 0.83100003
-0.13267601 -0.037567433 0.83220005
-0.19571811 -0.03327905 0.83200002
-0.13655798 -0.03224422 0.83157146
-0.19278002 -0.029353335 0.83300006
-0.14061049 -0.026644764 0.83100003
-0.13732049 -0.027939051 0.83225012
-0.12674318 -0.040654287 0.83700007
-0.20535526 -0.03755524 0.83900005
-0.20219989 -0.037476331 0.83728576
-0.19848858 -0.035871431 0.83700001
-0.13184923 -0.03634445 0.83566666
-0.12861453 -0.037686907 0.83750004
-0.19720922 -0.032203496 0.83833337
-0.13254 -0.032827448 0.83700007
-0.12864667 -0.03356 0.83900005
-0.20424287 -0.036042858 0.84100002
-0.12638319 -0.036605399 0.8416667
-0.20248145 -0.034080479 0.84200001
