# .PCD v0.7 - Point Cloud Data file format
VERSION 0.7
FIELDS x y z
SIZE 4 4 4
TYPE F F F
COUNT 1 1 1
WIDTH 776
HEIGHT 1
VIEWPOINT 0 0 0 1 0 0 0
POINTS 776
DATA ascii
0.078722231 -0.19208226 0.76300001
0.080660008 -0.19256668 0.76300001
0.078480005 -0.18966001 0.76300001
0.068495408 -0.20646209 0.76783341
0.0723643 -0.20759146 0.7675001
0.077533275 -0.20707484 0.7674616
0.082579687 -0.20681526 0.76733345
0.086674288 -0.20589715 0.76800001
0.06770315 -0.2023803 0.76770014
0.072274819 -0.20222552 0.76655561
0.077328265 -0.20207874 0.76600003
0.082568794 -0.20240118 0.76722223
0.086857148 -0.20260572 0.76800007
0.067664407 -0.19782002 0.76776928
0.072317153 -0.19722858 0.76700014
0.077133618 -0.19732043 0.76614302
0.082626477 -0.19751202 0.76640004
0.086876631 -0.19761533 0.76772738
0.069120005 -0.19273144 0.76800001
0.072232075 -0.19189304 0.76611114
0.076661907 -0.1922619 0.76499999
0.08232858 -0.19205146 0.76499999
0.085887149 -0.19260573 0.76749998
0.069485717 -0.18944001 0.76800001
0.072525315 -0.18814902 0.76700008
0.077329062 -0.18748605 0.76600003
0.082003981 -0.18809605 0.7665
0.06929715 -0.21132128 0.7713334
0.072661594 -0.21211684 0.77066672
0.077419057 -0.21151429 0.7700001
0.082866669 -0.21046668 0.7700001
0.085800007 -0.21046668 0.77000004
0.064048573 -0.20539716 0.77300006
0.066776671 -0.20803572 0.77050006
0.086533338 -0.20826668 0.77000004
0.090200007 -0.20606668 0.77000004
0.063965723 -0.20219049 0.77200001
0.065266669 -0.20386668 0.77000004
0.088733338 -0.20313334 0.77000004
0.091037512 -0.20262942 0.77087504
0.064027861 -0.19723453 0.77275002
0.065812066 -0.19645843 0.77066672
0.088733338 -0.19580001 0.77000004
0.09086588 -0.19740462 0.77150005
0.064048573 -0.19288191 0.77300006
0.06672468 -0.19229473 0.77145457
0.088200718 -0.19330502 0.77175003
0.10601144 -0.19140953 0.77300006
0.068742096 -0.18856306 0.77280009
0.072476387 -0.18655372 0.77180004
0.07720001 -0.18601525 0.77200001
0.082744002 -0.18709336 0.77160001
0.085967153 -0.18956715 0.77150005
0.076563813 -0.18478382 0.77300006
0.058161717 -0.23043525 0.77700001
0.062538475 -0.23078954 0.7762
0.067340001 -0.23088001 0.77700001
0.088060006 -0.23014002 0.77700007
0.091879055 -0.23043621 0.778
0.054159053 -0.22776477 0.77900004
0.057258096 -0.22796372 0.77855563
0.062808581 -0.22760686 0.77754551
0.067209341 -0.22753222 0.77719998
0.072262101 -0.22699869 0.77740002
0.077800646 -0.22673112 0.77800006
0.082280956 -0.22756858 0.77833349
0.087670863 -0.22800267 0.77880013
0.091748893 -0.22875398 0.77900004
0.048718415 -0.22380796 0.77900004
0.053417146 -0.22405525 0.77900004
0.056384765 -0.22405526 0.77900004
0.063061908 -0.22479717 0.77900004
0.068997145 -0.22479716 0.77900004
0.07270667 -0.22479716 0.77900004
0.077158101 -0.22479716 0.77900004
0.07270667 -0.2158943 0.77900004
0.068255246 -0.21366858 0.77900004
0.076023817 -0.21478572 0.77500004
0.048965715 -0.20179811 0.77900004
0.052444495 -0.20204233 0.77871436
0.057645004 -0.20185456 0.77850002
0.061746769 -0.2025142 0.77700001
0.048223812 -0.19734669 0.77900004
0.052770671 -0.19758879 0.77820009
0.057616048 -0.19758587 0.77792317
0.062079053 -0.19732575 0.77600002
0.093301438 -0.1962243 0.77750003
0.097189538 -0.19635749 0.77900004
0.10240182 -0.19745725 0.77863652
0.10683716 -0.19729866 0.77671438
0.043660004 -0.19314002 0.77700001
0.047571432 -0.1920829 0.77700013
0.052405462 -0.1921982 0.77700001
0.057772666 -0.1925754 0.77771449
0.062110286 -0.19195449 0.77640003
0.088856578 -0.19116592 0.77620006
0.092475072 -0.19242175 0.77790922
0.097162485 -0.19210479 0.77760005
0.10231943 -0.19235072 0.7774002
0.10702382 -0.19411907 0.77500004
0.047561821 -0.18735455 0.77700001
0.052539997 -0.18722001 0.77700001
0.056702726 -0.18791391 0.77900004
0.062402569 -0.18766925 0.77792323
0.066895567 -0.18706191 0.77566665
0.071890481 -0.18555716 0.77500004
0.078976199 -0.18526192 0.77500004
0.082351431 -0.18575048 0.7755
0.087666765 -0.18739146 0.77827281
0.092738099 -0.18770193 0.7790001
0.097310863 -0.18736343 0.77759999
0.10239231 -0.18735108 0.77754551
0.10713922 -0.18767604 0.77583337
0.047436908 -0.18381454 0.77824998
0.052809998 -0.18325812 0.77825004
0.056720003 -0.18424478 0.77850002
0.063025512 -0.18314511 0.77855557
0.067411594 -0.18223381 0.77783346
0.072668761 -0.18218522 0.77700013
0.077592008 -0.18257505 0.77740002
0.082019188 -0.18340343 0.77785724
0.087055817 -0.18434268 0.77860004
0.092738107 -0.18473431 0.77900004
0.10312477 -0.18436335 0.77900004
0.10774926 -0.18360668 0.77871436
0.11054382 -0.18102477 0.77900004
0.067513339 -0.17879906 0.77900004
0.07222534 -0.17900325 0.77860004
0.051388577 -0.23013145 0.78200006
0.094584771 -0.23087621 0.78200006
0.097690478 -0.23117049 0.78300005
0.10154667 -0.23072001 0.78400004
0.043903492 -0.22696003 0.78133339
0.047508057 -0.22686599 0.78054553
0.052557144 -0.22750001 0.78000009
0.05868572 -0.22582859 0.78000003
0.060171433 -0.22582859 0.78000003
0.066857144 -0.22508574 0.78000003
0.079485722 -0.22508574 0.78000003
0.082457155 -0.22508574 0.78000009
0.087409541 -0.22558098 0.78000009
0.0930731 -0.22645882 0.78025007
0.097247623 -0.22727083 0.78054553
0.10153171 -0.22677472 0.78142864
0.043940954 -0.22268383 0.78200006
0.047257338 -0.22187375 0.78020012
0.052569263 -0.22185147 0.78057152
0.057475109 -0.22193226 0.78085721
0.062453341 -0.22230285 0.78066677
0.067618839 -0.22217716 0.7802223
0.072057143 -0.22211431 0.78000009
0.077357158 -0.2223981 0.78100008
0.08266858 -0.22268383 0.78200006
0.087308779 -0.22244211 0.78220004
0.092350483 -0.22268382 0.78200006
0.097626202 -0.22207952 0.78250015
0.10205382 -0.22198395 0.78216672
0.043302588 -0.21715131 0.78200012
0.047657024 -0.21743537 0.7818749
0.052900951 -0.21756224 0.78233337
0.057456672 -0.21788621 0.78350008
0.062608697 -0.21764345 0.78262508
0.067571245 -0.21774994 0.78140014
0.071871847 -0.21816194 0.78028578
0.077247046 -0.21834648 0.78140008
0.082645513 -0.21815367 0.78177786
0.087182492 -0.21758173 0.78240007
0.092395835 -0.21757442 0.78237498
0.097813345 -0.21728002 0.78399998
0.10229336 -0.21728002 0.78399998
0.10566095 -0.21653943 0.78240007
0.043596666 -0.21276431 0.78250003
0.047277525 -0.21267641 0.78300005
0.052434456 -0.2125162 0.7834546
0.057493336 -0.21280001 0.78399998
0.062638104 -0.21252859 0.78299999
0.066485718 -0.21245717 0.78000003
0.082457155 -0.21468572 0.78000009
0.088445343 -0.21241792 0.78039998
0.092821531 -0.21246076 0.78220004
0.097813345 -0.21280001 0.78399998
0.10229336 -0.21280001 0.78399998
0.10602667 -0.21280001 0.78400004
0.044053335 -0.20981334 0.78400004
0.047674131 -0.2078332 0.78216672
0.052878525 -0.20778944 0.78200006
0.057346668 -0.20779113 0.78200001
0.061926775 -0.20794329 0.78133339
0.094092391 -0.20789525 0.78100002
0.097674705 -0.20802563 0.78288889
0.10217822 -0.20808467 0.7831111
0.10613333 -0.20789336 0.78400004
0.043940954 -0.20183049 0.78200006
0.046686988 -0.20303071 0.78088892
0.053485718 -0.20428573 0.78000003
0.056457147 -0.20428573 0.78000003
0.094342873 -0.20280002 0.78000009
0.097452492 -0.20309018 0.78111118
0.10235916 -0.20276017 0.78036374
0.10501143 -0.20480953 0.78200006
0.044053335 -0.19936001 0.78400004
0.046252195 -0.1982484 0.78080004
0.094342865 -0.19908573 0.78000003
0.097017154 -0.19923429 0.78000003
0.10102858 -0.19982858 0.78000003
0.05868572 -0.18720001 0.78000003
0.048000552 -0.1818939 0.78228581
0.052371431 -0.18088572 0.78000003
0.05738572 -0.1818143 0.78000009
0.061444897 -0.18178777 0.78000009
0.078742862 -0.18051429 0.78000003
0.082754292 -0.18110858 0.78000003
0.08785975 -0.18186496 0.78000009
0.092883185 -0.18205188 0.7802223
0.097397774 -0.18289745 0.78066671
0.10208867 -0.1823543 0.7803638
0.10701621 -0.18108666 0.7803334
0.048988573 -0.17929588 0.78333342
0.052316066 -0.17722328 0.78253341
0.057370797 -0.17732793 0.78233337
0.062540486 -0.17719457 0.78174996
0.067709967 -0.17688401 0.78127283
0.072180316 -0.17635682 0.78133339
0.077524953 -0.17692104 0.78119993
0.082686514 -0.17728874 0.78216672
0.087192878 -0.17736524 0.78249997
0.092349999 -0.17725261 0.78199995
0.097688586 -0.1774781 0.78299999
0.10207494 -0.17732731 0.78233337
0.10668954 -0.17757016 0.78066677
0.053760003 -0.17397335 0.78400004
0.057991117 -0.17297779 0.78400004
0.062720001 -0.17248002 0.78400004
0.067946672 -0.17248 0.78399998
0.072426669 -0.17248 0.78399998
0.077404454 -0.17281185 0.78399998
0.083377793 -0.17297779 0.78400004
0.087146677 -0.17290668 0.78400004
0.092586681 -0.17322667 0.78399998
0.097066671 -0.17397335 0.78400004
0.10229334 -0.17397337 0.7840001
0.10653769 -0.17359076 0.78228581
0.044165716 -0.18265143 0.78600001
0.046161912 -0.18090478 0.78600001
0.047779687 -0.17711145 0.78800005
0.048321273 -0.17275493 0.78866673
0.052294899 -0.172208 0.78764302
0.056799628 -0.1712964 0.78680009
0.07560572 -0.17142287 0.78600001
0.081294857 -0.17202173 0.78600001
0.088656515 -0.17106795 0.78666675
0.092168003 -0.17099695 0.78680009
0.097854458 -0.17183682 0.78733337
0.10277176 -0.17178445 0.78766674
0.10663524 -0.17121667 0.78850007
0.048842859 -0.16907144 0.78900003
0.053017471 -0.16790254 0.78900003
0.05797286 -0.16776143 0.78850001
0.062256273 -0.16801548 0.78758335
0.067500599 -0.16799738 0.78750008
0.072796196 -0.16810428 0.78800005
0.077299051 -0.16810428 0.78800011
0.08254566 -0.168091 0.78793758
0.087679923 -0.1679194 0.788091
0.092343725 -0.16771875 0.78830004
0.097122148 -0.16813214 0.78900003
0.10294572 -0.16907144 0.78900003
0.10845619 -0.16857049 0.78900003
0.063120008 -0.16456287 0.78900003
0.067628577 -0.16456287 0.78900003
0.041538097 -0.20089334 0.79300004
0.042974927 -0.19929811 0.79166669
0.045953337 -0.18004668 0.79100001
0.04444667 -0.17628002 0.79100001
0.045953341 -0.17703335 0.79100007
0.04455905 -0.17446001 0.79300004
0.046330001 -0.17213668 0.79100001
0.04444667 -0.16724002 0.79100001
0.047138102 -0.16753748 0.79122216
0.051477782 -0.16698891 0.79100007
0.094404764 -0.16539715 0.79300004
0.097628765 -0.16583298 0.79220003
0.10259099 -0.16684683 0.79161543
0.10676699 -0.16730952 0.79133332
0.048213337 -0.16498001 0.79100001
0.052693445 -0.16411294 0.79166669
0.058268812 -0.16386738 0.79200006
0.062417388 -0.16292429 0.79200006
0.06715969 -0.16223843 0.79233336
0.072426513 -0.16333589 0.79216683
0.077702746 -0.16370171 0.7921111
0.082054287 -0.16391905 0.7922501
0.087497152 -0.16443335 0.792
0.092778102 -0.16443335 0.79200006
0.097425722 -0.16388668 0.79300004
0.10246065 -0.1638867 0.7930001
0.10690128 -0.16374764 0.79233336
0.04252445 -0.20730734 0.79733342
0.041683242 -0.20266269 0.79580003
0.042792149 -0.19729835 0.79525006
0.042949233 -0.19259937 0.7954616
0.043095835 -0.18776251 0.79737502
0.043280687 -0.18299635 0.79728574
0.043618098 -0.17788573 0.79649997
0.043950479 -0.17201495 0.79566669
0.044051908 -0.16633573 0.79750001
0.04436167 -0.16342263 0.79625005
0.047775324 -0.16228104 0.79625005
0.052308101 -0.16128358 0.796
0.057297911 -0.16112936 0.79579997
0.06238953 -0.16090065 0.79566669
0.073442861 -0.16127144 0.79500002
0.078414291 -0.16099335 0.79550004
0.082864091 -0.16106899 0.79614288
0.087168373 -0.16145049 0.79588896
0.092254132 -0.16188572 0.79616666
0.097607628 -0.16175795 0.7967273
0.1024939 -0.16177602 0.796
0.10533112 -0.16140541 0.79566669
0.049400002 -0.15884002 0.79800004
0.052924447 -0.15776032 0.79766673
0.057275053 -0.1573924 0.79759997
0.062667996 -0.15751694 0.79723072
0.067534052 -0.15783024 0.79675001
0.072280303 -0.15791781 0.79630774
0.077402256 -0.15751313 0.79678571
0.082747936 -0.15714456 0.79711109
0.08735133 -0.15723176 0.79755557
0.091770001 -0.15751001 0.79799998
0.096824005 -0.15853602 0.79800004
0.10260001 -0.15884003 0.79800004
0.10564001 -0.15884002 0.79800004
0.06840001 -0.15428001 0.79800004
0.072200008 -0.15428001 0.79800004
0.077520005 -0.15428001 0.79800004
0.082840003 -0.15428001 0.79800004
0.087400004 -0.15428001 0.79800004
0.038954288 -0.18560572 0.80200005
0.040481906 -0.18560572 0.80200005
0.038954288 -0.18407811 0.80200005
0.040481906 -0.18407811 0.80200005
0.04829016 -0.15742667 0.80200005
0.051460478 -0.15628715 0.80049998
0.093714289 -0.15619048 0.80000001
0.097831964 -0.15644571 0.80044448
0.10280953 -0.1564263 0.80200005
0.10625779 -0.15670858 0.80266666
0.049771432 -0.15390858 0.80400002
0.053020772 -0.15279715 0.80220002
0.057262223 -0.15269527 0.80166674
0.062282186 -0.15292273 0.80171436
0.067355715 -0.15215413 0.8021667
0.072561912 -0.15199558 0.80199999
0.077058844 -0.15182836 0.80111122
0.082354292 -0.15174416 0.80066675
0.087739237 -0.15237854 0.80109102
0.092344783 -0.1526327 0.80133343
0.096772708 -0.15267451 0.80288887
0.10260572 -0.15314287 0.80399996
0.10720001 -0.15390858 0.80400002
0.054365717 -0.1493143 0.80400002
0.05742858 -0.14931431 0.80400008
0.062022861 -0.14931431 0.80400008
0.067893341 -0.14880382 0.80400002
0.072360009 -0.14893143 0.80400002
0.07695429 -0.14893144 0.80400002
0.083156578 -0.14900801 0.80400002
0.08767429 -0.14893143 0.80400002
0.092651427 -0.14931431 0.80400008
0.095714293 -0.1493143 0.80400002
0.046824764 -0.15659429 0.80600005
0.047755137 -0.15317991 0.80733341
0.050724767 -0.15063906 0.80700004
0.099022865 -0.15122096 0.80600005
0.10209334 -0.15122096 0.80600011
0.10700611 -0.15183507 0.80600005
0.052806199 -0.14804953 0.80650014
0.057799529 -0.14689715 0.80650014
0.06221186 -0.14669524 0.80644459
0.067243434 -0.1463082 0.80600017
0.073183581 -0.14655833 0.80675006
0.077793568 -0.14655834 0.80675012
0.08218012 -0.14669526 0.80644459
0.087642126 -0.14652467 0.80644459
0.092471756 -0.14677566 0.806889
0.097568266 -0.14852828 0.80666673
0.10220192 -0.14874613 0.80685729
0.10730512 -0.14807707 0.80636376
0.059253339 -0.14390096 0.80800003
0.062331434 -0.14390096 0.80800003
0.066563815 -0.1435162 0.80800003
0.072078735 -0.14390096 0.80800003
0.076182865 -0.14390096 0.80800003
0.0838781 -0.14390096 0.80800003
0.086186677 -0.14390096 0.80800003
0.044134289 -0.15175906 0.81300002
0.046794292 -0.15119429 0.81080008
0.044188574 -0.14807048 0.81400001
0.047237463 -0.14790754 0.81311119
0.051748257 -0.14675207 0.81100005
0.05631429 -0.14580001 0.81000006
0.094885722 -0.14580001 0.81000006
0.098329149 -0.14648914 0.81040001
0.1026 -0.14641714 0.81000006
0.10645714 -0.14580001 0.81000006
0.047909718 -0.14403924 0.81400007
0.052640278 -0.14277416 0.81285727
0.057816762 -0.1422206 0.81160003
0.062510796 -0.14200096 0.81033337
0.067422867 -0.14178859 0.81000006
0.072387859 -0.14245929 0.81075001
0.077827513 -0.14252636 0.81088889
0.082400478 -0.14260858 0.81050003
0.087391846 -0.14227349 0.81000006
0.091926351 -0.1429088 0.81111115
0.097113505 -0.14276654 0.81250018
0.10225933 -0.14254233 0.8134287
0.10694341 -0.14277361 0.81285727
0.053963181 -0.13865271 0.81333339
0.057155959 -0.13833691 0.81375009
0.062864766 -0.13804781 0.81309104
0.067496285 -0.13801682 0.81290925
0.07200858 -0.13782097 0.81300014
0.07746464 -0.13788487 0.81337512
0.082848579 -0.13782096 0.81300014
0.087386683 -0.13765049 0.81200004
0.0919623 -0.13825183 0.81280011
0.096458577 -0.13906905 0.81349999
0.079849526 -0.1341162 0.81400001
0.081400007 -0.1341162 0.81400001
0.044242859 -0.14670001 0.81500006
0.044242859 -0.14359525 0.81500006
0.046936739 -0.1419196 0.81557149
0.050452385 -0.14049049 0.81500006
0.10478572 -0.14049049 0.81500006
0.1063381 -0.14049049 0.81500006
0.044460002 -0.13884 0.81900007
0.047514182 -0.13787143 0.81788903
0.051650755 -0.13740313 0.8164286
0.057903815 -0.13614382 0.81500006
0.061319053 -0.13583334 0.81500006
0.065976195 -0.13583334 0.81500006
0.093258098 -0.13600001 0.81600004
0.09714286 -0.13677621 0.81599998
0.10216649 -0.13777544 0.81639999
0.10674872 -0.13746873 0.81814301
0.044460002 -0.13182001 0.81900007
0.047580004 -0.13494001 0.81900007
0.052572008 -0.13431601 0.81900007
0.057271115 -0.13285302 0.81816673
0.062442616 -0.13220464 0.81753355
0.067721911 -0.13232699 0.81733346
0.072333656 -0.13221905 0.81666678
0.077308893 -0.13247398 0.81583351
0.083322868 -0.13265525 0.81575
0.088047706 -0.13245602 0.81681824
0.092719682 -0.13323398 0.81811124
0.097500011 -0.13382572 0.81900012
0.10186801 -0.13431601 0.81900007
0.063960001 -0.1287 0.81900007
0.068640009 -0.1287 0.81900007
0.072540008 -0.1287 0.81900012
0.077611305 -0.12860914 0.8184287
0.082135133 -0.1288704 0.81788898
0.086225718 -0.1286364 0.81860012
0.047696192 -0.13526954 0.82100004
0.10633905 -0.13526954 0.82100004
0.044568576 -0.13214192 0.82100004
0.047696192 -0.13214192 0.82100004
0.052164219 -0.13169512 0.82100004
0.055515241 -0.1305781 0.82100004
0.09304668 -0.1305781 0.82100004
0.09773811 -0.13120364 0.82100004
0.10265294 -0.13169512 0.82100004
0.10651239 -0.1323559 0.82233334
0.044568576 -0.1290143 0.82100004
0.048204292 -0.12893668 0.82300001
0.052451432 -0.12838763 0.82200003
0.057148576 -0.12838763 0.82200003
0.062027413 -0.12744795 0.82211113
0.06750048 -0.12697905 0.82175004
0.072717153 -0.12666857 0.82100004
0.07701762 -0.12627763 0.82100004
0.082100004 -0.12627763 0.82100004
0.08764445 -0.12703145 0.82166672
0.091853663 -0.12812637 0.82200003
0.0979762 -0.12932858 0.82300007
0.10267906 -0.12932858 0.82300007
0.10769544 -0.1280745 0.82300007
0.11156224 -0.12880605 0.82300007
0.068191431 -0.12462573 0.82300007
0.072834611 -0.12374096 0.82233334
0.077170484 -0.12381697 0.82180005
0.081516191 -0.12462572 0.82300001
0.10894953 -0.12462572 0.82300001
0.10921429 -0.13592859 0.82500005
0.11184192 -0.13625811 0.82700002
0.10921429 -0.13278572 0.82500005
0.1116616 -0.13289431 0.82566679
0.048327308 -0.12685588 0.82733339
0.052747935 -0.12596732 0.82666677
0.057426672 -0.12586573 0.82600009
0.092961334 -0.12630688 0.82580012
0.097097717 -0.12684001 0.82620001
0.10249152 -0.12652303 0.82609099
0.10725001 -0.12767859 0.82500005
0.11078572 -0.12728572 0.82500005
0.048950478 -0.12395525 0.82900006
0.053046674 -0.12246192 0.82825005
0.057542544 -0.12217811 0.82766676
0.062209051 -0.12284144 0.82683337
0.067245722 -0.12230064 0.82583332
0.072722591 -0.12105429 0.82614291
0.078091025 -0.12146165 0.82585728
0.082777157 -0.12227602 0.82620001
0.087355554 -0.12276795 0.82633328
0.092016958 -0.12242401 0.82720006
0.097085834 -0.12234297 0.82877779
0.10184859 -0.12316573 0.82900012
0.10674611 -0.12298477 0.8278001
0.054477148 -0.1192181 0.82900006
0.05763524 -0.1192181 0.82900012
0.062569767 -0.11783644 0.82900006
0.067073129 -0.11757515 0.82855558
0.072092384 -0.11768191 0.82820004
0.077588655 -0.11749551 0.82900017
0.082900003 -0.11763905 0.82900006
0.087411568 -0.11809022 0.82900012
0.091979526 -0.11882334 0.82900006
0.095532387 -0.1192181 0.82900006
0.067899048 -0.11448096 0.82900006
0.071846679 -0.11448096 0.82900012
0.075004764 -0.11448096 0.82900006
0.043633334 -0.12931333 0.83300006
0.046277784 -0.12772667 0.83300006
0.048373338 -0.12265303 0.83266681
0.051442862 -0.12108858 0.83100003
0.10209429 -0.12108859 0.83100003
0.10526001 -0.12108858 0.83100003
0.049980003 -0.11979334 0.83300006
0.053271431 -0.11763214 0.83174998
0.057820637 -0.11643207 0.83166677
0.060940005 -0.11634001 0.83100003
0.080920011 -0.11503334 0.83300006
0.088640004 -0.11634001 0.83100003
0.092878573 -0.11624572 0.83174998
0.097475879 -0.1175508 0.83211118
0.10247691 -0.11833309 0.83250004
0.1070143 -0.11811081 0.83233339
0.058706671 -0.11344668 0.83300006
0.062606029 -0.11332435 0.83211118
0.067177527 -0.11201431 0.83179998
0.072116718 -0.11173938 0.83211118
0.076847762 -0.11328996 0.83185726
0.082968265 -0.1138835 0.83233333
0.087954298 -0.11410193 0.83200002
0.043807939 -0.12664351 0.83633339
0.045328576 -0.12723809 0.83500004
0.04384286 -0.12355715 0.83700001
0.045328576 -0.12405715 0.83500004
0.047884766 -0.11572382 0.83800006
0.051180325 -0.11641589 0.83533335
0.098609529 -0.11530953 0.83500004
0.1021881 -0.11570714 0.83500004
0.10735716 -0.11530953 0.83500004
0.048313338 -0.11299714 0.83850002
0.052369099 -0.11249188 0.83663642
0.057506673 -0.11163143 0.83574998
0.062823817 -0.11053811 0.83500004
0.077535719 -0.11093572 0.83500004
0.08190953 -0.11133334 0.83500004
0.087476186 -0.11133335 0.83500004
0.093117148 -0.11221683 0.83566672
0.097996935 -0.11233662 0.83655548
0.10288604 -0.11245599 0.83744442
0.10747881 -0.11266262 0.83749998
0.057531431 -0.10946953 0.83900005
0.0631731 -0.10781263 0.83699995
0.067703173 -0.10752729 0.83633327
0.072482221 -0.10752731 0.83633333
0.077282228 -0.10755629 0.83655554
0.082149744 -0.10767058 0.83744448
0.086749807 -0.10817947 0.83785713
0.091437146 -0.10900477 0.83850002
0.096684776 -0.10946953 0.83900011
0.063923813 -0.10467525 0.83900005
0.067891434 -0.10383461 0.8386668
0.072685093 -0.10383461 0.8386668
0.077445403 -0.10379303 0.83833337
0.081236511 -0.10414255 0.83900011
0.046316769 -0.11266687 0.84140009
0.048572861 -0.10878715 0.84300005
0.052285977 -0.10770762 0.8422727
0.056927312 -0.106638 0.8418889
0.060605399 -0.10706064 0.84100002
0.088442229 -0.10607588 0.8416667
0.092391916 -0.10642001 0.84175003
0.097017266 -0.106638 0.8418889
0.10182207 -0.10743223 0.84183329
0.10694058 -0.10806458 0.84300005
0.053791434 -0.10356858 0.84300005
0.057002861 -0.10196286 0.84299999
0.062132977 -0.10248564 0.84223092
0.067737833 -0.10097621 0.84242857
0.073002234 -0.10107937 0.84233332
0.077337153 -0.10138001 0.84150004
0.082796432 -0.10224143 0.84200001
0.086907625 -0.10375302 0.84233332
0.092328578 -0.10356858 0.84300011
0.096342862 -0.10356858 0.84300005
0.058608577 -0.098751433 0.84300005
0.06342572 -0.098751433 0.84300005
0.065834291 -0.098751433 0.84300005
0.043129049 -0.11085048 0.84650004
0.045871433 -0.11025239 0.84500003
0.04361143 -0.10822096 0.84800005
0.047044359 -0.10685688 0.84542865
0.050700005 -0.10542382 0.84500003
0.10622858 -0.10542382 0.84500003
0.048668258 -0.10352159 0.84700006
0.052108336 -0.10200359 0.84500015
0.078866675 -0.10059524 0.84500003
0.084500007 -0.10059524 0.84500003
0.088040963 -0.10123905 0.84500009
0.092547625 -0.10140002 0.84500015
0.097705729 -0.10184696 0.84585726
0.10232636 -0.10232446 0.84600002
0.10622858 -0.10381429 0.84500003
0.053508259 -0.098681591 0.84700006
0.057011548 -0.097303227 0.84612507
0.061765485 -0.097175002 0.84500015
0.067025177 -0.09691634 0.84500015
0.07225585 -0.097584344 0.84554553
0.077905715 -0.097420387 0.84680003
0.082988583 -0.097489528 0.84600008
0.087961279 -0.097643822 0.84733337
0.092820488 -0.098470956 0.84750009
0.097318098 -0.098933339 0.84800005
0.10256763 -0.099337146 0.84800005
0.1057981 -0.099337146 0.84800005
0.058148578 -0.094491437 0.84800005
0.06218667 -0.094491445 0.84800005
0.066661917 -0.093778484 0.84740013
0.071878098 -0.094491445 0.84800005
0.044523813 -0.10604762 0.85000002
0.044628575 -0.10467429 0.85200006
0.047394022 -0.1020879 0.85171437
0.10685715 -0.10200001 0.85000002
0.049032386 -0.097522549 0.85333341
0.052011434 -0.097188577 0.85142869
0.093095243 -0.096333347 0.85000008
0.098369151 -0.097071633 0.85080004
0.10293049 -0.097256206 0.85100001
0.10710858 -0.096827313 0.852
0.049613338 -0.093533337 0.85400003
0.053277288 -0.093438372 0.85314298
0.057489719 -0.092077903 0.85260004
0.062480006 -0.091688894 0.85200006
0.067625038 -0.091287084 0.85257155
0.072197892 -0.091665402 0.85177785
0.077040806 -0.092446521 0.85150003
0.081921913 -0.092463493 0.85166681
0.087040886 -0.092653491 0.85169244
0.092381261 -0.092629455 0.85261548
0.097319737 -0.093607627 0.85257161
0.10269036 -0.094103679 0.85285729
0.10736001 -0.093533337 0.85400003
0.062626675 -0.088653348 0.85400003
0.067506671 -0.088653348 0.85400003
0.072386675 -0.087840006 0.85400003
0.077266678 -0.087840006 0.85400003
0.082146674 -0.088653348 0.85400003
0.087026678 -0.088653348 0.85400003
0.091093339 -0.088653341 0.85400003
0.044890478 -0.10283905 0.85700005
0.046468575 -0.10027429 0.85600007
0.044942863 -0.097240016 0.85800004
0.046876192 -0.096605718 0.85600007
0.04759302 -0.093280636 0.85666674
0.052612863 -0.090951912 0.85650009
0.097478576 -0.090951905 0.85650003
0.10202381 -0.091412388 0.85700005
0.1067962 -0.092121921 0.85600013
0.053415623 -0.088373348 0.85760003
0.057957042 -0.087342434 0.8571111
0.062846676 -0.086515248 0.85700005
0.067716829 -0.086481914 0.85666674
0.072556198 -0.085600004 0.85600013
0.077447623 -0.085600004 0.85600013
0.08243525 -0.08651524 0.85700005
0.08733239 -0.08651524 0.85700005
0.09244708 -0.086850353 0.85685718
0.096868582 -0.088373341 0.85760003
0.10132572 -0.089068577 0.85800004
0.067822866 -0.084165722 0.85800004
0.072725728 -0.084165722 0.85800004
0.076811433 -0.084165722 0.85800004
0.045047622 -0.10074286 0.86000001
0.043476831 -0.097619057 0.86133337
0.043510478 -0.092767626 0.86200011
0.04713453 -0.09201882 0.86075008
0.10729524 -0.090914294 0.86000001
0.043510478 -0.089483812 0.86200005
0.04786953 -0.088628255 0.86166668
0.05193175 -0.086646676 0.86100006
0.097876191 -0.086409524 0.86000001
0.10271701 -0.087255791 0.86085725
0.1074343 -0.087750055 0.8611111
0.048436195 -0.08373715 0.86200005
0.052304283 -0.083482862 0.86150002
0.057653684 -0.082713425 0.86145455
0.063131437 -0.082808055 0.86088896
0.06798096 -0.081904769 0.86000007
0.072895244 -0.081904769 0.86000007
0.078095786 -0.082309663 0.8605715
0.082831122 -0.082829423 0.86111116
0.087750897 -0.082829431 0.86111116
0.092624135 -0.082786672 0.86066669
0.097593017 -0.082829423 0.86111116
0.10261906 -0.082916193 0.86200005
0.10754477 -0.08373715 0.86200011
0.058287628 -0.079632387 0.86200011
0.063623816 -0.079221912 0.86200005
0.068139054 -0.078811437 0.86200011
0.073064774 -0.07799048 0.86200005
0.077755921 -0.078459598 0.86200011
0.082505718 -0.079221912 0.86200005
0.087841913 -0.079632387 0.86200005
0.092767626 -0.079632387 0.86200005
0.096051432 -0.079632387 0.86200005
0.043661907 -0.087323815 0.86500007
0.046133336 -0.087323815 0.86500007
0.046486396 -0.082969397 0.86500013
0.051076196 -0.081557147 0.86500007
0.10798144 -0.081191435 0.86550009
0.048111748 -0.078074612 0.86600012
0.051949367 -0.07751064 0.86583346
0.056505509 -0.077202015 0.8654446
0.061615001 -0.076863579 0.86550009
0.066728577 -0.07661429 0.86500013
0.070023812 -0.07661429 0.86500007
0.079085723 -0.07661429 0.86500007
0.083511434 -0.076917782 0.86533344
0.087482013 -0.077038206 0.86566675
0.092496373 -0.077041306 0.8664546
0.097808391 -0.077484772 0.86740011
0.10244619 -0.077658571 0.86750019
0.10720371 -0.077622116 0.86811119
0.11007334 -0.076968573 0.86900002
0.053243499 -0.073106363 0.86900008
0.057217527 -0.072265334 0.8682
0.062136199 -0.072215252 0.86760008
0.066922069 -0.072701752 0.86750019
0.072128579 -0.072888725 0.86746162
0.07734064 -0.073486045 0.86700004
0.08188042 -0.073135652 0.86842859
0.086486198 -0.073244296 0.86900002
0.0910381 -0.073658101 0.86900002
0.05710572 -0.068692386 0.86900008
0.061243813 -0.068692386 0.86900002
0.10700858 -0.075486675 0.87100005
0.051951434 -0.07186991 0.87140006
0.077145718 -0.070509538 0.87100005
0.082122862 -0.070509538 0.87100005
0.087431811 -0.071173146 0.87100011
0.092344902 -0.071717702 0.87128592
0.097189538 -0.073264956 0.87220013
0.10193314 -0.073332004 0.87300009
0.10559144 -0.073165715 0.87300003
0.053596195 -0.067721903 0.87250006
0.077234298 -0.068098098 0.8720001
0.081802391 -0.068513811 0.8720001
0.086835243 -0.068553336 0.8725
0.050833337 -0.07083334 0.87500006
0.097500011 -0.071250007 0.87500006
0.1076463 -0.072597146 0.87620002
