# .PCD v0.7 - Point Cloud Data file format
VERSION 0.7
FIELDS x y z
SIZE 4 4 4
TYPE F F F
COUNT 1 1 1
WIDTH 1083
HEIGHT 1
VIEWPOINT 0 0 0 1 0 0 0
POINTS 1083
DATA ascii
-0.17255202 -0.18171392 0.7288
-0.16871144 -0.18259716 0.72900003
-0.17237222 -0.17805274 0.72900003
-0.16871144 -0.17982002 0.72900003
-0.17287715 -0.17426573 0.72900003
-0.16778193 -0.18657908 0.73100007
-0.16287228 -0.18657263 0.73188889
-0.15918097 -0.18846098 0.73200005
-0.17056668 -0.18240193 0.73100001
-0.16750346 -0.18254115 0.73100001
-0.16342859 -0.18265146 0.73200011
-0.17271359 -0.17689264 0.73125005
-0.16714628 -0.17740613 0.73214298
-0.16370288 -0.17836288 0.73300004
-0.17146726 -0.17286158 0.731875
-0.16796486 -0.17329578 0.73290914
-0.17126667 -0.16637334 0.73400003
-0.16940257 -0.16660637 0.73400009
-0.16167973 -0.15688626 0.73400009
-0.15728572 -0.15728571 0.73400009
-0.15402351 -0.1568197 0.73400009
-0.16134019 -0.15281181 0.73400015
-0.15716837 -0.15256269 0.73280001
-0.15295163 -0.15211277 0.73400015
-0.15692624 -0.1477865 0.73290902
-0.15245657 -0.14762054 0.73353857
-0.14843112 -0.14703304 0.73400009
-0.15662585 -0.14324844 0.73371434
-0.15225463 -0.14229958 0.73266679
-0.1481166 -0.14252764 0.73360008
-0.15588763 -0.13841143 0.73400003
-0.15239239 -0.13771239 0.73400015
-0.14819811 -0.13771239 0.73400009
-0.15169334 -0.13491622 0.73400009
-0.14889716 -0.1349162 0.73400003
-0.15666801 -0.19157696 0.73900002
-0.14163652 -0.19205335 0.73866671
-0.16051811 -0.18645334 0.73600006
-0.1572122 -0.18699801 0.73760015
-0.15319589 -0.18697874 0.73900002
-0.16098541 -0.18178034 0.73600006
-0.15764976 -0.18231262 0.73823088
-0.15343049 -0.18228668 0.73900002
-0.16224676 -0.1771763 0.73690921
-0.15845467 -0.17773373 0.73879999
-0.1710324 -0.17033143 0.73600006
-0.16767906 -0.17118701 0.73666668
-0.16320178 -0.17276104 0.73800015
-0.15906096 -0.17243336 0.73900002
-0.17138097 -0.16716239 0.73750007
-0.16775589 -0.16744287 0.73699999
-0.16304263 -0.1679647 0.73791671
-0.15820074 -0.16774128 0.73899996
-0.15343049 -0.16539524 0.73900002
-0.1672805 -0.16306239 0.73799998
-0.16278666 -0.16278738 0.73675019
-0.1572672 -0.16259913 0.73653346
-0.15268032 -0.16253155 0.73877776
-0.14834741 -0.16242361 0.73899996
-0.16680287 -0.15976477 0.73900002
-0.16332191 -0.15827505 0.73600006
-0.15233091 -0.15794191 0.73633337
-0.14744464 -0.15756707 0.73793346
-0.1430141 -0.15723106 0.73899996
-0.16273192 -0.15080714 0.73650002
-0.15126553 -0.15378897 0.73600006
-0.14749913 -0.15246601 0.73669237
-0.14236148 -0.15259869 0.73900002
-0.1381813 -0.15178826 0.73900002
-0.1323162 -0.15131906 0.73900002
-0.16154858 -0.14749882 0.73750001
-0.14657074 -0.14759135 0.73636371
-0.14209631 -0.14772534 0.73862511
-0.13771208 -0.14772181 0.73899996
-0.13255082 -0.14772181 0.73899996
-0.1616416 -0.14216954 0.73900002
-0.15864192 -0.14208992 0.73640007
-0.14565791 -0.14229333 0.73600006
-0.14242867 -0.14242925 0.73838472
-0.1381813 -0.14381176 0.73900002
-0.13302001 -0.14428096 0.73900002
-0.16117239 -0.13865049 0.73900002
-0.15808541 -0.13749452 0.73700005
-0.15491049 -0.13528381 0.73600006
-0.14609747 -0.13721494 0.73633337
-0.14428096 -0.13865049 0.73900002
-0.15603429 -0.13283905 0.73800004
-0.15258701 -0.13254669 0.73709089
-0.14773639 -0.13291717 0.73772728
-0.15269144 -0.19227836 0.74225008
-0.14736223 -0.19178192 0.74033344
-0.14259978 -0.19095978 0.74125004
-0.15152383 -0.18760765 0.73999995
-0.14715378 -0.18740037 0.74038458
-0.14371769 -0.18849729 0.74128574
-0.15089226 -0.18234043 0.74085718
-0.14780302 -0.1824891 0.74190915
-0.15645717 -0.17689525 0.74000001
-0.15276411 -0.17787321 0.74114287
-0.14930762 -0.17902763 0.74300003
-0.15645717 -0.17266667 0.74000001
-0.15320785 -0.17235276 0.74238467
-0.14930762 -0.17053621 0.74300003
-0.15610477 -0.16879049 0.74000001
-0.15227486 -0.16767354 0.74159998
-0.14716062 -0.16758971 0.74190915
-0.14350024 -0.16647644 0.74225003
-0.17125715 -0.16420953 0.74000001
-0.16984764 -0.16350478 0.74000001
-0.14635557 -0.16326986 0.74000001
-0.14245698 -0.16291067 0.74049991
-0.13722476 -0.16269009 0.74271429
-0.13237669 -0.16221876 0.74250007
-0.12825596 -0.16204476 0.74300003
-0.1673643 -0.15818238 0.74150002
-0.14095241 -0.15857145 0.74000001
-0.13760629 -0.15748669 0.74019998
-0.13279335 -0.15751621 0.74166667
-0.12729914 -0.15771073 0.74258339
-0.12383334 -0.15779907 0.74300003
-0.16629049 -0.15213811 0.74300003
-0.16465335 -0.15052001 0.74200004
-0.14024763 -0.15434286 0.74000001
-0.1368245 -0.15293334 0.74000007
-0.13252464 -0.15273321 0.7401666
-0.12717631 -0.15261431 0.74187487
-0.12383334 -0.15355335 0.74300003
-0.16487525 -0.14718476 0.74300003
-0.13601905 -0.14729524 0.74000001
-0.1320724 -0.14729524 0.74000001
-0.12772785 -0.14719452 0.74223083
-0.16349177 -0.14279018 0.74100006
-0.14071748 -0.14071748 0.74000001
-0.13703077 -0.14182773 0.74089998
-0.13267453 -0.1427743 0.74130768
-0.12878668 -0.14364667 0.74300003
-0.16201548 -0.13695216 0.74125004
-0.15998097 -0.13601905 0.74000001
-0.14223127 -0.13729143 0.74116671
-0.13836327 -0.13816109 0.74285722
-0.13303238 -0.13940096 0.74300003
-0.16052145 -0.13435668 0.74250007
-0.15805748 -0.13238063 0.7420001
-0.15199366 -0.13038096 0.74000001
-0.14694285 -0.13073334 0.74000001
-0.14352773 -0.13299647 0.74172735
-0.15668501 -0.1283893 0.74275005
-0.15235007 -0.12742709 0.74157149
-0.14733048 -0.12783639 0.74160004
-0.14425668 -0.12940715 0.74250007
-0.14015144 -0.19564287 0.74700004
-0.13683143 -0.19659144 0.7470001
-0.13217637 -0.19684558 0.74616671
-0.12811399 -0.19715333 0.74733341
-0.14049938 -0.19167779 0.74633336
-0.13752346 -0.19224787 0.74700004
-0.13237524 -0.19246344 0.74728578
-0.12846604 -0.1940051 0.74800003
-0.1454524 -0.18518573 0.74500006
-0.14176939 -0.1872595 0.74630767
-0.13820192 -0.1880686 0.74800003
-0.13363017 -0.18845907 0.74766678
-0.14590476 -0.1821143 0.74550003
-0.14291897 -0.18238547 0.74727285
-0.15112858 -0.17596191 0.74500006
-0.14762205 -0.17746091 0.74593329
-0.14295413 -0.17738304 0.74745464
-0.13820192 -0.17595811 0.74800003
-0.15112858 -0.17312382 0.74500006
-0.14742297 -0.1725854 0.74518186
-0.14213018 -0.17229296 0.74693334
-0.1375517 -0.17211863 0.7476365
-0.13300443 -0.17170936 0.74754554
-0.1275162 -0.17025906 0.74800003
-0.14183791 -0.16824745 0.74540007
-0.13729881 -0.16731811 0.74600005
-0.13212945 -0.16722469 0.74590003
-0.1276121 -0.16702242 0.74690014
-0.1226937 -0.16723967 0.74781829
-0.11896763 -0.16598478 0.74800003
-0.17003144 -0.16007143 0.74700004
-0.16860858 -0.16007143 0.74700004
-0.12594049 -0.16248097 0.74500006
-0.12249601 -0.16266686 0.74519998
-0.1177794 -0.16219041 0.74692857
-0.11421843 -0.16242288 0.74800009
-0.10756954 -0.16384763 0.74800009
-0.17085764 -0.15733096 0.74750006
-0.16802716 -0.15665953 0.74600005
-0.12167678 -0.15731429 0.74540001
-0.11788695 -0.15759361 0.74690914
-0.11469334 -0.15814859 0.74800003
-0.17085762 -0.15234762 0.74750006
-0.16838287 -0.15204 0.74600005
-0.12160424 -0.15234572 0.74590921
-0.1184662 -0.15289001 0.74783343
-0.17025906 -0.14746287 0.74800003
-0.16763595 -0.14753008 0.74628574
-0.12558572 -0.14687143 0.74500006
-0.12244109 -0.14775373 0.74660015
-0.11896763 -0.14888763 0.74800003
-0.16718706 -0.14228572 0.7470001
-0.13072667 -0.14067334 0.74600005
-0.12756784 -0.14200242 0.74638474
-0.12349353 -0.14400478 0.74780005
-0.16587383 -0.13810906 0.74750006
-0.16419336 -0.13718192 0.74633336
-0.13682087 -0.13697852 0.74522221
-0.13213298 -0.13738206 0.74623084
-0.12776667 -0.13830726 0.74780005
-0.16244382 -0.13280033 0.7470001
-0.15964286 -0.13126191 0.74500006
-0.1411539 -0.13161457 0.74585718
-0.13798496 -0.1327689 0.74683344
-0.13269548 -0.13305168 0.74775016
-0.16048072 -0.12774357 0.74725002
-0.1578216 -0.12706098 0.74533343
-0.15396668 -0.12558572 0.74500006
-0.14715526 -0.12586953 0.74500006
-0.14227994 -0.12751098 0.74669242
-0.1389143 -0.12822857 0.74800003
-0.16028573 -0.12466668 0.74800003
-0.15674646 -0.12278964 0.74622232
-0.15234587 -0.12199718 0.74600005
-0.14760022 -0.12250865 0.74664289
-0.14335792 -0.12399715 0.74739999
-0.15244953 -0.11896763 0.74800003
-0.14834636 -0.1184397 0.74766672
-0.1257143 -0.19714287 0.75000006
-0.1307143 -0.1907143 0.75000006
-0.12686141 -0.19262964 0.75061542
-0.12390096 -0.19193906 0.75200003
-0.14071429 -0.18500002 0.75000006
-0.1370364 -0.18633506 0.75020003
-0.13200052 -0.18683483 0.75100005
-0.12769862 -0.1882138 0.75230771
-0.12406572 -0.18717431 0.75300002
-0.14071429 -0.18214288 0.75000012
-0.13720351 -0.1822235 0.75033343
-0.1323681 -0.18236545 0.75210011
-0.12951602 -0.18172401 0.75300002
-0.12119715 -0.18000287 0.75300002
-0.11976287 -0.18000287 0.75300002
-0.14071429 -0.17857143 0.75000006
-0.13691776 -0.17798722 0.7505455
-0.13249698 -0.17724986 0.75127274
-0.12750922 -0.17693906 0.75216669
-0.12241168 -0.17689668 0.75275004
-0.11779851 -0.17657842 0.75266671
-0.11387429 -0.17546667 0.75200003
-0.1307143 -0.17285715 0.75000006
-0.12690477 -0.17261906 0.75000006
-0.12228804 -0.17234816 0.75088894
-0.11729906 -0.17237368 0.75100005
-0.11239668 -0.17208001 0.75050002
-0.10928572 -0.1707143 0.75000006
-0.12071429 -0.16928573 0.75000006
-0.11694805 -0.16798703 0.75000012
-0.11214285 -0.16785716 0.75000006
-0.10814358 -0.16784646 0.75075001
-0.17271668 -0.16196716 0.75250006
-0.11185715 -0.16285715 0.75000006
-0.10795239 -0.16157144 0.75066674
-0.17618038 -0.1566844 0.75260007
-0.17386073 -0.15740739 0.75125003
-0.11547621 -0.15547621 0.75000012
-0.11224222 -0.15728098 0.75066674
-0.10759048 -0.15744549 0.75213337
-0.1763005 -0.15265001 0.75250006
-0.17357144 -0.15214287 0.75000012
-0.11642346 -0.15219131 0.7511251
-0.1128181 -0.15353011 0.75260001
-0.17622705 -0.14869563 0.75280005
-0.17297824 -0.14720869 0.75155556
-0.12071429 -0.14500001 0.75000006
-0.11758235 -0.14754514 0.7517693
-0.17158502 -0.14292787 0.75225002
-0.16928573 -0.14071429 0.75000006
-0.12500001 -0.14142857 0.75000006
-0.12216739 -0.14219978 0.75125003
-0.11875366 -0.14312604 0.75266671
-0.16795477 -0.13765509 0.75150007
-0.12677959 -0.13652712 0.7505455
-0.12289546 -0.13818751 0.75266671
-0.11976287 -0.13984287 0.75300002
-0.16618973 -0.13292268 0.75280005
-0.16378954 -0.13160287 0.75100005
-0.13642858 -0.13142858 0.75000006
-0.13214287 -0.13107145 0.75000006
-0.12740913 -0.1324212 0.75158334
-0.12406572 -0.13410573 0.75300002
-0.16566001 -0.12980287 0.75300002
-0.16340017 -0.1275662 0.75250006
-0.14071429 -0.12500001 0.75000006
-0.13699268 -0.12708329 0.75085717
-0.13259327 -0.12764505 0.75181818
-0.12868406 -0.12940121 0.75275004
-0.16135715 -0.12406572 0.75300002
-0.15895112 -0.12129779 0.75066674
-0.14500001 -0.12142858 0.75000006
-0.14227107 -0.12222774 0.751625
-0.1386583 -0.1231722 0.75280005
-0.15678696 -0.11812574 0.75171435
-0.15245865 -0.11666837 0.75155568
-0.14707349 -0.11700887 0.75161541
-0.14296019 -0.11786649 0.75280011
-0.1520343 -0.11402572 0.75300002
-0.1480388 -0.11341103 0.75300002
-0.14414573 -0.11402572 0.75300002
-0.12727144 -0.18623334 0.75500005
-0.1236762 -0.18623334 0.75500005
-0.12715586 -0.18285628 0.75509101
-0.12326125 -0.1826624 0.75510007
-0.12439524 -0.17904288 0.75500005
-0.11792382 -0.17904288 0.75500005
-0.18264192 -0.16820382 0.75800002
-0.17769173 -0.16676001 0.75800002
-0.18192002 -0.16170669 0.75800002
-0.17764027 -0.16256893 0.75681818
-0.17448002 -0.16392002 0.75600004
-0.18155907 -0.15737525 0.75800002
-0.17892049 -0.15804049 0.75600004
-0.18103874 -0.15362923 0.7573334
-0.1793393 -0.15268834 0.75625002
-0.11175377 -0.15177353 0.75527281
-0.10716207 -0.15247145 0.75516677
-0.1033631 -0.15189882 0.75500005
-0.17688572 -0.14668572 0.75500005
-0.11576667 -0.14668572 0.75500005
-0.1121873 -0.14728445 0.75650012
-0.10746954 -0.14713748 0.7573334
-0.10314079 -0.14714599 0.75636363
-0.17542286 -0.14365906 0.75800002
-0.17352049 -0.14256001 0.75600004
-0.11697081 -0.14191622 0.75555563
-0.11334889 -0.14314763 0.75700003
-0.10756382 -0.14365906 0.75800008
-0.10395429 -0.14365906 0.75800002
-0.17105645 -0.13792406 0.75625002
-0.1689762 -0.13590001 0.75500005
-0.12111954 -0.13694906 0.75550008
-0.11781167 -0.13801834 0.75774997
-0.17109144 -0.13499621 0.75800002
-0.16872033 -0.13199875 0.75600004
-0.12583335 -0.13014762 0.75500005
-0.12244451 -0.13252954 0.75628585
-0.11863303 -0.13451494 0.75800008
-0.16689678 -0.12772763 0.75600004
-0.16466191 -0.12583335 0.75500005
-0.13068447 -0.12636827 0.75533342
-0.12742043 -0.12742043 0.75588894
-0.1237641 -0.12788656 0.75742859
-0.16579747 -0.12344572 0.75800008
-0.16284828 -0.12219471 0.75622225
-0.14021429 -0.12008096 0.75500005
-0.13744727 -0.1219023 0.75560009
-0.13255495 -0.12246959 0.75643766
-0.128098 -0.12328529 0.75799996
-0.16170669 -0.11911429 0.75800002
-0.15798882 -0.1162412 0.75575006
-0.14090095 -0.1170103 0.75560009
-0.13774787 -0.11773358 0.75724995
-0.13391402 -0.11783185 0.75771433
-0.15698716 -0.11282763 0.75699997
-0.15278158 -0.11182053 0.75572735
-0.14725512 -0.11108315 0.75528586
-0.14248954 -0.1122343 0.75640023
-0.13740255 -0.11430159 0.75800008
-0.13499621 -0.11478286 0.75800002
-0.15520954 -0.10900763 0.75800002
-0.15218922 -0.10891175 0.7573334
-0.14717096 -0.10893572 0.75750005
-0.14365906 -0.10900763 0.75800002
-0.18601906 -0.1657524 0.76000005
-0.18256907 -0.16722201 0.76010013
-0.18709646 -0.16284099 0.76185721
-0.18388812 -0.16289225 0.76016676
-0.18626381 -0.15872286 0.76100004
-0.18396908 -0.15789384 0.76050007
-0.18328255 -0.15257272 0.76166672
-0.18034714 -0.14920239 0.76050007
-0.17884669 -0.14641683 0.76233339
-0.1744381 -0.14114286 0.76000005
-0.11190256 -0.14163113 0.76133335
-0.10772345 -0.14184096 0.76220006
-0.10318667 -0.14242667 0.76300001
-0.17512667 -0.13734001 0.76300001
-0.17346667 -0.13761429 0.76050001
-0.1156443 -0.13713065 0.76050007
-0.11278981 -0.13790239 0.76210004
-0.10924223 -0.13830891 0.76300001
-0.17512667 -0.13298002 0.76300001
-0.17238049 -0.13254429 0.76050007
-0.1208762 -0.13100953 0.76000005
-0.1175317 -0.13243058 0.76136369
-0.11360224 -0.13394891 0.76300001
-0.17098916 -0.12864019 0.76140004
-0.16864763 -0.12594287 0.76000005
-0.12521906 -0.12521906 0.76000005
-0.12182072 -0.12688905 0.76025009
-0.11969049 -0.12791207 0.76166672
-0.1673764 -0.12245182 0.76080006
-0.12623906 -0.12189462 0.76033342
-0.1231294 -0.12292124 0.76242864
-0.16640668 -0.11990001 0.76300001
-0.16326097 -0.11700705 0.76120007
-0.13824762 -0.11580953 0.76000005
-0.13180573 -0.11666816 0.76088899
-0.12815568 -0.11813023 0.76181829
-0.16110858 -0.11248477 0.76200002
-0.15906636 -0.11223906 0.76033342
-0.13763854 -0.11209881 0.7602728
-0.13398191 -0.11292191 0.76250005
-0.15694886 -0.10763621 0.76142865
-0.15272383 -0.10712381 0.76000011
-0.1474061 -0.10671715 0.76020014
-0.14236331 -0.10698074 0.76176924
-0.1379853 -0.10863038 0.76211119
-0.15623334 -0.10391334 0.76300001
-0.15248832 -0.10356919 0.7614547
-0.14822097 -0.10397207 0.76166672
-0.14460668 -0.10391334 0.76300001
-0.18724287 -0.15737143 0.76500005
-0.18432859 -0.15081429 0.76500005
-0.18274572 -0.1473624 0.76599997
-0.18054524 -0.1432662 0.76750004
-0.17851347 -0.14310156 0.76662499
-0.10637143 -0.1406143 0.76500005
-0.10345715 -0.1406143 0.76500005
-0.17838179 -0.13744178 0.76762509
-0.11074287 -0.13624287 0.76500005
-0.10711958 -0.13696635 0.76609093
-0.10290795 -0.13720858 0.76633346
-0.17812049 -0.13286048 0.76650006
-0.17412858 -0.13041429 0.76500005
-0.11632858 -0.13090001 0.76500005
-0.11237621 -0.13280629 0.76620007
-0.10747271 -0.13379335 0.7676667
-0.17327335 -0.12794445 0.7676667
-0.12021429 -0.12750001 0.76500005
-0.11772114 -0.1275063 0.76680005
-0.11434668 -0.12897524 0.76800001
-0.17042287 -0.12214858 0.76800001
-0.16902858 -0.12167144 0.76500005
-0.12171948 -0.12188371 0.7663334
-0.17042287 -0.11922286 0.76800001
-0.1679008 -0.11752906 0.7665
-0.12648952 -0.11701144 0.76550007
-0.12302639 -0.11791402 0.76710004
-0.16707739 -0.11443119 0.76775002
-0.16327667 -0.11193223 0.76650012
-0.13217881 -0.11199279 0.76608342
-0.1278781 -0.11299707 0.76727277
-0.16202001 -0.10767106 0.76700002
-0.15929715 -0.10680477 0.76550007
-0.13678505 -0.10636654 0.76571435
-0.13309948 -0.10804559 0.76728576
-0.12873143 -0.10898286 0.76800001
-0.16018286 -0.10386287 0.76800001
-0.15718454 -0.10186762 0.76674998
-0.15227143 -0.10127144 0.76500005
-0.14723462 -0.10155779 0.76533341
-0.14262015 -0.10209375 0.76571441
-0.13760348 -0.10244511 0.7667858
-0.13385144 -0.10459429 0.76800001
-0.15579429 -0.098742865 0.76800001
-0.15257049 -0.097817943 0.76650012
-0.14784139 -0.097863682 0.76685721
-0.14290096 -0.098312862 0.76750004
-0.15250286 -0.093988575 0.76800001
-0.14921144 -0.094354294 0.76800001
-0.1862562 -0.14502953 0.77300006
-0.1862562 -0.14355715 0.77300006
-0.18329857 -0.14228658 0.77170002
-0.18200459 -0.13764153 0.77120006
-0.11117191 -0.13135095 0.77050006
-0.10740496 -0.13130227 0.77100003
-0.10324001 -0.13246268 0.77100003
-0.17594953 -0.12883334 0.77300006
-0.17374097 -0.12662476 0.77300006
-0.11623333 -0.12576666 0.77000004
-0.11241764 -0.12740658 0.77149999
-0.1083898 -0.12773429 0.77271438
-0.17193574 -0.1227081 0.77150005
-0.11753493 -0.12267842 0.77133334
-0.11349106 -0.1232061 0.77280009
-0.1720164 -0.11737068 0.77120006
-0.12217335 -0.11572001 0.77000004
-0.11775246 -0.11775462 0.77180016
-0.11410953 -0.11999906 0.77300006
-0.17142096 -0.11293144 0.77250004
-0.16827661 -0.11242817 0.77157146
-0.16500001 -0.11073334 0.77000004
-0.12598668 -0.11190667 0.77000004
-0.12257186 -0.11229631 0.77066666
-0.11908239 -0.1124662 0.77183336
-0.16627145 -0.10814953 0.77250004
-0.1643762 -0.10705048 0.77166671
-0.13175556 -0.10682224 0.7700001
-0.1273441 -0.10701328 0.77084625
-0.12318202 -0.10797842 0.77244449
-0.11999906 -0.10969239 0.77300006
-0.16217335 -0.10288826 0.77166671
-0.15913334 -0.10046668 0.77000004
-0.13566667 -0.10120001 0.77000004
-0.13218227 -0.10249355 0.77107155
-0.12829308 -0.10265443 0.77228576
-0.15815905 -0.097539291 0.77149999
-0.14593334 -0.096066676 0.77000004
-0.1419 -0.097108588 0.77099997
-0.13742995 -0.097743399 0.77166665
-0.13317606 -0.09848953 0.7725715
-0.15702192 -0.093741916 0.77260005
-0.15232371 -0.091784246 0.77100003
-0.14739883 -0.092382953 0.77191675
-0.14284043 -0.093946256 0.77266675
-0.13766763 -0.09496858 0.77300012
-0.15165526 -0.089079052 0.77300006
-0.14944668 -0.089079052 0.77300006
-0.1867381 -0.1417143 0.77500004
-0.18526192 -0.13876191 0.77500004
-0.17834002 -0.13098001 0.77700001
-0.17708859 -0.12744477 0.778
-0.17492858 -0.1262143 0.77500004
-0.10679238 -0.12637524 0.77600008
-0.10332308 -0.12699336 0.77677786
-0.17754464 -0.12227961 0.77814299
-0.17404287 -0.12178572 0.77500004
-0.11147843 -0.12215842 0.77633333
-0.10776057 -0.12258305 0.77820009
-0.10306636 -0.12234446 0.77855569
-0.17583144 -0.11796287 0.77900004
-0.17390001 -0.11692192 0.77700007
-0.11588096 -0.11588096 0.77500004
-0.11372504 -0.11795743 0.77757144
-0.10164096 -0.11944667 0.77900004
-0.11698136 -0.11254301 0.77671438
-0.11499525 -0.11499525 0.77900004
-0.16810383 -0.10748553 0.77620006
-0.12144953 -0.10666858 0.77600002
-0.11896592 -0.10829695 0.77780002
-0.16565494 -0.102947 0.77766669
-0.16311906 -0.10111906 0.77500004
-0.12564722 -0.1023977 0.77671427
-0.12267334 -0.10290065 0.77855569
-0.16243143 -0.09768001 0.77700001
-0.13507144 -0.095214292 0.77500004
-0.13206144 -0.09659858 0.77575004
-0.12803271 -0.098030016 0.7778334
-0.16135018 -0.093646675 0.77833337
-0.15824212 -0.09180095 0.77860004
-0.14540477 -0.090785719 0.77500004
-0.14201812 -0.091473028 0.77666676
-0.13734105 -0.092567533 0.77645463
-0.13290024 -0.092863582 0.77850008
-0.12983334 -0.093480006 0.77900004
-0.15654191 -0.088657632 0.77900004
-0.1524002 -0.086851433 0.77680004
-0.14754485 -0.08740887 0.77730781
-0.14266859 -0.088537343 0.77860016
-0.13768762 -0.088742867 0.77866668
-0.15134859 -0.083835244 0.77900004
-0.17865716 -0.12665716 0.78000003
-0.18097715 -0.12363048 0.78200006
-0.11179214 -0.11700024 0.78125
-0.10762329 -0.1175226 0.7824285
-0.10384065 -0.11796572 0.78066671
-0.11566192 -0.11231429 0.78100002
-0.11328572 -0.11328571 0.78360003
-0.10745287 -0.11379476 0.78350008
-0.10376096 -0.11268572 0.78100002
-0.17033239 -0.10710762 0.78100002
-0.16949335 -0.10528 0.78400004
-0.11698592 -0.10729982 0.78240007
-0.11424001 -0.10976001 0.78400004
-0.1676781 -0.1019454 0.78133339
-0.12131668 -0.10085001 0.78150004
-0.11891176 -0.1032724 0.78200006
-0.16645524 -0.097936198 0.78200006
-0.16417144 -0.095828578 0.78000003
-0.12603812 -0.096323818 0.78000009
-0.12314953 -0.097811431 0.78250009
-0.16576001 -0.093333341 0.78400004
-0.1629837 -0.091962196 0.78142864
-0.13145754 -0.090664387 0.78160006
-0.12750249 -0.092795812 0.78200006
-0.12469335 -0.093333349 0.7840001
-0.16089462 -0.08728572 0.78333342
-0.15805954 -0.087210007 0.78100008
-0.14219335 -0.085960329 0.7803334
-0.13682805 -0.086434573 0.78142864
-0.13314819 -0.08782097 0.78279996
-0.15641843 -0.083803818 0.78333342
-0.15283376 -0.082211167 0.78171438
-0.14752711 -0.082454897 0.78127283
-0.14290734 -0.083092287 0.78288889
-0.13749352 -0.082957424 0.7834546
-0.13290668 -0.08437334 0.78400004
-0.15157335 -0.079893336 0.7840001
-0.14709334 -0.079893336 0.7840001
-0.13962668 -0.079893336 0.78400004
-0.18681525 -0.13279578 0.78777778
-0.1828943 -0.13312206 0.78842866
-0.18607865 -0.12794885 0.78828585
-0.18275839 -0.12757798 0.78600001
-0.17601018 -0.11241525 0.78866673
-0.17400049 -0.11175001 0.78750002
-0.11153715 -0.11153715 0.78600007
-0.10726738 -0.11138501 0.78625011
-0.17508286 -0.10895715 0.78900003
-0.17347001 -0.10813667 0.78850007
-0.11602858 -0.10554858 0.78600001
-0.11284154 -0.10759068 0.78780001
-0.10745429 -0.10895716 0.78900003
-0.11719953 -0.10220587 0.78716677
-0.1141443 -0.10363144 0.78850007
-0.16857144 -0.096646361 0.78666675
-0.12152886 -0.096688308 0.78700012
-0.11895096 -0.098165564 0.78883338
-0.16682263 -0.091845006 0.78725004
-0.12661462 -0.090653978 0.78666675
-0.12249441 -0.092481077 0.78787506
-0.11947715 -0.092425719 0.78900003
-0.16649652 -0.088881277 0.78866673
-0.16362953 -0.087437533 0.78740007
-0.13100001 -0.086834297 0.78600001
-0.12765136 -0.08785031 0.78718197
-0.12382858 -0.089306675 0.78800005
-0.1615162 -0.083086483 0.78880006
-0.15833762 -0.082072385 0.78700006
-0.1549543 -0.080097146 0.78600001
-0.14260286 -0.080471426 0.78600001
-0.13661429 -0.080471426 0.78600001
-0.1324141 -0.081934862 0.78640014
-0.12891416 -0.083127506 0.7881251
-0.15691651 -0.077331759 0.78833342
-0.15200341 -0.077124231 0.78622234
-0.14746858 -0.077102862 0.78600007
-0.14325926 -0.07725504 0.78755558
-0.13792516 -0.07720834 0.78708351
-0.13312705 -0.077547744 0.78862506
-0.15629715 -0.074391432 0.78900003
-0.15223154 -0.073017985 0.78837508
-0.14763688 -0.072691537 0.78850007
-0.1425304 -0.073142193 0.78850007
-0.13745271 -0.074360006 0.78866673
-0.13450572 -0.074391432 0.78900003
-0.14728002 -0.069882862 0.78900003
-0.14352287 -0.069882862 0.78900003
-0.18201241 -0.12159334 0.7930001
-0.1780124 -0.11201096 0.79200006
-0.17650287 -0.10786191 0.79200006
-0.17326668 -0.10622001 0.79100001
-0.11149334 -0.10622001 0.79100001
-0.10781684 -0.10706287 0.79166669
-0.10484572 -0.10710762 0.79200006
-0.17597049 -0.1049781 0.79300004
-0.17287548 -0.10248391 0.79188901
-0.11576223 -0.10069557 0.79100007
-0.1124231 -0.10261548 0.79225004
-0.10950953 -0.1049781 0.79300004
-0.17143905 -0.098180965 0.79300004
-0.1166881 -0.097082868 0.79175001
-0.11366335 -0.097803347 0.79300004
-0.16992858 -0.093649529 0.79300004
-0.12068477 -0.091268577 0.79200006
-0.11746529 -0.093151011 0.79233342
-0.11404096 -0.094404764 0.79300004
-0.16669714 -0.085987628 0.79200006
-0.16498001 -0.085126676 0.79100001
-0.12580667 -0.085880011 0.79100001
-0.12297077 -0.088266268 0.79214299
-0.16539715 -0.083831437 0.79300004
-0.16330335 -0.081839532 0.792
-0.12744133 -0.082196385 0.79180002
-0.16130762 -0.078012384 0.79220003
-0.13078572 -0.077264763 0.79150003
-0.12914573 -0.077789538 0.7930001
-0.15751579 -0.072557963 0.79242861
-0.15340096 -0.070480958 0.79149997
-0.1418778 -0.070562229 0.79100007
-0.13766211 -0.071620196 0.79160005
-0.13288532 -0.073609397 0.79214299
-0.12914573 -0.074768573 0.79300004
-0.15174818 -0.067191437 0.79271436
-0.14742421 -0.067297913 0.79220009
-0.14260501 -0.067340001 0.79225004
-0.13971905 -0.067971438 0.79300004
-0.1864924 -0.12205239 0.79600006
-0.18302073 -0.12125643 0.79575002
-0.18239999 -0.11780002 0.79800004
-0.18256891 -0.1129145 0.79688889
-0.17944287 -0.11432858 0.79500002
-0.18156415 -0.10711461 0.79766673
-0.17901336 -0.10705429 0.79533339
-0.1068454 -0.10533112 0.79566669
-0.10398953 -0.10550763 0.79700005
-0.18152621 -0.10329477 0.79750001
-0.17797874 -0.10224244 0.79522228
-0.17490001 -0.10070001 0.79500002
-0.11068096 -0.10158477 0.796
-0.10728772 -0.10258391 0.7967
-0.10343411 -0.10221925 0.7974
-0.17780401 -0.097617537 0.79580003
-0.17371081 -0.097711757 0.79533339
-0.11157858 -0.097537622 0.79700005
-0.10713795 -0.098779224 0.79783338
-0.10336001 -0.099560007 0.79800004
-0.17222321 -0.09255942 0.79662502
-0.11712524 -0.090591908 0.79600006
-0.1129599 -0.09254466 0.7972222
-0.171 -0.088160008 0.79800004
-0.16919683 -0.087252066 0.79666674
-0.12188251 -0.087003693 0.79612505
-0.11793417 -0.087548465 0.79762501
-0.11476 -0.088920005 0.79800004
-0.16688715 -0.082685716 0.79650003
-0.12592238 -0.081925243 0.79649997
-0.12279705 -0.083130799 0.79755557
-0.16623144 -0.079700008 0.79700005
-0.16398287 -0.07721182 0.79640007
-0.12692669 -0.077646844 0.79718184
-0.12388001 -0.079800002 0.79800004
-0.1611962 -0.072821438 0.79649997
-0.15900001 -0.071171433 0.79500002
-0.13552858 -0.07041429 0.79500002
-0.13216065 -0.07151302 0.796
-0.12917288 -0.072184607 0.79783338
-0.16036001 -0.06840001 0.79800004
-0.1569272 -0.067469843 0.796
-0.15370001 -0.065871432 0.79500002
-0.14158572 -0.065871432 0.79500002
-0.13729079 -0.067507096 0.79644448
-0.13312703 -0.067797743 0.79762501
-0.12996002 -0.069160007 0.79800004
-0.1565112 -0.063819773 0.79775006
-0.15247211 -0.062593438 0.79570007
-0.14743279 -0.062155005 0.79591674
-0.14258632 -0.062741473 0.79669237
-0.13803762 -0.063573182 0.79783338
-0.13452001 -0.064600006 0.79800004
-0.15190478 -0.059242383 0.79750001
-0.14915082 -0.059001591 0.79766673
-0.18666668 -0.12114286 0.80000001
-0.18725002 -0.11770049 0.80250001
-0.18514287 -0.11200001 0.80000001
-0.18361907 -0.1104762 0.80000001
-0.18392509 -0.1076089 0.80133337
-0.18285716 -0.10285715 0.80000001
-0.17644002 -0.095476195 0.80200005
-0.1104762 -0.096000008 0.80000001
-0.10760572 -0.096159384 0.80133337
-0.10396445 -0.097081922 0.80266666
-0.1746943 -0.091541909 0.801
-0.11175715 -0.091541916 0.801
-0.10806831 -0.092989124 0.80314291
-0.10413715 -0.094182864 0.80400002
-0.17534858 -0.088822857 0.80400002
-0.17289571 -0.087402388 0.80150002
-0.11565144 -0.086674929 0.80066669
-0.11261 -0.088137627 0.80300003
-0.10949715 -0.089588575 0.80400002
-0.17204137 -0.082906142 0.80285716
-0.1692481 -0.082335718 0.80050004
-0.1216508 -0.080507949 0.80000007
-0.1174781 -0.082387388 0.80100012
-0.11409144 -0.083462864 0.80400008
-0.1707543 -0.078868575 0.80400002
-0.16753018 -0.076888897 0.80200005
-0.12571429 -0.075428575 0.80000001
-0.12251297 -0.076894671 0.80100012
-0.1181912 -0.077838339 0.80324996
-0.16616002 -0.074274294 0.80400002
-0.16330162 -0.07238096 0.80000007
-0.12652859 -0.072410487 0.80033338
-0.1231913 -0.07334695 0.80342853
-0.161807 -0.067014605 0.80266666
-0.13079366 -0.066793665 0.80000007
-0.12752287 -0.067655429 0.80180007
-0.12481143 -0.068914294 0.80400002
-0.1600343 -0.063554287 0.80400002
-0.15752953 -0.062171433 0.801
-0.1424762 -0.06019048 0.80000001
-0.1371309 -0.061104223 0.8005715
-0.13262317 -0.062758833 0.80138475
-0.12924477 -0.064239055 0.80300003
-0.15582034 -0.057379689 0.8033334
-0.15254179 -0.056887902 0.80257148
-0.14727072 -0.057110246 0.80225003
-0.14279366 -0.057267725 0.80177784
-0.13752596 -0.058066908 0.80225003
-0.13323429 -0.058960006 0.80400002
-0.15161145 -0.054365717 0.80400002
-0.14778286 -0.054365717 0.80400008
-0.14318858 -0.054365717 0.80400002
-0.18779953 -0.11252619 0.80650002
-0.1875324 -0.1076 0.80700004
-0.17929906 -0.096190482 0.80800003
-0.17838287 -0.092266679 0.80733341
-0.10631525 -0.091730483 0.80600005
-0.10362858 -0.092114292 0.80600005
-0.17696992 -0.086563051 0.80720007
-0.11137286 -0.085642383 0.80650002
-0.10765714 -0.088095248 0.80690914
-0.10375714 -0.089153342 0.80700004
-0.17658858 -0.083295882 0.80733341
-0.17388192 -0.081178427 0.80666673
-0.11251974 -0.082003273 0.80685723
-0.17267334 -0.077112705 0.8070001
-0.16964382 -0.077529527 0.80600005
-0.11642224 -0.076506041 0.80600011
-0.11398669 -0.077990472 0.80760002
-0.171296 -0.074028194 0.80800003
-0.16719089 -0.071676411 0.80733341
-0.12194572 -0.07173302 0.8070001
-0.11797525 -0.07416667 0.80700004
-0.16544762 -0.068487622 0.80800003
-0.16363811 -0.066836834 0.80666673
-0.12573716 -0.06581334 0.80666673
-0.12340154 -0.067770287 0.80680001
-0.16140002 -0.062253341 0.80700004
-0.15889715 -0.060641907 0.80600005
-0.1306562 -0.060717147 0.80700004
-0.12775946 -0.062726542 0.80742866
-0.16083048 -0.059253339 0.80800003
-0.15832573 -0.057641909 0.80700004
-0.14047429 -0.056036193 0.80600005
-0.13740382 -0.056036197 0.80600011
-0.13223454 -0.057660241 0.80725008
-0.15659748 -0.054078098 0.80733341
-0.15267621 -0.051813342 0.80720007
-0.14709002 -0.051845238 0.80650008
-0.14177258 -0.052222867 0.80640012
-0.13776192 -0.052735627 0.80720007
-0.13415366 -0.054123178 0.80800003
-0.15005715 -0.048480004 0.80800003
-0.14697906 -0.048480004 0.80800003
-0.14281558 -0.048202865 0.80766672
-0.19054288 -0.11417143 0.81000006
-0.18822858 -0.11031429 0.81000006
-0.18291621 -0.096229218 0.81266677
-0.1818644 -0.092862487 0.81120008
-0.17897144 -0.092571437 0.81000006
-0.18173334 -0.088933341 0.81200004
-0.17974287 -0.087171435 0.81000012
-0.10637524 -0.086283825 0.81133336
-0.1039689 -0.086424768 0.81266677
-0.18018667 -0.08274667 0.81200004
-0.17831001 -0.082207143 0.81050003
-0.11031429 -0.082542866 0.81000012
-0.10775096 -0.082990482 0.8125
-0.10465715 -0.084500961 0.81400001
-0.17577398 -0.079008259 0.81066674
-0.11179525 -0.077003628 0.81180012
-0.10860573 -0.077828035 0.81371433
-0.17540257 -0.073405087 0.81133336
-0.17202859 -0.071485721 0.81000006
-0.12111429 -0.070200004 0.81000006
-0.1175743 -0.07193657 0.81220019
-0.1138181 -0.073555246 0.81300008
-0.17259663 -0.067333974 0.81266671
-0.16759288 -0.066921435 0.81
-0.12145444 -0.066861235 0.81228584
-0.11902986 -0.068422869 0.81333339
-0.17132764 -0.063569531 0.81400001
-0.1678142 -0.062639154 0.8120001
-0.16403002 -0.062137622 0.81050003
-0.12636064 -0.061507307 0.81066674
-0.12330382 -0.062909529 0.81300002
-0.16745144 -0.059693336 0.81400001
-0.16233304 -0.057200953 0.81166673
-0.15968573 -0.05631429 0.81000006
-0.13114285 -0.05631429 0.81000006
-0.12797105 -0.057562288 0.81240004
-0.12429652 -0.058659684 0.81400001
-0.16066477 -0.053424768 0.81300008
-0.15724382 -0.051212706 0.81066668
-0.13624048 -0.050559524 0.81050009
-0.13227144 -0.052598286 0.81220019
-0.12946478 -0.052716196 0.81400001
-0.15689002 -0.048422381 0.81350005
-0.15235335 -0.046920955 0.81099999
-0.14734286 -0.046285719 0.81000006
-0.1419962 -0.04589029 0.81120008
-0.13771962 -0.047504384 0.81240004
-0.13334095 -0.048840005 0.81400001
-0.15171735 -0.042926479 0.81360006
-0.1478271 -0.042566564 0.81266671
-0.14312932 -0.042946458 0.81333339
-0.18573716 -0.096366674 0.81600004
-0.18550953 -0.093919054 0.81500006
-0.1063381 -0.081500009 0.81500006
-0.1031962 -0.082986198 0.81625003
-0.17930001 -0.079947621 0.81500006
-0.10664858 -0.07715334 0.81500006
-0.10303959 -0.077808715 0.81700015
-0.11565239 -0.070633337 0.81500006
-0.11207557 -0.071697146 0.81533337
-0.10805763 -0.073013343 0.8177501
-0.10296001 -0.074100003 0.81900007
-0.11676124 -0.067306809 0.81500012
-0.11312048 -0.06795048 0.81775004
-0.10998001 -0.069420002 0.81900007
-0.12069762 -0.062483341 0.81500006
-0.11746249 -0.06269715 0.81680006
-0.11404668 -0.064167306 0.81833339
-0.16679715 -0.058707621 0.81650001
-0.1641781 -0.055244766 0.81700003
-0.12651905 -0.055885717 0.81500006
-0.12281753 -0.057677526 0.81620008
-0.11904858 -0.059135243 0.81700003
-0.16067144 -0.050452385 0.81500006
-0.1311762 -0.050452385 0.81500006
-0.12695257 -0.051900197 0.81580001
-0.12402001 -0.053820003 0.81900007
-0.16106573 -0.047461271 0.81700009
-0.15795524 -0.046438672 0.81540006
-0.13583334 -0.04579524 0.81500006
-0.1323874 -0.046850242 0.81650001
-0.12763754 -0.047785144 0.81720001
-0.16146001 -0.044460002 0.81900007
-0.15756504 -0.043031976 0.81728584
-0.15416858 -0.04232762 0.81550002
-0.14100794 -0.041655559 0.81500006
-0.1374598 -0.042713337 0.81544447
-0.13306065 -0.043199684 0.81811124
-0.1287 -0.044460002 0.81900007
-0.15522002 -0.039780002 0.81900007
-0.15167335 -0.038355242 0.81775004
-0.14708182 -0.037600789 0.81790918
-0.14256389 -0.037566498 0.81718189
-0.13852319 -0.038723815 0.8186667
-0.18262763 -0.081516191 0.82300001
-0.18106002 -0.079164766 0.82300001
-0.1790562 -0.078972384 0.82100004
-0.10673001 -0.07154429 0.82100004
-0.10333715 -0.072021909 0.82200003
-0.11077382 -0.06654191 0.82200003
-0.10777381 -0.069367141 0.82300001
-0.10346286 -0.069759049 0.82300001
-0.11586192 -0.060280003 0.82200003
-0.11317315 -0.063082479 0.82180005
-0.17008668 -0.058785718 0.82300001
-0.16772477 -0.057125401 0.82166672
-0.12181494 -0.056081589 0.82166672
-0.11853144 -0.057503812 0.8215
-0.16590635 -0.052515239 0.82300007
-0.16393939 -0.052387621 0.82100004
-0.12316859 -0.052451432 0.82200003
-0.1638162 -0.048596196 0.82300001
-0.12588668 -0.046132386 0.82100004
-0.12387753 -0.048078671 0.8222
-0.16029048 -0.042222861 0.82100004
-0.13109937 -0.041962229 0.82100004
-0.12758301 -0.043049123 0.82185721
-0.12462572 -0.044677146 0.82300001
-0.15720621 -0.037978813 0.82225001
-0.1529562 -0.035598099 0.8215
-0.14934382 -0.035185717 0.82100004
-0.14152478 -0.035185717 0.82100004
-0.13693258 -0.036775623 0.82160008
-0.13287842 -0.038896829 0.82233334
-0.12932858 -0.039974287 0.82300001
-0.15252934 -0.033076763 0.82300007
-0.14753783 -0.032548983 0.8221429
-0.14272054 -0.032265715 0.82188892
-0.13862064 -0.033676513 0.82233334
-0.18688986 -0.081517786 0.82566679
-0.18464287 -0.081714287 0.82500005
-0.1858781 -0.079549529 0.82700002
-0.18307143 -0.079357147 0.82500005
-0.10751073 -0.066629291 0.82550007
-0.10396571 -0.066947624 0.82700008
-0.11201303 -0.061646041 0.8263334
-0.10793092 -0.062688999 0.82855558
-0.10342763 -0.063951433 0.82900006
-0.17215779 -0.057473019 0.82666677
-0.16892858 -0.055785719 0.82500005
-0.11704858 -0.057005316 0.82642865
-0.11300968 -0.058025725 0.82814294
-0.10974382 -0.05921429 0.82900006
-0.17132668 -0.054477148 0.82900006
-0.16870879 -0.052454669 0.82700008
-0.12090116 -0.052353334 0.82540005
-0.11776453 -0.053063102 0.82850009
-0.11448096 -0.054477148 0.82900006
-0.16671336 -0.04778032 0.82700008
-0.1642143 -0.046357147 0.82500005
-0.12167145 -0.04783633 0.82728583
-0.11869176 -0.049213655 0.82900012
-0.16658953 -0.043423813 0.82900006
-0.16303685 -0.042200319 0.82566679
-0.12622921 -0.041202541 0.82666671
-0.12323016 -0.043088891 0.82766676
-0.16185668 -0.037411906 0.82700008
-0.1589762 -0.035880953 0.82500005
-0.13196406 -0.036437146 0.82725
-0.12853619 -0.038245238 0.82800007
-0.15797144 -0.032458097 0.82625002
-0.15290003 -0.030957146 0.82499999
-0.14771429 -0.03064286 0.82500005
-0.14098382 -0.030717146 0.82700002
-0.13728189 -0.031907856 0.82725
-0.13468286 -0.03386762 0.82700002
-0.15593748 -0.028662544 0.82833338
-0.1520105 -0.027564133 0.82699996
-0.14720646 -0.027549738 0.82655561
-0.14248116 -0.027550584 0.82655561
-0.13858128 -0.028136194 0.82833338
-0.15079905 -0.024475239 0.82900006
-0.14752351 -0.024455559 0.82833338
-0.14314991 -0.023831811 0.82860005
-0.17770669 -0.06108667 0.83300006
-0.10578763 -0.061467625 0.83100003
-0.10288572 -0.061731428 0.83100003
-0.17730066 -0.058394607 0.83233345
-0.17490573 -0.05698286 0.83100003
-0.1112619 -0.056620955 0.83150005
-0.10692858 -0.057819366 0.83166677
-0.10313334 -0.058706671 0.83300006
-0.1762787 -0.053470671 0.83300012
-0.17268972 -0.052709151 0.83100003
-0.11634001 -0.051442862 0.83100003
-0.11291286 -0.05328786 0.83200002
-0.17155191 -0.049524289 0.83200002
-0.16877717 -0.045957148 0.83200002
-0.12108858 -0.045111433 0.83100003
-0.11713516 -0.047012728 0.83154553
-0.11410192 -0.049920004 0.83200002
-0.16540858 -0.040362861 0.83100003
-0.12178 -0.041648578 0.83140004
-0.11878382 -0.042660382 0.83260006
-0.16402286 -0.036448576 0.83200002
-0.12694287 -0.036683813 0.83133334
-0.12334667 -0.037769526 0.83200014
-0.16224287 -0.034031432 0.83100003
-0.1353343 -0.030865716 0.83100003
-0.13227376 -0.032473762 0.83166671
-0.12878445 -0.033584446 0.83300006
-0.15758906 -0.027320001 0.83150005
-0.13649811 -0.027193969 0.83166671
-0.13407335 -0.029353335 0.83300006
-0.18209577 -0.057627838 0.8365556
-0.17863812 -0.056892388 0.8355
-0.10430096 -0.055732384 0.83600003
-0.17694049 -0.051292859 0.83500004
-0.11122724 -0.051396381 0.83540004
-0.1075708 -0.052587941 0.8366667
-0.10351525 -0.052268166 0.83700007
-0.17654288 -0.048509527 0.83500004
-0.17298056 -0.047029804 0.83700007
-0.11530953 -0.045328576 0.83500004
-0.11239546 -0.04703059 0.83700001
-0.10845848 -0.047759812 0.8386001
-0.10299652 -0.048703179 0.83833337
-0.17179525 -0.043947622 0.83900005
-0.16779524 -0.042677782 0.83500004
-0.11687116 -0.041763678 0.83642858
-0.11364033 -0.043380003 0.83833337
-0.16647017 -0.037434608 0.83633339
-0.1213816 -0.03691937 0.8366667
-0.1190581 -0.038354289 0.83900005
-0.16580415 -0.033799049 0.83833337
-0.16275398 -0.031593971 0.83633339
-0.1269531 -0.03203667 0.83574998
-0.12338795 -0.033239685 0.83766675
-0.17540859 -0.045654289 0.84100002
-0.10739096 -0.046482384 0.84150004
-0.10332286 -0.047256194 0.84100002
-0.17582573 -0.044157147 0.84300005
-0.17167082 -0.04245048 0.84100002
-0.16900097 -0.040848576 0.84100002
-0.11248922 -0.041948896 0.8416667
-0.10936921 -0.043586992 0.84233332
-0.17100859 -0.039340004 0.84300005
-0.16913494 -0.037673339 0.8416667
-0.11796325 -0.037717145 0.84259999
-0.10542382 -0.045871433 0.84500003
-0.10418286 -0.046034288 0.84800005
-0.17525335 -0.042803813 0.84800005
-0.17302382 -0.041847624 0.84500003
-0.11025239 -0.041042861 0.84500003
-0.10802953 -0.042726669 0.84650004
