# .PCD v0.7 - Point Cloud Data file format
VERSION 0.7
FIELDS x y z
SIZE 4 4 4
TYPE F F F
COUNT 1 1 1
WIDTH 265
HEIGHT 1
VIEWPOINT 0 0 0 1 0 0 0
POINTS 265
DATA ascii
0.11802287 -0.13598287 0.89800006
0.12229906 -0.13598287 0.89800012
0.11004063 -0.12971112 0.89800012
0.11632789 -0.13136205 0.89680004
0.12385801 -0.13154735 0.89690012
0.1313556 -0.13122404 0.89784616
0.13683811 -0.12914096 0.89800006
0.10151019 -0.12295693 0.898
0.10839581 -0.12376445 0.89621753
0.11572091 -0.12423199 0.8934375
0.12378936 -0.12386221 0.89478272
0.13160525 -0.123914 0.89730006
0.13841355 -0.12382947 0.898
0.14282477 -0.12144382 0.89800006
0.087467536 -0.11530165 0.89800006
0.094232909 -0.11612446 0.89786667
0.10162335 -0.11614523 0.89670002
0.10906506 -0.11597563 0.89347059
0.11600944 -0.11652573 0.89139146
0.12353037 -0.1156552 0.89257896
0.13128679 -0.11594038 0.89512497
0.13852966 -0.11629585 0.89787495
0.14282477 -0.11802287 0.89800006
0.087687075 -0.10891709 0.89799994
0.093791343 -0.10888699 0.89711106
0.1012724 -0.10893581 0.89359999
0.10898287 -0.10898285 0.89400005
0.11648657 -0.10883658 0.89280003
0.1239709 -0.10868484 0.8915624
0.13151541 -0.10893143 0.89564699
0.1385486 -0.10861524 0.89800006
0.081247628 -0.099207625 0.89800006
0.086379059 -0.10091811 0.89800006
0.094112292 -0.10122932 0.8965556
0.10119893 -0.10120038 0.89296013
0.10898286 -0.10132001 0.89400005
0.11592138 -0.10141552 0.89342862
0.12360009 -0.10117485 0.89400005
0.1313577 -0.10142507 0.89652634
0.13854858 -0.10091809 0.89799994
0.080677472 -0.094361275 0.89800012
0.086379066 -0.094076209 0.89800006
0.094036557 -0.094035856 0.89762491
0.10151096 -0.093833618 0.89569998
0.1090443 -0.093706906 0.89450002
0.11597274 -0.093799643 0.89537495
0.12392706 -0.094011821 0.89740002
0.13124618 -0.094536722 0.898
0.13683811 -0.096641913 0.89800006
0.081247628 -0.086379051 0.89800006
0.086363062 -0.086363196 0.89784008
0.094076209 -0.086379066 0.89800006
0.10125431 -0.086567372 0.89754558
0.1088603 -0.086112805 0.89756531
0.11616402 -0.086548574 0.89789474
0.12336811 -0.08915858 0.89800012
0.081247628 -0.08039239 0.89800006
0.086379051 -0.08039239 0.89800006
0.094076194 -0.08039239 0.89800012
0.10091809 -0.08039239 0.89800012
0.1046362 -0.14268573 0.90800005
0.10886858 -0.14429598 0.90725011
0.11592536 -0.14565518 0.90576923
0.12346879 -0.14556827 0.90800011
0.13092421 -0.14560799 0.90679997
0.13787346 -0.14500417 0.90762508
0.14268573 -0.14268573 0.90800005
0.09590786 -0.13608786 0.90725005
0.10159442 -0.13769156 0.90499997
0.10900905 -0.13809286 0.90339994
0.11606191 -0.13968478 0.90187496
0.12401694 -0.13989444 0.90284628
0.13108383 -0.13901196 0.90222222
0.13855681 -0.13877228 0.90362495
0.14478798 -0.13765727 0.90762502
0.080669932 -0.13008492 0.90800011
0.086585984 -0.13086967 0.90657151
0.093742155 -0.13073008 0.90305007
0.10125525 -0.13043049 0.90100002
0.10819802 -0.13191265 0.90100002
0.11412667 -0.13472097 0.90100002
0.13357684 -0.1341489 0.90100002
0.13923365 -0.13183935 0.90115386
0.14627351 -0.13078602 0.90343744
0.15276876 -0.13109136 0.90718186
0.073504768 -0.12106667 0.90800005
0.078500323 -0.12382168 0.90676212
0.085939653 -0.12375633 0.90237498
0.093562573 -0.12360753 0.90130007
0.098680958 -0.12442382 0.90100002
0.14629076 -0.1238509 0.90128577
0.15381233 -0.12379437 0.90616673
0.15825143 -0.12279619 0.90800005
0.065894864 -0.11466744 0.90800011
0.071588159 -0.11529515 0.90566665
0.078879438 -0.11663071 0.90317643
0.084736913 -0.11777359 0.90100002
0.090958104 -0.11927525 0.90100002
0.14624393 -0.11645579 0.90100008
0.15325359 -0.11622798 0.90399992
0.15859735 -0.11605106 0.90800011
0.059668574 -0.10636572 0.90800005
0.064362571 -0.10833853 0.90669239
0.071347058 -0.10831257 0.90259999
0.079080254 -0.10879746 0.90099996
0.083878815 -0.10833453 0.90100002
0.14587618 -0.10897812 0.90100002
0.15303583 -0.10893625 0.90383327
0.15825143 -0.10896 0.90800005
0.058803812 -0.1000962 0.90800005
0.063720532 -0.10161436 0.90418744
0.07126049 -0.1013119 0.90150017
0.078577012 -0.10150043 0.90100008
0.14591739 -0.10128286 0.90125
0.15344264 -0.10168048 0.90574998
0.15825143 -0.1046362 0.90800005
0.057053842 -0.09286806 0.90679997
0.063608967 -0.0936983 0.90260011
0.07122191 -0.093532391 0.9010002
0.077822648 -0.093268365 0.90100008
0.049507622 -0.085395247 0.90800005
0.056104243 -0.086320065 0.90635008
0.063594654 -0.085940845 0.90237498
0.07122191 -0.085809529 0.90100002
0.078086674 -0.085809529 0.90100002
0.048884485 -0.078795075 0.90800005
0.055855781 -0.079084627 0.90495247
0.063639767 -0.079119772 0.90299994
0.071244672 -0.07897038 0.90130007
0.078577019 -0.078699589 0.90100008
0.12576002 -0.15894668 0.91700006
0.12838002 -0.15894668 0.91700006
0.10392667 -0.15108667 0.91700006
0.10873154 -0.15172583 0.91500008
0.11719372 -0.15271601 0.91420001
0.12415498 -0.15342233 0.91528577
0.13067929 -0.15374532 0.91375005
0.13885923 -0.1521951 0.9131667
0.14533144 -0.15144096 0.91650003
0.094866984 -0.14462985 0.91666669
0.10184191 -0.14537206 0.91399997
0.10808963 -0.14801323 0.91122216
0.11613334 -0.14993334 0.91000003
0.12467621 -0.14844762 0.91000003
0.13231112 -0.14935558 0.91000003
0.13910002 -0.14841668 0.90999997
0.14638433 -0.14638484 0.91380006
0.1533419 -0.1451946 0.91655552
0.073360004 -0.13536668 0.91700006
0.079754107 -0.13769315 0.9162001
0.086534016 -0.13909891 0.91472226
0.093454584 -0.13961929 0.91315389
0.098618738 -0.14084414 0.91100001
0.14782774 -0.1393749 0.910375
0.15349396 -0.13945259 0.91350001
0.15992069 -0.1372347 0.91614294
0.06666445 -0.12896225 0.91700006
0.071454704 -0.13071483 0.91500008
0.078084774 -0.13245779 0.91099995
0.084933341 -0.13433334 0.91000003
0.15662344 -0.13234191 0.91060001
0.16128424 -0.13114247 0.91291666
0.16564225 -0.13129112 0.91700006
0.058513336 -0.12139334 0.91700006
0.064395897 -0.12346008 0.91531247
0.070963942 -0.12371444 0.91093338
0.075400002 -0.12740001 0.91000003
0.16186403 -0.12404155 0.91079998
0.16772859 -0.12354276 0.9156667
0.051526669 -0.11353334 0.91700006
0.056517653 -0.11586355 0.91470587
0.063091122 -0.11707302 0.91166663
0.068466671 -0.11873334 0.91000003
0.16222426 -0.11605453 0.90999997
0.1683507 -0.11645518 0.91515392
0.050300214 -0.10787292 0.91588891
0.056283418 -0.10923721 0.91221058
0.062111117 -0.11122223 0.91000003
0.1623662 -0.10897567 0.91092312
0.044540003 -0.098686673 0.91700006
0.048782144 -0.10105965 0.91474992
0.055271797 -0.10176715 0.91037494
0.042017285 -0.093638249 0.91642857
0.048619941 -0.093775183 0.91168749
0.053560007 -0.094813339 0.91000003
0.036139622 -0.08502648 0.91660005
0.040962737 -0.086596608 0.91521746
0.047487859 -0.087822855 0.91074997
0.028820002 -0.075980008 0.91700006
0.034508966 -0.078100793 0.91535294
0.041799337 -0.07834667 0.91105878
0.045933336 -0.078288898 0.91000003
0.10241143 -0.15803143 0.92700005
0.10653286 -0.15848334 0.92450005
0.12354287 -0.15859048 0.92000002
0.085935436 -0.15060325 0.92260009
0.09410876 -0.15194148 0.92509097
0.10077887 -0.15378486 0.9234001
0.10870572 -0.15604715 0.92050004
0.11581262 -0.15617406 0.92124999
0.1209143 -0.1568381 0.92000002
0.1485143 -0.15289524 0.92000002
0.15297145 -0.15180065 0.92133331
0.081179529 -0.14436905 0.92150009
0.085709281 -0.14598329 0.92100006
0.092822865 -0.14717419 0.92044449
0.10076191 -0.14895239 0.92000002
0.15403429 -0.14877716 0.92000002
0.15988784 -0.14408782 0.92140007
0.06585715 -0.13610478 0.92200005
0.071115404 -0.13695922 0.9218334
0.077534288 -0.13976224 0.92166668
0.16227144 -0.13975906 0.921
0.16783135 -0.13740467 0.92155552
0.17392287 -0.13507715 0.92700005
0.059023812 -0.1295 0.92500007
0.063982144 -0.13126977 0.92030776
0.069219053 -0.13405715 0.92000002
0.1694653 -0.13182512 0.92109096
0.17615755 -0.1301645 0.92614299
0.049145721 -0.12095144 0.92700005
0.056095816 -0.12363209 0.92326677
0.060895242 -0.12573335 0.92000002
0.17085716 -0.12529525 0.92000002
0.17584842 -0.12309461 0.92318755
0.043243818 -0.11561334 0.92666674
0.048187677 -0.11652414 0.92400008
0.041943643 -0.10841961 0.92552948
0.047203545 -0.1090577 0.92028582
0.034987465 -0.099967472 0.92616671
0.041377652 -0.10172499 0.92217654
0.028545719 -0.091522865 0.92700005
0.033734351 -0.093307093 0.92318755
0.038844444 -0.096088901 0.92000002
0.020305716 -0.083871439 0.92700005
0.026831497 -0.086169727 0.92592871
0.032484375 -0.086047724 0.92191672
0.019141192 -0.078562148 0.92425007
0.026137207 -0.079119951 0.92100006
0.031250797 -0.080901593 0.92000002
0.096117631 -0.15931001 0.93450004
0.099305719 -0.15871334 0.93100005
0.088930808 -0.15393017 0.9306668
0.093936667 -0.15597001 0.93050009
0.16825834 -0.1442174 0.93475002
0.04951892 -0.12297525 0.9308573
0.040363271 -0.1165347 0.93000019
0.03433273 -0.10753725 0.93318194
0.03879429 -0.11106858 0.93000013
0.021714605 -0.099649213 0.93700004
0.027031749 -0.1001145 0.93577778
0.032446139 -0.1018817 0.93200016
0.020661144 -0.09369868 0.93520015
0.026137656 -0.094528727 0.93161559
0.031000001 -0.096542865 0.93000007
0.018424882 -0.086933814 0.93262517
0.023914287 -0.088571429 0.93000007
0.1719 -0.15030001 0.94500005
0.17051493 -0.14722225 0.94066668
0.1731486 -0.14802858 0.94200009
0.027058372 -0.10709593 0.94271439
0.019525716 -0.09977334 0.94040006
0.026874922 -0.10392128 0.94066668
0.013428573 -0.090419054 0.94000006
0.016785717 -0.093552388 0.94000006
