# .PCD v0.7 - Point Cloud Data file format
VERSION 0.7
FIELDS x y z
SIZE 4 4 4
TYPE F F F
COUNT 1 1 1
WIDTH 273
HEIGHT 1
VIEWPOINT 0 0 0 1 0 0 0
POINTS 273
DATA ascii
-0.045488574 -0.0020914287 0.54900002
-0.044442859 -0.0031371429 0.54900002
-0.039404422 0.02809169 0.54899997
-0.036647532 0.027331172 0.54899997
-0.039301433 0.033637144 0.54899997
-0.03294 0.12653144 0.54900002
-0.029802859 0.12705429 0.54900002
-0.056325536 -0.025041111 0.55638707
-0.04883467 -0.024649138 0.55434382
-0.041663658 -0.024537433 0.55460614
-0.03335847 -0.023923434 0.55604351
-0.027452605 -0.024448462 0.55876476
-0.062244736 -0.018165834 0.55820829
-0.056299485 -0.018346811 0.55445659
-0.048870422 -0.018397028 0.55177569
-0.041574072 -0.018423088 0.55257159
-0.033804066 -0.018489236 0.55462527
-0.026476052 -0.018177191 0.55687803
-0.021827621 -0.015439048 0.55900002
-0.062633872 -0.011275414 0.55785185
-0.056488968 -0.011085499 0.55430627
-0.048851077 -0.011027952 0.55151021
-0.041445319 -0.011017784 0.55087745
-0.033729639 -0.011069778 0.55341089
-0.025950419 -0.011122314 0.5561837
-0.021827621 -0.011978572 0.55900002
-0.067878574 -0.001597143 0.55900002
-0.063525714 -0.0035258119 0.55738449
-0.056482855 -0.0036932174 0.55424505
-0.04917147 -0.0038191327 0.55195558
-0.041343618 -0.0036942854 0.5512979
-0.033714492 -0.0036867692 0.55317867
-0.025960974 -0.003709388 0.55640823
-0.020836126 -0.0040304088 0.55892861
-0.06309367 0.0031694935 0.55790317
-0.056627549 0.0037031493 0.5556531
-0.048997305 0.0036889985 0.55316341
-0.041508228 0.0036766564 0.55167347
-0.033716869 0.0036873808 0.55321437
-0.026979871 0.0036475642 0.55617142
-0.062310014 0.011335114 0.55752176
-0.056910597 0.010934957 0.55515927
-0.048575863 0.010685875 0.55363423
-0.043666892 0.010076704 0.55238467
-0.03335683 0.010964185 0.55329424
-0.027143253 0.011058547 0.55758816
-0.062797807 0.018525483 0.55796552
-0.056647982 0.018571904 0.55520838
-0.048830707 0.018635094 0.55284786
-0.041938178 0.019960951 0.55275017
-0.033615541 0.018567074 0.55353713
-0.027815541 0.018595656 0.55783993
-0.062938303 0.025937609 0.55787885
-0.056542959 0.025925336 0.55547917
-0.049041014 0.025839455 0.55367351
-0.041959185 0.02577839 0.55144435
-0.033284307 0.025766212 0.55264592
-0.027465265 0.025040681 0.5571906
-0.069415152 0.035610761 0.55810004
-0.063537993 0.033882894 0.55817395
-0.056472309 0.033275083 0.55693322
-0.049002904 0.033691343 0.55387282
-0.042083915 0.034201652 0.55064857
-0.033742733 0.03427406 0.55175918
-0.02837101 0.035656512 0.55511117
-0.069055006 0.038245477 0.55775005
-0.063623272 0.04042723 0.55714279
-0.056462459 0.041147366 0.55584615
-0.049139712 0.041603234 0.55408031
-0.041519344 0.041518178 0.5517959
-0.033847749 0.041429207 0.55300009
-0.027560381 0.039937433 0.55760002
-0.063030809 0.048316568 0.55748564
-0.057320196 0.047420621 0.55599999
-0.048676629 0.048798632 0.5540002
-0.041613977 0.048986964 0.55308169
-0.033625338 0.048846703 0.55393231
-0.028385311 0.048264496 0.55785722
-0.061435878 0.055286244 0.55877781
-0.056485437 0.057423461 0.55637139
-0.048958324 0.056591351 0.55423415
-0.041561753 0.056294091 0.55240822
-0.033788875 0.056496177 0.55439305
-0.027664984 0.056517143 0.5570001
-0.062084891 0.062082741 0.55780005
-0.05636226 0.063462563 0.55731243
-0.049080085 0.063851237 0.55408174
-0.041612592 0.063737608 0.55310214
-0.034137294 0.0636371 0.55352014
-0.027802065 0.062336039 0.55783343
-0.06082654 0.073431969 0.55814296
-0.05616146 0.071640365 0.55702257
-0.049038388 0.071211398 0.55437523
-0.041638788 0.071154937 0.55342865
-0.033711012 0.071185373 0.55424565
-0.028988574 0.07393381 0.55850005
-0.061219189 0.079425991 0.55757153
-0.056232281 0.079043411 0.55701756
-0.048653904 0.078794807 0.55526197
-0.041620113 0.078495599 0.55316335
-0.033796448 0.078692667 0.55455375
-0.028200816 0.079039648 0.55771428
-0.0620602 0.086893693 0.5579474
-0.056383528 0.08625859 0.55643374
-0.048938945 0.086408503 0.55571115
-0.041568108 0.086005144 0.55360019
-0.033725437 0.086019538 0.55447286
-0.027680639 0.086706474 0.55777782
-0.061964903 0.093845725 0.55790478
-0.056380756 0.093449406 0.55541676
-0.049016222 0.093598083 0.55512255
-0.041328739 0.093639553 0.55492741
-0.033475045 0.093690127 0.55517668
-0.027258545 0.093952335 0.55715621
-0.06015905 0.10168476 0.55900002
-0.056138013 0.10114878 0.55604768
-0.049149293 0.10094388 0.55491853
-0.041525748 0.10141964 0.5540002
-0.033789981 0.10099343 0.55550897
-0.027393904 0.10048062 0.55704004
-0.060478479 0.10967048 0.55900002
-0.056134362 0.10855757 0.55602372
-0.049023893 0.10866746 0.55459279
-0.041525315 0.10882681 0.55420429
-0.033568136 0.10838543 0.55546159
-0.028081192 0.109721 0.55845004
-0.061390709 0.11605614 0.55823535
-0.056504283 0.11620871 0.5564999
-0.049071472 0.11634251 0.5547874
-0.041252457 0.11611471 0.55423754
-0.033590719 0.11590164 0.55559182
-0.028169887 0.11640427 0.55809522
-0.061114289 0.1206343 0.55800003
-0.056908749 0.12070529 0.55654556
-0.046179287 0.12292882 0.55575001
-0.041254859 0.12294275 0.55348575
-0.035395075 0.12434292 0.55108702
-0.03865524 0.12761524 0.55600005
-0.03540286 0.12860017 0.55242866
-0.064016975 -0.02451412 0.56311762
-0.025395377 -0.024633201 0.56057149
-0.018846896 -0.024232475 0.56542861
-0.014541429 -0.023696668 0.56550002
-0.069664948 -0.01726649 0.56431252
-0.065322757 -0.019353636 0.56194741
-0.023630954 -0.020695001 0.56075001
-0.018736726 -0.018878195 0.56422925
-0.01406589 -0.018769786 0.56609088
-0.069249302 -0.012157536 0.56364703
-0.066082224 -0.010996001 0.56046665
-0.01917932 -0.011855387 0.56246865
-0.014528573 -0.014528573 0.565
-0.06773334 -0.0048000002 0.56
-0.066311114 -0.0062222229 0.56000006
-0.019239103 -0.0029179836 0.56023532
-0.067942508 0.0034717857 0.56062502
-0.065944687 0.0052897842 0.56045461
-0.023438245 0.0039818319 0.56030768
-0.019194039 0.0040382543 0.56288087
-0.067884527 0.012827858 0.56125003
-0.065711863 0.011089948 0.56044441
-0.023617273 0.011435557 0.56106681
-0.018827152 0.011295878 0.56483674
-0.014190857 0.011609144 0.56440008
-0.075633578 0.020529049 0.56724995
-0.070592441 0.019406946 0.56323534
-0.066174366 0.018830771 0.56
-0.024301192 0.018694924 0.56083345
-0.01879924 0.018800987 0.56402034
-0.014356737 0.018964356 0.56428576
-0.075733334 0.023801906 0.56800002
-0.068859294 0.025374526 0.56099999
-0.066346668 0.026453335 0.56
-0.024228221 0.026144113 0.5614211
-0.018845208 0.026391912 0.56551015
-0.013193127 0.026688781 0.56791306
-0.06880001 0.032426666 0.56
-0.066133335 0.030400002 0.56
-0.023789145 0.033541717 0.56260008
-0.018859142 0.033952754 0.56589794
-0.013938605 0.034178734 0.5672667
-0.02534567 0.04273304 0.56086373
-0.01924146 0.041212589 0.56609315
-0.013977554 0.039461367 0.56757146
-0.067854293 0.049154289 0.56100011
-0.066568263 0.050014287 0.56066674
-0.053250484 0.051469527 0.56100005
-0.051825717 0.051825717 0.56100005
-0.025425874 0.048878584 0.56099999
-0.018906884 0.049056839 0.5652709
-0.014120273 0.049772251 0.5671429
-0.06834837 0.056910694 0.56311119
-0.064186044 0.056368701 0.56086856
-0.054285932 0.054286566 0.56066668
-0.051825717 0.052894291 0.56100005
-0.024299752 0.055883277 0.56160873
-0.019277142 0.056464981 0.56565118
-0.014089525 0.053648576 0.56900001
-0.068615563 0.061091751 0.56433338
-0.065599851 0.060784929 0.56150001
-0.055922225 0.065894924 0.56100011
-0.031069336 0.065900199 0.56440002
-0.025468789 0.064207509 0.56222862
-0.019046795 0.063652053 0.56651115
-0.013744676 0.063205808 0.56900007
-0.059200004 0.069866672 0.56
-0.026019236 0.07095398 0.56163049
-0.018906761 0.071310677 0.56606001
-0.014618572 0.072551429 0.56850004
-0.062793545 0.07892181 0.56033337
-0.024769748 0.078447528 0.56136674
-0.018945117 0.078825653 0.5657174
-0.014618572 0.079049051 0.56850004
-0.078158788 0.084956951 0.56103998
-0.071040869 0.086619563 0.56490475
-0.066061825 0.088095941 0.56309092
-0.024223315 0.085774705 0.56091309
-0.018800991 0.08640109 0.56607693
-0.014303716 0.086147331 0.56890005
-0.069256358 0.093954243 0.56516665
-0.065729536 0.093738332 0.56152385
-0.023838148 0.093338899 0.56038892
-0.018885041 0.093760893 0.56528884
-0.013752893 0.09417931 0.56853336
-0.06976226 0.1010136 0.56581813
-0.063783981 0.10119022 0.56113052
-0.024521714 0.10194057 0.56100017
-0.018878657 0.10124376 0.56588238
-0.013976762 0.10043468 0.56880003
-0.069184989 0.10843855 0.56517649
-0.064273246 0.10839027 0.56120008
-0.024876256 0.10796258 0.56038713
-0.018834131 0.10874989 0.56529176
-0.013728255 0.10693588 0.56900001
-0.068919055 0.11686314 0.56471431
-0.065132909 0.11590232 0.56134486
-0.024512101 0.1160374 0.56088895
-0.018786248 0.11650977 0.56567317
-0.01354362 0.11906858 0.56880003
-0.070172437 0.12466767 0.56752932
-0.065645218 0.12254057 0.56358826
-0.025081877 0.12359238 0.56178802
-0.019645292 0.1229533 0.56451857
-0.013891747 0.12106382 0.56833339
-0.022974288 0.12769429 0.56100005
-0.012745905 -0.016232764 0.57200003
-0.012157144 -0.014128573 0.57500005
-0.013571429 0.022257144 0.57000005
-0.013028572 0.023342859 0.57000005
-0.0163 0.043467145 0.57050002
-0.014336827 0.043737467 0.57166672
-0.01614286 0.045524448 0.57133341
-0.013392381 0.047903247 0.57160008
-0.015742859 0.056457147 0.57000005
-0.01316617 0.055909444 0.57091302
-0.015742859 0.066228576 0.57000005
-0.013737008 0.064803682 0.57042867
-0.015742859 0.067857146 0.57000005
-0.013380529 0.069576085 0.57222229
-0.015742859 0.075457148 0.57000005
-0.01427162 0.077029727 0.57200003
-0.013593335 0.094620004 0.57100004
-0.073101588 0.10340467 0.57044452
-0.013878182 0.10169446 0.57045466
-0.075269341 0.11076763 0.57520002
-0.07296636 0.10927589 0.57366663
-0.013572993 0.10974864 0.57007158
-0.075816967 0.11569583 0.57520002
-0.072845206 0.11629337 0.57329172
-0.012514357 0.1164962 0.57138467
-0.016114606 0.1247489 0.57033342
-0.014237145 0.12292135 0.57060003
-0.071488574 0.12824287 0.57300001
