# .PCD v0.7 - Point Cloud Data file format
VERSION 0.7
FIELDS x y z
SIZE 4 4 4
TYPE F F F
COUNT 1 1 1
WIDTH 270
HEIGHT 1
VIEWPOINT 0 0 0 1 0 0 0
POINTS 270
DATA ascii
0.043356195 -0.083860002 0.59900004
0.049497195 -0.083927125 0.59900004
0.054670632 -0.083859995 0.59900004
0.066745721 -0.087282866 0.59900004
0.049265325 -0.078780316 0.59875774
0.056282777 -0.078512125 0.59845012
0.063234083 -0.076923601 0.59892863
0.068457149 -0.07701429 0.59900004
0.049535934 -0.071319327 0.59825718
0.05641 -0.071224883 0.59828579
0.063779272 -0.071304798 0.59872508
0.069027625 -0.071765915 0.59900004
0.050357491 -0.063997068 0.59900004
0.056461036 -0.063875318 0.59883356
0.063826606 -0.063826554 0.59882873
0.068171911 -0.063608103 0.59900004
0.049905729 -0.056327451 0.59820002
0.056402571 -0.056402262 0.59820402
0.063838832 -0.056428086 0.59847629
0.068228953 -0.056134857 0.59900004
0.050294451 -0.048870873 0.59841669
0.056375023 -0.048972391 0.59790474
0.063933566 -0.048788302 0.59823686
0.068457142 -0.048490476 0.5990001
0.050365098 -0.041000456 0.59830433
0.056337457 -0.041540787 0.5975101
0.063633539 -0.041481048 0.5983333
0.069832996 -0.040839382 0.59900004
0.075873338 -0.041644763 0.59900004
0.050083522 -0.033581607 0.59760725
0.056173161 -0.033635933 0.59729797
0.063950725 -0.034030866 0.5985136
0.068716452 -0.03521394 0.59900004
0.049986023 -0.026166439 0.59780002
0.056377362 -0.026194172 0.59792852
0.063719481 -0.026057504 0.59861773
0.067886673 -0.024530478 0.5990001
0.050725281 -0.019263094 0.59845001
0.056382865 -0.01879414 0.59799969
0.063855775 -0.018814944 0.59864306
0.070531435 -0.017887907 0.59884858
0.075873338 -0.016543811 0.5990001
0.051218882 -0.011878889 0.59866667
0.056378383 -0.011389932 0.59795219
0.063688926 -0.011301623 0.59864718
0.071220756 -0.012105889 0.59896302
0.075873338 -0.011980001 0.59900004
0.05134007 -0.003725861 0.59846157
0.05636147 -0.0039846655 0.59777534
0.063825607 -0.003989954 0.59835714
0.068826273 -0.0034564147 0.59900004
0.051336661 0.0039932653 0.59892863
0.056386635 0.0039874059 0.59804058
0.063853115 0.0039916551 0.59861922
0.069190621 0.00383034 0.59900004
0.051184539 0.011359488 0.59869236
0.056438014 0.011401542 0.59857154
0.063869692 0.011405766 0.59877801
0.068076834 0.01217016 0.59900004
0.051439621 0.016310478 0.59880006
0.056439385 0.018813062 0.59861237
0.063313626 0.018744763 0.59858841
0.07042212 0.01869894 0.59900004
0.05648721 0.026139043 0.59824395
0.063820459 0.026211346 0.59830546
0.07097622 0.026450798 0.59897399
0.056581393 0.033756342 0.59857458
0.063780345 0.033552337 0.59858549
0.069999561 0.03268617 0.59900004
0.056840803 0.041154273 0.59892523
0.063436978 0.041416578 0.59900016
0.067886673 0.041644763 0.59900004
0.051826671 0.050687622 0.59800005
0.057235342 0.048277237 0.59885305
0.063513041 0.047539696 0.59900016
0.059900004 0.053054288 0.59900004
0.041824345 -0.083471753 0.60355556
0.04822202 -0.086312994 0.60064715
0.057714291 -0.084914289 0.59999996
0.063577637 -0.084762543 0.60065514
0.071082681 -0.085805066 0.60119998
0.07789921 -0.085568517 0.60299999
0.083409533 -0.083409533 0.60400003
0.040980097 -0.078705549 0.60504538
0.045659367 -0.078554183 0.60011113
0.058857147 -0.081714287 0.60000002
0.064232871 -0.080086373 0.60008711
0.071427599 -0.078857899 0.60023701
0.078926831 -0.078846417 0.602651
0.084283166 -0.07824935 0.60356259
0.040840752 -0.07121291 0.60521275
0.045817427 -0.071216881 0.60028571
0.065714292 -0.070857152 0.60000002
0.071216874 -0.071336329 0.60023707
0.078595191 -0.071267501 0.60155797
0.083972909 -0.071365431 0.60169238
0.041519191 -0.063933484 0.60560006
0.046537064 -0.063452847 0.60069579
0.065714292 -0.065714292 0.60000002
0.071743704 -0.063422129 0.60018623
0.079044089 -0.06373252 0.60211629
0.086119764 -0.063589036 0.60591429
0.041671835 -0.055982266 0.6056571
0.046242502 -0.056106783 0.600375
0.072259739 -0.056051973 0.6000002
0.079071745 -0.056151524 0.60161108
0.085540198 -0.056465764 0.60306889
0.036540002 -0.048720002 0.60900003
0.041105948 -0.04872673 0.60573345
0.046634607 -0.048352942 0.60083342
0.072571427 -0.048571449 0.6000002
0.078972116 -0.04864065 0.60085714
0.085050926 -0.049413711 0.60276932
0.04168627 -0.04140516 0.60569447
0.046548527 -0.0414032 0.6004501
0.066857144 -0.039428573 0.60000002
0.072434276 -0.041302871 0.60000014
0.079065733 -0.041190781 0.60094291
0.085899971 -0.040936675 0.60370004
0.090412073 -0.039736509 0.60466671
0.042220306 -0.033714585 0.60581255
0.046358187 -0.033766441 0.60095251
0.062285721 -0.031102046 0.60000002
0.072190262 -0.033267196 0.60007912
0.079018988 -0.033782158 0.60121417
0.086102143 -0.033868309 0.60271448
0.090237625 -0.03506238 0.60350001
0.042045891 -0.026427591 0.60684854
0.046338994 -0.026387731 0.60158825
0.066285715 -0.029142858 0.60000002
0.071730405 -0.026431059 0.60030782
0.079088919 -0.026361508 0.6017499
0.086064927 -0.02643227 0.60302866
0.090063177 -0.028108254 0.60233343
0.043491792 -0.019297026 0.60487503
0.047119185 -0.018592415 0.60162079
0.073000006 -0.020785717 0.60000002
0.079220966 -0.019067889 0.60107696
0.08608643 -0.018857857 0.60360008
0.090746358 -0.017076511 0.6043334
0.042447235 -0.010871875 0.60726672
0.047621023 -0.011274795 0.60200012
0.066857144 -0.013142858 0.60000002
0.071580961 -0.01017143 0.60000002
0.079469234 -0.011357756 0.601129
0.086064138 -0.011474283 0.60244441
0.090162866 -0.0097628571 0.60300004
0.042887267 -0.0039525004 0.60720837
0.047645267 -0.0041077514 0.60158336
0.072761513 -0.0042861621 0.6000939
0.078961849 -0.0040047402 0.60078573
0.086173013 -0.0040212702 0.60319048
0.09080819 -0.0043813335 0.60500002
0.042694122 0.0039979713 0.60691303
0.047606312 0.0039091036 0.60144132
0.073020399 0.0041224496 0.6000002
0.078937307 0.0040026987 0.60059536
0.086199127 0.0039337883 0.60211354
0.090088099 0.0040161908 0.60250008
0.042886671 0.010510111 0.60792315
0.047494065 0.011367272 0.60283333
0.071968257 0.011301585 0.6000002
0.078891031 0.011433518 0.60025012
0.085921697 0.011457305 0.60144436
0.043395143 0.018515769 0.60755551
0.048390418 0.019205518 0.60202277
0.066285722 0.019142859 0.59999996
0.071944706 0.018930875 0.6000002
0.078930333 0.018874489 0.60054773
0.086053818 0.018931955 0.60235715
0.091585293 0.019159827 0.60618186
0.043766849 0.025755659 0.60768753
0.04873658 0.026380885 0.60211909
0.053142861 0.029142858 0.60000002
0.074571431 0.024285715 0.60000002
0.078961432 0.026319733 0.6007778
0.08614818 0.026418278 0.60302788
0.09046191 0.023623811 0.60500002
0.044431433 0.033178374 0.60814285
0.048909217 0.033830725 0.60337508
0.053142861 0.030857144 0.60000002
0.066857144 0.037142858 0.60000002
0.073050305 0.034914643 0.60009098
0.078974493 0.033764511 0.60088098
0.085951611 0.033949047 0.60264999
0.044616006 0.039981719 0.60840005
0.048779741 0.041300271 0.60365117
0.053142861 0.042285718 0.60000002
0.066285722 0.039428577 0.60000002
0.071539447 0.04114401 0.60021967
0.07908503 0.041261271 0.60172212
0.086144723 0.04134959 0.60300016
0.09046191 0.042061906 0.60500002
0.048963435 0.048423562 0.60492867
0.054504618 0.049666375 0.60046154
0.064800002 0.049942862 0.60000002
0.071499608 0.047859244 0.60110819
0.07796289 0.047500581 0.60208005
0.085673176 0.046099313 0.60300016
0.056155242 0.053290479 0.60166669
0.028493654 -0.083515882 0.61900008
0.033292748 -0.083635606 0.61676925
0.038452145 -0.083897859 0.61175001
0.028381366 -0.080091029 0.61900008
0.033528063 -0.078717493 0.6153636
0.028880006 -0.071316473 0.6188572
0.033268452 -0.071283855 0.6158666
0.028483285 -0.063319057 0.61877781
0.033558201 -0.063664295 0.61550003
0.038048737 -0.062119842 0.61150002
0.029056001 -0.057996571 0.61760008
0.033838682 -0.056460202 0.61527038
0.038449433 -0.0570921 0.6117
0.033710819 -0.048501913 0.61571431
0.03380904 -0.0412797 0.61558533
0.038380958 -0.040498707 0.61145461
0.028886668 -0.03163778 0.61900008
0.033634704 -0.033697512 0.61653662
0.038452309 -0.033792939 0.61175001
0.028886668 -0.025939049 0.61900002
0.033587828 -0.026170189 0.61604357
0.038533341 -0.025716601 0.6117143
0.029247304 -0.018651113 0.61833334
0.033563256 -0.018870201 0.6167804
0.040127274 -0.018461566 0.61257154
0.093166336 -0.018489866 0.61521435
0.029968573 -0.014102858 0.61700004
0.033946551 -0.011069614 0.61634886
0.038866613 -0.011465238 0.6121667
0.033976525 -0.0036054573 0.61718917
0.039277948 -0.0031010031 0.61268419
0.028886668 0.004126667 0.61900002
0.034277283 0.0035669755 0.61808819
0.039409626 0.0028571433 0.61284214
0.03581031 0.011026755 0.61827278
0.039400548 0.011645922 0.61273921
0.034979653 0.018808998 0.61788887
0.039738648 0.018702462 0.61366677
0.091583341 0.021000478 0.61250007
0.035852052 0.025962431 0.61815006
0.040168516 0.026432987 0.61348492
0.036427379 0.033089764 0.61858332
0.040774014 0.033941746 0.61294299
0.03667536 0.040799882 0.61862499
0.041197855 0.041204736 0.61379486
0.03671699 0.046731275 0.61849999
0.041650537 0.047866505 0.61461109
0.027250132 -0.077345029 0.62081814
0.026818793 -0.071794294 0.62026668
0.027752383 -0.064755559 0.62
0.027948508 -0.048055436 0.62086672
0.030973164 -0.049116883 0.61999995
0.028289178 -0.042031173 0.61999995
0.030114289 -0.040742859 0.62
0.02835778 -0.034266986 0.62033331
0.030114288 -0.034838099 0.62
0.028697142 -0.026099047 0.62
0.028342858 -0.021257143 0.62
0.096247628 -0.018304763 0.62
0.02902667 -0.0031969526 0.62200004
0.030153144 -0.0029569527 0.62080002
0.028460953 0.0015352381 0.62
0.030557146 0.0033952384 0.61999995
0.031968098 0.01124956 0.6216538
0.029042225 0.017187621 0.62233341
0.031338837 0.017804023 0.62088895
0.033060607 0.026288312 0.62090915
0.033229496 0.034128543 0.62117243
0.033356898 0.041175369 0.62179995
0.033936765 0.04599848 0.62080002
