# .PCD v0.7 - Point Cloud Data file format
VERSION 0.7
FIELDS x y z
SIZE 4 4 4
TYPE F F F
COUNT 1 1 1
WIDTH 210
HEIGHT 1
VIEWPOINT 0 0 0 1 0 0 0
POINTS 210
DATA ascii
-0.30648696 0.048011575 1.1570002
-0.31197906 0.054686263 1.1517143
-0.30632955 0.053993337 1.1570001
-0.31106538 0.013582668 1.169
-0.31668994 0.018533472 1.1644286
-0.3112337 0.019116625 1.1682726
-0.30394003 0.018926667 1.169
-0.2994867 0.020040002 1.169
-0.31578803 0.025889715 1.1618
-0.31144536 0.026334967 1.1661429
-0.30375692 0.026962724 1.1658572
-0.29822308 0.027310288 1.1658
-0.31037867 0.033992793 1.1621431
-0.30400953 0.034395248 1.1650001
-0.29575837 0.034582146 1.1620001
-0.30937886 0.040469151 1.1610001
-0.30392164 0.041039996 1.1646668
-0.29601771 0.041022759 1.1641111
-0.30293098 0.048735242 1.1630001
-0.29757428 0.04726572 1.1650001
-0.32747743 -0.0087987762 1.1758573
-0.32452732 -0.0040993658 1.1736668
-0.3205924 -0.0022419048 1.177
-0.31836098 0.0026130162 1.1756668
-0.31498763 0.0056047621 1.177
-0.31615144 0.0078200009 1.1730001
-0.31109238 0.010071428 1.1750001
-0.30494767 0.013645905 1.1746
-0.30051145 0.016757144 1.1730001
-0.34970829 -0.024899049 1.1883334
-0.34847072 -0.020949526 1.1826
-0.34145707 -0.019705079 1.1858889
-0.33586195 -0.017844383 1.1858001
-0.33855337 -0.014621906 1.1810001
-0.33292669 -0.014638415 1.1823335
-0.32579547 -0.011893651 1.182778
-0.32031527 -0.0094104772 1.1856668
-0.32280669 -0.00562381 1.1810001
-0.31775609 -0.0038868785 1.1845556
-0.3142705 -0.0011304762 1.187
-0.31605813 0.002249524 1.1810001
-0.31148127 0.003383175 1.1850002
-0.30965623 0.0078822225 1.1823335
-0.30584097 0.010719525 1.1850001
-0.35335526 -0.031813335 1.1930001
-0.35226002 -0.031920001 1.197
-0.34833351 -0.026494559 1.1947144
-0.34314004 -0.023940001 1.197
-0.33364797 -0.017840955 1.1956668
-0.31922191 -0.011007303 1.1956667
-0.31350002 -0.0079800002 1.197
-0.31578001 -0.0057000006 1.197
-0.31224999 -0.0034156467 1.1947143
-0.30842382 0.0045504766 1.1950001
-0.30666003 0.0057000006 1.197
-0.30446064 0.010993334 1.1943334
-0.34915623 -0.032392859 1.2040001
-0.34342289 -0.032160003 1.2060001
-0.34800765 -0.028619049 1.202
-0.34319967 -0.02678743 1.202
-0.33941144 -0.021786667 1.204
-0.3348248 -0.019493334 1.204
-0.3285467 -0.014881906 1.202
-0.31773221 -0.011703239 1.2044001
-0.31418478 -0.0091714291 1.204
-0.31074667 -0.0022952382 1.204
-0.30904573 0.0019092066 1.2033334
-0.30666858 0.0057428577 1.2060001
-0.30310097 0.0095542865 1.2040001
-0.29862857 0.010337143 1.2060001
-0.35263813 -0.035841908 1.2140001
-0.34878796 -0.034994923 1.2113335
-0.3423349 -0.033542026 1.214375
-0.34007654 -0.026783714 1.2121
-0.33521101 -0.025876354 1.2165
-0.33764765 -0.021895239 1.21
-0.33277288 -0.019934289 1.21325
-0.32612371 -0.018368572 1.216143
-0.3203702 -0.015845716 1.2173334
-0.32612383 -0.014980953 1.21
-0.31564003 -0.012718096 1.2140001
-0.31371048 -0.0092599997 1.2155001
-0.3096942 -0.0039870907 1.214889
-0.30568382 -0.0019333335 1.2173334
-0.30819431 0.0023066667 1.2120001
-0.30350462 0.0036805198 1.215091
-0.30077145 0.0080666672 1.21
-0.29780382 0.0080800001 1.2120001
-0.33894575 -0.031448573 1.223
-0.33231652 -0.025263175 1.2243335
-0.33195716 -0.022130478 1.223
-0.32687336 -0.021375557 1.2243335
-0.32030955 -0.017471429 1.223
-0.31565049 -0.012812382 1.223
-0.31093088 -0.0095647629 1.2246002
-0.30371037 -0.0031685715 1.2258574
-0.30099812 0.0011666667 1.2250001
-0.29866478 0.004666667 1.2250001
-0.32018286 -0.06003429 1.2360001
-0.33784002 -0.029428573 1.2360001
-0.33376575 -0.027030477 1.2340001
-0.3297067 -0.024640001 1.2320001
-0.32724571 -0.022365715 1.2360001
-0.32018286 -0.016480001 1.2360001
-0.31562668 -0.012906668 1.2320001
-0.31110382 -0.011176191 1.2350001
-0.30495471 -0.0091710482 1.2344002
-0.30178955 -0.0052847625 1.233
-0.29788575 -0.0027441271 1.2346668
-0.29638988 0.0027403177 1.2333335
-0.29381239 -0.084456198 1.2490001
-0.29024383 -0.084456198 1.2490001
-0.29500192 -0.079103336 1.2490001
-0.29024383 -0.082077146 1.2490001
-0.31658575 -0.067585722 1.245
-0.31055471 -0.070654027 1.2452857
-0.30416858 -0.070763059 1.2466002
-0.29675907 -0.071043633 1.2474002
-0.29095754 -0.071609341 1.2490001
-0.32598892 -0.061096828 1.2416668
-0.31864712 -0.062994182 1.2427777
-0.31123346 -0.063375093 1.2447693
-0.3038536 -0.063263573 1.2475001
-0.297061 -0.064560965 1.2476667
-0.33187717 -0.055907622 1.2490001
-0.32676989 -0.055845398 1.2476668
-0.31943443 -0.05640417 1.246875
-0.31284478 -0.058286671 1.2490001
-0.34615144 -0.034496192 1.2490001
-0.3413443 -0.032001428 1.2445
-0.29619145 -0.032117143 1.2490001
-0.2890543 -0.032117143 1.2490001
-0.33501241 -0.028802227 1.243
-0.32540572 -0.022564763 1.247
-0.32236096 -0.022600954 1.2490001
-0.29529303 -0.025763283 1.2485558
-0.28866985 -0.02613619 1.2473334
-0.28188515 -0.025823293 1.2479092
-0.27596954 -0.023790479 1.2490001
-0.32475096 -0.020149048 1.2445
-0.31871155 -0.017805358 1.2463751
-0.31140289 -0.015451429 1.248
-0.3033286 -0.01546381 1.2490001
-0.29619142 -0.017842857 1.2490002
-0.28843969 -0.017804762 1.2463335
-0.28111377 -0.017792908 1.2454444
-0.27383423 -0.01762208 1.2486365
-0.30940956 -0.012990477 1.24
-0.30312383 -0.011433335 1.2416667
-0.29680058 -0.010685794 1.2465835
-0.28884944 -0.010696404 1.2481111
-0.28109232 -0.010674498 1.2453333
-0.273298 -0.011549882 1.243625
-0.29500049 -0.0038530957 1.24525
-0.2890543 -0.0049960003 1.2490001
-0.28310668 -0.0047580954 1.2490001
-0.29619145 0.0011895238 1.2490001
-0.30454287 -0.060908575 1.2540001
-0.2949886 -0.062273484 1.2540002
-0.33968067 -0.054681908 1.2573334
-0.3347981 -0.054539051 1.2540001
-0.31721395 -0.054741144 1.2550001
-0.31128633 -0.056568693 1.2571249
-0.35132098 -0.049160957 1.2590001
-0.34172863 -0.050360005 1.2590001
-0.33431447 -0.050325878 1.2581667
-0.32629037 -0.050657302 1.2565
-0.31774765 -0.05155905 1.2590001
-0.29616481 -0.039568573 1.2590001
-0.28777146 -0.040767621 1.2590001
-0.28417429 -0.041966669 1.2590001
-0.34797931 -0.036536429 1.25775
-0.34287497 -0.034729529 1.2573335
-0.30096096 -0.034772381 1.2590001
-0.2953274 -0.035357557 1.2554288
-0.28796512 -0.034951311 1.2546251
-0.28127781 -0.034714181 1.2567776
-0.27558076 -0.03423943 1.257
-0.33201146 -0.025080001 1.2540001
-0.32586271 -0.02561962 1.257
-0.31862643 -0.022759289 1.25775
-0.31055337 -0.022781907 1.2590001
-0.30335715 -0.02554794 1.2573333
-0.29976574 -0.026274286 1.2540001
-0.27906477 -0.029060956 1.2540001
-0.27322993 -0.026774859 1.255
-0.3169032 -0.020329842 1.2556667
-0.31123087 -0.018869717 1.2540001
-0.30454287 -0.019108575 1.2540002
-0.27110288 -0.020302858 1.2540001
-0.26925004 -0.01914905 1.2565
-0.28543431 -0.0059714289 1.2540001
-0.35611624 -0.047775246 1.2646668
-0.34882861 -0.047713339 1.263
-0.34040862 -0.046911433 1.263
-0.33319145 -0.046911433 1.263
-0.32549319 -0.047873717 1.263
-0.31875718 -0.049016431 1.263
-0.35463747 -0.042266667 1.268
-0.34865925 -0.042405333 1.2650002
-0.34100649 -0.042170901 1.2652223
-0.33407083 -0.042207938 1.2663332
-0.34032109 -0.034663707 1.2646667
-0.33451051 -0.033813335 1.2679999
-0.32919699 -0.033088762 1.268
-0.30432364 -0.03397391 1.2650001
-0.33319145 -0.027665716 1.263
-0.32541192 -0.027720477 1.2655001
-0.32024783 -0.026306096 1.2670001
-0.31035811 -0.026165081 1.268
