# .PCD v0.7 - Point Cloud Data file format
VERSION 0.7
FIELDS x y z
SIZE 4 4 4
TYPE F F F
COUNT 1 1 1
WIDTH 245
HEIGHT 1
VIEWPOINT 0 0 0 1 0 0 0
POINTS 245
DATA ascii
0.15407334 0.042240001 0.53900003
0.15588222 0.047397781 0.53900003
0.15622446 0.058691114 0.53900003
0.15446688 0.064257585 0.53883767
0.15810668 0.066733338 0.53900003
0.15458317 0.070672922 0.53876656
0.15785001 0.070070006 0.53900003
0.15445565 0.080716781 0.53879994
0.15810668 0.081620008 0.53900003
0.14938001 0.089833342 0.53900003
0.15409656 0.086454347 0.53822643
0.15956652 0.086771131 0.53858328
0.14896935 0.093734674 0.53900003
0.15352929 0.093788512 0.53858805
0.16015214 0.094178587 0.53897345
0.15476197 0.10135996 0.53827649
0.16108623 0.10113046 0.53822911
0.16714749 0.098722711 0.53616667
0.15410237 0.10874727 0.53745437
0.16044846 0.10855783 0.53752947
0.14938001 0.11498667 0.53900003
0.15385939 0.11637703 0.53796369
0.16091798 0.11639271 0.53786963
0.15492257 0.12265296 0.53818524
0.160659 0.12301006 0.53727025
0.16806927 0.12389645 0.53818184
0.14208716 -0.0078357141 0.54850006
0.14720629 -0.0088995257 0.54700011
0.1537009 -0.0097664418 0.54305881
0.16091207 -0.0098178172 0.54451615
0.16816272 -0.0089892438 0.54764706
0.14165559 -0.0035008099 0.54864997
0.14638853 -0.003636277 0.54508936
0.1536909 -0.0035184475 0.54199988
0.16115171 -0.0036866157 0.54435128
0.16762389 -0.0040204208 0.54779422
0.14030136 0.0046313023 0.54846662
0.14623593 0.0036296435 0.54451787
0.15366419 0.0035551856 0.54167277
0.16162261 0.0036305445 0.54440469
0.16870442 0.0039450796 0.54771817
0.17376289 0.006448572 0.54900002
0.14059277 0.010609553 0.54840624
0.1463434 0.011034386 0.54451722
0.15351874 0.011487298 0.54199988
0.16099387 0.010844787 0.54478562
0.16854557 0.011019383 0.54768777
0.17302069 0.0109766 0.54885721
0.14040375 0.019037742 0.54805273
0.14631209 0.018808307 0.5451774
0.15378413 0.019094657 0.54185706
0.16168605 0.019053707 0.54416269
0.16897078 0.018666418 0.54806018
0.17328775 0.017512027 0.54887503
0.14066005 0.026924662 0.54817855
0.14624378 0.026495645 0.54340005
0.1538841 0.026166741 0.5412308
0.16107336 0.026283294 0.54369694
0.16857715 0.026616057 0.54800016
0.17417036 0.028293611 0.54871428
0.18201779 0.026300956 0.54866672
0.13999404 0.033862259 0.54824394
0.14640276 0.033642799 0.54372126
0.15385468 0.033503495 0.54086298
0.16119939 0.033783328 0.54315376
0.16849637 0.033741489 0.54656535
0.1742525 0.033632107 0.54820842
0.14045963 0.041263051 0.54802948
0.14651568 0.040966641 0.54382539
0.15338945 0.040969316 0.54026699
0.16113852 0.04125309 0.54246801
0.16858493 0.041007008 0.54675007
0.17491651 0.039102763 0.54890007
0.18134423 0.041998375 0.54828584
0.1407862 0.048225816 0.54813796
0.14634332 0.048781317 0.54491669
0.15284099 0.049165785 0.54051083
0.16112851 0.048945419 0.54204649
0.16801538 0.048717238 0.54582053
0.17358857 0.05176286 0.54900002
0.14129975 0.056158107 0.54733342
0.14612274 0.056232437 0.54343081
0.15332685 0.055879571 0.54043168
0.16127804 0.056367476 0.54169571
0.16884877 0.055889528 0.546359
0.17533076 0.056120329 0.54872221
0.18268631 0.055527437 0.54900002
0.14080766 0.064203709 0.54731429
0.14656781 0.063775755 0.54277956
0.15173244 0.06246243 0.54025
0.16147605 0.063653126 0.54101944
0.16904116 0.064000696 0.54522228
0.17546269 0.063512824 0.5483591
0.1398937 0.071558423 0.54785365
0.14633773 0.071233094 0.54280883
0.15197489 0.072535187 0.54015791
0.16139705 0.071677402 0.54057807
0.16852507 0.071414314 0.54274422
0.17577852 0.071716093 0.54776484
0.13964683 0.07896731 0.54784787
0.14632827 0.078798614 0.54269844
0.15332143 0.077689305 0.54000008
0.16139489 0.078705929 0.54104275
0.16880712 0.078877874 0.54369044
0.17601871 0.078762881 0.54789197
0.13437429 0.085225716 0.54900002
0.13920645 0.085792325 0.54812253
0.14625487 0.086249866 0.54309231
0.15068573 0.085885726 0.54000002
0.16305773 0.085482836 0.54113042
0.16886353 0.08626423 0.54356813
0.17625564 0.086149216 0.54773182
0.1823658 0.087246314 0.54830778
0.13928328 0.093720153 0.54767942
0.14593033 0.093670025 0.54230016
0.16383187 0.092929184 0.54018182
0.16836053 0.093881451 0.54254353
0.17610964 0.093595222 0.54740012
0.18366706 0.093673751 0.54833341
0.13929302 0.10130525 0.54771709
0.14649422 0.1013335 0.54325402
0.15111431 0.10088572 0.54000002
0.16831483 0.10207678 0.5413236
0.17619298 0.10121275 0.54651117
0.18291479 0.10098635 0.54848844
0.1393047 0.10876524 0.54731917
0.14642222 0.10865809 0.54329699
0.15068573 0.10851431 0.54000002
0.16367143 0.10954286 0.54000002
0.16853976 0.10894462 0.54159588
0.17615247 0.10852646 0.54522729
0.18318105 0.10841028 0.54858333
0.14026769 0.1162969 0.54786116
0.1460546 0.11602888 0.54252321
0.15102859 0.11537144 0.54000008
0.16405715 0.11262858 0.54000002
0.16868117 0.11658298 0.54155999
0.17603448 0.11651694 0.5448637
0.1832089 0.11622415 0.54757792
0.14017415 0.12283236 0.54743332
0.14629859 0.12315995 0.54298174
0.15297695 0.1248951 0.54069233
0.16405715 0.12394287 0.54000002
0.1688391 0.12200309 0.54018521
0.17658328 0.12166125 0.54331255
0.18364844 0.12266604 0.5477587
0.12670669 -0.0090504764 0.55900002
0.13180581 -0.0089504765 0.55581826
0.1383099 -0.0089485263 0.5526191
0.14614287 -0.010214286 0.55000001
0.15033334 -0.011000001 0.55000001
0.17191429 -0.0091142869 0.55000001
0.17664264 -0.0094628586 0.55200011
0.18138668 -0.009221429 0.55325001
0.12626743 -0.0035480426 0.55888891
0.13122466 -0.0037043537 0.5556072
0.13768515 -0.003751429 0.55146515
0.17162953 -0.0029937418 0.55014294
0.17662013 -0.0036800227 0.55192864
0.18265617 -0.0037833906 0.55488008
0.12619551 0.0033112701 0.55883336
0.13160607 0.0036994561 0.55500001
0.13777138 0.0025388645 0.55003864
0.17180952 0.0015714287 0.55000001
0.17670068 0.003463028 0.551718
0.18195024 0.0036943769 0.55376202
0.12555952 0.011285574 0.55837035
0.13125233 0.011154517 0.5550347
0.13682209 0.01130033 0.55058628
0.17712325 0.011036545 0.55185723
0.18267606 0.011272144 0.55425
0.12570503 0.018497558 0.55773914
0.1310941 0.018501617 0.55505383
0.13674787 0.017943121 0.55131042
0.17693523 0.01855625 0.55117649
0.1822222 0.018364688 0.55356008
0.1264807 0.024477687 0.5570001
0.13109344 0.02590275 0.55505365
0.13707116 0.026009051 0.55059993
0.17709737 0.025307117 0.55057895
0.18147074 0.026710253 0.55117661
0.12687488 0.034504954 0.55740005
0.13122083 0.033393573 0.55531585
0.13604066 0.034260996 0.55113649
0.17831354 0.034452438 0.55152947
0.18323581 0.033974871 0.55252177
0.18828334 0.034496669 0.55300003
0.12561002 0.038159527 0.55650008
0.13129389 0.041121364 0.55523342
0.13658611 0.041306265 0.55100006
0.17766121 0.04106316 0.55086374
0.18217491 0.040424764 0.55125004
0.12688561 0.050754648 0.555125
0.13137914 0.04885247 0.55483645
0.13703181 0.049091544 0.55103034
0.17684181 0.050646901 0.55037504
0.18252146 0.04930589 0.55345464
0.12685969 0.056265399 0.55733341
0.13108997 0.056561328 0.55503583
0.1373412 0.056275237 0.55094999
0.17874992 0.055499926 0.55015391
0.18284129 0.056572624 0.55166674
0.12701143 0.060051434 0.55800003
0.13143252 0.063940987 0.55456668
0.13727538 0.062835537 0.55043346
0.17915465 0.063211262 0.55018187
0.18302736 0.063771442 0.5516001
0.1265562 0.071485721 0.55600005
0.1312522 0.07120201 0.55380011
0.1362641 0.071067996 0.55030006
0.17935239 0.070085719 0.55000007
0.18255652 0.070828684 0.55012506
0.12683271 0.081321597 0.55566669
0.13138168 0.078685947 0.55355573
0.13605669 0.078157946 0.55016673
0.17966668 0.07930477 0.55000001
0.18370399 0.078820452 0.55194122
0.12681647 0.085747711 0.55545461
0.13119951 0.086311519 0.55361122
0.13686398 0.088823132 0.55000001
0.17966668 0.083285719 0.55000001
0.18344349 0.083567016 0.5523572
0.13181649 0.09348131 0.55333942
0.13584128 0.092714295 0.55000001
0.18333335 0.094285727 0.55000001
0.12667 0.10387953 0.55650008
0.13175446 0.10140461 0.55386221
0.13566667 0.10109524 0.55000001
0.1859524 0.10144445 0.55000007
0.12738572 0.11152858 0.55500001
0.13137533 0.10868258 0.55389076
0.13589947 0.10877779 0.55000001
0.18542859 0.11017462 0.55000001
0.12700784 0.11608573 0.5548889
0.13147819 0.11630048 0.55347288
0.13643298 0.11663552 0.55056006
0.18560319 0.11506351 0.55000007
0.18804763 0.11628573 0.55000001
0.13218351 0.12370791 0.55306965
0.13672043 0.12361443 0.55045009
0.13430001 0.12798001 0.55300003
0.12746668 -0.0080000004 0.56
0.12506667 -0.0024000001 0.56
0.12485927 0.0042074081 0.56
0.12398446 0.017254923 0.56033337
