# .PCD v0.7 - Point Cloud Data file format
VERSION 0.7
FIELDS x y z
SIZE 4 4 4
TYPE F F F
COUNT 1 1 1
WIDTH 609
HEIGHT 1
VIEWPOINT 0 0 0 1 0 0 0
POINTS 609
DATA ascii
-0.27256611 0.077876315 0.63387501
-0.26950037 0.078293972 0.634
-0.27352577 0.080910489 0.63400006
-0.2711105 0.094194293 0.634
-0.26693875 0.093919836 0.63399994
-0.26238883 0.093858838 0.634
-0.27204978 0.097884245 0.634
-0.26734558 0.097568534 0.63399994
-0.26219273 0.097399145 0.634
-0.27171433 0.10144001 0.634
-0.26748767 0.10144001 0.634
-0.26386479 0.10144001 0.634
-0.27568287 0.057205718 0.63900006
-0.26229429 0.059031431 0.63900006
-0.27546716 0.060810003 0.63850003
-0.26691943 0.06231771 0.639
-0.26288751 0.062163435 0.63866669
-0.25803432 0.061262861 0.63900006
-0.27255714 0.074776202 0.63833338
-0.27516669 0.077409528 0.63500005
-0.27180043 0.076283678 0.63642865
-0.26911905 0.076804765 0.63500005
-0.27568287 0.083982863 0.63900006
-0.27385718 0.08398287 0.63900006
-0.27598715 0.088547155 0.63900006
-0.27277869 0.087594435 0.63871425
-0.2674948 0.087745517 0.63792861
-0.26274684 0.087783992 0.63843751
-0.25788638 0.087691046 0.63853335
-0.25287241 0.088189311 0.63861543
-0.28055143 0.094328575 0.63900006
-0.27672794 0.092915036 0.63766676
-0.27243274 0.092373095 0.63550013
-0.26754668 0.091077149 0.63500011
-0.26216796 0.091289222 0.63550019
-0.25740865 0.092571303 0.63568193
-0.25230891 0.092546813 0.63633341
-0.2479267 0.092951961 0.63790917
-0.28167099 0.097675458 0.63877779
-0.27716377 0.097811028 0.63593757
-0.27355397 0.097769856 0.63500011
-0.26871586 0.09938255 0.63500011
-0.26186192 0.09978573 0.63500011
-0.25780532 0.098039359 0.63543761
-0.25230935 0.097787403 0.63559097
-0.24734712 0.097614743 0.63738096
-0.2815268 0.10206334 0.63790005
-0.27687824 0.10304035 0.63535726
-0.27250573 0.10353525 0.63500011
-0.26730478 0.10401905 0.63500005
-0.26226938 0.1031087 0.63560003
-0.25734353 0.10295649 0.63610524
-0.25230861 0.10293663 0.63653338
-0.24748382 0.10232586 0.63826668
-0.24403717 0.10163143 0.63900006
-0.28160945 0.10720074 0.63833332
-0.27713081 0.1076005 0.63650012
-0.27238414 0.10774386 0.6355626
-0.2675153 0.10773332 0.63550013
-0.26274642 0.10801206 0.63715011
-0.25771755 0.1078613 0.63778579
-0.25284019 0.10739795 0.63876927
-0.24740601 0.10648353 0.63889998
-0.24403717 0.10650001 0.63900006
-0.28207287 0.11106429 0.63900006
-0.27733564 0.11227182 0.63859999
-0.27219376 0.11278042 0.63714302
-0.2674703 0.11283723 0.63717663
-0.26275554 0.11233018 0.63807696
-0.25777346 0.11220047 0.63878572
-0.25438288 0.11136858 0.63900006
-0.24768859 0.11015143 0.63900006
-0.27629143 0.11562859 0.63900006
-0.2726047 0.11713485 0.63891667
-0.26792744 0.11702837 0.6388889
-0.26290286 0.11667186 0.63900006
-0.25818646 0.11593287 0.639
-0.27611431 0.054247621 0.64000005
-0.27381814 0.054275878 0.64033341
-0.2606667 0.053973339 0.64400005
-0.25944 0.054586671 0.64400005
-0.27585113 0.05712159 0.64033341
-0.27238464 0.057282526 0.64055002
-0.26748034 0.057789043 0.64164293
-0.26230222 0.057457361 0.64130777
-0.25754395 0.057459407 0.64100003
-0.25465024 0.058765478 0.64275002
-0.27595654 0.063386045 0.64200008
-0.27234879 0.062041663 0.64100003
-0.26880002 0.060952384 0.64000005
-0.26067305 0.06196826 0.64000005
-0.25711748 0.062476188 0.63999999
-0.2539458 0.062601052 0.6419
-0.27618194 0.06613715 0.64300007
-0.27215087 0.067057922 0.64360011
-0.26725513 0.0670866 0.64169234
-0.26247874 0.067147441 0.64093757
-0.25767729 0.067323424 0.64158833
-0.25427294 0.066886462 0.64300007
-0.27538669 0.070533335 0.64400005
-0.272708 0.07243669 0.6422382
-0.26755884 0.072274044 0.64346671
-0.26237708 0.07225506 0.64293748
-0.25794208 0.072221473 0.64373344
-0.25453335 0.070533335 0.64400005
-0.27101091 0.076957785 0.64300007
-0.26716802 0.076911993 0.64400005
-0.26240405 0.077008687 0.64300007
-0.25944 0.077075556 0.64400005
-0.27733335 0.084723815 0.64000005
-0.27166238 0.082297951 0.64116675
-0.26760173 0.082743086 0.64200008
-0.26249531 0.0824292 0.64195651
-0.25787836 0.083031081 0.64316672
-0.25260338 0.083457932 0.64136362
-0.24968478 0.084856197 0.64100003
-0.28092882 0.089164048 0.64125001
-0.27786821 0.087568849 0.64042866
-0.27062857 0.085942864 0.64000005
-0.26697147 0.085942864 0.64000005
-0.25660956 0.085942864 0.64000005
-0.25153017 0.086755559 0.6400001
-0.24804117 0.088230543 0.64168757
-0.24410668 0.088933341 0.64400005
-0.28579652 0.09431462 0.64166665
-0.28284886 0.092335798 0.64085716
-0.27916193 0.092038102 0.64000005
-0.24685717 0.092038102 0.64000005
-0.24328354 0.092570335 0.64183342
-0.28570288 0.096455239 0.64100003
-0.28373337 0.097219057 0.64000005
-0.24685717 0.096914291 0.64000005
-0.24229354 0.097551562 0.64114296
-0.23928764 0.098396204 0.64400005
-0.28464764 0.10179049 0.64000005
-0.24563812 0.10361905 0.64000005
-0.24231505 0.10247388 0.64088899
-0.23862703 0.10303065 0.64290917
-0.28342858 0.10788572 0.64000005
-0.25092065 0.10829207 0.64000005
-0.24737962 0.10788573 0.6400001
-0.24244002 0.10761736 0.6412223
-0.23906067 0.10737811 0.64344448
-0.28109714 0.11266019 0.64080006
-0.27977145 0.11276191 0.64000005
-0.2553905 0.11215238 0.64000005
-0.25208163 0.11232653 0.64000005
-0.24747737 0.11229806 0.64013338
-0.24280965 0.11253878 0.64220011
-0.23956802 0.11297601 0.64400005
-0.28081906 0.11599048 0.64100003
-0.27806482 0.11776002 0.64000005
-0.27489525 0.11885715 0.64000005
-0.26697144 0.11885715 0.64000005
-0.26087621 0.1176381 0.64000005
-0.25708911 0.11765499 0.64009094
-0.25265539 0.11745979 0.64235014
-0.24731971 0.11760364 0.64246678
-0.24343674 0.11707105 0.64358342
-0.2807762 0.1233962 0.64300001
-0.27768993 0.1220913 0.64142865
-0.27246943 0.12189778 0.64066678
-0.26723239 0.12202535 0.64062506
-0.26247865 0.12208494 0.64093757
-0.25784722 0.12220328 0.64156258
-0.25285274 0.12244711 0.6428501
-0.24831472 0.12187534 0.64377785
-0.28078401 0.12671469 0.64400005
-0.27714077 0.12692098 0.64380008
-0.27238888 0.12702858 0.64338475
-0.2674619 0.12729454 0.64375007
-0.26223382 0.12702972 0.6438334
-0.25767955 0.12711871 0.64384621
-0.25285962 0.12667565 0.64380008
-0.2722505 0.054202627 0.64674997
-0.26774871 0.053935923 0.64671433
-0.26352859 0.054057147 0.64500004
-0.25729728 0.053572934 0.64658332
-0.25291345 0.053499453 0.64691669
-0.2672143 0.055900004 0.6450001
-0.25628892 0.055928893 0.64533341
-0.25256452 0.057827558 0.64635301
-0.24906126 0.057746939 0.64800006
-0.25262704 0.062750995 0.64654547
-0.24809144 0.06294857 0.648
-0.27718276 0.06883388 0.6461429
-0.27274287 0.068800002 0.64500004
-0.25203744 0.067866668 0.64614284
-0.24994287 0.067268573 0.648
-0.27808857 0.070752382 0.64600003
-0.2672143 0.073100008 0.64500004
-0.25615716 0.072485715 0.64500004
-0.25301245 0.072710015 0.64638883
-0.26868859 0.078505717 0.64500004
-0.26107144 0.078014292 0.64500004
-0.25717765 0.07758382 0.64525008
-0.25390849 0.077283144 0.64709997
-0.25697622 0.080880962 0.6450001
-0.2529237 0.082458012 0.64710003
-0.24858002 0.084505081 0.64766669
-0.24672338 0.08647573 0.64550006
-0.24192926 0.08773189 0.64660001
-0.23883431 0.08948572 0.648
-0.24108754 0.091969438 0.64522225
-0.2384848 0.092784137 0.64733338
-0.24018572 0.095214292 0.64500004
-0.23778635 0.09712746 0.6468333
-0.23665611 0.10189821 0.64609998
-0.23755375 0.10745316 0.64620006
-0.23801689 0.11271507 0.64609092
-0.24131918 0.11857779 0.64511114
-0.23823023 0.11739134 0.64669997
-0.24655198 0.12347146 0.64500004
-0.24232589 0.12282337 0.64546669
-0.23871127 0.12225258 0.64700001
-0.28072858 0.12961429 0.64500004
-0.27802572 0.12936859 0.64500004
-0.27294764 0.12961429 0.6450001
-0.26844287 0.12961429 0.64500004
-0.26352859 0.12930715 0.64500004
-0.25738573 0.12961429 0.6450001
-0.2517283 0.12869172 0.64530003
-0.24721876 0.12772834 0.64540011
-0.24247937 0.12740424 0.64714283
-0.23926622 0.12580001 0.64750004
-0.28076527 0.13237906 0.64650005
-0.27715945 0.13249743 0.64615387
-0.27233967 0.13278961 0.64550006
-0.26748022 0.1327831 0.64529413
-0.26262948 0.13285461 0.64581245
-0.25766113 0.13221438 0.64569235
-0.25282127 0.13248232 0.64657146
-0.24786057 0.1319201 0.6475454
-0.24377145 0.13021715 0.648
-0.28080001 0.13515429 0.648
-0.2770972 0.13638858 0.648
-0.2726022 0.13753501 0.64758337
-0.26749539 0.137447 0.64716661
-0.2630634 0.13732518 0.64788884
-0.25806856 0.13669714 0.64799994
-0.2530286 0.13651201 0.64799994
-0.2496343 0.13638858 0.648
-0.27586287 0.14070858 0.648
-0.27290058 0.14033829 0.648
-0.26907432 0.14009143 0.648
-0.26352003 0.14009143 0.648
-0.25241145 0.14194286 0.648
-0.27508193 0.051539052 0.65200001
-0.27249384 0.05213929 0.65175003
-0.26907909 0.052079052 0.65100002
-0.26100051 0.052821431 0.65250003
-0.25893715 0.051539052 0.65200001
-0.2507143 0.05509524 0.65000004
-0.25124493 0.062170073 0.65000004
-0.24837568 0.062386248 0.65000004
-0.25084287 0.066686034 0.6503334
-0.24846795 0.06740699 0.6503334
-0.25121352 0.07201191 0.65183342
-0.24919286 0.0720862 0.65250003
-0.25190377 0.077795327 0.65175003
-0.24896923 0.077116199 0.65300012
-0.25165007 0.081356086 0.65100008
-0.24744415 0.082131289 0.65100002
-0.24319181 0.083481468 0.65153849
-0.24144654 0.085994139 0.65116674
-0.23883678 0.088399649 0.65137506
-0.23673563 0.092684776 0.65140009
-0.23617347 0.097319655 0.65087503
-0.23498002 0.09734001 0.65100002
-0.23611639 0.10310876 0.65140003
-0.2336726 0.10273887 0.6522001
-0.23633949 0.10772805 0.65133339
-0.23646964 0.11243327 0.65169233
-0.23471907 0.11363429 0.65200007
-0.23627941 0.11783033 0.65116668
-0.23436834 0.11687262 0.65275007
-0.23730393 0.1220635 0.65133333
-0.2344581 0.12002762 0.65300006
-0.24080954 0.12938096 0.65000004
-0.23824823 0.12788996 0.65100002
-0.24658731 0.13350795 0.6500001
-0.24244426 0.13286483 0.65142113
-0.23871978 0.13303715 0.65275007
-0.28133625 0.13818954 0.65066671
-0.27857146 0.13804764 0.6500001
-0.26557145 0.13928573 0.65000004
-0.26144445 0.13846034 0.65000004
-0.25773019 0.13846034 0.65000004
-0.25298417 0.13887304 0.6500001
-0.24749525 0.13746989 0.65000004
-0.24271488 0.13780896 0.65180004
-0.23943335 0.13744096 0.65300006
-0.28139949 0.14242858 0.65142858
-0.27757877 0.14266111 0.6503334
-0.27236453 0.14319324 0.65036374
-0.26746935 0.14259328 0.65040004
-0.26235241 0.14250478 0.65000004
-0.25754857 0.14239469 0.6500625
-0.25248304 0.14238095 0.65000004
-0.24776168 0.14246394 0.65037495
-0.2429627 0.1426208 0.65172225
-0.28004953 0.14592382 0.65200001
-0.27751157 0.14791478 0.65187508
-0.272441 0.14770298 0.65162504
-0.26754513 0.1473666 0.65092862
-0.26237795 0.14761053 0.6506111
-0.25743112 0.14768544 0.65170592
-0.25248936 0.14783077 0.65218747
-0.2476373 0.14749064 0.65233344
-0.24304001 0.14607303 0.65266675
-0.27647126 0.15250488 0.65300006
-0.27229038 0.15293036 0.65274996
-0.26734459 0.15284522 0.65176928
-0.26272833 0.15258685 0.65216666
-0.25850511 0.15153748 0.65300006
-0.25249335 0.15112287 0.65300006
-0.24938382 0.15112287 0.65300006
-0.27550381 0.15609811 0.65300006
-0.26783368 0.15651272 0.65300012
-0.26430956 0.15609811 0.65300006
-0.26759526 0.049222864 0.65700001
-0.2638267 0.049506672 0.65800005
-0.27385241 0.050528575 0.65500003
-0.2669996 0.051040146 0.65700001
-0.26317507 0.051433336 0.65700006
-0.25139526 0.074233338 0.65500009
-0.24890001 0.074233338 0.65500003
-0.25264287 0.076104768 0.65500003
-0.24743478 0.07816191 0.65525007
-0.24515715 0.080471434 0.65500003
-0.24222265 0.082455672 0.65644449
-0.24016668 0.085461907 0.65500003
-0.23805311 0.087588035 0.65691674
-0.23629948 0.091860011 0.65614289
-0.23602667 0.09785001 0.65649998
-0.23615906 0.1018362 0.65600002
-0.23422574 0.10282572 0.65700001
-0.23541462 0.10740636 0.65566671
-0.23428574 0.10683493 0.65600002
-0.23531169 0.11187453 0.65625006
-0.23414193 0.11325391 0.65700006
-0.23359743 0.11711008 0.65557146
-0.2360678 0.12333795 0.65516669
-0.23398732 0.1225162 0.65633339
-0.23662089 0.12763755 0.65641677
-0.23464288 0.12576859 0.65700001
-0.23660606 0.13237123 0.65650004
-0.23758893 0.13755287 0.65650004
-0.24034905 0.1429624 0.65550005
-0.23933524 0.14172429 0.65700006
-0.28258574 0.14597145 0.65500003
-0.24515715 0.14846668 0.65500003
-0.24157026 0.14797774 0.65633339
-0.23902193 0.14579144 0.65700006
-0.26012859 0.15408096 0.65500003
-0.25713432 0.15308288 0.65500009
-0.25226858 0.15308286 0.65500009
-0.24702075 0.1526334 0.65581256
-0.24276458 0.15242305 0.65753335
-0.27510226 0.15806668 0.65600008
-0.27237365 0.15793154 0.6554445
-0.26683936 0.15860613 0.65528572
-0.26193631 0.15753646 0.65528578
-0.25715706 0.15729073 0.65537506
-0.25230765 0.15738072 0.6557501
-0.24709843 0.15764426 0.65685004
-0.24377336 0.15604001 0.65800005
-0.27573335 0.16168001 0.65800005
-0.27192736 0.16286799 0.65753853
-0.26742768 0.16269524 0.6572001
-0.26243681 0.16265634 0.65687501
-0.2573382 0.16273849 0.65705889
-0.25228199 0.16276458 0.65731251
-0.24728982 0.1625908 0.65756249
-0.2751067 0.16857335 0.65800005
-0.27116764 0.16696192 0.65800011
-0.2668705 0.1676781 0.65800011
-0.26212576 0.1676781 0.65800011
-0.25735113 0.16648445 0.65800005
-0.25179473 0.16631734 0.65800005
-0.24816002 0.16606668 0.65800005
-0.26758668 0.17108001 0.65800005
-0.24699144 0.078376196 0.66260004
-0.24588573 0.080070481 0.66200006
-0.24204622 0.081394196 0.66150004
-0.23801076 0.083383814 0.66114295
-0.23481239 0.083097145 0.66100001
-0.23605153 0.087443918 0.66055566
-0.23481239 0.087503821 0.66100001
-0.2357143 0.093028583 0.66000003
-0.23412964 0.092042647 0.66144449
-0.23652144 0.097501434 0.66050005
-0.23481239 0.095058098 0.66100001
-0.23589286 0.10064715 0.66050005
-0.23445717 0.10120001 0.66000003
-0.23445717 0.10874286 0.66000003
-0.23437829 0.11171202 0.66120005
-0.23445717 0.12131429 0.66000003
-0.2357143 0.12822857 0.66000003
-0.23456937 0.12768048 0.6615001
-0.2357143 0.13388573 0.66000003
-0.23323731 0.13226406 0.66153347
-0.2297762 0.13408858 0.66100001
-0.23580359 0.13708119 0.66025001
-0.23401208 0.13704996 0.66111112
-0.2374506 0.14264503 0.662
-0.23904902 0.1475758 0.6618889
-0.24074288 0.15337144 0.66000003
-0.23850501 0.15246382 0.66130781
-0.2423182 0.15749986 0.66007692
-0.23878382 0.15726462 0.66183341
-0.27657145 0.16405715 0.66000003
-0.24702859 0.16280001 0.66000003
-0.24234553 0.16240551 0.66094995
-0.23931144 0.1610143 0.66300005
-0.27708125 0.16718438 0.66100013
-0.27405715 0.16782859 0.66000009
-0.25729525 0.16866669 0.66000009
-0.25277552 0.16854696 0.66000009
-0.24725717 0.16782859 0.66000003
-0.24329169 0.16744649 0.66146672
-0.2773791 0.17308028 0.66257155
-0.27230924 0.17231619 0.66033334
-0.26781979 0.17256704 0.66000003
-0.26256329 0.17249796 0.66000003
-0.25790939 0.17235978 0.66049999
-0.25290138 0.1723759 0.66056252
-0.2475144 0.17244294 0.66094738
-0.24326184 0.17290246 0.66258347
-0.27688143 0.17711572 0.66300005
-0.27249274 0.17792153 0.66200012
-0.26746112 0.17719531 0.66030771
-0.26274288 0.17725717 0.65999997
-0.257763 0.17729072 0.66012496
-0.25290519 0.1775793 0.66105884
-0.24823618 0.17737791 0.66178584
-0.24436288 0.17616858 0.66300005
-0.2725307 0.18254761 0.66281825
-0.26717836 0.18273969 0.66164303
-0.26255256 0.18231165 0.66061544
-0.25789624 0.18265705 0.66094124
-0.25275669 0.18258208 0.66183335
-0.24857241 0.18227237 0.66300011
-0.27214575 0.18650106 0.66300011
-0.26774779 0.1872533 0.66269237
-0.26241019 0.18734638 0.66233349
-0.25729892 0.18729874 0.66216683
-0.25222039 0.1871877 0.6624617
-0.24890916 0.18728174 0.66300005
-0.27142411 0.19168369 0.66300005
-0.26772577 0.19195428 0.66300005
-0.26276451 0.19177394 0.66300005
-0.25750515 0.1917533 0.6629287
-0.25309765 0.19184905 0.66300011
-0.24941429 0.19006002 0.66300005
-0.27138802 0.19662687 0.66300005
-0.26824236 0.19648913 0.66300011
-0.2626743 0.19511144 0.66300005
-0.2574124 0.19511144 0.66300005
-0.25383431 0.19511144 0.66300005
-0.27593431 0.20395145 0.66300005
-0.26962003 0.20142573 0.66300005
-0.26330572 0.20268859 0.66300005
-0.25888574 0.20142573 0.66300005
-0.24552225 0.078322232 0.66500008
-0.24383335 0.079166673 0.66500002
-0.23496668 0.087400004 0.66500002
-0.23376763 0.094650485 0.66700006
-0.236229 0.098434083 0.66777784
-0.23394239 0.098217145 0.66750008
-0.23599918 0.10248537 0.66837507
-0.23329018 0.10316478 0.66866678
-0.23584174 0.10716534 0.66820008
-0.23298192 0.10682763 0.66900009
-0.23571968 0.11053938 0.66833341
-0.23316444 0.1125866 0.66735721
-0.23561545 0.11761659 0.66900009
-0.23383145 0.11659715 0.66900003
-0.23590168 0.12128358 0.66675001
-0.23447368 0.12283874 0.66600007
-0.23180002 0.13363335 0.66500002
-0.23306668 0.13933334 0.66500002
-0.23532002 0.14398287 0.66600001
-0.23385037 0.14222968 0.66542858
-0.23698072 0.1473482 0.66591662
-0.23278311 0.14683764 0.66599995
-0.2376343 0.1520282 0.66680002
-0.23738521 0.15756151 0.66671431
-0.24039429 0.16364573 0.66600001
-0.23761579 0.16240545 0.66685718
-0.23383145 0.16247144 0.66900003
-0.24057622 0.16747145 0.66500008
-0.23720458 0.16726974 0.66757137
-0.24104667 0.17226668 0.66500002
-0.23798211 0.17214344 0.66600007
-0.28141049 0.17977239 0.66700006
-0.27837068 0.17827395 0.6652
-0.24611335 0.1787267 0.66500002
-0.2417935 0.17780735 0.66566676
-0.23857813 0.17687334 0.66660005
-0.28141049 0.18104286 0.66700006
-0.27785638 0.18228048 0.66533333
-0.24647224 0.18250558 0.66500002
-0.24169862 0.18230061 0.66573685
-0.23900743 0.18329316 0.66780007
-0.28042004 0.18630955 0.66766679
-0.27732694 0.18794756 0.66558331
-0.27423334 0.18873334 0.66500002
-0.24698238 0.18735889 0.66506672
-0.24227424 0.18773103 0.66593748
-0.23888817 0.1875339 0.66685712
-0.2773571 0.1924649 0.66520005
-0.27397999 0.19291334 0.66500002
-0.26283336 0.1938 0.66500002
-0.25903335 0.1938 0.66500002
-0.25112522 0.19302696 0.66514289
-0.24700002 0.19253336 0.66500002
-0.2424718 0.19273461 0.66613334
-0.2392623 0.19270802 0.66780013
-0.27687123 0.19767424 0.66525
-0.27350956 0.19787146 0.66500008
-0.26663336 0.19855 0.66500002
-0.26238099 0.19787143 0.66500008
-0.25727955 0.19803847 0.66500008
-0.25194001 0.19772667 0.66500008
-0.24700002 0.19759999 0.66500002
-0.24205309 0.19749986 0.66727775
-0.23892859 0.1975143 0.66900003
-0.27684271 0.20254903 0.66518182
-0.27277178 0.20281282 0.66500008
-0.26726666 0.20266667 0.66500002
-0.26220006 0.20266668 0.66500008
-0.2570067 0.20270893 0.66500008
-0.25211433 0.20270512 0.66512501
-0.24706984 0.20272435 0.66518754
-0.24220419 0.2024989 0.66733336
-0.23892859 0.20388573 0.66900003
-0.2762799 0.20764096 0.66557145
-0.2725127 0.20787089 0.66543746
-0.26731691 0.20777276 0.66512501
-0.26224917 0.20777276 0.66512501
-0.25744003 0.20775288 0.66546673
-0.25260377 0.20754185 0.66641665
-0.24749526 0.2075159 0.66633332
-0.24266011 0.20751557 0.66750008
-0.23811191 0.20755334 0.66850001
-0.23864764 0.098266676 0.67000002
-0.23418097 0.098904766 0.67000002
-0.23146906 0.10783809 0.67000002
-0.23162858 0.11039048 0.67000002
-0.23673335 0.11932382 0.67000002
-0.2336008 0.11743921 0.67016667
-0.23545715 0.12060001 0.67000002
-0.23371668 0.12132858 0.67050004
-0.23418097 0.1499524 0.67000002
-0.23681292 0.1526252 0.67154551
-0.23294209 0.1529485 0.6724546
-0.23652571 0.15827286 0.67349994
-0.23313032 0.15781412 0.67360002
-0.23648922 0.16178477 0.67233342
-0.2336262 0.16215955 0.67299998
-0.23580858 0.16934763 0.671
-0.23748174 0.17328286 0.67140007
-0.23771527 0.17767034 0.67071432
-0.23730873 0.18264091 0.67107695
-0.23698226 0.18771411 0.67135292
-0.23692918 0.19255036 0.67080003
-0.23439477 0.19237766 0.6718334
-0.23694523 0.19771576 0.67027277
-0.23444599 0.19764574 0.67285717
-0.2371984 0.20245336 0.67028582
-0.23406246 0.20271611 0.67300004
-0.23552744 0.20744212 0.67020005
-0.23419377 0.20761049 0.67166668
-0.23753572 0.15717858 0.67500001
-0.23335716 0.16392858 0.67500001
-0.23633114 0.16788414 0.67800009
-0.23464288 0.16907144 0.67500001
-0.23666097 0.17314832 0.67657155
-0.23404723 0.17215282 0.67700011
-0.23684791 0.17702448 0.67690009
-0.2342227 0.17628133 0.67900002
-0.23670095 0.18191405 0.67675006
-0.23430459 0.18427181 0.67700005
-0.23366177 0.18769033 0.67554557
-0.23330632 0.19276972 0.67560005
-0.23288117 0.1978253 0.67611116
-0.23218539 0.20284931 0.67772734
-0.23642668 0.17991811 0.68200004
-0.23299097 0.17855097 0.68050003
-0.23587431 0.18222098 0.68228573
-0.23482192 0.18408477 0.68300003
-0.23379049 0.18586668 0.68000001
-0.23249525 0.1929905 0.68000001
-0.23226058 0.19850974 0.68160003
-0.2299543 0.19998859 0.68400002
-0.23108831 0.20233022 0.68185723
-0.22953407 0.20287359 0.68275005
-0.23410656 0.18309921 0.68662512
-0.23456876 0.18768191 0.68760008
-0.23292573 0.19955716 0.68700004
-0.23289485 0.18371278 0.69040006
-0.23380813 0.18823573 0.69350004
-0.23640065 0.19321844 0.69400001
-0.23478907 0.19060239 0.6925
-0.23652542 0.19412415 0.69566673
-0.23292823 0.19313581 0.69640011
-0.2356524 0.19582382 0.69700003
-0.23332906 0.19615573 0.69700003
