# .PCD v0.7 - Point Cloud Data file format
VERSION 0.7
FIELDS x y z
SIZE 4 4 4
TYPE F F F
COUNT 1 1 1
WIDTH 500
HEIGHT 1
VIEWPOINT 0 0 0 1 0 0 0
POINTS 500
DATA ascii
0.0037600002 0.044493336 0.65800005
0.0068907151 0.044163097 0.65775001
0.0043866672 0.045746669 0.65800005
0.0062666675 0.045746669 0.65800005
-0.0012533334 0.074573338 0.65800005
0.0028826669 0.074322671 0.65800005
0.0075007146 0.074375004 0.65625
0.011275953 0.073918335 0.65775001
-0.0056400006 0.07958667 0.65800005
-0.0022380955 0.077885725 0.65800011
0.0025045238 0.077662021 0.65762496
0.0074986909 0.077485114 0.65612507
0.012394286 0.077737033 0.6572001
0.015666667 0.078960001 0.65800005
-0.0062666675 0.082720011 0.65800005
-0.002088889 0.082302243 0.65800005
0.002506667 0.082720011 0.65800005
0.0075125005 0.082642138 0.65737504
0.012533335 0.082720004 0.65800005
0.015917335 0.083096005 0.65800005
-0.0063561914 0.087285727 0.65800011
-0.0010444445 0.086688899 0.65800011
0.0026320005 0.08760801 0.65800011
0.0075176787 0.087708883 0.65781254
0.012134545 0.087106675 0.65800005
-0.0056400006 0.091493338 0.65800005
0.0043866672 0.091493338 0.65800005
0.0070316405 0.091826148 0.65788895
0.010653334 0.09086667 0.65800005
-0.0069457148 0.039780002 0.66300005
-0.0023532468 0.038511693 0.66290921
0.0025250795 0.038507145 0.66283345
0.0073154285 0.038722482 0.66220015
0.012624286 0.039133571 0.66275007
0.016732858 0.039464287 0.66300005
-0.006313215 0.04292893 0.66287506
-0.0025211908 0.042847022 0.66162503
0.0023370751 0.042523209 0.66078579
0.0077688098 0.042298656 0.66125005
0.01260988 0.0428706 0.662
0.015761904 0.043080639 0.66200006
-0.0056828577 0.046094287 0.66300005
-0.0025220241 0.047898691 0.66175008
0.0023900322 0.047950543 0.66073346
0.0077418373 0.048150551 0.6615001
0.012471869 0.047702488 0.66238469
0.016417144 0.046094287 0.66300005
-0.0020870331 0.052839126 0.66230786
0.0025166078 0.052865062 0.66081256
0.0075671431 0.052960362 0.66200006
0.01145592 0.05240858 0.66300005
-0.0016128042 0.057562225 0.66255563
0.002521429 0.05799441 0.66187513
0.007171256 0.057420954 0.66254556
0.010734286 0.056197148 0.66300005
0.0025257142 0.061248574 0.66300005
-0.0081961909 0.069982864 0.66200006
0.0037885716 0.068825722 0.66300005
0.0080255112 0.067991242 0.66278577
0.012413412 0.068483591 0.66275012
0.01577381 0.069404289 0.66250002
-0.010734286 0.073245719 0.66300005
-0.0073072277 0.072651438 0.66200006
-0.0026594182 0.072155185 0.66138893
0.0023942229 0.071695305 0.66153347
0.0074062287 0.072183222 0.66084617
0.013026742 0.072393633 0.66100013
0.01774797 0.072612442 0.66178954
0.021258097 0.073456198 0.66300005
-0.011885001 0.077615947 0.66258347
-0.0077886912 0.077715956 0.66075003
-0.0044000004 0.076685719 0.66000003
0.014457144 0.076057151 0.66000003
0.017869389 0.077763259 0.66000003
0.022680765 0.077488676 0.6615001
0.025849527 0.077548578 0.66200006
-0.020837145 0.081454292 0.66300005
-0.016929436 0.082235076 0.66281825
-0.012599999 0.082521915 0.66144449
-0.0077234711 0.08298035 0.66007137
-0.003771429 0.084228583 0.66000003
0.01834286 0.082800008 0.66000003
0.022488439 0.082845598 0.661143
0.027373075 0.082694136 0.66281825
0.030916668 0.083285242 0.66250002
-0.016861362 0.086107895 0.66271436
-0.012740441 0.087330788 0.66115391
-0.008450795 0.088349208 0.66000003
-0.0028527474 0.088241771 0.66000003
0.00062857149 0.089885719 0.66000003
0.013451429 0.089382865 0.66000003
0.017725717 0.087874301 0.66000003
0.022724256 0.08740592 0.66153342
0.027653972 0.087002061 0.66293347
-0.012483749 0.09191449 0.66193342
-0.0078122467 0.093208179 0.66000003
-0.0025142862 0.093028583 0.65999997
0.0022448984 0.093208179 0.66000003
0.0081714299 0.094195932 0.66000009
0.012697144 0.093154289 0.66000003
0.017315619 0.092614293 0.66033328
0.022841908 0.092250675 0.6625334
0.027256668 0.09208335 0.66300011
-0.011733049 0.096885435 0.66230005
-0.0075514298 0.097527467 0.66066664
-0.002514286 0.097428583 0.65999997
0.0025166669 0.097502857 0.66049999
0.0075504771 0.097527936 0.66066664
0.012580954 0.097503021 0.66049999
0.017832315 0.097354084 0.66192865
0.022205239 0.096924298 0.66300011
-0.011365715 0.10039715 0.66300005
-0.0071920007 0.10144267 0.66240007
-0.002341633 0.10186832 0.66200012
0.0025235119 0.10218662 0.66231263
0.0075683934 0.10216673 0.66218758
0.0126153 0.10218685 0.66231257
0.017680001 0.10102858 0.66300005
0.020837145 0.10039715 0.66300005
-0.0018942859 0.10544859 0.66300005
0.0030168253 0.10643081 0.66300005
0.0075771436 0.10608002 0.66300005
0.012628572 0.10544858 0.66300005
-0.0064600008 0.03888667 0.66500002
-0.0044333334 0.038633335 0.66500002
0.0088666677 0.036733337 0.66500002
0.012666668 0.036733333 0.66500002
0.017100003 0.03736667 0.66500008
-0.0087761916 0.042795245 0.66500008
-0.011449882 0.047068935 0.66787505
-0.0079246834 0.047436275 0.66558331
0.013933334 0.048766669 0.66500002
0.015833335 0.048133336 0.66500002
-0.011452382 0.050259054 0.66800004
-0.007496445 0.052123245 0.66686678
-0.0044333334 0.053200003 0.66500002
0.013480954 0.05256667 0.66500008
-0.0072053983 0.056987625 0.66733336
-0.0041800002 0.057380002 0.66500002
0.0088666677 0.058900002 0.66500002
0.012945647 0.057211917 0.66535711
0.015857143 0.058354288 0.66600001
-0.0063576195 0.062302142 0.66750008
-0.0026636191 0.062275939 0.66586667
0.0025344051 0.063369408 0.66537499
0.0077266674 0.062193345 0.66500008
0.012689763 0.062171429 0.66612506
0.016353335 0.061802864 0.66900003
-0.011227937 0.0688508 0.66733336
-0.0074410206 0.067597628 0.66692859
-0.0025383334 0.067258097 0.66624999
0.0023532656 0.066897213 0.66535711
0.006713334 0.065993339 0.66500002
0.012941225 0.065790214 0.66514289
0.017913271 0.067198858 0.66693336
0.02227905 0.069379374 0.66833341
-0.015928572 0.073908575 0.66900003
-0.012968165 0.072172537 0.66642869
-0.0095000006 0.070300005 0.66500002
0.023154873 0.071899794 0.66538459
0.027521787 0.073652275 0.66812509
-0.020900002 0.078533337 0.66500002
-0.017760478 0.077381209 0.66600001
-0.014064382 0.076402679 0.6652
0.028351579 0.077244632 0.66607696
0.031643949 0.077703819 0.66642857
-0.020910477 0.082586676 0.66533339
-0.019380001 0.081953339 0.66500002
0.028753335 0.080940001 0.66500002
0.031455558 0.082122229 0.66500008
-0.020939287 0.087564051 0.66624999
-0.018379791 0.088232078 0.66544443
0.029766669 0.089300007 0.66500002
0.031877778 0.08747039 0.66500002
-0.020962859 0.091474295 0.66700006
-0.017750954 0.092554182 0.66562504
-0.014566667 0.09436667 0.66500002
0.029450003 0.092783339 0.66500002
0.031286668 0.092593335 0.66500002
-0.017747015 0.097170055 0.66763639
-0.014151747 0.098005086 0.66533339
0.024383334 0.098483339 0.66500002
0.027882976 0.09758918 0.66537505
0.031372193 0.097926103 0.66680002
-0.016778097 0.10151811 0.66900009
-0.012741468 0.10293606 0.6662308
-0.0082333349 0.10386667 0.66500002
-0.0038000001 0.1045 0.66500002
0.017733335 0.10386667 0.66500002
0.022959432 0.10287207 0.66593337
0.027801821 0.10224184 0.66754562
0.031857144 0.10066858 0.66900003
-0.012393573 0.1072893 0.66725004
-0.0076041068 0.10771804 0.66531247
-0.0026800004 0.10811783 0.66507691
0.0019000005 0.10884287 0.66500008
0.0076026195 0.10897454 0.66525
0.012668493 0.10831374 0.66508335
0.01774542 0.10773829 0.66543746
0.02274755 0.10766258 0.66769236
0.027078573 0.10544715 0.66900003
-0.012530479 0.11192478 0.66900009
-0.0074824919 0.11269802 0.66738468
-0.00253625 0.11282935 0.66556251
0.0025364882 0.11282922 0.66556251
0.007476558 0.11263379 0.667
0.012745643 0.11256868 0.66661549
0.01778532 0.11242422 0.66691673
0.022087622 0.11150001 0.66900009
-0.0072209532 0.1161724 0.66900009
-0.0026147093 0.11717472 0.66744447
0.0025439686 0.11757922 0.66733336
0.0074319053 0.11699286 0.66883343
0.012651839 0.11605104 0.66900009
0.016948001 0.11583258 0.66900009
-0.0019114286 0.12042001 0.66900003
0.00063714292 0.12042001 0.66900003
-0.01084762 0.0542381 0.67000002
-0.01084762 0.057428576 0.67000002
-0.0089333337 0.05806667 0.67000002
-0.010869208 0.062019687 0.67133343
-0.0089382157 0.062568456 0.67037499
0.017575478 0.063425727 0.671
-0.016000001 0.069760002 0.67200005
-0.012868164 0.068166949 0.67071432
-0.0089333337 0.065723814 0.67000002
0.022415105 0.067973748 0.67242855
0.027559049 0.069863819 0.67300004
0.030035241 0.069656193 0.671
-0.018172247 0.072682187 0.67114288
0.028570119 0.071665838 0.67037505
-0.018504763 0.098904766 0.67000002
-0.01765397 0.10252064 0.67000002
0.029990477 0.10400953 0.67000002
0.031904764 0.10273334 0.67000002
-0.017254446 0.10736129 0.671
-0.014676192 0.10847619 0.67000002
0.027863497 0.1076963 0.67000002
0.030050162 0.10805335 0.67133331
-0.016856827 0.11244689 0.67211115
-0.014257461 0.11385049 0.67033339
0.023763493 0.11299969 0.67033339
0.027482621 0.11248755 0.67108333
0.030091193 0.11268406 0.67225003
-0.016475556 0.11661272 0.67400002
-0.012642199 0.11721056 0.67138469
-0.0081550265 0.11835102 0.67011118
-0.0023396828 0.11932382 0.67000002
0.0091460329 0.11889842 0.67000002
0.012761906 0.11868572 0.67000002
0.018272728 0.11804762 0.67000008
0.022564618 0.1174373 0.671
0.027112728 0.11749126 0.67345446
0.030169526 0.11682668 0.67400002
-0.012356668 0.12148049 0.67400002
-0.0075332611 0.12242426 0.67192316
-0.0025987304 0.1228141 0.67093337
0.0028009526 0.12249473 0.67069232
0.0076694652 0.12270984 0.67106247
0.012969865 0.1224892 0.6713571
0.017902087 0.12275555 0.67131245
0.022296669 0.12262391 0.67270005
0.025547812 0.12106325 0.67400002
-0.007377143 0.12636144 0.6735
-0.0024956614 0.12726943 0.6737777
0.0026746034 0.12709716 0.67399997
0.0074460953 0.1274823 0.67399997
0.01241016 0.12602732 0.67400002
0.017973334 0.12645525 0.67400002
0.021824764 0.12581334 0.67400002
0.019285716 0.063000001 0.67500001
0.022622859 0.063988581 0.67866677
-0.017410478 0.06898953 0.67700005
-0.012857144 0.067500003 0.67500001
0.022985397 0.065947309 0.67666674
0.026730405 0.067293786 0.6769231
0.030348573 0.069091432 0.67800003
-0.018013811 0.070123345 0.67550004
-0.016727144 0.11901668 0.67550004
0.030214287 0.11892858 0.67500001
-0.016640274 0.12199675 0.67571437
-0.013683675 0.1229694 0.67500007
0.027642861 0.12255196 0.67500013
0.030214287 0.12278572 0.67500001
-0.01609524 0.12554286 0.67600006
-0.012835495 0.12736031 0.67606676
-0.0083591845 0.12832327 0.67514294
-0.0027857148 0.12921429 0.67500007
0.0012857143 0.12921429 0.67500001
0.0090000005 0.12921429 0.67500001
0.012857143 0.12857145 0.67500007
0.018010359 0.12864323 0.67537504
0.022819685 0.12797673 0.676
0.026953656 0.12754959 0.6770668
0.03025905 0.12554286 0.67600006
-0.012028001 0.13204934 0.67900002
-0.0075557157 0.13256007 0.67707145
-0.0025726787 0.13249065 0.67531258
0.0025714883 0.13244101 0.6750626
0.0077142869 0.13242859 0.67500013
0.012873751 0.13258839 0.67581254
0.017306061 0.13275316 0.67754555
0.021970797 0.1324697 0.67850006
0.026882861 0.13182764 0.67900002
-0.0072739297 0.13674489 0.67887497
-0.0025844448 0.13757223 0.67816663
0.002575397 0.13723429 0.67650008
0.0077201594 0.13703065 0.67550009
0.012909367 0.13747048 0.67766678
0.017584575 0.13744096 0.67879999
0.020908888 0.13687778 0.67899996
-0.002198667 0.14149068 0.67899996
0.0023273334 0.14134069 0.67889994
0.0078267725 0.14109705 0.67855555
0.012933334 0.14097334 0.67899996
0.017460002 0.14084402 0.67900002
0.020046668 0.14032668 0.67900002
0.031179048 0.12860572 0.68200004
-0.01623016 0.13308859 0.68166673
-0.013615953 0.13290882 0.68075001
0.027847622 0.13319367 0.68000001
0.031195596 0.1325756 0.68237501
-0.016238097 0.13748255 0.68200004
-0.01297887 0.13756116 0.6813125
-0.0088507943 0.13837463 0.68000001
0.023426941 0.13768928 0.68057144
0.027081292 0.13735071 0.68164289
0.031129336 0.13715105 0.68380004
-0.016269844 0.14252511 0.6833334
-0.012952381 0.1423562 0.68309098
-0.0076004094 0.1424389 0.68114299
-0.0032380957 0.14377144 0.68000001
0.0030222225 0.14398731 0.68000001
0.007678912 0.14386398 0.68000001
0.012952381 0.14377144 0.67999995
0.017485715 0.14349389 0.68000001
0.022030478 0.14271429 0.6818462
0.027171692 0.14189586 0.68372732
0.030617144 0.14070858 0.68400002
-0.016285716 0.14526857 0.68400002
-0.011074287 0.14526857 0.68400002
-0.0078623453 0.14725707 0.68346161
-0.0025939685 0.14719127 0.68083328
0.0025966668 0.14733478 0.68150008
0.0077842865 0.14726305 0.68116665
0.012955081 0.14704591 0.68016666
0.017526561 0.14734623 0.68155563
0.022317283 0.14737877 0.68342865
0.025666287 0.146832 0.68400002
-0.0067314296 0.15134859 0.68400002
-0.0026045237 0.15235154 0.68362492
0.0026029169 0.15228185 0.68331242
0.0078000007 0.15210097 0.68249995
0.012995239 0.15204501 0.68225002
0.017449439 0.15231231 0.68318194
0.021269843 0.15214384 0.68366671
-0.0019542859 0.15569144 0.68400002
0.0029965718 0.15595202 0.68400002
0.008096328 0.15624982 0.68400007
0.01274939 0.15624981 0.68400007
0.016285716 0.15569144 0.68400002
0.032013334 0.13916001 0.68600005
-0.013720001 0.14438668 0.68600005
0.028964445 0.14395112 0.68600005
0.031818893 0.1436208 0.68650007
-0.015026669 0.14700001 0.68600005
-0.012535586 0.1478712 0.68618184
-0.009800001 0.14961334 0.68600005
0.028101906 0.14769638 0.68620002
0.031248573 0.14706382 0.68833339
-0.015092382 0.15420477 0.68900001
-0.012444341 0.15259735 0.68766671
-0.0083497362 0.15341301 0.68611109
0.018946668 0.15222667 0.68600005
0.022576297 0.15280743 0.68599999
0.026643097 0.15217453 0.68650001
-0.015070478 0.15594763 0.68800002
-0.012163916 0.15697071 0.68833339
-0.0080131879 0.1576768 0.6878463
-0.0028323813 0.15794033 0.68622226
0.0023333335 0.15820001 0.68600005
0.0074480004 0.15849869 0.68600005
0.012413334 0.15876001 0.68600005
0.017250761 0.15773781 0.68610001
0.022076886 0.15738946 0.68727285
0.025591429 0.15682954 0.68900001
-0.0074771433 0.16093582 0.68860006
-0.0026217266 0.16251579 0.68806261
0.0026145838 0.16213077 0.68643755
0.0078426199 0.16208632 0.68625003
0.012417858 0.16208646 0.68625009
0.017024109 0.16236722 0.68743759
0.021216828 0.1616416 0.68900007
-0.001312381 0.16667239 0.68900001
0.002621786 0.1678337 0.68837512
0.0078672627 0.16783394 0.68837512
0.012264628 0.16693458 0.68814296
0.015070478 0.16643144 0.68800002
0.0072180959 0.17126572 0.68900001
0.03154286 0.14917144 0.69000006
0.029189844 0.15253271 0.69133341
0.031656988 0.1523516 0.69250005
-0.01578881 0.1592012 0.69075006
-0.013361907 0.15880954 0.69000006
0.024314288 0.15902859 0.69000006
0.027449526 0.1579854 0.6916666
0.031489845 0.15789112 0.6936667
-0.015114287 0.16100001 0.69000006
-0.012334524 0.16232739 0.69075
-0.0078172497 0.16356137 0.69033337
0.022865716 0.16356097 0.69033337
0.027882047 0.16247444 0.69228572
0.03149762 0.16211478 0.69383335
-0.011791158 0.16742709 0.6932857
-0.0080894586 0.16749029 0.69121432
-0.0032857142 0.16790001 0.69000006
0.012485716 0.16888574 0.69000006
0.017480003 0.16770287 0.69000006
0.022510478 0.16748118 0.69046158
0.027705835 0.16755012 0.69262493
0.03162463 0.16813077 0.69385725
-0.011236191 0.17250858 0.69400001
-0.0077806995 0.17257157 0.69213337
-0.0026297024 0.17221864 0.69018757
0.0026285714 0.17282858 0.69000006
0.0079454556 0.17294805 0.69000006
0.012605196 0.17235065 0.69000006
0.017092263 0.17223404 0.69025004
0.022384763 0.17248395 0.69125003
0.027734129 0.17234384 0.69333333
0.031857904 0.17250858 0.69400001
-0.0078686988 0.17749283 0.69213337
-0.0026321432 0.17765394 0.69087499
0.0026307146 0.17759013 0.69062501
0.0078930967 0.17759012 0.69062501
0.012502145 0.17766452 0.69091672
0.01709923 0.17757362 0.69056249
0.022257715 0.17765659 0.69140005
0.027752798 0.17708699 0.69381261
0.031946033 0.17603366 0.69400001
-0.011236191 0.18308382 0.69400001
-0.0081095919 0.18242446 0.69292861
-0.0025007622 0.18281887 0.6910001
0.0026323809 0.18295048 0.69100004
0.0077493777 0.18257663 0.69130778
0.012511853 0.18241046 0.69144446
0.017114133 0.18233666 0.69116676
0.022525651 0.18260808 0.69153339
0.027460547 0.18249877 0.69357145
-0.006826668 0.18651971 0.6936667
-0.0027940662 0.18793914 0.6931538
0.0026385719 0.18796431 0.6925
0.0079250354 0.18755661 0.69342864
0.012552666 0.187498 0.69370013
0.017171904 0.1875755 0.69349998
0.022449935 0.18780056 0.69328576
0.027091429 0.186996 0.69380009
-0.0021859342 0.19275999 0.69369239
0.0026418453 0.19284175 0.69343752
0.0077425865 0.19328138 0.69400012
0.012690286 0.19339469 0.69400007
0.017179705 0.19294624 0.69381261
0.022460954 0.19289416 0.69362503
0.025777144 0.19101524 0.69400001
-0.0019828572 0.19630288 0.69400001
0.029785717 0.15422381 0.69500005
0.029785717 0.15620953 0.69500005
0.031109527 0.15753335 0.69500005
-0.013900001 0.16746192 0.69500005
-0.015943334 0.17404287 0.69749999
-0.013017461 0.17216879 0.69500011
0.033095241 0.17275715 0.69500005
0.035080954 0.17143334 0.69500005
-0.01526762 0.17790097 0.69700003
-0.012589525 0.17756066 0.69566679
0.032580424 0.17775822 0.69500011
-0.015816953 0.18249165 0.69780004
-0.012588191 0.18257809 0.69560015
0.029785717 0.18136191 0.69500005
0.032312989 0.18250522 0.69500017
-0.012745905 0.18759277 0.69700003
-0.0084576728 0.18849577 0.69500011
0.009928572 0.18996668 0.69500005
0.012576191 0.18864286 0.69500005
0.028726671 0.18890762 0.69500011
0.032349527 0.18729334 0.69675004
-0.015931429 0.19383238 0.69700003
-0.012614048 0.19252756 0.69708335
-0.0081021991 0.19253768 0.69546157
-0.0046333335 0.1932762 0.69500005
0.0092666671 0.19129048 0.69500005
0.011914287 0.19129048 0.69500005
0.02816635 0.1927346 0.69583338
0.031862859 0.19250478 0.69700003
-0.015954286 0.19610478 0.69800001
-0.017439593 0.17772724 0.70042866
-0.017555557 0.18266669 0.70000005
-0.016680531 0.18748222 0.70055562
-0.016007621 0.19142509 0.70033336
0.034024287 0.19347191 0.70050001
