# .PCD v0.7 - Point Cloud Data file format
VERSION 0.7
FIELDS x y z
SIZE 4 4 4
TYPE F F F
COUNT 1 1 1
WIDTH 506
HEIGHT 1
VIEWPOINT 0 0 0 1 0 0 0
POINTS 506
DATA ascii
-0.0006266667 0.044493336 0.65800005
0.0029752383 0.043693099 0.65775001
0.0068877782 0.043832865 0.65750003
-0.0006266667 0.048253339 0.65800011
0.0030080003 0.047000002 0.65800005
0.0066405716 0.046234097 0.65780002
-0.0012533334 0.074573338 0.65800005
0.0027155557 0.074573338 0.65800011
0.0075142859 0.074516669 0.65750003
0.011906668 0.074573338 0.65800011
-0.0056400006 0.076453343 0.65800005
-0.0022380957 0.077527627 0.65800011
0.0025066668 0.077706672 0.65800005
0.0075107738 0.077610061 0.65718752
0.012195899 0.078044109 0.65800011
0.015666667 0.078960001 0.65800005
-0.0012533333 0.082720004 0.65800005
0.0025066668 0.082720011 0.65800005
0.0075172628 0.082688808 0.65774995
0.012531022 0.082433343 0.65785718
0.016502224 0.08125779 0.65800011
-0.0056400006 0.089613341 0.65800005
-0.0012533334 0.087106667 0.65800005
0.0025066668 0.087733336 0.65800005
0.0075200009 0.087733328 0.65800005
0.011071112 0.087315559 0.65800005
-0.0056400006 0.09086667 0.65800005
0.003446667 0.091180012 0.65800005
0.00752 0.091493346 0.65800005
0.011593334 0.091493338 0.65800005
-0.0056828577 0.039780002 0.66300005
-0.0025207144 0.039059766 0.6615001
0.0023075133 0.038674079 0.66088897
0.0071948576 0.039250862 0.6626001
0.017680001 0.038517144 0.66300005
-0.0066819056 0.042859048 0.66180009
-0.0026420956 0.042638548 0.66033334
0.0020428572 0.041642856 0.66000003
0.0079388572 0.042077523 0.66140008
0.011989736 0.043538734 0.66255563
0.017048571 0.043568574 0.66300005
-0.0062176879 0.047667488 0.6622858
-0.002952015 0.047654439 0.66038465
0.0016761906 0.04881905 0.66000009
0.0079574035 0.048480529 0.66109097
0.012110095 0.047426481 0.66220009
-0.0056828577 0.051145718 0.66300005
-0.0025222623 0.052941315 0.66175008
0.0025148813 0.052830476 0.660375
0.007564465 0.052935421 0.66168755
0.010734286 0.051145718 0.66300005
-0.0013525171 0.057435788 0.66271436
0.0025188099 0.057950359 0.66137505
0.0063036908 0.057994887 0.66187501
0.0023152384 0.061669525 0.66300011
0.0084584774 0.068173155 0.66280007
0.012381392 0.068315618 0.66276932
-0.010734286 0.073877148 0.66300005
-0.0073539689 0.072478525 0.66177785
-0.0028131432 0.072590292 0.66126674
0.002609388 0.072424226 0.66128582
0.0073767346 0.072064631 0.66128582
0.012768301 0.072378241 0.6608572
0.017548673 0.072611935 0.66178948
0.021258097 0.073456198 0.66300005
-0.011870044 0.077808931 0.66227281
-0.0079273665 0.077963062 0.66053343
-0.0044000004 0.0792 0.66000003
0.014038096 0.076476201 0.66000003
0.017869389 0.077763274 0.66000003
0.022680668 0.077488676 0.66150004
0.025839761 0.078148812 0.66175008
-0.016933765 0.082257934 0.66300011
-0.012609821 0.082268998 0.66193753
-0.0075464295 0.083002865 0.66025001
-0.003771429 0.082971431 0.66000003
0.01257143 0.084857151 0.66000003
0.01784176 0.083309904 0.66000003
0.022650598 0.083050251 0.6606251
0.027911909 0.082204975 0.66178584
0.031282544 0.083349213 0.66133338
-0.022509208 0.087934606 0.66266674
-0.017048573 0.086347856 0.66300005
-0.012740765 0.087158293 0.66220015
-0.0076685729 0.087874301 0.66000003
-0.003268572 0.088377148 0.66000003
0.013451429 0.088251427 0.66000003
0.017779592 0.087730624 0.66000003
0.022675399 0.08754795 0.66133344
0.027642796 0.086967766 0.6626668
0.031426098 0.08620172 0.66260004
-0.022100002 0.090294294 0.66300005
-0.012345851 0.09190885 0.6622858
-0.0075455112 0.093059011 0.6602143
-0.002514286 0.093028575 0.65999997
0.0022000005 0.093552381 0.65999997
0.0075428574 0.094285719 0.66000003
0.012887541 0.093459293 0.66008329
0.01745075 0.092200689 0.661143
0.022706313 0.092085607 0.66224998
0.026898859 0.091936015 0.66300005
-0.011870218 0.096961476 0.66227281
-0.0076958248 0.097326301 0.6606155
-0.002514286 0.097428575 0.65999997
0.0025167463 0.097515315 0.66058326
0.0075542862 0.097576827 0.66100007
0.012591509 0.097588979 0.6610834
0.017666668 0.097167611 0.66250002
0.021784287 0.096608579 0.66300005
-0.011365715 0.10039715 0.66300005
-0.0073997406 0.10146227 0.66245461
-0.0025224406 0.1021677 0.66218752
0.0025228572 0.10217739 0.6622501
0.0075724409 0.10222507 0.66256255
0.012621072 0.10223454 0.66262507
0.01727117 0.10161871 0.66272736
-0.003157143 0.10544858 0.66300005
0.0036622861 0.10645887 0.66300005
0.0075771436 0.10608002 0.66300005
0.012628572 0.10544858 0.66300005
0.0091133341 0.03772508 0.66766679
0.012685418 0.038059112 0.66606253
0.017735038 0.037913542 0.66507143
0.020900002 0.036733337 0.66500002
-0.0088666677 0.044966668 0.66500002
0.013300002 0.041800003 0.66500002
0.017103948 0.042080276 0.66514289
-0.011341144 0.048040573 0.66900009
-0.008873811 0.047535717 0.66550004
0.012884445 0.048368894 0.66533339
-0.011256192 0.050759055 0.66900003
-0.0075455029 0.051686671 0.66633332
0.013018758 0.052316934 0.66553843
0.015849208 0.05219778 0.6656667
-0.01083143 0.056705721 0.66900003
-0.0063639288 0.057268932 0.66812509
-0.0035888888 0.058055561 0.66500002
0.0088666677 0.057633337 0.66500002
0.012685061 0.057080779 0.66593754
0.016389906 0.058061909 0.66700006
-0.0062779603 0.062141094 0.66871434
-0.0026664129 0.062325716 0.66640007
0.0027460321 0.063608579 0.6656667
0.0077809524 0.062338106 0.66500008
0.012684821 0.062153272 0.6659376
0.016353335 0.061378103 0.66900003
-0.010799048 0.069240957 0.66700006
-0.0074423817 0.06761191 0.66707152
-0.0025400599 0.067301854 0.66668755
0.0025349404 0.06720233 0.6656875
0.0068083331 0.066341668 0.66500002
0.013088889 0.065655559 0.66500002
0.017615717 0.067641035 0.66735727
0.02227905 0.069379374 0.66833341
-0.012650039 0.07251393 0.66653854
-0.0095000006 0.070300005 0.66500002
-0.0019000003 0.070300005 0.66500008
0.0019000003 0.070300005 0.66500008
0.019633334 0.070300005 0.66500002
0.023157287 0.07190793 0.66546154
0.027713144 0.073349722 0.6674
-0.017508028 0.077645175 0.66671431
-0.013736509 0.076286986 0.6656667
0.028351871 0.077243879 0.66607696
0.031517781 0.077420011 0.66633332
-0.026588712 0.082850486 0.66700011
-0.022833154 0.082448274 0.66593754
-0.019385908 0.081977539 0.6652
0.027233334 0.080433339 0.66500002
-0.026283335 0.086450011 0.66500002
-0.02272963 0.086625934 0.66500002
-0.018366668 0.088191673 0.66500002
0.029766669 0.089300007 0.66500002
0.032300003 0.088666677 0.66500002
-0.020970717 0.092782617 0.66725004
-0.017746013 0.092528284 0.66543752
-0.014566667 0.093733341 0.66500002
0.029344447 0.092888892 0.66500002
0.031045003 0.092502147 0.66525
-0.017605511 0.097544163 0.66692865
-0.014317716 0.097943254 0.6652
0.023750002 0.098166674 0.66500002
0.027885776 0.097598284 0.66543758
0.031372193 0.097926103 0.66680002
-0.01732038 0.10226458 0.66860008
-0.012737511 0.10291319 0.66607696
-0.0079800012 0.10424667 0.66500002
0.018620003 0.10399333 0.66500002
0.022833036 0.10274579 0.66593748
0.02780113 0.10224251 0.6675455
0.031857144 0.10130572 0.66900003
-0.017840002 0.10512858 0.66900003
-0.012431256 0.10724096 0.66772735
-0.0076103578 0.10780965 0.66587502
-0.0024920003 0.10781518 0.66513336
0.0020151518 0.1080697 0.66500002
0.0076000001 0.10893334 0.66500002
0.012666668 0.10830002 0.66500002
0.017745418 0.10773829 0.66543752
0.022915877 0.10757016 0.66833347
0.026760001 0.10512858 0.66900003
-0.01083143 0.11022572 0.66900003
-0.0072502866 0.11241106 0.6676001
-0.0023896706 0.11239949 0.66561538
0.002536369 0.11285112 0.6656875
0.0074342182 0.11269218 0.66635722
0.012644176 0.11252947 0.66638458
0.017780874 0.11239628 0.66675007
0.022140717 0.11134072 0.66900009
-0.0060528582 0.11627857 0.66900003
-0.0027207795 0.11661794 0.66845465
0.0025458732 0.11772588 0.66816664
0.0076947268 0.11738133 0.66900009
0.012530478 0.11645557 0.66900009
0.016884286 0.11564144 0.66900003
0.0038228575 0.12042001 0.66900003
0.0070085721 0.12042001 0.66900003
-0.010863811 0.053679049 0.671
-0.0085586673 0.053520191 0.67060006
-0.010855715 0.058110956 0.67050004
-0.0089333337 0.057428576 0.67000002
-0.010880001 0.062722862 0.67200005
-0.008729524 0.062808894 0.67066669
0.017457962 0.063699052 0.67171437
-0.016047619 0.06996762 0.67400002
-0.012554193 0.06840276 0.67249995
-0.0089333337 0.065723814 0.67000002
0.019156668 0.065772861 0.67050004
0.022551669 0.067813098 0.67174995
0.026877144 0.069439046 0.67200005
-0.021088572 0.074129522 0.671
-0.017857907 0.0729995 0.67119998
-0.014038096 0.070828579 0.67000002
0.028501589 0.071253985 0.67000002
-0.021487778 0.078291915 0.67016667
-0.019780954 0.076571435 0.67000002
-0.021120001 0.10368001 0.67200005
-0.019788336 0.10213358 0.67025006
0.029990477 0.10400953 0.67000002
0.031266667 0.10400953 0.67000002
-0.017351603 0.10741844 0.67027283
-0.014250795 0.10868889 0.67000002
0.027786151 0.10737404 0.67000008
0.030035241 0.10799906 0.671
-0.017000668 0.11223457 0.67110002
-0.012951498 0.11263886 0.67035717
-0.0095714293 0.11358096 0.67000002
0.023786906 0.11318763 0.67050004
0.027479209 0.11247367 0.671
0.030080002 0.11264239 0.67200005
-0.016047619 0.11618477 0.67400002
-0.012652528 0.11730425 0.6719231
-0.0081912708 0.11775812 0.67016673
-0.002552381 0.11932382 0.67000002
0.0095714293 0.11932382 0.67000002
0.013187302 0.11889844 0.67000002
0.018185716 0.11794128 0.67000002
0.022564618 0.1174373 0.67100006
0.027112732 0.11749126 0.67345446
0.030169526 0.11682668 0.67400002
-0.012196192 0.12174795 0.67400002
-0.007494763 0.12254158 0.6716429
-0.0025548213 0.12264102 0.67068744
0.0023711566 0.12284084 0.67028576
0.0077069858 0.12275296 0.67060006
0.012937217 0.12233986 0.67146158
0.017908514 0.1228009 0.67156249
0.022131432 0.12246349 0.6724444
0.025547812 0.12106325 0.67400002
-0.0073401066 0.12675768 0.67333329
-0.0025626984 0.12751922 0.67283332
0.0025640002 0.1272943 0.67299998
0.0074223136 0.12689824 0.6734286
0.012562995 0.12590504 0.67400008
0.017973334 0.12645525 0.67400002
0.022038734 0.12602732 0.67400002
-0.0025676191 0.13073461 0.67400002
0.0019257144 0.13030668 0.67400002
0.01907143 0.063214287 0.67500007
0.022262383 0.064200006 0.67750001
-0.016071429 0.06878572 0.67500001
-0.013500001 0.067500003 0.67500001
0.023203097 0.065740243 0.67675
0.026400598 0.067450359 0.67612511
-0.018223494 0.070534617 0.67533338
-0.016842859 0.11790001 0.67500001
0.030214287 0.11892858 0.67500001
-0.017118191 0.1220121 0.67570007
-0.014142859 0.12278573 0.67500007
0.023785716 0.12407143 0.67500001
0.027642861 0.12255196 0.67500013
0.03024786 0.12227929 0.67575008
-0.016079366 0.12670478 0.67533338
-0.012873811 0.12745298 0.67587507
-0.008874286 0.12848115 0.67520005
0.0025714287 0.12921429 0.67500001
0.0081000002 0.12895715 0.67500001
0.012861668 0.12861931 0.67525005
0.018010359 0.12864324 0.67537504
0.022868456 0.12819085 0.67637503
0.026956258 0.12756222 0.67713326
0.03025905 0.12554286 0.67600006
-0.016166668 0.13192001 0.67900002
-0.012280954 0.13185558 0.67866671
-0.0075866668 0.13233143 0.67676926
-0.0025736191 0.13342792 0.67550009
0.0026143496 0.13257042 0.67506677
0.0077176197 0.13247798 0.67524999
0.012886906 0.13272357 0.67649996
0.017289715 0.13251372 0.67740005
0.021970794 0.1324697 0.67850006
0.026882861 0.13182764 0.67900002
-0.0075444449 0.13644667 0.67899996
-0.0025826194 0.13748786 0.67775005
0.002577302 0.13730143 0.67683339
0.0077246833 0.1371147 0.67591679
0.012914209 0.13752088 0.67791671
0.017573249 0.137233 0.67881817
0.020693334 0.13709335 0.67899996
-0.0022384622 0.14191848 0.67900002
0.0023703706 0.14130965 0.67888886
0.0079297842 0.14138937 0.67845458
0.012799301 0.14208211 0.67873335
0.01727524 0.14125049 0.67900002
0.020046668 0.14032668 0.67900002
-0.00064666668 0.1455 0.67900002
0.031604573 0.12862669 0.68279999
-0.016285716 0.13484572 0.68400002
-0.013642224 0.13380224 0.68200004
0.027847622 0.13319367 0.68000001
0.03050524 0.13240524 0.68150008
-0.016285716 0.13614859 0.68400002
-0.012870096 0.13765042 0.68240011
-0.0084238108 0.13865875 0.68033338
0.023331907 0.13739716 0.68050003
0.027090207 0.13739349 0.68185723
0.030617144 0.13680002 0.68400002
-0.012514287 0.14213629 0.6835556
-0.0076004094 0.14243892 0.68114293
-0.0041015875 0.14398733 0.68000001
0.0028680277 0.14367893 0.68000001
0.0073828581 0.14416002 0.68000001
0.014895239 0.14441906 0.68000001
0.017744763 0.14390098 0.68000001
0.0220285 0.14269809 0.68176925
0.027087716 0.14181916 0.68370003
0.030617144 0.14136001 0.68400002
-0.011074287 0.14526857 0.68400002
-0.0078605879 0.14722398 0.68330777
-0.0027703035 0.14730573 0.68081814
0.0025968256 0.14737174 0.68166673
0.007928133 0.14735951 0.68069232
0.012825781 0.14755672 0.68013334
0.017532488 0.14739472 0.68177783
0.02231939 0.14739411 0.68350005
0.025964085 0.14694367 0.68400007
-0.0064200005 0.15212369 0.6838572
-0.00260381 0.15232383 0.68350005
0.0026056552 0.15242055 0.68393749
0.0076744142 0.15232714 0.68293333
0.013155459 0.152611 0.6827693
0.017578177 0.15234247 0.68358338
0.020628572 0.15200001 0.68400002
-0.0026057144 0.15569144 0.68400002
0.0026057144 0.15569144 0.68400002
0.0078171436 0.15569144 0.68400002
0.013028572 0.15569144 0.68400002
0.016285716 0.15569144 0.68400002
-0.016333334 0.13850668 0.68600005
0.031577781 0.13785335 0.68600005
-0.01568 0.14242667 0.68600005
-0.013720001 0.14438668 0.68600005
0.028746668 0.14373335 0.68600005
0.031666126 0.14282641 0.68657154
-0.015063177 0.14735842 0.68766677
-0.012417144 0.14769678 0.68620008
-0.009800001 0.14961334 0.68600005
0.02844655 0.14778847 0.686625
0.030773811 0.14666811 0.6875
-0.015092382 0.15026763 0.68900001
-0.012445186 0.15215969 0.68766671
-0.0089288903 0.15309778 0.68599999
0.023011854 0.15295261 0.68599999
0.026663097 0.15228596 0.68700004
-0.011581907 0.15689716 0.68833339
-0.0078558736 0.15776098 0.68733335
-0.0026136907 0.15813561 0.68612498
0.0026133335 0.15771468 0.68599999
0.007840001 0.15810668 0.68599999
0.012413336 0.15810668 0.68600005
0.017248003 0.15771466 0.68599999
0.022070825 0.15734738 0.68709105
0.025591429 0.15617335 0.68900001
-0.0070257159 0.16175771 0.68842864
-0.0026183336 0.16235359 0.68737513
0.0026158337 0.16223466 0.68687505
0.0078434534 0.1621155 0.68637502
0.012413336 0.1620267 0.68599999
0.01700655 0.16220479 0.68674999
0.021349527 0.16212077 0.6885556
-0.0025518518 0.16689113 0.68900007
0.0027525718 0.16769239 0.68833351
0.0078583341 0.16765156 0.68762511
0.012182002 0.16740829 0.68770009
0.016616192 0.16637336 0.6886667
0.0098428577 0.17126572 0.68900001
0.030885717 0.14917144 0.69000006
-0.015114287 0.15245715 0.69000006
-0.013800001 0.15442859 0.69000006
0.029306669 0.15279001 0.69150001
0.031903949 0.15236709 0.69171435
-0.013368572 0.15822922 0.69033337
0.024331907 0.15914428 0.69050002
0.027373051 0.15792085 0.69090003
0.031566668 0.15730344 0.69340003
-0.012496191 0.16244541 0.69055557
-0.0083803572 0.16349395 0.69012505
0.023455717 0.16352716 0.69050002
0.027769234 0.16279912 0.69292307
0.031946033 0.16215368 0.69400001
-0.01209143 0.16772763 0.6924445
-0.0080462294 0.16753721 0.69069237
-0.0028476194 0.16888574 0.69000006
0.013800001 0.16888572 0.69000006
0.017523812 0.16844764 0.69000006
0.022505349 0.16744368 0.6903078
0.027735835 0.16773096 0.69337499
0.031064764 0.16589905 0.69400001
-0.011228096 0.17238525 0.69350004
-0.0077238102 0.17242424 0.6921429
-0.00263 0.17223428 0.69025016
0.0024769236 0.17262639 0.69000012
0.0077064945 0.17294805 0.69000006
0.012617143 0.17256571 0.69000006
0.017087441 0.17218709 0.69006264
0.022382798 0.17246853 0.69118744
0.027355811 0.17232707 0.69380009
-0.0079598743 0.17720927 0.69240004
-0.0026323216 0.17766981 0.69093752
0.0026305357 0.1775741 0.69056249
0.0078930957 0.1775901 0.69062507
0.012497619 0.17760079 0.69066668
0.01708881 0.17746107 0.69012511
0.022260446 0.1776734 0.69146669
0.026834667 0.17700309 0.69400007
-0.0079200007 0.1821226 0.69285715
-0.0026323812 0.18295048 0.69100004
0.0026323812 0.18295048 0.69100004
0.0080851717 0.18266843 0.6910001
0.01250381 0.18295048 0.6910001
0.017104408 0.18288465 0.69075
0.022352507 0.18262553 0.69160002
0.02682724 0.18263428 0.69380009
-0.0072673336 0.18710144 0.69370002
-0.0026419051 0.18823636 0.69349998
0.0026417465 0.18819112 0.69333333
0.0077342875 0.18780084 0.69328576
0.012535556 0.18803968 0.69277775
0.01712429 0.18769287 0.69150007
0.02264089 0.18781997 0.69335717
0.027092701 0.18766588 0.69383335
-0.0024548301 0.19267498 0.69385731
0.0026416071 0.19284172 0.69343752
0.0079314299 0.19299808 0.69400012
0.012550239 0.19288281 0.69358325
0.017164584 0.1927727 0.69318748
0.022283541 0.19271486 0.69400012
0.026438097 0.19101524 0.69400001
0.029785719 0.15731272 0.69500005
0.031109527 0.15951906 0.69500005
0.029785717 0.16084287 0.69500005
0.031109527 0.16084287 0.69500005
-0.015267621 0.16794382 0.69700003
-0.013913333 0.16762382 0.69566673
0.031109527 0.16812381 0.69500005
-0.01526762 0.17259048 0.69700003
-0.012954423 0.17275716 0.69500011
0.029785717 0.17341906 0.69500005
0.031992067 0.1723159 0.69500011
-0.016109524 0.17753001 0.69749999
-0.012582859 0.17747621 0.69533342
0.029344447 0.17761114 0.69500011
0.032002859 0.17766848 0.69522232
-0.015616428 0.18207978 0.69774997
-0.012466755 0.18264806 0.69554555
-0.009928572 0.18467145 0.69500005
0.029344447 0.18224446 0.69500011
0.032348763 0.18255086 0.6960001
0.035181906 0.18387525 0.69700003
-0.015732698 0.18635494 0.69800007
-0.012740286 0.1875125 0.69670004
-0.0088695241 0.18864286 0.69500011
0.029785717 0.18798096 0.69500005
0.032369208 0.18706106 0.69677782
0.035181906 0.18520287 0.69700003
-0.015599525 0.19283667 0.69700003
-0.012612383 0.19250476 0.69700003
-0.0081043961 0.1925806 0.69561541
0.028073335 0.19293489 0.69520015
0.032089524 0.19246161 0.69711113
0.035232384 0.1921162 0.69800001
-0.015278572 0.19662905 0.69749999
-0.018000001 0.17866668 0.70000005
-0.017435919 0.18302749 0.70028579
-0.016222224 0.1877778 0.70000005
-0.016409906 0.19064192 0.70040005
