# .PCD v0.7 - Point Cloud Data file format
VERSION 0.7
FIELDS x y z
SIZE 4 4 4
TYPE F F F
COUNT 1 1 1
WIDTH 646
HEIGHT 1
VIEWPOINT 0 0 0 1 0 0 0
POINTS 646
DATA ascii
-0.0056400006 0.078960001 0.65800005
-0.0067680003 0.083096012 0.65800005
-0.0043866672 0.082093336 0.65800005
-0.007269334 0.086856008 0.65800005
-0.0043866672 0.087106675 0.65800005
-0.0062666675 0.09086667 0.65800005
-0.0094714295 0.039780002 0.66300005
-0.011275511 0.043207757 0.66300005
-0.0083213001 0.043097407 0.66281825
-0.0082085729 0.046725716 0.66300011
-0.01181211 0.073483959 0.66271436
-0.0073876204 0.073419735 0.66214293
-0.0025257145 0.073877148 0.66300005
-0.017028913 0.07766211 0.66221446
-0.012696041 0.077593185 0.66126317
-0.0078178234 0.077812932 0.66042852
-0.0025176196 0.077441342 0.66110003
0.0021046032 0.077435561 0.66283345
-0.017646609 0.082552567 0.66168761
-0.012579405 0.083018333 0.66037494
-0.0088 0.082342863 0.66000009
-0.0023892699 0.083072327 0.66046673
0.0023987938 0.081910171 0.6626001
-0.017707109 0.087171428 0.6621539
-0.012452637 0.087918684 0.66033334
-0.0079619056 0.089466676 0.66000009
-0.0023445026 0.087480091 0.66081822
0.0022542858 0.087081231 0.66257155
-0.017034367 0.092108011 0.66241682
-0.01254216 0.092651755 0.66060001
-0.00772245 0.093297973 0.66000003
-0.0025186907 0.091979891 0.66150004
0.0014207143 0.092030719 0.66300005
-0.016417144 0.095977157 0.66300005
-0.012777825 0.097258776 0.66128576
-0.0077238106 0.097808585 0.66014284
-0.0025189884 0.097047083 0.66168755
0.00063142861 0.09597715 0.66300005
-0.011570583 0.10203049 0.66266668
-0.0073926542 0.10249688 0.66257155
-0.0032801908 0.10182152 0.66240007
0.00063142861 0.10039715 0.66300005
-0.0071982862 0.10570115 0.66300005
-0.0037885716 0.10544858 0.66300005
-0.021025715 0.038865715 0.66900003
-0.017348573 0.039133336 0.66633338
-0.012682145 0.039310478 0.66575003
-0.0071327388 0.03900012 0.66587496
-0.0027028576 0.038502861 0.66825008
0.0027980004 0.038557429 0.66810006
-0.017763751 0.042499468 0.66606247
-0.013722223 0.042855557 0.66500002
-0.0059550484 0.04269905 0.6652
-0.0024138414 0.042098422 0.66773337
0.0023593199 0.042225581 0.66742861
-0.017960478 0.047255032 0.66664296
-0.012666668 0.047500007 0.66500002
-0.0069680959 0.048145559 0.66516668
-0.0034329526 0.047064956 0.66780001
0.0025485717 0.047148574 0.66900009
-0.017560381 0.051405143 0.66800004
-0.012685061 0.052007332 0.6659376
-0.007610417 0.052017204 0.66606247
-0.0040352386 0.050759055 0.66900003
0.0027078576 0.052564286 0.66900009
-0.016353335 0.055856198 0.66900003
-0.01256557 0.056766018 0.66738468
-0.0082564289 0.057166122 0.66691673
0.0019114286 0.055431433 0.66900003
-0.011787144 0.063395716 0.66900003
-0.0084161907 0.062307622 0.66833341
-0.017031191 0.068281673 0.66850001
-0.01270524 0.067334175 0.66700006
-0.0076200007 0.067308925 0.66675013
-0.0030651949 0.06796477 0.668091
-0.021965714 0.074171439 0.66850001
-0.017773872 0.072354704 0.66643745
-0.013054286 0.071482293 0.66539997
-0.0080246031 0.07073985 0.66516668
-0.0025347623 0.071619689 0.66549999
0.0024137143 0.07251963 0.66679996
0.0060485722 0.073534295 0.66850007
-0.026122859 0.079005718 0.66900003
-0.022873633 0.077505551 0.66706252
-0.019324049 0.076345012 0.66525
0.0038000001 0.076000005 0.66500002
0.0065479372 0.077516191 0.66533333
-0.026122859 0.081554294 0.66900003
-0.022853574 0.082520016 0.66649991
0.0044333334 0.084233336 0.66500002
0.0070830164 0.082118742 0.66583335
-0.022608984 0.087517969 0.6672858
-0.019633334 0.089300007 0.66500002
0.0044333334 0.087400004 0.66500002
0.0065539689 0.087588251 0.66588891
-0.022134893 0.09263517 0.66745454
-0.019633334 0.092466667 0.66500002
0.0036416668 0.092625007 0.66500002
0.0063548815 0.092762738 0.66712505
-0.020962859 0.095920958 0.66700006
-0.018057404 0.098008744 0.66627282
0.0028071431 0.097767144 0.66535723
0.0062371432 0.097112194 0.66820002
-0.017427621 0.10214191 0.66780001
-0.014039185 0.10298286 0.66571438
-0.0012668255 0.10325922 0.66516674
0.0021369699 0.10272209 0.66690916
0.0057342863 0.10066858 0.66900003
-0.016725002 0.10656215 0.66900009
-0.01256362 0.10773506 0.66619998
-0.0077727279 0.10841516 0.66500002
-0.0023534696 0.10800803 0.66542858
0.0019088893 0.10767367 0.66766667
-0.015928572 0.11022572 0.66900003
-0.012565802 0.11239646 0.6688183
-0.0074701835 0.11251634 0.66630769
-0.0025372228 0.11231136 0.66624999
0.0014863494 0.1120816 0.66866672
-0.01083143 0.11532287 0.66900003
-0.0073271436 0.11643787 0.66900009
-0.0031857144 0.11645557 0.66900009
-0.007661588 0.037028261 0.67033339
-0.0031904764 0.03764762 0.67000002
-0.021604085 0.042387761 0.67000002
-0.021324953 0.046865147 0.67040008
-0.0010634921 0.047219053 0.67000002
0.0014038096 0.046836194 0.67000002
-0.021553177 0.052921437 0.67216671
-0.018292066 0.053600006 0.67000002
-0.0022090112 0.052673485 0.67007697
0.0011485715 0.051685717 0.67000002
-0.021120002 0.056960009 0.67200011
-0.018240442 0.057866666 0.67107695
-0.013400001 0.059342861 0.67000002
-0.0057450002 0.057449766 0.67025006
-0.0025555359 0.057509467 0.67093754
0.0017880955 0.057490189 0.67070001
-0.021824764 0.064832382 0.67400002
-0.017911075 0.062684052 0.67162502
-0.013084604 0.062230006 0.67016667
-0.0066544223 0.062624499 0.67000002
-0.0025568455 0.062702924 0.67181247
0.00064190489 0.063120633 0.67400002
0.007060953 0.064832382 0.67400002
-0.025547812 0.068940572 0.67400002
-0.022431351 0.067930721 0.67291665
-0.018667977 0.066852741 0.67012507
-0.001404381 0.066548765 0.67060006
0.0025601194 0.067811914 0.67175001
0.0075082318 0.068206333 0.67292857
0.010912382 0.06996762 0.67400002
-0.030139685 0.073744766 0.67333335
-0.027423467 0.073182598 0.67245454
-0.023314446 0.072282225 0.67066669
0.0044666668 0.070828579 0.67000002
0.0082035726 0.072541192 0.67108339
0.011233334 0.072856195 0.67400002
-0.030960321 0.077644765 0.67255563
-0.027718857 0.077661537 0.67060006
0.0090385042 0.077689394 0.67100006
0.011462587 0.077303685 0.67400008
-0.031224446 0.08186128 0.67211109
-0.027710477 0.083257161 0.67040008
0.0092559531 0.083941191 0.67025006
0.01153762 0.082040489 0.67299998
-0.030731669 0.087073088 0.67225003
-0.027480317 0.08754953 0.671
-0.024885716 0.089333341 0.67000002
0.0090777148 0.087320767 0.67120004
0.011533096 0.08713834 0.67275
-0.030408382 0.09199544 0.67360002
-0.027528733 0.092182867 0.67216671
-0.024885718 0.092523813 0.67000002
0.0089742867 0.092297152 0.67299998
0.011462587 0.092159204 0.67400008
-0.030169526 0.095643818 0.67400002
-0.026506035 0.09704636 0.67333335
-0.02321413 0.097324297 0.67083335
0.0087529104 0.097540632 0.67233342
0.010912382 0.09756954 0.67400002
-0.025034288 0.10142096 0.67400002
-0.022390481 0.10235047 0.67166674
-0.019780954 0.10273334 0.67000002
0.0044666668 0.10337143 0.67000002
0.0079531306 0.10252797 0.6716429
-0.021985505 0.10736053 0.67233342
-0.018990716 0.10771905 0.67025006
0.0044666668 0.1072 0.67000002
0.0067773345 0.10713638 0.67119998
-0.021182859 0.11104953 0.67400002
-0.017749745 0.11243664 0.67107701
-0.014676192 0.11358096 0.67000002
0.0036766671 0.11299405 0.67125005
0.0060304771 0.1125242 0.67360002
-0.016368572 0.11714762 0.67400002
-0.012902034 0.11764339 0.67060006
-0.0082952389 0.11859459 0.67000002
-0.0017319731 0.11841226 0.67000002
0.0024335876 0.11757341 0.67166668
0.0057771434 0.11682668 0.67400002
-0.016047619 0.1206781 0.67400002
-0.012813415 0.12234675 0.67258328
-0.0076661911 0.12265261 0.67075002
-0.0026824768 0.12252173 0.67073333
0.0019240477 0.12189572 0.67275
-0.011768255 0.12602732 0.67400002
-0.0075137666 0.12738252 0.67272729
-0.0025640002 0.12698419 0.67339993
0.00064190483 0.12517144 0.67400002
-0.0057771434 0.13030668 0.67400002
-0.0044933334 0.13030668 0.67400002
-0.023785716 0.054000005 0.67500001
-0.022928573 0.056357145 0.67500007
0.0032142859 0.05978572 0.67500001
0.0030222714 0.063042209 0.67600012
0.0070848679 0.063470267 0.67622226
0.012475557 0.063463181 0.67766678
0.016813334 0.064020008 0.67900002
-0.031318098 0.068768099 0.67800003
-0.027387977 0.067500129 0.67662501
0.0092190485 0.065817788 0.67533338
0.012896846 0.067047678 0.67693746
0.017028892 0.067468897 0.67899996
0.020693336 0.069193341 0.67900002
-0.035566669 0.074366674 0.67900002
-0.032077581 0.072183728 0.67727274
-0.028514287 0.070534617 0.67533338
0.01362667 0.071872041 0.67545462
0.017418256 0.072247297 0.67733347
0.020287622 0.072750859 0.67840004
-0.036900878 0.077778816 0.67775005
-0.033542048 0.07691592 0.67542863
0.013931008 0.076941386 0.67511117
0.017418731 0.077410012 0.67733335
0.0217032 0.077575721 0.67878574
0.025220001 0.076953337 0.67900002
-0.040680002 0.082651436 0.67800003
-0.037405122 0.082545832 0.6771251
-0.033651274 0.082735091 0.67516673
0.014153811 0.082346678 0.67550004
0.017452067 0.082732707 0.67866671
0.021210669 0.082385354 0.67899996
-0.036836021 0.087476537 0.67854548
-0.033466432 0.087526433 0.67575008
0.014151071 0.08747679 0.67537504
0.01733377 0.087840781 0.67863637
0.020046668 0.086653337 0.67900002
-0.032215714 0.092775717 0.67650002
0.01394053 0.092862226 0.67555559
0.016472144 0.092047863 0.67825007
-0.031734094 0.097515628 0.67720002
-0.028206127 0.098399065 0.67528576
0.013398955 0.097515911 0.67630011
0.016166668 0.097000003 0.67900002
-0.031093471 0.10232232 0.67814291
-0.027232211 0.10277247 0.67636377
0.012368833 0.10214996 0.67690915
-0.030393336 0.10605334 0.67900002
-0.026608858 0.10694583 0.67810005
-0.023785716 0.10800001 0.67500001
0.0093388101 0.10787929 0.67625004
0.011723132 0.10753375 0.67842859
-0.025201429 0.1124381 0.67850006
-0.022820743 0.11252403 0.67600006
-0.019928573 0.11378572 0.67500001
0.0086417152 0.1124463 0.67700005
0.011252001 0.11213201 0.67900002
-0.021696383 0.117392 0.67800003
-0.018654969 0.11735021 0.67542863
0.0072568716 0.11711675 0.67514294
-0.020477779 0.12243556 0.67900002
-0.017635999 0.12254572 0.67580009
0.0039910483 0.12318953 0.67580003
0.0064448817 0.12243798 0.67662507
-0.017252263 0.12688109 0.67712504
-0.013518763 0.12810068 0.67590004
-0.0096428581 0.12921429 0.67500001
-0.0019285716 0.12921429 0.67500007
0.0027109846 0.12780471 0.67706668
0.0061411909 0.12702358 0.67875004
-0.012417143 0.13212825 0.67822224
-0.0078575881 0.13279475 0.67620015
-0.0024448892 0.13274179 0.67593336
0.0020816934 0.13204171 0.67777777
-0.011640001 0.13515334 0.67900002
-0.0073711425 0.13759059 0.67889994
-0.0025833338 0.13760573 0.6783334
0.0010777779 0.13558446 0.67900008
-0.0058200005 0.14032668 0.67900002
-0.0034920003 0.14084402 0.67900002
0.0090666674 0.062819049 0.68000001
-0.031826667 0.06755048 0.68200004
-0.029142858 0.066704765 0.68000001
-0.036050797 0.073180959 0.68000001
-0.034323812 0.07188572 0.68000001
0.022019049 0.0848381 0.68000001
-0.039189212 0.088551126 0.68200004
0.018780954 0.088723816 0.68000001
0.02179252 0.087817557 0.68157154
-0.041040003 0.093154296 0.68400002
-0.037879933 0.0925598 0.68235719
-0.034323812 0.09260954 0.68000001
0.018284954 0.092978291 0.68080002
0.021356886 0.092464603 0.68327278
-0.041040003 0.096411437 0.68400002
-0.037674166 0.097428583 0.68199998
-0.034323812 0.09714286 0.68000001
0.018200478 0.097500004 0.68250006
0.021160359 0.097009644 0.68362504
-0.036954291 0.10258494 0.68290919
-0.033738576 0.10251358 0.68124998
0.014582382 0.10337191 0.68050003
0.017441301 0.10257119 0.68281823
0.020194288 0.10227429 0.68400002
-0.035828575 0.10618287 0.68400002
-0.032445196 0.10772971 0.68254548
-0.028641907 0.10847582 0.68040001
0.014287501 0.10779965 0.68187505
0.016277779 0.10743397 0.68366671
-0.031102097 0.11230592 0.68320006
-0.027789621 0.11257763 0.68170005
0.013629525 0.11291774 0.6814
0.016285716 0.11226287 0.68400002
-0.030617144 0.11595429 0.68400002
-0.027219843 0.11722319 0.68316668
-0.023553653 0.11863049 0.68066669
0.0092019057 0.11780687 0.68040001
0.013015637 0.11745422 0.68325007
0.016285716 0.11660572 0.68400002
-0.025953474 0.12213878 0.68371433
-0.023001483 0.12278329 0.68133336
0.0090894047 0.1226925 0.68162501
0.011592192 0.12152135 0.68380004
-0.021819049 0.12765455 0.68290919
-0.018780954 0.12887619 0.68000001
0.0087318523 0.12776996 0.68177778
0.011074287 0.12572572 0.68400002
-0.020628572 0.13137144 0.68400002
-0.017525876 0.13240732 0.68150008
-0.014463494 0.13362542 0.68000001
0.0041015875 0.13362542 0.68000001
0.0070301304 0.13236174 0.68218195
-0.017447794 0.13774201 0.68309098
-0.013146533 0.13766028 0.68042862
-0.0097142868 0.13859048 0.68000001
0.0028138892 0.13779803 0.68141669
0.0063784765 0.13707106 0.68340009
-0.017067431 0.14188115 0.68400002
-0.013004761 0.14238587 0.68266672
-0.0079106046 0.14277513 0.68080008
-0.0023331433 0.14312135 0.68059999
0.0027534799 0.14219028 0.68269241
0.0063840002 0.14109944 0.68400002
-0.012210239 0.14635526 0.68375003
-0.0078015095 0.14756897 0.68258345
-0.0024473262 0.14730904 0.68230772
0.0015198942 0.14698212 0.68388891
-0.0075359871 0.15220091 0.68378574
-0.0026039884 0.15236542 0.68368751
0.00065142865 0.15178287 0.68400002
-0.0032571431 0.15569144 0.68400002
0.022213336 0.099306673 0.68600005
0.02221889 0.10259858 0.6861667
-0.036717337 0.10806134 0.68600005
-0.03462667 0.10910667 0.68600005
0.01841007 0.10756219 0.68685728
0.021329526 0.10756534 0.6870001
-0.03668024 0.11266167 0.6877501
-0.033788785 0.11270075 0.68666679
0.018074561 0.11246777 0.68828589
0.020998098 0.1108962 0.68900001
-0.036090478 0.11680192 0.68900001
-0.032720286 0.1173963 0.68710011
-0.02942143 0.11899382 0.68650007
0.016333334 0.11727335 0.68600005
-0.031497143 0.12139525 0.68900001
-0.028316192 0.12288655 0.68685728
0.012976193 0.12350601 0.68614286
0.01503762 0.12291715 0.68650007
-0.026475241 0.12750518 0.68757147
-0.024173334 0.12805334 0.68600005
0.012588692 0.12767966 0.686625
0.015070478 0.12711716 0.68800002
-0.025517145 0.13020286 0.68700004
-0.022898002 0.13280123 0.68690008
0.009800001 0.13262668 0.68600005
0.011395047 0.13188915 0.68760008
-0.021315875 0.13697979 0.68744451
0.008941588 0.1375964 0.68688893
-0.020341907 0.14108096 0.68900001
-0.018103177 0.14328669 0.68700004
0.0077484366 0.14311008 0.68614286
-0.016230563 0.14761135 0.68663645
-0.012740001 0.14928667 0.68600005
0.0040133335 0.14793335 0.68600005
0.0067063104 0.14735059 0.6868751
-0.016215596 0.15215132 0.68787503
-0.012296364 0.15272219 0.68609095
-0.009800001 0.15418667 0.68600005
0.0029141996 0.15284356 0.68663633
0.0063431747 0.15158002 0.68900001
-0.015092382 0.15617335 0.68900001
-0.012253063 0.15722069 0.68742865
-0.007844286 0.15753032 0.68633336
-0.0023955556 0.15788889 0.68599999
0.0023227709 0.15738842 0.68727273
-0.011155238 0.16142286 0.68900001
-0.0079164105 0.16210118 0.68823093
-0.0029690112 0.16194794 0.687154
0.0015936055 0.16226655 0.68900007
-0.0039371429 0.16601621 0.68900001
0.019057143 0.11237144 0.69000006
0.021028573 0.11302858 0.69000006
-0.036195241 0.11911525 0.69100004
-0.034828573 0.11894286 0.69000006
0.018408891 0.117467 0.69033337
0.021309208 0.1172398 0.69200003
-0.035813145 0.12303449 0.69380003
-0.033287622 0.12268467 0.69133341
-0.029571431 0.12420001 0.69000006
0.017790955 0.12255492 0.69183338
0.021143097 0.12157167 0.69375002
-0.035030477 0.12624191 0.69400001
-0.032158934 0.1271468 0.69262499
-0.029080002 0.12776497 0.69080007
0.017459396 0.12784261 0.69290906
-0.031395242 0.13119906 0.69400001
-0.027503036 0.1324679 0.69200009
0.013149207 0.13280764 0.69033337
0.016804975 0.13186467 0.69344449
-0.026298478 0.1373065 0.69380003
-0.023443971 0.1384716 0.69016671
0.012646573 0.13737744 0.69150001
0.015201906 0.13747811 0.69400001
-0.022549525 0.14253032 0.69081819
-0.019057143 0.1439143 0.69000006
0.0098571433 0.1426 0.69000006
0.012535396 0.14249286 0.69266671
0.015201906 0.14078286 0.69400001
-0.021026259 0.14755797 0.69300002
-0.019077858 0.14735977 0.69075
0.0093481913 0.14758782 0.69120002
0.011758476 0.14704345 0.69360006
-0.021140635 0.15194605 0.6936667
-0.01855905 0.15280934 0.69100004
0.0083091436 0.15254574 0.69220001
-0.017137144 0.15751182 0.69200003
-0.013361907 0.15880954 0.69000006
0.0046000006 0.15793335 0.69000006
0.0073471805 0.15779364 0.69146156
-0.016168214 0.16233061 0.69287503
-0.012655001 0.16286619 0.69025004
-0.0076666675 0.16494286 0.69000006
-0.0010952381 0.16450477 0.69000006
0.0034324871 0.16336288 0.69011116
0.0072473013 0.16270636 0.69166666
-0.015762178 0.16790751 0.69371432
-0.012634374 0.16746815 0.69154549
-0.0078865876 0.16759184 0.69008338
-0.0023657146 0.1678343 0.69000006
0.0026306349 0.16765255 0.69033337
0.0072570643 0.16754042 0.69258344
-0.015201907 0.17250858 0.69400001
-0.012414461 0.1726505 0.69263631
-0.0078929178 0.17231174 0.69056261
-0.0026285714 0.17217146 0.69000018
0.0026319644 0.17231233 0.69056261
0.0068851709 0.17210749 0.69314295
-0.012680001 0.17737813 0.69340003
-0.0078930371 0.1775734 0.69056261
-0.002628631 0.17744482 0.69006264
0.0024863738 0.17746735 0.69192314
0.0063892072 0.17559302 0.69400001
-0.012283809 0.18200153 0.69340003
-0.007765526 0.18281884 0.6910001
-0.002632143 0.18291749 0.69087499
0.0019800793 0.18244502 0.69241667
-0.011236191 0.18572763 0.69400001
-0.0079249218 0.18786082 0.69333339
-0.0026328573 0.1876027 0.69116676
0.0023121431 0.18755245 0.6934166
-0.0079736523 0.19289847 0.69380015
-0.0026376192 0.19258098 0.69249994
0.0017181907 0.19291459 0.69370002
-0.037728574 0.12311429 0.69500005
0.021180954 0.1237762 0.69500005
-0.036587197 0.12742975 0.69566673
-0.033757146 0.12907144 0.69500005
0.021203095 0.12722217 0.69575006
-0.036266431 0.13164787 0.69550008
-0.032960121 0.13299775 0.69562507
-0.029785717 0.13370478 0.69500005
0.018400954 0.1335724 0.69500011
0.020783812 0.13198382 0.69500011
-0.032207049 0.13756897 0.69580013
-0.028743431 0.13802059 0.69540012
0.017750097 0.13735829 0.69540012
0.02111543 0.13771391 0.6972
-0.031801909 0.14244732 0.69566673
-0.027691944 0.14273401 0.69607699
-0.024490478 0.14495715 0.69500005
0.017135795 0.14237756 0.69641674
0.02060762 0.14026476 0.69800001
-0.031862859 0.1453743 0.69700003
-0.027235955 0.1469736 0.69749999
-0.023852065 0.147747 0.69566679
0.013569049 0.14793572 0.69500005
0.016838962 0.147204 0.69709092
-0.02366974 0.152849 0.69677782
0.009928572 0.15422381 0.69500005
0.012586191 0.15234779 0.69550008
0.015946072 0.15281324 0.69762498
-0.021772297 0.1577034 0.69654554
-0.01919524 0.15885715 0.69500005
0.009928572 0.15753335 0.69500005
0.012469525 0.15745334 0.69640011
0.0157327 0.15666224 0.69800007
-0.021548845 0.16242044 0.69771427
-0.018560953 0.16306192 0.6960001
0.009928572 0.16282856 0.69500005
0.012053742 0.16238682 0.69757146
-0.021050796 0.16707683 0.69800007
-0.018395478 0.16737096 0.69600004
0.009928572 0.16746192 0.69500005
0.011856872 0.16759893 0.6971429
-0.02060762 0.17084382 0.69800001
-0.017895905 0.17231821 0.69590014
0.0094920639 0.17262 0.69533342
0.011292858 0.17271525 0.69749999
-0.016454289 0.17748843 0.696091
0.0081747621 0.17782399 0.69583338
0.011300953 0.17749144 0.69800001
-0.016588658 0.18245134 0.69663644
-0.013900001 0.18400954 0.69500005
0.0046333335 0.18268573 0.69500005
0.0079122549 0.18246149 0.6960001
0.011300953 0.18413906 0.69800001
-0.016033061 0.18755607 0.69728577
-0.012585079 0.18788053 0.69544452
-0.009928572 0.18996668 0.69500005
0.0046333335 0.18864286 0.69500005
0.008154287 0.18740179 0.69671428
0.011300953 0.18679811 0.69800001
-0.015729047 0.19229226 0.6978333
-0.012716192 0.19240868 0.6960001
-0.0072809528 0.19393811 0.69500005
0.0041038096 0.19287907 0.69500011
0.0071874466 0.19259527 0.69754553
-0.035333335 0.13733333 0.70000005
-0.034000002 0.13933334 0.70000005
-0.034000002 0.142 0.70000005
0.019333335 0.14400001 0.70000005
0.021369368 0.14290494 0.70116675
-0.031617906 0.14821829 0.70040005
-0.029111113 0.1477778 0.70000005
0.019360954 0.14821143 0.70100003
0.021516465 0.1475524 0.7028572
-0.031639196 0.15233123 0.70223087
-0.02749143 0.15238026 0.70090914
0.018676788 0.15208133 0.70037496
0.021424763 0.15064287 0.70300001
-0.031333812 0.15733881 0.70375001
-0.027267525 0.15731478 0.70170009
-0.024666671 0.15800002 0.70000005
0.017887408 0.15770605 0.70133334
-0.031512383 0.16024382 0.70400006
-0.027573597 0.16220737 0.70300007
-0.024110343 0.16305239 0.70042872
0.014015 0.16284168 0.70074999
0.017464543 0.16221488 0.70315403
-0.026702043 0.16719565 0.70342863
-0.023729391 0.16762628 0.70042866
0.013676668 0.16711906 0.70050001
0.015410001 0.16750096 0.70350003
-0.026136193 0.17223144 0.70366669
-0.023011157 0.17261282 0.70171434
0.013454014 0.17260315 0.70128578
0.015420954 0.17298287 0.70400006
-0.022350857 0.17718975 0.70260006
-0.019347144 0.17746097 0.70050001
0.013031548 0.17757727 0.70162499
0.015948573 0.17784305 0.70360005
-0.021821167 0.1817909 0.70377779
-0.01939778 0.18260795 0.70233339
0.012816278 0.18237752 0.70145464
0.015989389 0.18200871 0.70371431
-0.021346804 0.187906 0.7035715
-0.018809253 0.18740955 0.7017144
0.012876192 0.18743382 0.70225006
0.015420954 0.18572192 0.70400006
-0.021309335 0.19204953 0.70360005
-0.018486986 0.19264932 0.70155555
0.0086666672 0.19400001 0.70000005
0.011880147 0.19266023 0.7018463
-0.034242861 0.15308572 0.70500004
-0.035585716 0.15912858 0.70500004
-0.033795241 0.15868096 0.7050001
0.020902859 0.15913144 0.708
-0.032342542 0.16295843 0.70646667
0.019471429 0.16450001 0.70500004
0.021429662 0.16249445 0.70628577
-0.032324366 0.16767979 0.70708334
-0.028602859 0.16826001 0.70500004
0.018015999 0.16764441 0.7058
0.021665035 0.16744438 0.70771432
-0.030929049 0.1721281 0.70599997
-0.028200001 0.17255716 0.70500004
0.018304158 0.17255646 0.70700008
0.020902859 0.17059429 0.708
-0.031467196 0.17706932 0.70633328
-0.027581593 0.17759335 0.70633328
-0.024842858 0.17860001 0.70500004
0.018328255 0.1772089 0.70688897
0.020902859 0.17733715 0.708
-0.031241909 0.18138288 0.70800006
-0.027628997 0.18261693 0.70755559
-0.023947623 0.1830762 0.70500004
0.018673096 0.18234357 0.70649993
0.020902859 0.18205714 0.708
0.026297145 0.18003429 0.708
-0.027179686 0.18710902 0.70755559
-0.02403881 0.18708977 0.70599997
0.017867621 0.18750821 0.70684618
0.020902859 0.18542859 0.708
-0.027135361 0.19230631 0.70787501
-0.023978943 0.1924945 0.70588887
0.014100001 0.19068572 0.70500004
0.022345716 0.16048287 0.71100003
0.022056764 0.17225488 0.71040004
-0.033133335 0.17919049 0.71000004
0.022105556 0.17728812 0.71050012
0.025124764 0.17926858 0.71300006
-0.032819055 0.18303858 0.7105
0.023011073 0.18273252 0.71062499
0.025634697 0.18311879 0.71100008
-0.035989527 0.18741715 0.71300006
-0.032538973 0.18776694 0.71175003
-0.029076193 0.18798096 0.71000004
0.022503454 0.18763895 0.71062499
0.025803812 0.1880962 0.71300006
-0.031534154 0.19201581 0.71314299
-0.029130798 0.19262731 0.71133339
-0.036574289 0.20438573 0.75300002
-0.040985718 0.20420954 0.75500005
-0.040985718 0.20636667 0.75500005
-0.039547622 0.20636667 0.75500005
