# .PCD v0.7 - Point Cloud Data file format
VERSION 0.7
FIELDS x y z
SIZE 4 4 4
TYPE F F F
COUNT 1 1 1
WIDTH 1380
HEIGHT 1
VIEWPOINT 0 0 0 1 0 0 0
POINTS 1380
DATA ascii
0.31324527 0.049429052 0.60350007
0.31212705 0.052335851 0.60292876
0.31378001 0.038860004 0.60900003
0.28362003 0.041760001 0.60900003
0.28787336 0.044660002 0.60900009
0.29174003 0.044660002 0.60900009
0.29773661 0.044400003 0.60771435
0.30248332 0.043016993 0.60766667
0.30716133 0.043293487 0.60861546
0.31285203 0.042804003 0.60900015
0.31668001 0.043500006 0.60900003
0.28797424 0.047473527 0.60840005
0.29246464 0.047388025 0.60721052
0.29740056 0.047242709 0.60610527
0.30210823 0.047410667 0.6056
0.30746156 0.047389694 0.60683328
0.31224173 0.04714185 0.60643744
0.31553838 0.046477862 0.60625005
0.28880745 0.050857719 0.60820001
0.29267222 0.05125545 0.60664284
0.29748449 0.052127622 0.60694122
0.30242103 0.052053839 0.60688233
0.30783108 0.05202226 0.60726315
0.31052351 0.05229969 0.60566676
0.29947338 0.055486675 0.60900009
0.30247003 0.055825002 0.60900003
0.30653003 0.055390008 0.60900003
0.3119612 0.055877149 0.60800004
0.30583051 0.034500953 0.61400002
0.24852383 0.039179049 0.61400002
0.25248003 0.038767941 0.61366671
0.25729525 0.039179049 0.61400002
0.26247221 0.03916629 0.61380005
0.26782095 0.039179049 0.61400002
0.27249905 0.039179049 0.61400002
0.27730727 0.039115239 0.61300004
0.28216875 0.038778577 0.61383337
0.29238096 0.039179049 0.61400002
0.29717696 0.038284577 0.6128
0.30317703 0.037756629 0.61336362
0.30734539 0.037885241 0.61335719
0.31283361 0.038248315 0.61272728
0.31734592 0.038427431 0.61320007
0.22799219 0.042167835 0.61400002
0.23293018 0.042817567 0.61400002
0.23799811 0.042687621 0.61400002
0.24267621 0.042687621 0.61400002
0.24734795 0.042339783 0.6135909
0.25195917 0.042575248 0.61240017
0.25731057 0.042778052 0.61313051
0.26230669 0.042469405 0.61234796
0.26745474 0.042551685 0.6129474
0.27278063 0.042639583 0.61332005
0.2777395 0.042536572 0.61182618
0.2823576 0.042612333 0.61115795
0.28687906 0.043206435 0.611
0.29288247 0.041672796 0.6130625
0.29726732 0.042215455 0.61188889
0.30227828 0.04121016 0.61233336
0.30785733 0.040594451 0.61183333
0.31140369 0.04074429 0.61116672
0.31799021 0.041547216 0.61200011
0.23332003 0.045026671 0.61400002
0.24737422 0.047032494 0.61388898
0.25220573 0.04787381 0.61300004
0.25752759 0.047564313 0.61299998
0.26263872 0.047867354 0.61185724
0.26760495 0.047807466 0.61216664
0.2723316 0.047788184 0.61323529
0.27753124 0.048036147 0.61285013
0.28244287 0.047640454 0.61121058
0.28654656 0.048131842 0.611
0.25437143 0.050874289 0.61400002
0.26409715 0.051417623 0.6135
0.26777387 0.051607728 0.61344445
0.27241555 0.051542595 0.61400008
0.27858445 0.051821277 0.61366671
0.28226209 0.052372247 0.61235005
0.28725514 0.052664772 0.61213338
0.29201785 0.053769391 0.61271429
0.28477907 0.055552386 0.61400002
0.28653336 0.055552386 0.61400002
0.30397031 0.057860579 0.61120003
0.30736658 0.057877887 0.6111111
0.31166962 0.057529017 0.61127281
0.30483431 0.06003429 0.61200005
0.30949718 0.06003429 0.61200005
0.31182861 0.06003429 0.61200011
0.31834286 0.028886668 0.61900002
0.20220669 0.034781907 0.61900002
0.2175343 0.034585401 0.61900002
0.22225051 0.03478191 0.61900008
0.24288383 0.034781907 0.61900002
0.24774466 0.034023933 0.61862499
0.25249624 0.033547688 0.61800009
0.25767016 0.032860734 0.61811775
0.26252386 0.03237205 0.61805004
0.26732039 0.032972142 0.61825001
0.27241716 0.033671953 0.61861539
0.27748716 0.033654764 0.61816669
0.28274697 0.033470888 0.6181429
0.28788924 0.033933446 0.61788893
0.29215866 0.033115681 0.61838466
0.29714116 0.034063242 0.61879998
0.30317405 0.03325953 0.61812502
0.30776146 0.032894868 0.61683333
0.31252801 0.033157405 0.61672735
0.3172448 0.032410592 0.61747062
0.18923716 0.039498098 0.61900002
0.19305608 0.039115921 0.61828578
0.19775575 0.037900768 0.61860007
0.20273939 0.037813909 0.61846673
0.20744215 0.038098976 0.61838466
0.21285416 0.038051192 0.61825007
0.21763907 0.037644882 0.617625
0.22244081 0.037735015 0.61741179
0.22725557 0.037763514 0.61718756
0.23252611 0.037804954 0.61706668
0.2375897 0.037635501 0.61750001
0.24250044 0.037632775 0.61688244
0.24720943 0.037200954 0.61637503
0.25220755 0.036836106 0.61572737
0.25760955 0.037156556 0.61562502
0.26268446 0.036939368 0.61566675
0.26743966 0.037076887 0.61618191
0.27252752 0.037001498 0.61671436
0.27745801 0.036954362 0.61592317
0.28280243 0.036649872 0.61618197
0.28735077 0.037466034 0.61533326
0.29291388 0.037301034 0.61841667
0.29696566 0.036708098 0.61770004
0.30184999 0.036711324 0.61622226
0.30867144 0.035728574 0.61500001
0.31266576 0.036247216 0.61528575
0.31570002 0.035728574 0.61500001
0.18923716 0.040677145 0.61900002
0.19270174 0.042014115 0.61806256
0.19757754 0.042296518 0.61853343
0.20265454 0.04198081 0.61815387
0.20735146 0.041996565 0.6183846
0.21276493 0.042200271 0.61827785
0.21735258 0.042295776 0.61681259
0.22247195 0.042263951 0.61635011
0.22660799 0.042213928 0.61562508
0.23206 0.041468576 0.61499995
0.23786384 0.042150036 0.61526668
0.24244671 0.042132393 0.61499995
0.28934288 0.040414289 0.61500001
0.19395335 0.045393337 0.61900002
0.19513239 0.045393337 0.61900002
0.21382383 0.045651432 0.61849999
0.21767496 0.046934821 0.61793762
0.22234493 0.046858683 0.61672229
0.22756492 0.04724472 0.6164211
0.23249894 0.047618054 0.61580956
0.23762378 0.047013156 0.61606252
0.2423144 0.046946947 0.61570585
0.24659623 0.049554296 0.6162858
0.25654286 0.049785718 0.61500001
0.21871334 0.050109528 0.61900008
0.22265956 0.050462067 0.61849999
0.22743037 0.050568573 0.61842859
0.23130858 0.051205717 0.61800003
0.2386286 0.050082546 0.61866665
0.24296792 0.05058014 0.61857146
0.24781089 0.052149899 0.61738473
0.25249323 0.052915562 0.61655551
0.2579425 0.052531354 0.61741674
0.26250759 0.052460611 0.61763638
0.2672891 0.053928472 0.61622226
0.27284107 0.053678002 0.6153
0.27704287 0.052980527 0.61499995
0.28055716 0.054471433 0.61500001
0.29637146 0.054471433 0.61500001
0.25276956 0.05597461 0.61866671
0.25585335 0.056004766 0.61900002
0.26838857 0.05591429 0.61800003
0.27263433 0.056277011 0.61828578
0.27726507 0.056665581 0.6188572
0.28120288 0.05659429 0.61900002
0.28887025 0.05706929 0.61775005
0.292144 0.057676699 0.61694735
0.29762104 0.057506274 0.61723536
0.30200416 0.058108579 0.61733341
0.30925715 0.059157148 0.61500001
0.29213771 0.062433042 0.61843759
0.29681462 0.06220831 0.61871433
0.30209044 0.061597072 0.61891669
0.30925715 0.060328577 0.61500001
0.30764192 0.022384763 0.62400001
0.31243825 0.022492655 0.6238572
0.3173486 0.023177145 0.62400001
0.3209143 0.024365716 0.62400001
0.17888001 0.029120002 0.62400001
0.20265144 0.029120002 0.62400001
0.20740573 0.029120002 0.62400001
0.22404572 0.029120002 0.62400001
0.22880003 0.029120004 0.62400001
0.23296002 0.029120002 0.62400001
0.23771431 0.029120002 0.62400001
0.24234974 0.028882289 0.62400001
0.24781524 0.028560851 0.62333333
0.25268537 0.027366074 0.62299997
0.25735167 0.027275117 0.62262511
0.2623944 0.027403491 0.62255561
0.2676312 0.027559184 0.62328577
0.27261788 0.027914461 0.62363642
0.27775002 0.027428403 0.6237058
0.28270978 0.027319878 0.62362498
0.28716841 0.027562652 0.62335724
0.29253879 0.02737689 0.62278956
0.29760721 0.027399555 0.62273341
0.30246997 0.027431492 0.62346679
0.30734727 0.028122669 0.62300009
0.31261262 0.028040955 0.62380004
0.31733727 0.02721943 0.62270004
0.32073575 0.026085239 0.62250006
0.16864145 0.033847146 0.62349999
0.17245728 0.033435665 0.62322223
0.17742138 0.032822259 0.62305272
0.18239267 0.0325776 0.62304765
0.18779139 0.032491434 0.62333339
0.19268525 0.032577433 0.62309998
0.19742383 0.032651566 0.62233329
0.20247479 0.032577723 0.6220001
0.2075122 0.032479636 0.62228572
0.21255365 0.032766007 0.62220001
0.2173555 0.031937856 0.6225
0.22252999 0.032125451 0.62216669
0.22762714 0.032475013 0.62219042
0.2323745 0.032568388 0.62180007
0.23734926 0.032620221 0.62177271
0.24234878 0.032117885 0.62200004
0.24719167 0.031572025 0.62112504
0.25253907 0.030753337 0.62100005
0.25702134 0.030133715 0.62040001
0.26040003 0.030114288 0.62
0.26829192 0.030138573 0.62049997
0.27292332 0.030830752 0.62085718
0.27719831 0.030944765 0.62088889
0.28260145 0.030886 0.62129998
0.28806704 0.031241214 0.62109089
0.29237834 0.030408764 0.62120003
0.29759762 0.031259917 0.6214546
0.30185938 0.031131111 0.62066674
0.30796891 0.03014667 0.62066674
0.31317112 0.030605717 0.6220001
0.31582195 0.030754289 0.62100005
0.16340661 0.03822723 0.62391675
0.16736007 0.037388902 0.62315011
0.17215517 0.037311878 0.62280965
0.17748474 0.037893381 0.62265009
0.18237931 0.037897151 0.62175
0.18723463 0.037481006 0.62175
0.19211988 0.036813341 0.62146676
0.19603811 0.03601905 0.62
0.20076191 0.03601905 0.62
0.20725715 0.03601905 0.62
0.21198095 0.036314286 0.62
0.22969526 0.03601905 0.62
0.23146668 0.03601905 0.62
0.16402286 0.041005716 0.62400001
0.1669943 0.041005716 0.62400001
0.17269944 0.04124343 0.62400001
0.17744526 0.041192859 0.62383336
0.1829071 0.042044073 0.62336373
0.18748604 0.042645402 0.62188888
0.19103049 0.044061907 0.62100005
0.19899049 0.044285718 0.62
0.20194286 0.044285718 0.62
0.20765081 0.044285722 0.62
0.2113905 0.044285718 0.62
0.18883097 0.045723334 0.62349999
0.19258974 0.046488386 0.62260002
0.19828227 0.047001045 0.62181824
0.20286404 0.047309417 0.62229413
0.20770746 0.04731505 0.62253338
0.21241155 0.047424685 0.62241673
0.21563335 0.048615433 0.62099999
0.20243558 0.05046032 0.62333339
0.20562287 0.050514288 0.62400001
0.21788354 0.051595151 0.6227001
0.2225308 0.052846823 0.62130767
0.22781631 0.053177986 0.62212503
0.23195937 0.05298413 0.62044448
0.23761672 0.052500874 0.62190914
0.24200132 0.052961133 0.62100011
0.24714765 0.053959053 0.62033331
0.26394287 0.054914288 0.62
0.26571429 0.054914288 0.62
0.21929145 0.058834288 0.62400001
0.22261053 0.056692448 0.62331253
0.22723192 0.056015722 0.62350005
0.24306491 0.056275126 0.62362504
0.2474397 0.056819063 0.62288886
0.25175938 0.057463497 0.62200004
0.25736842 0.057809446 0.62227279
0.26239452 0.056672204 0.62286675
0.26763058 0.057677764 0.62250006
0.27261955 0.058236353 0.62183332
0.27746332 0.059152175 0.62177783
0.28229243 0.059337009 0.62214297
0.28704199 0.058355935 0.62172222
0.21929145 0.060022861 0.62400001
0.2210743 0.060022861 0.62400001
0.24841145 0.060022861 0.62400001
0.25019431 0.060022861 0.62400001
0.26921144 0.060022861 0.62400001
0.27218288 0.060022861 0.62400001
0.27804086 0.061381232 0.62400001
0.28298804 0.062458023 0.62358344
0.28804764 0.062826037 0.62233329
0.29878098 0.064361908 0.62
0.30114287 0.064361908 0.62
0.28931385 0.065807149 0.62250006
0.29141653 0.065613337 0.62066674
0.2972559 0.066329107 0.62244445
0.30283755 0.066809535 0.62300009
0.25399619 0.019768573 0.62900001
0.25749537 0.019228438 0.62814283
0.2623693 0.019295953 0.62825
0.26717526 0.019469049 0.62900001
0.27076954 0.019768573 0.62900001
0.28245014 0.019516384 0.62860006
0.28768381 0.019737145 0.62800002
0.29342163 0.019348575 0.62833333
0.29751459 0.018788667 0.62830013
0.30238339 0.018032797 0.62856251
0.30759192 0.018819524 0.62733334
0.31111145 0.019108571 0.62700003
0.17303304 0.02454794 0.62866664
0.17671905 0.024560954 0.62900007
0.1898981 0.024560954 0.62900001
0.20739031 0.024321336 0.62900001
0.21218267 0.024321336 0.62900001
0.2150581 0.024560954 0.62900001
0.22791621 0.024148572 0.6286667
0.23206872 0.024036329 0.62871432
0.23722288 0.024560954 0.62900001
0.24286929 0.02409262 0.62849998
0.2477722 0.023556381 0.62780011
0.25254911 0.022791728 0.62721062
0.25745049 0.022554791 0.62617654
0.26262218 0.022769244 0.62629414
0.26742867 0.022681976 0.6267857
0.27231482 0.022840511 0.62786669
0.27763903 0.022827227 0.62788236
0.28214794 0.022712214 0.62664711
0.28723049 0.022643587 0.62670588
0.29239073 0.022673441 0.62655556
0.29755092 0.022657782 0.62611109
0.30247554 0.022646846 0.62581247
0.30717289 0.022565784 0.62592864
0.31250003 0.023214286 0.625
0.3164683 0.022023812 0.625
0.15358621 0.028285874 0.62750006
0.15744074 0.027426051 0.62688243
0.1623797 0.028057944 0.62683332
0.16744581 0.027963199 0.62664288
0.17248172 0.027452489 0.62666678
0.17728326 0.027312066 0.62620008
0.18226247 0.027441015 0.6264376
0.18736891 0.027446564 0.62655568
0.19257322 0.027477758 0.62647069
0.1975273 0.027567685 0.62660009
0.20234323 0.027295001 0.62649995
0.20737442 0.027215239 0.62637508
0.21259838 0.027551094 0.62652951
0.21757098 0.027454523 0.62674999
0.22250921 0.027350534 0.62676477
0.22736281 0.027182793 0.6263572
0.23220865 0.026837541 0.62624997
0.23741819 0.026841842 0.62635726
0.24229077 0.026703727 0.6256364
0.24720237 0.026383292 0.6257273
0.25119048 0.02559524 0.625
0.26904765 0.02559524 0.625
0.27261907 0.02559524 0.625
0.27619049 0.02559524 0.625
0.28928572 0.02559524 0.625
0.29107144 0.02559524 0.625
0.30416667 0.02559524 0.625
0.30702385 0.025833337 0.625
0.31220239 0.026190482 0.625
0.15261464 0.032285467 0.6254667
0.15731639 0.032178037 0.62568754
0.16248007 0.03232355 0.6259445
0.16750358 0.031801786 0.62562501
0.17275643 0.030976906 0.62550002
0.1761905 0.030357145 0.625
0.18630955 0.030357145 0.625
0.19940478 0.030357145 0.625
0.21250002 0.030357145 0.625
0.14857061 0.038148932 0.625875
0.15260994 0.036960654 0.62593758
0.15747535 0.037431527 0.62594748
0.1614998 0.036789894 0.62538463
0.14833073 0.040589288 0.62675005
0.15286598 0.042282362 0.62780958
0.15740649 0.04278275 0.62647063
0.16217406 0.042984404 0.62575006
0.16781145 0.043111432 0.62650007
0.17240524 0.043698411 0.62566674
0.17759025 0.043599218 0.6255455
0.18228859 0.044083335 0.62549996
0.15443096 0.046090003 0.62849998
0.15740803 0.04729183 0.62725002
0.16133784 0.046961501 0.6264286
0.16953048 0.046126671 0.62900001
0.17245644 0.046108339 0.62875003
0.17780867 0.047045004 0.62791669
0.18249089 0.047931321 0.62733346
0.18755719 0.047843874 0.62693751
0.1920875 0.048917744 0.62637502
0.19725744 0.049165718 0.62628573
0.21130955 0.049404766 0.625
0.18203788 0.050898813 0.62875003
0.18630381 0.052117154 0.62900001
0.19348383 0.051137619 0.62800002
0.19785224 0.052028943 0.62792313
0.20182942 0.052765936 0.62684619
0.20764233 0.052939463 0.62718761
0.21264935 0.052351851 0.62622231
0.21696351 0.053562649 0.62566668
0.2382862 0.054210003 0.62550002
0.19916573 0.056220956 0.62800002
0.20123717 0.055534288 0.62700003
0.2136327 0.055652387 0.62833333
0.21742398 0.05685747 0.62753338
0.2209755 0.057555001 0.62625003
0.22823556 0.058138628 0.62644452
0.23254859 0.057231802 0.62646151
0.23747762 0.057494659 0.62738889
0.24175382 0.057731278 0.62600005
0.24583335 0.058928575 0.625
0.25344813 0.058443021 0.6261667
0.2561743 0.059117146 0.62700003
0.26309526 0.058928575 0.625
0.23362859 0.060503814 0.62900001
0.23790142 0.061558016 0.62863636
0.24239324 0.061546229 0.62740004
0.24635717 0.06124191 0.62633336
0.2540246 0.060789146 0.62700003
0.25863642 0.060989525 0.62660003
0.26298222 0.061736777 0.62746167
0.26746881 0.062240236 0.62729412
0.2723501 0.062529802 0.62614292
0.27720523 0.063543499 0.62550002
0.28189591 0.064518742 0.62533331
0.27253115 0.06539207 0.62800002
0.27735063 0.066349648 0.62762499
0.28233251 0.066849738 0.62733346
0.28757116 0.067710891 0.62757152
0.29213876 0.068749741 0.62692857
0.29551178 0.067766994 0.62600005
0.30323431 0.069379054 0.62800002
0.30573717 0.069865718 0.62700003
0.28814194 0.070088573 0.62900001
0.30435431 0.071648262 0.62866664
0.3059805 0.071714766 0.62750006
0.25782669 0.01388762 0.634
0.26241565 0.013646096 0.634
0.26748765 0.01388762 0.634
0.27412957 0.01388762 0.634
0.28318667 0.01388762 0.634
0.28770193 0.012851062 0.6333077
0.29173347 0.012224406 0.63387501
0.29647049 0.01388762 0.634
0.30232969 0.013426549 0.63362497
0.30747637 0.013360682 0.63357145
0.31264931 0.013882143 0.63375002
0.31760383 0.01388762 0.634
0.32231164 0.012060318 0.63316661
0.17933144 0.019925715 0.634
0.18053906 0.019925715 0.634
0.19291717 0.01962381 0.634
0.19764701 0.019724445 0.63400006
0.20317523 0.019512698 0.63366675
0.20765641 0.019096402 0.63322222
0.21233995 0.018794287 0.63290912
0.21720001 0.019306192 0.63349998
0.22253622 0.01903316 0.6335454
0.22730336 0.018133612 0.63347059
0.23257513 0.018290922 0.63320005
0.23750438 0.018075921 0.63271427
0.24258879 0.017902859 0.63300002
0.24779978 0.018040113 0.63270593
0.25232324 0.017334336 0.63231575
0.25693274 0.016570922 0.63200003
0.26226217 0.016439121 0.63215393
0.26760656 0.016638691 0.63249993
0.27250031 0.017102409 0.63211769
0.27738792 0.017508963 0.63204539
0.28224036 0.016883923 0.63188237
0.28740788 0.016913334 0.63177788
0.29253352 0.017027957 0.6319412
0.29772377 0.016143732 0.63174999
0.30266151 0.015283239 0.63180006
0.30762765 0.01585217 0.63211113
0.31274101 0.016161526 0.63319999
0.3164486 0.016892383 0.63350004
0.3225286 0.015071429 0.63300002
0.15297063 0.02421633 0.63342857
0.15723896 0.023916615 0.63311112
0.16269216 0.023613732 0.63308328
0.16740488 0.023177318 0.63290912
0.17231171 0.022686034 0.63246673
0.17771159 0.022473043 0.63253844
0.1823241 0.022982178 0.63271439
0.18734829 0.022995915 0.63252956
0.19260953 0.022653928 0.63225001
0.19752258 0.022882205 0.63231248
0.20262994 0.022956641 0.63173687
0.20771074 0.022043256 0.63125002
0.21277475 0.022135068 0.63127279
0.21771722 0.022853266 0.63150007
0.22250639 0.022762638 0.63194126
0.22703922 0.022352383 0.63150001
0.23285362 0.021804245 0.63118184
0.23797715 0.022235241 0.63100004
0.24265955 0.02200486 0.63130003
0.24733485 0.021548439 0.63100004
0.25059715 0.021033335 0.63100004
0.27463526 0.021033335 0.63100004
0.27583715 0.021033335 0.63100004
0.14963715 0.026441906 0.63100004
0.15241556 0.02679397 0.63144445
0.15564668 0.025840955 0.63100004
0.16294478 0.025854606 0.63133335
0.16713025 0.025851192 0.63125002
0.19891526 0.025840955 0.63100004
0.15083906 0.043869525 0.63100004
0.15305768 0.047008574 0.63188893
0.1575743 0.048715718 0.63150001
0.16419001 0.048114765 0.63150001
0.16726327 0.047532629 0.63174999
0.17263678 0.048122097 0.63160008
0.17705718 0.049397834 0.6314286
0.15975715 0.050037146 0.63300002
0.16290095 0.050076671 0.63350004
0.16785906 0.050116193 0.634
0.17362288 0.050037146 0.63300002
0.17809013 0.051933717 0.63260001
0.18228891 0.052683499 0.63100004
0.18930002 0.05168191 0.63100004
0.19230776 0.053190209 0.63157147
0.19686684 0.054329365 0.63150007
0.20492478 0.054686669 0.63100004
0.19472288 0.05606572 0.63300002
0.19734502 0.055955004 0.63174999
0.20310614 0.058067493 0.63228577
0.20709971 0.057129793 0.63263637
0.21210721 0.057231694 0.63254547
0.21616383 0.058569528 0.634
0.22968858 0.060888577 0.63300002
0.23290427 0.062571816 0.63213336
0.23674263 0.063629672 0.63114291
0.24288169 0.064327389 0.63125002
0.24678096 0.064403817 0.63200003
0.25903431 0.062796198 0.634
0.26179254 0.063638218 0.63337499
0.23767717 0.066198789 0.63271427
0.24244595 0.065737382 0.63325
0.24738288 0.065607622 0.63200003
0.26340586 0.066672705 0.63322222
0.26756337 0.067494519 0.63275003
0.27238566 0.067946516 0.63307691
0.27691779 0.068477571 0.63255554
0.28247163 0.069262862 0.63239998
0.28590479 0.069219053 0.63200003
0.29914668 0.069219053 0.63200003
0.30155429 0.069219053 0.63200009
0.27956381 0.07064572 0.634
0.2875399 0.071003541 0.63257146
0.29219019 0.072957627 0.63309997
0.29836923 0.071376197 0.63333338
0.30218917 0.072440289 0.63229418
0.30684835 0.074005008 0.63175005
0.29298764 0.075357147 0.63300002
0.30250859 0.075476192 0.634
0.30806005 0.075357154 0.63300002
0.31047145 0.075357147 0.63300002
0.25438288 0.0091285724 0.63900006
0.25831813 0.008882287 0.63880008
0.26289353 0.0083813341 0.63780004
0.26727119 0.0082512926 0.63842857
0.27188987 0.0085152388 0.63866675
0.28783432 0.008774695 0.6385715
0.29226375 0.0078980224 0.63800007
0.29740578 0.007900795 0.63816667
0.30253252 0.0085039288 0.63787508
0.30697244 0.0084923822 0.63700008
0.31256193 0.0091214292 0.63850003
0.31767431 0.0091285724 0.63900006
0.3216722 0.0080192387 0.63800001
0.17844287 0.013501525 0.63860005
0.18252604 0.013427621 0.6376667
0.18734288 0.013381588 0.63866675
0.19230857 0.013997144 0.63900006
0.19778572 0.013997144 0.63900006
0.20230991 0.013537978 0.63887501
0.20764859 0.013311219 0.63855559
0.21291715 0.013383097 0.63875002
0.21860883 0.013377621 0.63850003
0.22257093 0.012570341 0.63728583
0.22732425 0.013005716 0.63688892
0.23239753 0.013348215 0.63712502
0.23701949 0.013253123 0.63577783
0.24245252 0.013383282 0.63555562
0.24787828 0.012835327 0.63636374
0.25255263 0.012058519 0.63677776
0.2574541 0.011585397 0.63586682
0.26241422 0.011384936 0.63527286
0.26752228 0.012110955 0.63592875
0.27226958 0.011997145 0.63633335
0.27744341 0.012040954 0.63685721
0.28222212 0.011902084 0.63693756
0.28677812 0.010659457 0.63700008
0.29363924 0.011329796 0.63571435
0.29818654 0.011850565 0.63672739
0.30222565 0.011070477 0.63618189
0.30707094 0.011089101 0.63511115
0.31220523 0.011611603 0.63563651
0.31732878 0.011498035 0.63546681
0.3210786 0.011196192 0.63550001
0.15813898 0.018412303 0.63741672
0.16249777 0.018100224 0.637353
0.16712818 0.018346531 0.63614297
0.17246631 0.017846616 0.63705283
0.17747296 0.017353214 0.63600004
0.18283968 0.017419854 0.63536859
0.18761356 0.017685017 0.63578963
0.19212428 0.017036432 0.63612503
0.19723694 0.016736789 0.63625014
0.20225112 0.016841969 0.63620013
0.20718621 0.016337879 0.63538474
0.21206859 0.01589286 0.63575006
0.21762301 0.016266398 0.6360001
0.22234528 0.01608905 0.63510007
0.2273905 0.015119049 0.63500005
0.23182541 0.015522223 0.63500005
0.23736906 0.016026191 0.63500005
0.24371907 0.015119049 0.63500005
0.2479524 0.015119049 0.63500005
0.31870955 0.015723811 0.63500005
0.32224 0.015748572 0.63600004
0.15445715 0.02241143 0.63600004
0.15703991 0.021471852 0.6361112
0.16171509 0.021575399 0.6351667
0.16698071 0.022384524 0.63525003
0.1844524 0.021166667 0.63500005
0.18808097 0.021166667 0.63500005
0.15287811 0.049140003 0.63700008
0.15364543 0.050406039 0.6376667
0.15652359 0.051365003 0.63825005
0.16202429 0.051485717 0.63600004
0.16747876 0.05236847 0.63688892
0.17270443 0.052413102 0.63712513
0.17733383 0.05366461 0.63550007
0.17961429 0.055033337 0.63500005
0.20803811 0.05956905 0.63500005
0.21216288 0.059667241 0.63540006
0.21502858 0.059965719 0.63600004
0.20962858 0.061369527 0.63800001
0.21300982 0.06237191 0.63830006
0.21792033 0.061558623 0.63855559
0.22223926 0.061908312 0.639
0.22880161 0.061484128 0.63500011
0.23109905 0.063835561 0.63633341
0.25783098 0.064357311 0.63550007
0.26065239 0.064709529 0.63500005
0.23279749 0.067411751 0.6376667
0.2367343 0.066334292 0.63900006
0.24674287 0.065919049 0.63500005
0.25499144 0.067551434 0.63900006
0.25828975 0.067554228 0.63673341
0.26194423 0.068360008 0.63520014
0.2654905 0.069547623 0.63500005
0.25986001 0.072420008 0.63900006
0.26262829 0.072345242 0.63833338
0.26770145 0.071519524 0.63775003
0.27255651 0.0719641 0.6371001
0.27692389 0.071964301 0.63710004
0.28242859 0.072075412 0.63683343
0.28737482 0.073634878 0.63686675
0.29089049 0.074385718 0.63500005
0.29734132 0.073579364 0.63500005
0.30056667 0.074385718 0.63500005
0.25438288 0.079114288 0.63900006
0.28774944 0.076863915 0.63850003
0.29225716 0.077442259 0.63650012
0.29804444 0.077301107 0.63676929
0.30251041 0.077907085 0.6371876
0.30747288 0.077988692 0.63662505
0.31136227 0.078181073 0.63512504
0.2988086 0.080940008 0.63900006
0.30367717 0.080940008 0.63900006
0.30826792 0.081389263 0.63842857
0.31160611 0.081147432 0.63679999
0.298181 -0.0015671958 0.64377785
0.30224228 -0.00085790484 0.64320004
0.30605334 -0.00061333337 0.64400005
0.31476289 -0.00061238103 0.64300001
0.31672001 -0.00061142864 0.64200002
0.21896002 0.0042933337 0.64400005
0.22080001 0.0042933337 0.64400005
0.23776892 0.0042933337 0.64400005
0.24288002 0.0042933337 0.64400005
0.24758224 0.0042933337 0.64400005
0.25269336 0.0042933337 0.64400005
0.25771046 0.003825 0.64275002
0.26252839 0.0035994712 0.64188892
0.26699907 0.003674286 0.64300001
0.27330858 0.0042800005 0.64200008
0.28826669 0.0042933337 0.64400005
0.29241049 0.0036738098 0.64300007
0.29753661 0.0021211724 0.64353848
0.30254191 0.0025816932 0.64233339
0.30741483 0.0025182737 0.64156258
0.3130143 0.0023370869 0.64229417
0.31772614 0.0024431548 0.64156246
0.32139671 0.0034592065 0.64116669
0.15701334 0.0092000002 0.64400005
0.16376001 0.0092000002 0.64400005
0.17418668 0.0092000002 0.64400005
0.17811882 0.0084226197 0.64325005
0.18253486 0.0081516672 0.64208341
0.18764001 0.0079544764 0.6426
0.19234745 0.0082072392 0.64320004
0.19744779 0.0080398638 0.6424287
0.2026045 0.0076020411 0.64242864
0.20758477 0.007950794 0.64233345
0.2125726 0.007539175 0.64200002
0.21740779 0.0072247633 0.6417647
0.22222996 0.0074500972 0.64140004
0.22719319 0.00784788 0.64300013
0.23236679 0.0074519333 0.64276475
0.23723997 0.0074386564 0.64152938
0.24236058 0.0073338691 0.64181256
0.24752051 0.0073319054 0.64172226
0.25243157 0.0070952382 0.64099991
0.25738627 0.0067084925 0.64041662
0.26224849 0.006098453 0.64037502
0.26779622 0.005900953 0.64100003
0.27222383 0.0065881917 0.64060003
0.27740133 0.0078264084 0.64118177
0.28247687 0.0080346521 0.64146167
0.28723294 0.0064573479 0.6415
0.29279906 0.0054900004 0.64050007
0.2977955 0.0054921433 0.64075005
0.30332342 0.0064446563 0.6411112
0.30726039 0.00609631 0.64012504
0.31223875 0.0067076208 0.64033335
0.31711745 0.0067076208 0.64033341
0.32073149 0.0062171435 0.64000005
0.15773316 0.012226489 0.64193755
0.16251287 0.012217857 0.64150006
0.16756453 0.012227977 0.64212507
0.17249025 0.01232678 0.64158827
0.17702052 0.011687914 0.64076924
0.18258117 0.010907302 0.64022225
0.18810022 0.011184022 0.64055562
0.19278154 0.011939048 0.64057142
0.19746354 0.011774872 0.64038461
0.20253474 0.01118 0.64033335
0.20727822 0.010973454 0.64012504
0.2121143 0.010971429 0.64000005
0.2169905 0.011337142 0.64000005
0.22278097 0.010361905 0.64000005
0.2282263 0.010856002 0.64040011
0.23245467 0.010981786 0.640625
0.23745757 0.010907302 0.64022225
0.24273273 0.010977501 0.64037502
0.24706034 0.010768255 0.6400001
0.1566743 0.016474286 0.64066678
0.16213334 0.015238096 0.64000005
0.16713145 0.015725715 0.64000005
0.1716474 0.016158335 0.64025003
0.15542859 0.020114288 0.64000005
0.14935677 0.053455438 0.64220005
0.15257198 0.052924909 0.64100003
0.15759991 0.053226192 0.64090002
0.16214997 0.05346318 0.64033335
0.16609526 0.053942859 0.64000005
0.17005715 0.054247621 0.64000005
0.14918858 0.055640005 0.64200002
0.15263525 0.056493338 0.64300001
0.15721799 0.056534398 0.6428889
0.16253334 0.056058671 0.64400005
0.16800965 0.056698766 0.64290005
0.17264654 0.056844775 0.6408667
0.17723255 0.057312861 0.64133334
0.18009049 0.05616381 0.64100003
0.18952002 0.055813339 0.64400005
0.19197336 0.05704001 0.64400005
0.20925096 0.063234292 0.6415
0.21128215 0.063720241 0.64025003
0.21729526 0.063695244 0.64000005
0.22064763 0.064000003 0.64000005
0.22752711 0.063242257 0.64018184
0.20943335 0.065524772 0.64300001
0.21224691 0.066061199 0.64225006
0.21727961 0.065962598 0.64214295
0.22235787 0.06695497 0.64242864
0.2273996 0.067324027 0.6423158
0.2311947 0.067344137 0.64088887
0.23717454 0.068258531 0.64055562
0.24306051 0.068487786 0.64016676
0.24751538 0.068280131 0.64012504
0.25253856 0.06893 0.64050007
0.25620317 0.068469845 0.64000005
0.23285334 0.07060343 0.64240003
0.23764174 0.071903057 0.64233339
0.24276921 0.072192959 0.6427334
0.24744163 0.072185531 0.64231253
0.25299975 0.072347224 0.6428948
0.25768831 0.072356246 0.64083332
0.26209527 0.07497143 0.64000005
0.2677905 0.073505238 0.64050007
0.27123812 0.073752388 0.64000005
0.27916193 0.073752388 0.64000005
0.28294095 0.074727625 0.64000005
0.24472001 0.07728 0.64400005
0.24672671 0.076328583 0.64219999
0.25373909 0.075937532 0.64200008
0.25757185 0.077568293 0.64068753
0.26255488 0.077388875 0.64215398
0.26740214 0.076030478 0.64250004
0.27250016 0.075673185 0.64250004
0.27795467 0.076307051 0.64200014
0.28228375 0.077312738 0.64135712
0.28688318 0.078716613 0.64071435
0.29145274 0.07952445 0.64066672
0.26373336 0.080346674 0.64400005
0.28307328 0.081024133 0.6428889
0.28759885 0.081968211 0.64260012
0.29180765 0.081193335 0.64100003
0.30228752 0.082822859 0.64100003
0.307183 0.083428361 0.64084619
0.31097835 0.084147394 0.64025003
0.30343622 0.086039051 0.64300001
0.3069216 0.086497679 0.64211112
0.31073239 0.086077146 0.64100003
0.18267429 -0.00061714288 0.648
0.18576001 -0.00061714288 0.648
0.19933715 -0.00061714288 0.648
0.20242286 -0.00061714288 0.648
0.20736001 -0.00061714288 0.648
0.21280414 -0.00061682542 0.64766669
0.21856096 -0.00061682542 0.64766669
0.22323334 -0.00061666669 0.64750004
0.22755049 -0.00092523813 0.64750004
0.2326335 -0.00096925179 0.64742863
0.23724738 -0.0013224491 0.64800006
0.24154887 -0.0011458504 0.64771438
0.24614501 -0.0009254762 0.64775002
0.25364575 -0.00061714288 0.648
0.25766787 -0.00061642856 0.64725
0.26286525 -0.0016029526 0.64729995
0.26731512 -0.0024163371 0.64684612
0.27154288 -0.0018514288 0.648
0.28887972 -0.001028254 0.64766669
0.29237288 -0.0012311431 0.64630002
0.2959629 -0.0020885717 0.64500004
0.30345717 -0.0018428572 0.64500004
0.15922287 0.0043200003 0.648
0.16193786 0.0040097618 0.64775002
0.17465144 0.0037028575 0.648
0.17778538 0.0026406127 0.64721429
0.18221608 0.0024615477 0.646375
0.18724954 0.002462619 0.64674997
0.19210926 0.0028900367 0.64699996
0.19771148 0.0026677779 0.6467222
0.20268118 0.0024589282 0.64587504
0.2074988 0.0025004442 0.64600003
0.21240112 0.0024233051 0.64599997
0.21738055 0.0022279166 0.64568758
0.22269472 0.0021945578 0.6454286
0.22752841 0.0024592262 0.64568752
0.2324927 0.0024588692 0.64581251
0.23742943 0.0021952384 0.64585721
0.24234162 0.0018442858 0.64583331
0.24758567 0.0020344325 0.64630777
0.25268573 0.0019325173 0.64600009
0.25742617 0.0014337568 0.64544445
0.26250288 0.0012290477 0.6455
0.26742095 0.0015361905 0.6455
0.2720519 0.0023192675 0.64661545
0.27758014 0.0032169314 0.64688885
0.282662 0.0030802384 0.64708334
0.28741094 0.0023380318 0.64639997
0.29225501 0.0016201732 0.64554548
0.29835945 0.0028280001 0.64540005
0.15838964 0.0071769306 0.64600003
0.16239946 0.0072591123 0.64606673
0.16768689 0.0073880968 0.6466428
0.17223223 0.0072613982 0.64633334
0.17709458 0.0064261477 0.64545459
0.18293431 0.0057742866 0.64500004
0.18760288 0.0057742866 0.64500004
0.19288574 0.005938096 0.64500004
0.19780001 0.005528572 0.64500004
0.20271429 0.005528572 0.64500004
0.20762858 0.005528572 0.64500004
0.21131431 0.005528572 0.64500004
0.22790001 0.005528572 0.6450001
0.23097144 0.005528572 0.64500004
0.27827144 0.005528572 0.6450001
0.28279048 0.005532858 0.64550006
0.18826286 0.054756194 0.64600003
0.15374978 0.059040241 0.64575005
0.15734491 0.059059188 0.6450001
0.16240783 0.058494028 0.64527273
0.16672181 0.058852505 0.64537501
0.17213239 0.059631906 0.64550006
0.18819873 0.058076803 0.64578569
0.1919643 0.059278574 0.64500004
0.15750097 0.060908575 0.64600003
0.162866 0.061504364 0.64671433
0.16753906 0.061595954 0.64674997
0.17250039 0.061607983 0.64687496
0.18775968 0.062846459 0.64594746
0.19264403 0.062670991 0.6456154
0.19518144 0.064034767 0.64649999
0.20311473 0.063750401 0.64645451
0.20789126 0.063389331 0.6462
0.18744798 0.066637978 0.646375
0.1918916 0.066360161 0.64716673
0.20349985 0.067217305 0.64750004
0.2074445 0.067370363 0.64660007
0.21262586 0.069027498 0.64712501
0.21735696 0.068762861 0.64579999
0.2210521 0.069040641 0.64533341
0.21773914 0.071861833 0.64674997
0.22251254 0.072276488 0.64692301
0.22737348 0.072702751 0.64658821
0.23213017 0.073101714 0.64578575
0.23668335 0.073771432 0.6455
0.24264288 0.073100008 0.64500004
0.21998002 0.075791433 0.64700001
0.22896002 0.075908579 0.648
0.23216681 0.076209411 0.64662498
0.23756543 0.075635247 0.64566672
0.24248287 0.076455139 0.64566666
0.24510002 0.07555715 0.64500004
0.25308573 0.076171435 0.64500004
0.25532383 0.077520005 0.64600003
0.26782858 0.078628577 0.64500004
0.27317196 0.077991918 0.64650005
0.27747545 0.078616537 0.64627266
0.26598573 0.080471434 0.64500004
0.27920669 0.081164002 0.64660007
0.28101876 0.081785083 0.64566672
0.20336287 -0.0093285721 0.65300006
0.20790322 -0.0074088657 0.65253848
0.21143292 -0.0072417995 0.65188885
0.2195324 -0.0062190481 0.65300006
0.22193503 -0.0059059532 0.65275007
0.22699526 -0.0055971434 0.65300006
0.23906668 -0.005588572 0.65200001
0.24030858 -0.005588572 0.65200001
0.16480477 -0.00062190479 0.65300006
0.1679143 -0.00062190479 0.65300006
0.17278989 -0.0012434525 0.65262502
0.17741017 -0.0018622226 0.65133339
0.18170653 -0.0018611113 0.65116668
0.18732804 -0.0016836736 0.65100002
0.19233473 -0.0014485714 0.65122223
0.19746879 -0.001613905 0.65120006
0.2026789 -0.0028575242 0.65199995
0.20756273 -0.0030094509 0.65176922
0.21259359 -0.0027954765 0.65175003
0.21776307 -0.0023609528 0.6518001
0.22208641 -0.0028580001 0.65210003
0.22743145 -0.0028552383 0.65140003
0.23101087 -0.0028535239 0.65100008
0.23764169 -0.0035678574 0.65149999
0.24269882 -0.0035700002 0.65174997
0.24727185 -0.0026898414 0.65144444
0.25186023 -0.0013630477 0.6504001
0.25826278 -0.0028783551 0.65172732
0.26221287 -0.0035623813 0.65050006
0.26722226 -0.0035079368 0.65000004
0.27291378 -0.0025486776 0.65077782
0.27730814 -0.0019772297 0.65245456
0.28321546 -0.0021144764 0.65300006
0.28786334 -0.0017378097 0.65170002
0.29140002 -0.0031000001 0.65100002
0.15883963 0.0028560003 0.65200001
0.16260885 0.0017471863 0.65145463
0.16736774 0.0024778571 0.65087503
0.17224403 0.0024772026 0.65056258
0.17580953 0.0012380953 0.65000004
0.19314286 0.00061904767 0.65000004
0.19561906 0.00061904767 0.65000004
0.27776003 0.0009300001 0.65100002
0.28210908 0.00082714291 0.65149999
0.28621954 0.00061952387 0.65050006
0.16776192 0.0055714292 0.65000004
0.15411383 0.062765241 0.65250009
0.15635334 0.062334925 0.65233344
0.16266362 0.063499816 0.65240008
0.16720787 0.06378644 0.65025008
0.17209524 0.063761912 0.65000004
0.17519049 0.063761912 0.65000004
0.16422193 0.065647945 0.65233338
0.16735499 0.065718234 0.65185714
0.17296655 0.065761641 0.65228575
0.17635047 0.065200001 0.65200001
0.18880953 0.069952384 0.65000004
0.19214424 0.069138736 0.6501112
0.19690081 0.068110079 0.65014291
0.20189345 0.067973606 0.65045464
0.20738098 0.069952384 0.65000004
0.18939048 0.072031438 0.65200007
0.19224913 0.072846271 0.65057147
0.19721079 0.072315253 0.6506924
0.20212057 0.072089225 0.65140009
0.20747721 0.072679922 0.65225005
0.21257178 0.072510548 0.65073335
0.21796018 0.07430461 0.65016675
0.22409526 0.07490477 0.65000004
0.19158001 0.075020008 0.65100002
0.19693798 0.075567901 0.6511429
0.20250881 0.07516405 0.65224999
0.2083863 0.076577149 0.65160006
0.21191978 0.076431513 0.65158337
0.21660548 0.07561072 0.65075004
0.22285715 0.076761909 0.65000004
0.22709334 0.076939523 0.65150005
0.23957144 0.077380955 0.65000004
0.24294597 0.078400247 0.65075004
0.27423811 0.079857148 0.65000004
0.27466002 0.081840008 0.65100002
0.27738804 0.082461149 0.65100002
0.28100321 0.083742872 0.65133333
0.28160191 0.085380957 0.65200001
0.30201381 0.088864297 0.65250003
0.18402977 -0.011892619 0.65725005
0.18811461 -0.011482223 0.65766668
0.19113335 -0.010653334 0.65800005
0.20226763 -0.010612858 0.65550005
0.15980001 -0.0056400006 0.65800005
0.16287073 -0.0056378576 0.65775001
0.16781905 -0.0062623811 0.65750003
0.17241129 -0.0060534924 0.65750009
0.17790501 -0.0056378581 0.65775007
0.18333517 -0.0071000801 0.65775001
0.18779114 -0.0075200009 0.65800005
0.19270077 -0.0075069652 0.65693754
0.19749978 -0.0074994052 0.65625006
0.20221512 -0.0073693981 0.65573341
0.20599104 -0.0075765997 0.6551429
0.21396668 -0.0056142863 0.65500003
0.21734652 -0.0067518619 0.65527284
0.22239652 -0.0076977788 0.65533334
0.2266508 -0.0062380955 0.65500003
0.23018573 -0.0056142863 0.65500003
0.24378248 -0.0066236197 0.65600002
0.24721955 -0.0067536198 0.65650004
0.25129336 -0.0056400006 0.65800005
0.15826526 -0.002503651 0.65683341
0.16245341 -0.0025007739 0.65606248
0.16743591 -0.0031241272 0.65600014
0.17216827 -0.0035396831 0.65577781
0.17694934 -0.0041211429 0.65560001
0.18275431 -0.0039552385 0.65566671
0.18762402 -0.0036346668 0.65800005
0.19271843 -0.0037542861 0.65700006
0.19694303 -0.0038338779 0.65528578
0.20149049 -0.004366667 0.65500009
0.21396668 -0.004366667 0.65500003
0.21770954 -0.004366667 0.65500009
0.22394763 -0.004366667 0.65500003
0.22644287 -0.004366667 0.65500009
0.24890001 -0.004366667 0.65500003
0.25216383 -0.0037546034 0.65700001
0.25644264 -0.0031273812 0.65675002
0.28225929 -0.0028714284 0.6554001
0.28689018 -0.0031204235 0.6553334
0.29007146 -0.004366667 0.65500003
0.15766992 0.0011236191 0.65540004
0.16031906 0.00062380958 0.65500003
0.14897747 0.063966036 0.65633333
0.15218601 0.063745447 0.65528578
0.15813573 0.06394048 0.65500003
0.16073494 0.063836515 0.65500009
0.14869334 0.065600008 0.65600002
0.15307203 0.067418247 0.65684623
0.15743349 0.06728138 0.65671432
0.16247891 0.067180648 0.65616679
0.16762738 0.06880334 0.65675008
0.17207925 0.06830781 0.65560013
0.17733204 0.068108663 0.65500009
0.18028097 0.068619058 0.65500003
0.17278023 0.072124109 0.65676928
0.1776012 0.072542273 0.65662497
0.18055622 0.071847633 0.65600002
0.18778341 0.072583206 0.65545464
0.19026192 0.074233338 0.65500003
0.18814763 0.076259695 0.65633333
0.19088572 0.076104768 0.65500003
0.20835242 0.076728582 0.65500003
0.22706668 0.079223812 0.65500003
0.24203812 0.079223812 0.65500003
0.22706668 0.080471434 0.65500003
0.24320152 0.082177565 0.6553334
0.24578096 0.082342863 0.65500003
0.27267456 0.082978971 0.65591681
0.27602234 0.082920201 0.6566
0.24365716 0.085592389 0.65600002
0.26927239 0.088091433 0.65600002
0.27234766 0.087449461 0.65623087
0.2770001 0.087518029 0.65746158
0.2814815 0.087153889 0.65700001
0.30691433 0.089204766 0.65500003
0.31003335 0.089204766 0.65500003
0.26927239 0.090590484 0.65600002
0.27260086 0.091911323 0.65762502
0.27552447 0.091702223 0.65800011
0.30271336 0.09256722 0.65671426
0.30728063 0.092601411 0.65617651
0.31216103 0.092563123 0.6558001
0.30878958 0.095831439 0.65766668
0.31246862 0.096433818 0.65750003
0.31598574 0.095734291 0.65700001
0.15975145 -0.010734286 0.66300005
0.16287799 -0.011363691 0.66287506
0.1682959 -0.011149842 0.66266674
0.17268454 -0.010714049 0.66175008
0.17794542 -0.011121589 0.66100001
0.18174827 -0.011320001 0.6603334
0.18731432 -0.011314287 0.66000009
0.15470001 -0.006314286 0.66300005
0.15761703 -0.0075194929 0.66146678
0.16241716 -0.0081850803 0.66100001
0.16729896 -0.0086075133 0.66122228
0.17255409 -0.0085968273 0.66044444
0.17745915 -0.0081810327 0.66075015
0.18147758 -0.008530613 0.66000009
0.18794286 -0.0088 0.66000003
0.19045715 -0.0062857149 0.66000003
0.25336251 -0.0069155958 0.66012502
0.25602239 -0.0062909527 0.66050005
0.15423335 -0.0031495241 0.66100001
0.15594478 -0.0025145239 0.66025001
0.18920001 -0.0044000004 0.66000003
0.19108573 -0.0044000004 0.66000003
0.2577143 -0.0044000004 0.66000003
0.15612191 0.00062952383 0.66100001
0.15902857 0.069771431 0.66000003
0.16217144 0.069771431 0.66000003
0.15395191 0.072559536 0.66250008
0.15756042 0.072755247 0.66100007
0.16227508 0.072891682 0.66093349
0.16702612 0.072247818 0.66079998
0.17034286 0.071028575 0.66000003
0.15470001 0.075140007 0.66300005
0.15659431 0.077034295 0.66300005
0.15764669 0.080191433 0.66300005
0.1610143 0.080191433 0.66300005
0.25811052 0.087298207 0.66155565
0.26245746 0.087698005 0.6615001
0.26583144 0.089031436 0.66300005
0.27971432 0.089257151 0.66000003
0.28248003 0.089382865 0.66000003
0.25825429 0.094082862 0.66300005
0.27258384 0.093799055 0.66100001
0.27803892 0.09244056 0.66028577
0.28223693 0.092668414 0.66109091
0.28801554 0.093481645 0.66257155
0.29251474 0.093421362 0.66214293
0.2970894 0.093287468 0.66183341
0.3006843 0.093728103 0.66050005
0.27694631 0.095764577 0.66240007
0.28280941 0.095742702 0.66283345
0.28759867 0.095866404 0.66285723
0.29298288 0.095977157 0.66300005
0.29758406 0.097093597 0.662
0.30224308 0.097166605 0.66106665
0.30762029 0.097846411 0.66127276
0.31298882 0.099194527 0.66025001
0.31667432 0.098434292 0.66000003
0.29950765 0.1008181 0.66300005
0.30261961 0.10087349 0.66257155
0.30750573 0.10039715 0.66300005
0.31277677 0.10081869 0.6608001
0.31617144 0.10120001 0.66000003
0.15436287 -0.012069524 0.66700006
0.15774612 -0.011813525 0.66679996
0.16181199 -0.013507756 0.66628575
0.16664955 -0.012462224 0.66533339
0.15390001 -0.0078111119 0.66500008
0.15558891 -0.0086555574 0.66500008
0.15390001 -0.0044333334 0.66500002
0.171 0.073466673 0.66500002
0.15516667 0.077900007 0.66500008
0.15944478 0.083851434 0.66700006
0.16182812 0.083376199 0.66700006
0.15944478 0.085757151 0.66700006
0.16167484 0.086677559 0.66571438
0.21382307 0.08687868 0.66780007
0.21706721 0.087145641 0.66708338
0.22262791 0.087094568 0.66750002
0.22740231 0.087741509 0.66758341
0.25371429 0.089434288 0.66600001
0.25650001 0.089300007 0.66500008
0.26030001 0.089300007 0.66500002
0.22830954 0.091536194 0.66900003
0.23000859 0.092385717 0.66900003
0.25353023 0.092086941 0.66814291
0.25736231 0.092455357 0.66662502
0.26252055 0.092579834 0.66581249
0.26743433 0.092696391 0.6657334
0.27199623 0.094262391 0.66649997
0.29956669 0.09436667 0.66500002
0.25903335 0.095633343 0.66500002
0.26182956 0.095729217 0.6656667
0.26784655 0.096205249 0.66750002
0.27286938 0.0963208 0.6668334
0.27773812 0.09766604 0.66733336
0.2812289 0.097547226 0.66571426
0.28733209 0.09881603 0.66627276
0.29277936 0.098721169 0.66588891
0.29598907 0.09887477 0.66550004
0.28852326 0.10125696 0.667
0.29292765 0.1022291 0.6674546
0.29760152 0.10234199 0.66674995
0.30203265 0.10342739 0.66624999
0.30787876 0.10290921 0.667
0.31210139 0.10257842 0.66622227
0.31571335 0.10354382 0.66700006
0.30136859 0.10512858 0.66900003
0.31028858 0.10512858 0.66900003
0.17126477 0.07988096 0.671
0.16781335 0.083106905 0.67124999
0.17143241 0.082725093 0.67333335
0.20208356 0.084209539 0.67057151
0.20719269 0.084392123 0.67057151
0.21024668 0.08499334 0.671
0.1633524 0.086780958 0.67000002
0.16704129 0.086826682 0.67200011
0.17074668 0.086657152 0.67400002
0.19837621 0.086849533 0.67300004
0.20211454 0.087493844 0.67207688
0.20741162 0.087703019 0.67216671
0.21174756 0.087663904 0.67090005
0.2167397 0.089971446 0.67000002
0.22163175 0.08954604 0.67000002
0.22588573 0.089971438 0.67000002
0.20348382 0.09050858 0.67400002
0.20784877 0.09076535 0.67400002
0.21279469 0.091400966 0.67300004
0.21721105 0.092306674 0.67120004
0.22227812 0.092616528 0.67066669
0.22674055 0.092838526 0.67022228
0.23209123 0.093373537 0.67060006
0.23743735 0.094080009 0.67200005
0.24238509 0.093846679 0.67033339
0.24831447 0.093490958 0.67083335
0.25140953 0.093161911 0.67000002
0.22749354 0.097119182 0.67060006
0.23123685 0.095692068 0.67133331
0.23697478 0.095430963 0.67250001
0.24104002 0.095265403 0.67133331
0.2479099 0.095930114 0.67262501
0.25277507 0.097113401 0.67193747
0.2576642 0.097154297 0.67200005
0.26230121 0.097564057 0.67175007
0.26720846 0.098505124 0.67162502
0.27238923 0.098528579 0.67033339
0.2755813 0.098528586 0.67033339
0.25419432 0.10077906 0.67400002
0.26822326 0.10111239 0.67280006
0.2722832 0.10119155 0.67199999
0.27744526 0.10168605 0.67150009
0.28269792 0.10209545 0.67178577
0.28728706 0.10312255 0.6718334
0.29204479 0.10416477 0.671
0.30820003 0.10400953 0.67000002
0.28949907 0.10591429 0.67400002
0.29227239 0.10575715 0.67300004
0.29706669 0.10541143 0.67080003
0.30253834 0.10656115 0.67160004
0.30738097 0.10608286 0.671
0.31249243 0.10608287 0.671
0.17357144 0.084214292 0.67500001
0.16864286 0.087214291 0.67500007
0.17237431 0.087399356 0.67515397
0.1771071 0.086943492 0.67622226
0.18028715 0.087882385 0.67850006
0.19295834 0.088884056 0.67875004
0.19732817 0.088902749 0.6758889
0.19464669 0.091180004 0.67900002
0.19778599 0.092356198 0.6772728
0.20183809 0.092295624 0.67580003
0.20690818 0.092663273 0.67500007
0.21158926 0.093805321 0.67528576
0.21728572 0.094500005 0.67500001
0.19852668 0.095491111 0.67900008
0.2031026 0.095594019 0.67885715
0.20628668 0.095060006 0.67900002
0.21236029 0.096561641 0.67657155
0.21745615 0.097438253 0.67753845
0.23423545 0.097590104 0.67680007
0.23754926 0.098097011 0.67700011
0.2424603 0.09803661 0.67785716
0.24717584 0.098484643 0.67587507
0.25062352 0.099263504 0.67533338
0.25778574 0.099642865 0.67500007
0.2632212 0.099431679 0.67575002
0.26550001 0.099642865 0.67500001
0.21728002 0.10023334 0.67900002
0.23797335 0.10023334 0.67900002
0.24795192 0.10073049 0.67800003
0.25212902 0.10245594 0.67581826
0.25739428 0.10240042 0.67622226
0.26226321 0.10227031 0.67690915
0.26702562 0.10241933 0.67514294
0.27277336 0.10422049 0.67550009
0.2773793 0.10458072 0.67575008
0.28149527 0.10483747 0.67533338
0.27259263 0.10625929 0.67825001
0.27728447 0.10664763 0.67866671
0.28194666 0.10670001 0.67900002
0.28742459 0.1065743 0.67820001
0.29236144 0.10791731 0.6771667
0.29732502 0.10832159 0.67655557
0.30211526 0.10851449 0.67580009
0.30751288 0.10872334 0.67550004
0.31240416 0.10885748 0.67633337
0.18311431 0.087590478 0.67999995
0.18780954 0.088076204 0.67999995
0.19104764 0.087428577 0.68000001
0.16902858 0.090019055 0.68000001
0.17268828 0.092511594 0.68166673
0.17779669 0.090739213 0.68216676
0.1823909 0.092009619 0.68275011
0.18707503 0.092108652 0.68135303
0.19245559 0.092281021 0.68094116
0.19622858 0.093257152 0.68000001
0.18435431 0.095760003 0.68400002
0.1880023 0.096020572 0.68400002
0.19214955 0.095880583 0.68300009
0.19709256 0.097573511 0.68150008
0.20192765 0.098049521 0.67999995
0.20729442 0.097341381 0.68088895
0.21082211 0.097154677 0.68279999
0.24544764 0.099085718 0.68000001
0.19881906 0.10038096 0.68000001
0.20220621 0.10045476 0.68050003
0.20529525 0.10038096 0.68000001
0.2340674 0.10193929 0.68175006
0.23730598 0.10253914 0.68141675
0.24230325 0.10252408 0.68160003
0.24707697 0.1027562 0.68200004
0.25062859 0.10297143 0.68000001
0.26358098 0.10426667 0.68000001
0.26643115 0.1043689 0.68066669
0.15876001 0.089506671 0.68600005
0.16006668 0.089506671 0.68600005
0.1570093 0.092897534 0.68691677
0.16108799 0.093056075 0.68687499
0.16929558 0.092165411 0.68633342
0.17084667 0.093753345 0.68600005
0.17843458 0.093839459 0.68628585
0.18245652 0.094825409 0.68666673
0.15901683 0.095585093 0.68900001
0.16104731 0.096804135 0.68833339
0.16864097 0.095935062 0.68900007
0.17207526 0.096180007 0.68700004
0.17914002 0.096460007 0.68900001
0.18277295 0.097049393 0.68785727
0.18705645 0.098107621 0.68675005
0.19265604 0.098289691 0.68650007
0.19548906 0.09807191 0.68650007
0.20972002 0.099960007 0.68600005
0.21233337 0.099960014 0.68600005
0.16428572 0.093971431 0.69000006
0.16786328 0.093091033 0.69042861
