# .PCD v0.7 - Point Cloud Data file format
VERSION 0.7
FIELDS x y z
SIZE 4 4 4
TYPE F F F
COUNT 1 1 1
WIDTH 1407
HEIGHT 1
VIEWPOINT 0 0 0 1 0 0 0
POINTS 1407
DATA ascii
0.30677336 -0.087421283 0.71900004
0.31156668 -0.088334292 0.71900004
0.29286864 -0.082584679 0.7177273
0.29702508 -0.082681425 0.71630001
0.30255452 -0.082638733 0.71711117
0.3060886 -0.082856193 0.71900004
0.29362857 -0.079894289 0.71700001
0.297501 -0.078393251 0.71690911
0.30146885 -0.078120008 0.71685719
0.29402003 -0.10122 0.72300005
0.29723334 -0.10122 0.72300005
0.30090573 -0.10122 0.72300005
0.28770179 -0.097241856 0.72176933
0.2921814 -0.097149007 0.72107697
0.29763243 -0.09779913 0.72276932
0.301983 -0.096422978 0.72187507
0.30728751 -0.096694641 0.72262508
0.31223813 -0.096738413 0.72266674
0.31743145 -0.0964 0.72300005
0.32018572 -0.095711432 0.72300005
0.28438002 -0.093645722 0.72300005
0.28704992 -0.09233591 0.72146171
0.29005715 -0.093942866 0.72000003
0.29828572 -0.093942866 0.72000003
0.30267429 -0.092571437 0.72000003
0.30741221 -0.092635721 0.72050017
0.31257787 -0.092470139 0.720182
0.31775644 -0.092828579 0.72200006
0.32217497 -0.091120958 0.72300005
0.32569429 -0.090891436 0.72300005
0.28921223 -0.088151239 0.72200006
0.30377144 -0.089828581 0.72000003
0.30668575 -0.088285729 0.72000003
0.31244135 -0.087760374 0.72062516
0.31777385 -0.087589622 0.72190011
0.322368 -0.087605596 0.72287506
0.32569429 -0.088825718 0.72300005
0.28988859 -0.084005713 0.72300005
0.29094431 -0.082342386 0.72049999
0.30799812 -0.082207635 0.72133338
0.3120406 -0.083474644 0.72287506
0.31754893 -0.083474651 0.72287506
0.3208743 -0.084694289 0.72300005
0.29338965 -0.077857986 0.72187507
0.29683566 -0.076442018 0.72166675
0.30377144 -0.078171432 0.72000003
0.30582857 -0.078171432 0.72000003
0.298287 -0.074227631 0.72166675
0.30146936 -0.073960774 0.72040004
0.28892192 -0.11080383 0.72866672
0.29228958 -0.1110324 0.7280001
0.29682195 -0.11208941 0.72842866
0.30276862 -0.1110981 0.72842866
0.30676928 -0.11104787 0.72875005
0.28802034 -0.10724185 0.72792304
0.29277334 -0.10750782 0.72640002
0.29737049 -0.10769543 0.72579998
0.30252469 -0.10730392 0.7268889
0.30707932 -0.10733 0.72825009
0.31228974 -0.10650344 0.72900003
0.31728858 -0.10657287 0.72900003
0.32423145 -0.10622572 0.72900003
0.32810196 -0.10664773 0.72766668
0.33245766 -0.10735739 0.72725004
0.33534002 -0.10761429 0.72900003
0.27979717 -0.10067143 0.72900003
0.28304809 -0.10195906 0.7282728
0.28742841 -0.10273401 0.72682351
0.29282895 -0.10278984 0.72516668
0.29794049 -0.10288096 0.72499996
0.30302596 -0.10253233 0.72553843
0.308146 -0.10248485 0.72708338
0.31244355 -0.10230435 0.72692323
0.31710911 -0.10247512 0.72700018
0.32243225 -0.10266176 0.72833335
0.32739681 -0.10259543 0.7271052
0.33286437 -0.10263594 0.72772729
0.33740008 -0.10163233 0.7274617
0.27920207 -0.097100824 0.72900003
0.28239173 -0.097592145 0.72675008
0.28551191 -0.097702391 0.72500002
0.30380952 -0.098738104 0.72500002
0.30678335 -0.098806202 0.72549999
0.3107143 -0.098738104 0.72500002
0.31752047 -0.097948983 0.72500002
0.32284763 -0.097597621 0.72549999
0.32745859 -0.097532295 0.72630006
0.33220118 -0.098539054 0.72760004
0.33672574 -0.099078581 0.72750002
0.27979717 -0.09372858 0.72900003
0.28283519 -0.092984207 0.7275334
0.28602034 -0.091037475 0.72600001
0.32279763 -0.093904763 0.72500002
0.32635525 -0.094033808 0.72599995
0.28396288 -0.088868573 0.72900003
0.28803498 -0.087450176 0.72760004
0.28858083 -0.08311715 0.72814292
0.29097337 -0.081495248 0.72640008
0.31362036 -0.08220382 0.72533333
0.31761372 -0.081584007 0.72720003
0.28892195 -0.077724457 0.72866672
0.29178366 -0.077196531 0.72649997
0.31197941 -0.078859061 0.72633338
0.31724954 -0.079139054 0.7280001
0.28951716 -0.074288577 0.72900003
0.29309431 -0.073005117 0.7275455
0.29674584 -0.071718276 0.72600001
0.30248061 -0.071821794 0.72512501
0.29785877 -0.069268577 0.72733343
0.30267337 -0.069260716 0.72725004
0.28311431 -0.1163415 0.73400009
0.28751242 -0.1163255 0.73333335
0.29216155 -0.11633562 0.73320001
0.29765451 -0.1159021 0.73400003
0.30241272 -0.1152381 0.73333335
0.30737001 -0.1152643 0.73350006
0.31247431 -0.11534287 0.73400009
0.31736764 -0.11534286 0.73400003
0.26773524 -0.11114858 0.73400009
0.27123049 -0.11114858 0.73400003
0.28311434 -0.11254668 0.73400009
0.28699628 -0.11235351 0.73190916
0.2924 -0.11347906 0.73100001
0.30225074 -0.11351787 0.73124999
0.30782169 -0.11282168 0.73124999
0.31227663 -0.11230985 0.73244447
0.31728134 -0.1125164 0.73380011
0.32785338 -0.11114858 0.73400009
0.33237368 -0.1114127 0.73266667
0.33733401 -0.11174668 0.73333335
0.34230036 -0.11161461 0.73400009
0.34742668 -0.11184762 0.73400003
0.35022289 -0.11114858 0.73400003
0.26802111 -0.10748846 0.73287511
0.27258292 -0.10736001 0.73200005
0.27759647 -0.10732982 0.73314297
0.28255793 -0.107619 0.7325626
0.28626418 -0.10935175 0.73133337
0.30980477 -0.10930191 0.73100001
0.31258953 -0.10874497 0.73100001
0.3172164 -0.10868016 0.73150003
0.32244593 -0.10780992 0.73220009
0.32663161 -0.1090109 0.73171437
0.3306905 -0.10930191 0.73100001
0.33837399 -0.1075272 0.73155558
0.34266287 -0.1078544 0.73377782
0.34854516 -0.10807277 0.73400003
0.35050249 -0.10723392 0.73400003
0.26821354 -0.10295488 0.73340005
0.27245185 -0.10239583 0.73240006
0.27739924 -0.10245683 0.7318334
0.28102893 -0.10326826 0.73100007
0.34385273 -0.10359748 0.73333335
0.3488248 -0.1041581 0.73400003
0.35092193 -0.1041581 0.73400003
0.26913336 -0.099963814 0.73400003
0.27342042 -0.098726533 0.7337144
0.27718297 -0.097724751 0.73253864
0.33310643 -0.096021198 0.73325002
0.33672002 -0.097600006 0.73200005
0.27877828 -0.092719704 0.73322231
0.28102893 -0.091665089 0.73100007
0.33314416 -0.093587309 0.73333335
0.27923715 -0.089355245 0.73300004
0.28270739 -0.087755509 0.73246676
0.28667811 -0.086734764 0.73150003
0.28404638 -0.084118739 0.73400009
0.28675586 -0.081861615 0.73176932
0.28756467 -0.0774756 0.73287505
0.28800765 -0.0747981 0.73400003
0.29192644 -0.071981676 0.73200005
0.29784718 -0.067025438 0.73310006
0.30218893 -0.066661909 0.73166668
0.30761501 -0.06744834 0.73200005
0.30330896 -0.064345911 0.73280001
0.30657393 -0.064048581 0.73260003
0.27800477 -0.12633382 0.73900002
0.28222764 -0.12598191 0.73900002
0.27190512 -0.12082064 0.73900002
0.27692384 -0.12229716 0.73800015
0.28184643 -0.12231995 0.73715395
0.28750366 -0.12301656 0.73809099
0.29287159 -0.12293985 0.73833334
0.29761001 -0.12232652 0.73816669
0.30250278 -0.1222253 0.73853856
0.30742976 -0.12145507 0.73799998
0.31206891 -0.12168668 0.73855555
0.3174181 -0.12035143 0.73900002
0.32093716 -0.12035143 0.73900002
0.33430955 -0.12105525 0.73900002
0.33712479 -0.12035143 0.73900002
0.34275526 -0.12035143 0.73900002
0.26392859 -0.11612858 0.73900002
0.26772919 -0.11725467 0.73899996
0.27201682 -0.11748318 0.73866671
0.2775754 -0.1173557 0.73786682
0.28201652 -0.1182273 0.73600006
0.2869232 -0.11939557 0.73600006
0.29229718 -0.11939557 0.73600006
0.29743749 -0.11846095 0.73600006
0.30286273 -0.11777989 0.73612505
0.30771813 -0.11776 0.73600006
0.31206578 -0.11781334 0.73633337
0.31708691 -0.11765133 0.73677784
0.32216141 -0.116886 0.73742861
0.32746574 -0.11689048 0.73825002
0.33252126 -0.11743309 0.73771441
0.33789715 -0.11707848 0.73699999
0.34284124 -0.11755597 0.73691678
0.34722638 -0.11705905 0.73600006
0.26348695 -0.11274762 0.73874998
0.26687267 -0.11295374 0.73741674
0.27274495 -0.11345293 0.73728573
0.27751645 -0.1130207 0.73708338
0.28082645 -0.11324263 0.73625004
0.3229908 -0.11303991 0.73630005
0.32720777 -0.11327607 0.73614293
0.33215132 -0.11365443 0.73600012
0.33785906 -0.11425524 0.73600006
0.34276575 -0.11390477 0.73600006
0.3474972 -0.11302858 0.73600006
0.35117716 -0.11355429 0.73600006
0.266031 -0.10788906 0.73800004
0.34702411 -0.10726193 0.73611116
0.26734552 -0.10258311 0.73775005
0.3476724 -0.10374096 0.73600006
0.26848421 -0.098205343 0.73760003
0.2725409 -0.097201347 0.73691672
0.33669084 -0.096965089 0.73600006
0.27392715 -0.094117627 0.73750007
0.27654877 -0.092416838 0.73700011
0.27842221 -0.087516107 0.73750001
0.28108191 -0.086918101 0.73600006
0.27941239 -0.08375334 0.73900002
0.28217724 -0.082728073 0.73740011
0.28528765 -0.081310481 0.73600006
0.28337812 -0.079458736 0.7383334
0.28575107 -0.076808766 0.73720002
0.28787646 -0.073725007 0.73725003
0.29168499 -0.072112389 0.73800009
0.29366162 -0.068145089 0.73766673
0.29622799 -0.066821314 0.73662508
0.31304955 -0.067382865 0.73700005
0.31515527 -0.067382865 0.73700005
0.29784089 -0.062518343 0.73758334
0.30255094 -0.06233453 0.73749995
0.30574286 -0.061850481 0.73800004
0.29489622 -0.058416195 0.73900002
0.29757783 -0.059093654 0.73866671
0.30123049 -0.059823815 0.73900002
0.30615717 -0.059823815 0.73900002
0.27243334 -0.13090953 0.74300003
0.27597144 -0.13090953 0.74300003
0.28375524 -0.13090953 0.74300003
0.28729334 -0.13090953 0.74300003
0.2922467 -0.13090953 0.74300003
0.29578477 -0.13090953 0.74300003
0.25403526 -0.12524858 0.74300003
0.25777707 -0.12580694 0.74271435
0.26222357 -0.12621129 0.74271435
0.26716459 -0.12615462 0.74277782
0.27256131 -0.12744309 0.74246162
0.27717772 -0.1282852 0.74055558
0.28286481 -0.12838288 0.74066675
0.28770339 -0.12759154 0.74090916
0.29282573 -0.12798059 0.74160004
0.29742834 -0.12761192 0.74110001
0.30257145 -0.12800556 0.74181819
0.30743462 -0.12760165 0.74257147
0.31276935 -0.1275124 0.74244452
0.31748319 -0.12656973 0.74244452
0.32246217 -0.12642737 0.74236369
0.32740337 -0.12725466 0.74200004
0.33140248 -0.12688744 0.741
0.33679736 -0.12564532 0.74200004
0.25359595 -0.12202358 0.74275005
0.25719711 -0.12224008 0.74191666
0.26210234 -0.12194877 0.74100006
0.26754791 -0.12212776 0.74123085
0.27290541 -0.12309419 0.74044442
0.30234289 -0.12474287 0.74000001
0.30727622 -0.12474287 0.74000001
0.31220955 -0.12474287 0.74000001
0.31714287 -0.12262858 0.74000001
0.32332483 -0.12230533 0.74060005
0.32771429 -0.12192382 0.74000001
0.33206031 -0.12251112 0.73999995
0.33803713 -0.12279525 0.74100006
0.34215003 -0.12181859 0.74150008
0.34626669 -0.12225334 0.74200004
0.25356352 -0.11911589 0.74300003
0.25710148 -0.11755124 0.74164283
0.26197928 -0.11782338 0.73999995
0.26640001 -0.11910477 0.74000001
0.27321273 -0.11769524 0.74000001
0.3241905 -0.11910477 0.74000001
0.32700956 -0.11910477 0.74000001
0.25906366 -0.11320648 0.74200004
0.26107496 -0.11256022 0.74022222
0.25969622 -0.10968096 0.74300003
0.2628772 -0.10749009 0.74114287
0.26569527 -0.10641906 0.74000001
0.26394191 -0.10402001 0.74300003
0.26658547 -0.10222072 0.74150002
0.26852927 -0.097785041 0.74171436
0.27157652 -0.095228583 0.74066675
0.26960286 -0.093405724 0.74300003
0.2723124 -0.092353076 0.74127275
0.27556193 -0.090914294 0.74000001
0.27384859 -0.089867622 0.74300003
0.27665198 -0.08766593 0.74166673
0.27924192 -0.082643494 0.74166673
0.28281361 -0.077492215 0.7415455
0.28375524 -0.073592387 0.74300003
0.2874032 -0.072080962 0.74146152
0.29106668 -0.071180955 0.74000001
0.28906241 -0.06757763 0.74300003
0.29185709 -0.067627043 0.74146158
0.29529527 -0.065542862 0.74000001
0.29330915 -0.062902123 0.74211115
0.2952953 -0.062723815 0.74000001
0.29367942 -0.059017785 0.74066675
0.29694787 -0.057004977 0.741
0.30252764 -0.05774929 0.74175
0.30516192 -0.059904765 0.74000001
0.30093941 -0.053966038 0.74233341
0.26358098 -0.13606477 0.74800003
0.26785529 -0.13606477 0.74800003
0.27212954 -0.13606477 0.74800003
0.29635048 -0.13606477 0.74800003
0.30774859 -0.13606477 0.74800003
0.31273526 -0.13606477 0.74800003
0.31629717 -0.13606477 0.74800003
0.32270861 -0.13606477 0.74800003
0.25325146 -0.13072193 0.74800003
0.25717717 -0.13119875 0.74733341
0.26233536 -0.13316219 0.7477001
0.26734725 -0.13296407 0.7465834
0.272066 -0.13334246 0.74642867
0.27738303 -0.13288969 0.74616671
0.2824105 -0.13222545 0.74585718
0.28739148 -0.13369757 0.74614298
0.29213211 -0.13334055 0.74528581
0.29751119 -0.13339309 0.74600011
0.30239797 -0.13278992 0.74640006
0.30730629 -0.13307041 0.7464546
0.31209967 -0.1326827 0.74580008
0.31756932 -0.13319959 0.74718189
0.32251665 -0.13266225 0.74755561
0.32702711 -0.13240103 0.74675006
0.24898446 -0.12651017 0.74766672
0.25237265 -0.1274734 0.74646163
0.25755715 -0.12866032 0.74500006
0.26262522 -0.12923472 0.74500006
0.26777431 -0.12927525 0.74500006
0.27032858 -0.12913334 0.74500006
0.30864286 -0.12984286 0.74500006
0.3121905 -0.12984286 0.74500006
0.31857622 -0.12984286 0.74500006
0.32212383 -0.12913334 0.74500006
0.32567146 -0.12984286 0.74500006
0.24934795 -0.12408128 0.74733341
0.25176212 -0.12242442 0.74618196
0.25357193 -0.11754366 0.74650002
0.2561143 -0.11596286 0.74700004
0.2580311 -0.11284489 0.74637502
0.26078373 -0.10719394 0.74662501
0.26351902 -0.10257767 0.74654555
0.26607144 -0.10075238 0.74500006
0.26411667 -0.098242387 0.74750006
0.26709983 -0.097407095 0.74655557
0.26874208 -0.093691602 0.74716675
0.27193812 -0.090646669 0.74650007
0.27328941 -0.088114709 0.7470001
0.27623773 -0.086582102 0.74640006
0.27806139 -0.083204493 0.74671435
0.28101429 -0.080391437 0.74700004
0.28179201 -0.07780876 0.74680007
0.28342193 -0.07224229 0.74660003
0.28641114 -0.070715874 0.74500006
0.28359884 -0.067252144 0.74725008
0.28680235 -0.067357324 0.74590921
0.28424001 -0.063401908 0.74800003
0.28758088 -0.063809633 0.74722224
0.29217622 -0.062160391 0.74680007
0.29545242 -0.056626987 0.74633336
0.30438572 -0.056052383 0.74500006
0.30773836 -0.058277383 0.74625003
0.30107462 -0.053687304 0.74500006
0.30520287 -0.054068573 0.74700004
0.26390857 -0.14127715 0.75300002
0.26749432 -0.14127716 0.75300002
0.27203622 -0.14175525 0.75300002
0.30908859 -0.14127715 0.75300002
0.31367832 -0.14185086 0.75300002
0.31787363 -0.14253214 0.75300002
0.32056287 -0.14271143 0.75300002
0.24390708 -0.1369383 0.75280005
0.24756935 -0.13675886 0.75260001
0.25268066 -0.13727272 0.75266671
0.2577531 -0.137403 0.75220007
0.26209727 -0.13806105 0.7511
0.26714125 -0.13862859 0.75085717
0.27214834 -0.13888572 0.75114292
0.27725813 -0.13762279 0.75154549
0.28227282 -0.13719724 0.75224996
0.28693497 -0.13788563 0.75170004
0.29208124 -0.13812883 0.75218183
0.29759201 -0.13830465 0.75242865
0.30250025 -0.13839014 0.75218195
0.30727062 -0.13851513 0.75162506
0.31232736 -0.13893878 0.75142866
0.3171984 -0.1384245 0.75085723
0.32228574 -0.13851278 0.75199997
0.32547623 -0.1359524 0.75000012
0.24266259 -0.13258353 0.7525
0.24736224 -0.13226096 0.75066674
0.25203434 -0.13260193 0.7502858
0.25714287 -0.13357143 0.75000006
0.2433009 -0.12788716 0.75270003
0.24695049 -0.12746388 0.7509231
0.24384212 -0.12285277 0.75260007
0.24755327 -0.12234565 0.75125003
0.2507143 -0.12071429 0.75000006
0.24454573 -0.11976287 0.75300002
0.24799328 -0.11826296 0.75258338
0.25235516 -0.11702633 0.75218183
0.25568002 -0.11530668 0.75200003
0.25422716 -0.11295 0.75300002
0.25722563 -0.11222392 0.75150007
0.25851437 -0.107786 0.75150007
0.25943288 -0.10391667 0.75250006
0.26161897 -0.1024071 0.75077778
0.26315609 -0.098100126 0.75187504
0.26606953 -0.095841914 0.75100005
0.26821145 -0.093105249 0.75200003
0.27143621 -0.090956196 0.75200003
0.2731064 -0.086898088 0.75200003
0.27571428 -0.085000008 0.75000006
0.27382702 -0.08243493 0.75266671
0.27699643 -0.081945822 0.75111115
0.2807143 -0.080714293 0.75000006
0.27466574 -0.07960286 0.75300002
0.27759734 -0.077627972 0.75281829
0.28087622 -0.076979816 0.75120002
0.27896863 -0.072431438 0.75300002
0.28129485 -0.072292715 0.75155556
0.28255901 -0.067799367 0.75111115
0.28357145 -0.063571431 0.75000006
0.28714287 -0.061428573 0.75000006
0.29071429 -0.061428577 0.75000006
0.29267406 -0.057875711 0.75209993
0.29656845 -0.056591272 0.75216669
0.30039907 -0.055073336 0.75100005
0.30860704 -0.055526353 0.75066674
0.31164354 -0.05679334 0.75166672
0.29777479 -0.053391434 0.75250006
0.30218723 -0.052036013 0.75260013
0.30776697 -0.052075561 0.75133336
0.31077051 -0.051853336 0.75100005
0.2990486 -0.04948286 0.75300002
0.30232698 -0.048868168 0.75300002
0.30796194 -0.049417146 0.75200003
0.31082669 -0.049417146 0.75200003
0.30753145 -0.1508781 0.75800002
0.24400383 -0.14510287 0.75800002
0.24761336 -0.14510289 0.75800008
0.25281107 -0.1456804 0.75800002
0.25743127 -0.14596915 0.75800002
0.26246399 -0.14592791 0.75800002
0.26782668 -0.14654669 0.75800008
0.27215812 -0.14654669 0.75800008
0.27721143 -0.14510287 0.75800002
0.2822648 -0.14582478 0.75800002
0.28731811 -0.14654668 0.75800002
0.29237145 -0.14558415 0.75800008
0.29742476 -0.14510287 0.75800002
0.30247813 -0.14582478 0.75800002
0.30753142 -0.14770173 0.75799996
0.31246549 -0.1469169 0.7567144
0.31638098 -0.14596668 0.75500005
0.2341378 -0.14269653 0.75800008
0.23750669 -0.14221525 0.75799996
0.24215806 -0.14198121 0.75675005
0.2476517 -0.14182502 0.75591677
0.2523756 -0.14201583 0.75540012
0.25765049 -0.14269558 0.75544453
0.26262623 -0.14294589 0.75550008
0.26732904 -0.14378886 0.75542867
0.27197906 -0.14426477 0.75550008
0.27773577 -0.14246622 0.75550008
0.28259185 -0.1420562 0.75544453
0.28741774 -0.14281042 0.75541675
0.2924625 -0.14278819 0.75557154
0.2978107 -0.14206426 0.75633335
0.30278966 -0.14284965 0.75562507
0.30748343 -0.14316687 0.75540006
0.31208155 -0.1437615 0.75528586
0.31638098 -0.14452858 0.75500005
0.3229956 -0.14171493 0.75533342
0.32616001 -0.14184001 0.75600004
0.23461907 -0.13860571 0.75800002
0.23796491 -0.13773255 0.75716674
0.24199934 -0.13739036 0.75528586
0.23861873 -0.13307463 0.7573334
0.24088097 -0.13206509 0.75500005
0.24165146 -0.12755272 0.75666666
0.24352145 -0.12247953 0.75650001
0.24472573 -0.11839239 0.75800002
0.24731259 -0.11681467 0.75620002
0.24833362 -0.113189 0.75699997
0.25235906 -0.11195841 0.75600004
0.25526193 -0.11001429 0.75500005
0.25374955 -0.10864668 0.75800002
0.25703853 -0.10727938 0.75600004
0.25818005 -0.10293493 0.75699997
0.2607432 -0.10117303 0.75700009
0.25916383 -0.098179057 0.75800002
0.2620382 -0.097382389 0.75630003
0.26410067 -0.093084142 0.75766671
0.26753703 -0.092105545 0.75718188
0.27072001 -0.091440007 0.75600004
0.26854858 -0.088794291 0.75800002
0.2716547 -0.087909155 0.75660002
0.27224836 -0.082575962 0.75725001
0.27381584 -0.078788392 0.75620002
0.27568591 -0.07644286 0.75580007
0.27769965 -0.072983935 0.75687498
0.27970955 -0.069747627 0.75500005
0.28218463 -0.067244932 0.75650001
0.2837086 -0.06424953 0.75800002
0.28515241 -0.06424953 0.75800002
0.29265243 -0.055366673 0.75500005
0.29552859 -0.055366669 0.75500005
0.29309484 -0.052980009 0.75614291
0.29706788 -0.051896412 0.75566673
0.2976028 -0.047673281 0.7561335
0.30167812 -0.046318736 0.75600004
0.29798099 -0.042825475 0.75575006
0.30076051 -0.04245143 0.75550008
0.29808003 -0.039600004 0.75600004
0.29846334 -0.15794668 0.76250005
0.30135414 -0.15611373 0.76100004
0.23237954 -0.15032144 0.76250005
0.23762003 -0.15042001 0.76300001
0.24416003 -0.15042001 0.76300001
0.2481567 -0.15078335 0.76300001
0.25218984 -0.15081757 0.76185727
0.25726169 -0.15108152 0.76214296
0.26259369 -0.15064161 0.76166677
0.26754639 -0.15094954 0.76200008
0.27250355 -0.15077303 0.76233339
0.27789813 -0.15125051 0.76300007
0.28257263 -0.1516255 0.76175004
0.28774232 -0.15221582 0.76179999
0.29325661 -0.15192516 0.76180011
0.29754153 -0.15312688 0.76200008
0.30239969 -0.15289208 0.76083344
0.30617145 -0.15200001 0.76000005
0.22807267 -0.14697154 0.76170009
0.23247851 -0.14701992 0.76044458
0.23741119 -0.14692564 0.76063645
0.24231082 -0.14745006 0.7610001
0.24766466 -0.14773038 0.76037508
0.25224763 -0.14801906 0.76000005
0.25724193 -0.14809144 0.76000005
0.26274288 -0.14838096 0.76000011
0.26780954 -0.14838096 0.76000005
0.2728762 -0.14838096 0.76000011
0.27721906 -0.14765716 0.76000011
0.28238913 -0.14858776 0.76000011
0.28735241 -0.14910477 0.76000011
0.29298204 -0.14870267 0.76000011
0.29748574 -0.14838095 0.76000011
0.30231112 -0.14886349 0.76000011
0.30617145 -0.14982858 0.76000005
0.31123811 -0.14982858 0.76000005
0.22828001 -0.14279933 0.76181829
0.23216192 -0.14240953 0.76000011
0.23668572 -0.14259049 0.76000005
0.22974955 -0.13987906 0.76100004
0.23247117 -0.13778676 0.76115394
0.23523811 -0.1360762 0.76000005
0.23402381 -0.13383144 0.76233339
0.23645264 -0.13208619 0.76100004
0.2386249 -0.12879226 0.76157153
0.24115543 -0.12637731 0.76116669
0.24253334 -0.12226287 0.76075006
0.24399954 -0.11909477 0.76250005
0.24596161 -0.11610128 0.76033342
0.24693593 -0.11192342 0.76100004
0.24875887 -0.10905905 0.76240003
0.25191891 -0.10687795 0.76083344
0.25550479 -0.10640001 0.76000005
0.25356308 -0.103776 0.76200002
0.25624067 -0.10217706 0.76090008
0.25743952 -0.098060437 0.76144451
0.2607424 -0.096330002 0.76050007
0.25942001 -0.093740009 0.76300001
0.26248285 -0.092648745 0.76100016
0.26394495 -0.08807753 0.76180011
0.26718491 -0.086905353 0.76092327
0.27142859 -0.086133339 0.76000005
0.26842725 -0.083150566 0.76141679
0.27115548 -0.081816912 0.76025003
0.26959336 -0.079206675 0.76300001
0.27253824 -0.077482261 0.76163644
0.27311113 -0.074200004 0.76133341
0.27718022 -0.071610264 0.7612223
0.2790367 -0.067853823 0.76200002
0.2811408 -0.067087784 0.76016676
0.27976668 -0.064673334 0.76300001
0.28319898 -0.062610954 0.76090014
0.28590482 -0.061523817 0.76000011
0.2841993 -0.057999291 0.76125002
0.28722745 -0.056690287 0.76120007
0.29139334 -0.055953339 0.76300001
0.28791326 -0.052623529 0.76110005
0.29134026 -0.052055977 0.76033348
0.29373708 -0.047933422 0.76154554
0.29603812 -0.047047626 0.76000011
0.30327621 -0.045600004 0.76000005
0.30786279 -0.046787415 0.7610001
0.31133887 -0.046794862 0.76060009
0.2967045 -0.042801097 0.76171434
0.30729908 -0.044210479 0.76100004
0.31164765 -0.044210479 0.76100004
0.24064001 -0.16018286 0.76800001
0.24502859 -0.16018286 0.76800001
0.28306288 -0.16018286 0.76800001
0.29359546 -0.16135316 0.76800007
0.29622859 -0.16310859 0.76800001
0.23405716 -0.15579429 0.76800001
0.23800217 -0.15610929 0.76775002
0.24240486 -0.15697597 0.76727277
0.24756487 -0.15734258 0.76770008
0.25264731 -0.15681918 0.76744449
0.25729498 -0.15715536 0.7675001
0.26213121 -0.1561093 0.76774997
0.26772234 -0.15584345 0.76680005
0.27240878 -0.15628843 0.76683342
0.27750859 -0.1567204 0.76680011
0.28265387 -0.15672372 0.76610011
0.28769419 -0.15699267 0.76669997
0.29255199 -0.15715943 0.76680005
0.29691505 -0.15786991 0.76600003
0.22242159 -0.15264566 0.76754552
0.22749917 -0.1525443 0.76710004
0.23232824 -0.1534256 0.76712507
0.2373784 -0.15301077 0.76557148
0.24240966 -0.15277387 0.76588893
0.2476788 -0.15327632 0.76585728
0.25303334 -0.15386255 0.76566672
0.25718576 -0.15372857 0.76500005
0.26214001 -0.15343714 0.76500005
0.26738572 -0.15336429 0.76500005
0.27292287 -0.15343717 0.76500005
0.27758574 -0.15372857 0.76500005
0.2812286 -0.15372857 0.76500005
0.28851432 -0.15372857 0.76500005
0.29288572 -0.15372857 0.76500005
0.21928525 -0.14911476 0.76750004
0.2218951 -0.14776251 0.76661545
0.22600289 -0.14848287 0.76500005
0.22297032 -0.14309697 0.76660007
0.22611287 -0.14229953 0.76525003
0.22381717 -0.13970287 0.76800001
0.22773544 -0.13780901 0.76709098
0.23072922 -0.13653874 0.76666677
0.22893716 -0.13385144 0.76800001
0.2326168 -0.13253489 0.76654547
0.23532858 -0.13114285 0.76500005
0.23353906 -0.12901287 0.76750004
0.23730195 -0.12711506 0.76620001
0.23915216 -0.12377405 0.76675004
0.24121812 -0.1222241 0.76585716
0.24302465 -0.11740537 0.76687503
0.24552859 -0.11657144 0.76500005
0.24363516 -0.11282905 0.76730007
0.24607678 -0.11187867 0.76580006
0.24763003 -0.10725477 0.76609999
0.24911782 -0.10339334 0.76633334
0.25222126 -0.10158791 0.76629996
0.25363612 -0.097801596 0.76700002
0.2570731 -0.096519329 0.76528579
0.25437099 -0.094292864 0.76750004
0.25767431 -0.093135245 0.76700008
0.26099861 -0.091859527 0.76550007
0.25965717 -0.089965723 0.76800001
0.26230618 -0.087435536 0.7665385
0.26388651 -0.083012231 0.76683342
0.26688826 -0.081427634 0.76566672
0.26824871 -0.077638105 0.76709098
0.27030003 -0.076500013 0.76500005
0.26989716 -0.073874287 0.76800001
0.27283493 -0.072446786 0.76666671
0.27575907 -0.070763811 0.76600003
0.27778107 -0.067338288 0.76627284
0.27922335 -0.063592866 0.76750004
0.2820015 -0.061882332 0.7664445
0.28461215 -0.057362147 0.76725
0.28632858 -0.056100003 0.76500005
0.28693062 -0.052352265 0.76612502
0.28882918 -0.048357144 0.76700002
0.29170427 -0.0467932 0.76600003
0.29344696 -0.043322045 0.76728576
0.29668441 -0.041392744 0.76587504
0.29756194 -0.038017463 0.76766676
0.30042145 -0.038009048 0.76750004
0.27828002 -0.17742191 0.77300006
0.2245381 -0.16564287 0.77300006
0.22771811 -0.16618897 0.77280009
0.2329307 -0.16682079 0.77300018
0.23778953 -0.16711524 0.77300012
0.24239074 -0.1669312 0.77300012
0.24760543 -0.16662444 0.77300012
0.25243166 -0.16595739 0.77275008
0.25766671 -0.16637906 0.77300012
0.26252553 -0.16623183 0.77300006
0.26723719 -0.16564289 0.77300012
0.27253777 -0.16593735 0.77300006
0.27791193 -0.16601096 0.77300006
0.28238165 -0.16627391 0.77300012
0.28795418 -0.16663335 0.77271438
0.29158783 -0.16651732 0.77250004
0.21423145 -0.16196191 0.77300006
0.21741374 -0.16147849 0.77280003
0.22236116 -0.16276173 0.7726
0.22725378 -0.16253483 0.77222222
0.2323854 -0.16252303 0.77216667
0.23771372 -0.16229887 0.77179998
0.2427647 -0.16267744 0.77149999
0.24763764 -0.16246191 0.77100003
0.25218663 -0.16215287 0.77109998
0.25738174 -0.16252683 0.77154553
0.26240489 -0.16244128 0.77177775
0.26752046 -0.16241188 0.77227277
0.27265534 -0.16274069 0.7725001
0.27740574 -0.16229963 0.77180004
0.28222203 -0.16271953 0.77170002
0.28747353 -0.16217372 0.7712
0.29187718 -0.16264477 0.77100003
0.29626667 -0.16206668 0.77000004
0.21386334 -0.15864906 0.77300006
0.2173593 -0.15761244 0.7717858
0.22252065 -0.15789546 0.77111113
0.22729318 -0.15764572 0.77054548
0.23231241 -0.15822181 0.77111113
0.23737307 -0.15856382 0.77028579
0.25153336 -0.15913334 0.77000004
0.26302224 -0.15864447 0.7700001
0.2676667 -0.1584 0.7700001
0.27206671 -0.15913334 0.7700001
0.27573335 -0.15913334 0.77000004
0.28086668 -0.15913334 0.77000004
0.21783932 -0.15281561 0.77109098
0.22073334 -0.15473334 0.77000004
0.21825087 -0.14741144 0.77160007
0.2187369 -0.14263621 0.7725715
0.22122873 -0.14171581 0.77100003
0.22216217 -0.13757396 0.77172732
0.22583698 -0.13691048 0.77039999
0.22365716 -0.13389952 0.77250004
0.22766186 -0.13245861 0.7716924
0.23070985 -0.13137905 0.77066672
0.23261353 -0.12756607 0.77181828
0.23588893 -0.1258889 0.7700001
0.23440072 -0.12327167 0.77275002
0.23755896 -0.12252583 0.77130002
0.24126668 -0.12100001 0.77000004
0.23827775 -0.11810916 0.77220005
0.24090506 -0.11714885 0.77085716
0.23926193 -0.11337334 0.77300006
0.24143419 -0.11217989 0.77112502
0.24365678 -0.10896192 0.77200001
0.2459521 -0.10631746 0.77166671
0.24814901 -0.10301784 0.7718572
0.25071621 -0.10072763 0.77200001
0.24956858 -0.099385723 0.77300006
0.25207588 -0.097500324 0.77166671
0.25281084 -0.094069853 0.77166671
0.25771081 -0.091374621 0.77166671
0.2592724 -0.088549852 0.77266669
0.26089686 -0.087453656 0.77166671
0.26299676 -0.082691982 0.77228576
0.26542097 -0.080140956 0.77200001
0.26429239 -0.078036197 0.77300006
0.2662206 -0.077295125 0.77112496
0.26887944 -0.073357522 0.77180004
0.2713232 -0.071683817 0.77066672
0.27254915 -0.068540961 0.77220011
0.27649823 -0.067056552 0.77162498
0.27858195 -0.062773518 0.77180004
0.28049621 -0.060945719 0.77100003
0.28246117 -0.057646874 0.7717858
0.2852667 -0.055000003 0.77000004
0.28472143 -0.052970953 0.77250004
0.28644615 -0.051881146 0.77160001
0.28796288 -0.047749531 0.7713334
0.28907272 -0.043396514 0.77233338
0.29184601 -0.041996624 0.77118182
0.29553336 -0.040333334 0.77000004
0.29336628 -0.038155377 0.7725715
0.29696453 -0.036608573 0.77100009
0.30291814 -0.036026668 0.77200001
0.2974599 -0.033938237 0.77228576
0.30239296 -0.033505853 0.77200001
0.25298953 -0.17657334 0.77900004
0.25744098 -0.17657334 0.77900004
0.27265 -0.17620239 0.77900004
0.2771402 -0.17709757 0.77863652
0.28230286 -0.17634764 0.77800006
0.28637525 -0.17583144 0.77900004
0.20699145 -0.17138001 0.77900004
0.22331335 -0.17138001 0.77900004
0.22830038 -0.17141278 0.77780002
0.23276071 -0.17185023 0.77728575
0.23753849 -0.17227469 0.77700007
0.2430346 -0.17230658 0.77722222
0.24723884 -0.17247787 0.77725005
0.2521551 -0.17279804 0.77809095
0.25743836 -0.17236686 0.7773636
0.26239812 -0.17240287 0.77775007
0.26795191 -0.1720324 0.77775013
0.27252823 -0.17255507 0.77760011
0.27743301 -0.1723814 0.77681822
0.28246117 -0.17228803 0.77640003
0.28753009 -0.17252034 0.77744454
0.29156002 -0.17094001 0.77700001
0.20498002 -0.16724002 0.77700001
0.20764846 -0.16754472 0.77761549
0.21262257 -0.16817346 0.77788895
0.21729408 -0.16789217 0.77811116
0.222616 -0.16811164 0.77760011
0.22732607 -0.16889398 0.77666676
0.23176192 -0.16902383 0.77500004
0.24135716 -0.16902383 0.77500004
0.24726193 -0.16902384 0.77500004
0.25316668 -0.16843335 0.77500004
0.25759524 -0.16902384 0.77500004
0.26320478 -0.16872858 0.77500004
0.2679286 -0.16828573 0.77500004
0.27206194 -0.16843335 0.77500004
0.27720749 -0.16839117 0.77500004
0.2826905 -0.16902384 0.77500004
0.28675002 -0.16865477 0.77500004
0.2074897 -0.16246383 0.77716672
0.21200159 -0.16278446 0.77516669
0.21803334 -0.16400479 0.77500004
0.22364287 -0.16311906 0.77500004
0.20921716 -0.15950954 0.77900004
0.21282172 -0.15732287 0.77700007
0.21383215 -0.15268311 0.77825004
0.21570878 -0.15183906 0.7762
0.21441048 -0.14763907 0.77900004
0.21610074 -0.14720762 0.77575004
0.21694955 -0.14297783 0.77671438
0.21909812 -0.13924669 0.77633333
0.22156224 -0.13579589 0.77633345
0.22372794 -0.13245748 0.77700007
0.22580479 -0.13124731 0.77566671
0.22895372 -0.12890802 0.77700007
0.23139812 -0.12661953 0.77750003
0.23357128 -0.12321887 0.77660006
0.23531811 -0.12062001 0.77700007
0.23669684 -0.1176089 0.77666676
0.23859377 -0.11242763 0.77722228
0.24050002 -0.11026001 0.77700001
0.2428046 -0.10756686 0.77680004
0.24451335 -0.10447429 0.778
0.24689333 -0.10208596 0.77675009
0.24838631 -0.097605728 0.77759999
0.25074479 -0.096752867 0.77550006
0.24853811 -0.094221912 0.77900004
0.25238499 -0.092570297 0.77760005
0.25655717 -0.090941906 0.77633333
0.25336048 -0.089399531 0.77900004
0.2576603 -0.08736667 0.77742851
0.26054764 -0.086357147 0.77500004
0.25843018 -0.083340645 0.77900004
0.2613641 -0.082235768 0.77663642
0.26311621 -0.077927999 0.77780008
0.26486 -0.074932389 0.77900004
0.26769137 -0.072404914 0.77761549
0.27010003 -0.070300005 0.77700001
0.26842117 -0.06810686 0.77900004
0.27157715 -0.066970482 0.77700001
0.27530953 -0.06569048 0.77500004
0.27295169 -0.063515715 0.77775002
0.27712592 -0.062322296 0.77720004
0.27951011 -0.058014564 0.77671438
0.28193748 -0.055500008 0.77700007
0.28341401 -0.053572387 0.77766669
0.28563809 -0.051060002 0.77700007
0.2873036 -0.04698905 0.77700001
0.28847653 -0.042727627 0.77800006
0.29008478 -0.040804766 0.77900004
0.28860098 -0.039320953 0.77900004
0.29187608 -0.037739456 0.77700007
0.29451811 -0.034780003 0.77700007
0.29699588 -0.032339368 0.77766675
0.30269718 -0.031160004 0.77900004
0.25461334 -0.18144001 0.78400004
0.26208001 -0.18144001 0.78400004
0.26845622 -0.18120858 0.78300005
0.27296287 -0.18139589 0.78166676
0.27706763 -0.1811181 0.78100002
0.19488001 -0.17546667 0.78400004
0.19746707 -0.17627315 0.78360003
0.20227431 -0.17617619 0.78299999
0.20739685 -0.17606413 0.78333342
0.21280001 -0.17546669 0.7840001
0.21765335 -0.17584001 0.78400004
0.22101335 -0.17546667 0.78400004
0.22624001 -0.17696001 0.78400004
0.23251431 -0.17605716 0.78000009
0.23778725 -0.17774801 0.78220004
0.24238262 -0.1775097 0.78171438
0.24721718 -0.17710124 0.78085721
0.25212574 -0.17813717 0.78000003
0.25777143 -0.1790286 0.78000009
0.26221144 -0.17747143 0.78050005
0.26752916 -0.17775963 0.78160006
0.27186424 -0.17858806 0.78085726
0.19488001 -0.17248003 0.7840001
0.19766116 -0.17246762 0.78260005
0.20222859 -0.171747 0.78066677
0.20725715 -0.17249143 0.78000003
0.21245714 -0.17234285 0.78000009
0.21786943 -0.1720245 0.78000009
0.22211431 -0.17271428 0.78000009
0.22699594 -0.17393471 0.78000009
0.23251431 -0.17457144 0.78000009
0.23845716 -0.17457144 0.78000003
0.24142858 -0.17457144 0.78000003
0.26371431 -0.17457144 0.78000003
0.26668572 -0.17457144 0.78000009
0.29418668 -0.17397335 0.78400004
0.19936001 -0.16874668 0.78400004
0.20242558 -0.16702153 0.78142864
0.20311514 -0.16306776 0.78285718
0.2056843 -0.16097096 0.78250003
0.20768039 -0.15736115 0.78160006
0.21082287 -0.15644573 0.78000003
0.20863938 -0.15343368 0.7833333
0.21109635 -0.15202586 0.78085721
0.21318534 -0.14783402 0.78228581
0.21455494 -0.14411175 0.78133339
0.21686336 -0.14159477 0.78250003
0.21895811 -0.13927048 0.78200006
0.22091907 -0.13658129 0.78366673
0.22305478 -0.13238001 0.78200006
0.22582859 -0.13000001 0.78000003
0.22474667 -0.12917334 0.78400004
0.22804096 -0.12762095 0.78250003
0.23058002 -0.12570381 0.78100002
0.22872889 -0.12419557 0.7840001
0.23207934 -0.12250668 0.78218186
0.23421718 -0.11748137 0.78285718
0.23578286 -0.11692573 0.78000003
0.23415336 -0.11409429 0.78300005
0.23619834 -0.11223547 0.78175008
0.23981145 -0.10948001 0.78200006
0.24109654 -0.10640953 0.78133339
0.24284646 -0.10226069 0.78200006
0.24588573 -0.10102858 0.78000003
0.24374223 -0.099137783 0.78266668
0.24616097 -0.097273335 0.78166676
0.24759778 -0.092688322 0.78200006
0.25034288 -0.092114292 0.78000003
0.25213486 -0.087269269 0.7812857
0.25628573 -0.085428581 0.78000003
0.25411558 -0.083875559 0.7840001
0.25698429 -0.082377151 0.78100008
0.25907534 -0.07774625 0.78244448
0.26195621 -0.076083817 0.78066671
0.25992191 -0.07373143 0.78200006
0.26241735 -0.072122604 0.78218186
0.26520002 -0.07205715 0.78000009
0.26379392 -0.068070486 0.78200001
0.26657063 -0.067199737 0.78028578
0.26746789 -0.064027868 0.78175002
0.2721217 -0.061422147 0.78175008
0.27634287 -0.060171433 0.78000003
0.27442193 -0.058911435 0.78300005
0.27780333 -0.057495717 0.78150004
0.27889621 -0.054437146 0.78300005
0.28219956 -0.051769685 0.78216666
0.2829867 -0.047040008 0.78399998
0.28562194 -0.047603816 0.78100008
0.28410667 -0.04218667 0.78400004
0.28617954 -0.042211428 0.78100008
0.28249592 -0.038544767 0.78333342
0.2870155 -0.038317382 0.78125006
0.29120031 -0.03606667 0.78200001
0.29402518 -0.03346286 0.78080004
0.29739496 -0.031226035 0.78066671
0.29789275 -0.027756196 0.78066671
0.21265429 -0.18560287 0.78900003
0.21866573 -0.18560287 0.78900003
0.22843429 -0.18560287 0.78900003
0.24241088 -0.186204 0.78900003
0.24740787 -0.18691789 0.78900003
0.25202918 -0.18590344 0.78900003
0.25763148 -0.18627588 0.78866673
0.26303554 -0.1860445 0.78814298
0.26734373 -0.1868161 0.7877779
0.27023432 -0.1863943 0.78600001
0.19936955 -0.18090478 0.78600001
0.20270307 -0.18222268 0.78666675
0.20768689 -0.18260917 0.78840011
0.21247463 -0.18244351 0.78833336
0.2176373 -0.18236637 0.78800011
0.22280991 -0.18226539 0.78837502
0.22731492 -0.18226539 0.78837508
0.23354572 -0.18135527 0.78850007
0.23708916 -0.18262099 0.78780007
0.24258076 -0.18226501 0.78675008
0.24757561 -0.18229283 0.78709102
0.25240189 -0.18232289 0.78700006
0.25778177 -0.18284588 0.78683341
0.262694 -0.18321145 0.78733337
0.26708034 -0.18263462 0.78700006
0.27173147 -0.18414859 0.78600001
0.19388001 -0.1759143 0.78600001
0.19912001 -0.17890859 0.78600001
0.20361143 -0.17890859 0.78600001
0.20735431 -0.17890859 0.78600001
0.21250449 -0.1782482 0.78685725
0.21726859 -0.1785613 0.78666675
0.22251496 -0.17831177 0.78666675
0.2273162 -0.17816001 0.78600001
0.23231868 -0.17892706 0.78740007
0.19243683 -0.17246899 0.78622234
0.19316083 -0.16873363 0.78742862
0.19751675 -0.16764738 0.78685731
0.20136572 -0.1654343 0.78600001
0.19917564 -0.16255127 0.78800005
0.20178477 -0.16157906 0.78666675
0.19912858 -0.15780002 0.78900003
0.20245007 -0.157461 0.78731251
0.20585716 -0.15794858 0.78600001
0.20412955 -0.15384763 0.78800005
0.20714946 -0.15239821 0.78750008
0.21034859 -0.15046287 0.78600001
0.20964858 -0.14728001 0.78900003
0.21165276 -0.14716323 0.78737509
0.20964858 -0.14126858 0.78900003
0.2128562 -0.14234689 0.78761542
0.21633716 -0.14148001 0.78600001
0.20964858 -0.13901429 0.78900003
0.21323538 -0.13796441 0.78837508
0.2172422 -0.13751565 0.78657162
0.21378145 -0.13300288 0.78900003
0.21768288 -0.13286193 0.7881667
0.22142744 -0.13219774 0.78600001
0.21866573 -0.12999715 0.78900003
0.22228941 -0.12773018 0.78800005
0.22606859 -0.12650859 0.78600001
0.2229851 -0.12237937 0.78833342
0.22746618 -0.12193681 0.78636378
0.23205715 -0.12052001 0.78600001
0.22389209 -0.11832508 0.78800005
0.22799855 -0.11775001 0.78750008
0.23205715 -0.11752572 0.78600001
0.2243924 -0.11407239 0.78800005
0.22753859 -0.1141443 0.78850007
0.23259072 -0.11268844 0.78761554
0.23749715 -0.11013334 0.78666675
0.2339955 -0.10779548 0.78875005
0.23727095 -0.10714416 0.78772736
0.24029145 -0.10704573 0.78600001
0.2336943 -0.10444858 0.78900003
0.23823908 -0.1030681 0.78850007
0.24029145 -0.10255429 0.78600001
0.23835121 -0.099469766 0.78825009
0.24251835 -0.097405657 0.78675008
0.24540573 -0.095310479 0.78800005
0.2442143 -0.093928576 0.78900003
0.24690573 -0.092058107 0.78800011
0.24945357 -0.088152632 0.78775007
0.25077143 -0.086085722 0.78600001
0.24990858 -0.084803812 0.78800005
0.25215939 -0.082321554 0.7874617
0.25617382 -0.080896668 0.78650004
0.25376803 -0.077978283 0.78880006
0.25733948 -0.077276625 0.78777784
0.25919336 -0.073235244 0.78733337
0.26253515 -0.068445042 0.78728586
0.26525429 -0.065374292 0.78900003
0.26749891 -0.062250003 0.78750008
0.27096257 -0.061683815 0.78666675
0.26902497 -0.05813086 0.78860009
0.27244574 -0.05772686 0.78720009
0.27675003 -0.056624286 0.78750008
0.27352002 -0.054854289 0.78900003
0.2780807 -0.05288624 0.78818196
0.2807143 -0.050902858 0.78600001
0.27964073 -0.047670715 0.78825009
0.28071433 -0.047160007 0.78600001
0.27992764 -0.044278096 0.78800005
0.28206891 -0.042722229 0.78700006
0.28182 -0.039724767 0.78700006
0.28793782 -0.035992384 0.78733337
0.20844573 -0.19107525 0.79300004
0.2235505 -0.19183049 0.79300004
0.24243145 -0.19107525 0.7930001
0.24839503 -0.19214787 0.79275006
0.25227374 -0.19188516 0.79260004
0.25753623 -0.19107525 0.7930001
0.26357812 -0.19107525 0.79300004
0.26508859 -0.19107525 0.79300004
0.20466954 -0.18654382 0.79300004
0.20769048 -0.18805429 0.7930001
0.21211565 -0.18735601 0.7926001
0.21788621 -0.18805432 0.7930001
0.22260796 -0.18789749 0.79233342
0.22717516 -0.18795948 0.79188889
0.23300727 -0.18770514 0.79280013
0.23770002 -0.18789746 0.79233336
0.2423373 -0.18829404 0.79128575
0.24634002 -0.18908668 0.79100001
0.25279638 -0.18857963 0.79139996
0.25718805 -0.18878534 0.79100001
0.26286811 -0.18894906 0.79200006
0.22750668 -0.18456668 0.79100001
0.23247866 -0.18336134 0.79100001
0.19636191 -0.16615239 0.79300004
0.19769402 -0.16257267 0.79185718
0.19812477 -0.15764573 0.79200006
0.19862764 -0.15482382 0.79300004
0.20219849 -0.15315831 0.79220003
0.20592001 -0.1508562 0.79200006
0.20796032 -0.14794298 0.79211116
0.21044573 -0.14783716 0.79200006
0.20859678 -0.14304212 0.79300004
0.21018001 -0.14388667 0.79100001
0.20920096 -0.13896382 0.79300004
0.21088898 -0.13672288 0.79139996
0.20867334 -0.13334002 0.79100001
0.21184652 -0.13238458 0.79159999
0.21656987 -0.13054636 0.79233336
0.21894841 -0.12780781 0.79220003
0.22072668 -0.12580667 0.79100001
0.21977431 -0.12461429 0.79300004
0.22109875 -0.12299906 0.79233336
0.22374001 -0.11752 0.79100001
0.22524668 -0.11827334 0.79100001
0.22800136 -0.11211487 0.79220003
0.23146701 -0.11083334 0.79166669
0.23220617 -0.10817538 0.79271436
0.23412383 -0.10422286 0.79300004
0.23631907 -0.10289429 0.79149997
0.23941049 -0.0989362 0.79300004
0.24122065 -0.096338108 0.79233336
0.24363334 -0.093531437 0.79200006
0.24634002 -0.091153339 0.79100001
0.24853623 -0.087497145 0.792
0.24927019 -0.083257467 0.79233336
0.25086001 -0.080606669 0.79100001
0.24998383 -0.079300009 0.79300004
0.25233266 -0.077218376 0.7915715
0.25343907 -0.074674293 0.79200006
0.25780335 -0.0734962 0.79150003
0.26055717 -0.070237145 0.79300004
0.26287642 -0.066813909 0.79179996
0.26357812 -0.061174288 0.79300004
0.2658788 -0.062401239 0.79214293
0.26357812 -0.058908574 0.79300004
0.26708344 -0.057792958 0.79220009
0.27311009 -0.053327762 0.79185712
0.27682161 -0.051291119 0.792
0.27858195 -0.047520004 0.79200006
0.28039333 -0.043021433 0.79250002
0.28099334 -0.03992667 0.79100001
0.21584001 -0.20140001 0.79800004
0.25232002 -0.20140001 0.79800004
0.25612003 -0.20140001 0.79800004
0.21356001 -0.19532001 0.79800004
0.21729121 -0.19525883 0.79775006
0.2225939 -0.19746464 0.79614288
0.22724001 -0.19582669 0.79800004
0.23295715 -0.19557507 0.79780006
0.23773098 -0.19595765 0.79750007
0.24228811 -0.19595765 0.79750007
0.24743314 -0.19681726 0.79722226
0.25223708 -0.19809097 0.79630005
0.25759888 -0.197908 0.79739994
0.26226631 -0.19617824 0.79762501
0.2130505 -0.19119389 0.79528576
0.2171786 -0.19180715 0.79525006
0.22205921 -0.19328777 0.79500002
0.22790003 -0.1923143 0.79500002
0.23252642 -0.1920592 0.79528582
0.23698573 -0.19231431 0.79500002
0.24183145 -0.19276857 0.79500002
0.24708097 -0.1935762 0.79500002
0.25364289 -0.19382858 0.79500002
0.25692385 -0.1935762 0.79500002
0.2628223 -0.19275716 0.79619998
0.26642573 -0.19355716 0.79700005
0.19336212 -0.16727678 0.79619998
0.19558764 -0.16602287 0.796
0.19211939 -0.16250366 0.79733336
0.19551443 -0.162586 0.79614294
0.19329336 -0.15833335 0.79800004
0.1964069 -0.15735382 0.79625005
0.19841392 -0.15347907 0.79700011
0.20222312 -0.15138167 0.79675007
0.20518573 -0.15067144 0.79500002
0.203458 -0.14798656 0.79787499
0.20589466 -0.1474143 0.79540008
0.20699179 -0.14254323 0.79612505
0.20911667 -0.13738714 0.79700005
0.2102562 -0.13586953 0.79700005
0.20924287 -0.13334 0.79700005
0.21052001 -0.13148001 0.79800004
0.21418525 -0.12987858 0.79750001
0.21721855 -0.12736265 0.79655558
0.21927303 -0.12367176 0.79666674
0.22173944 -0.12156685 0.79680008
0.22806287 -0.11112001 0.79733342
0.22929305 -0.10769397 0.79633343
0.23145241 -0.10644476 0.79550004
0.23403907 -0.10348286 0.79700005
0.23676795 -0.10154381 0.79766673
0.23925 -0.097218581 0.79750007
0.2400143 -0.096914291 0.79500002
0.23940001 -0.093480006 0.79800004
0.24199918 -0.092908576 0.796
0.24587432 -0.090718105 0.796
0.24396002 -0.087400004 0.79800004
0.24653038 -0.087357752 0.79587501
0.24802057 -0.082976766 0.79640007
0.25061432 -0.08101429 0.79500002
0.24972668 -0.079700008 0.79700005
0.25086477 -0.077042386 0.79700005
0.25336432 -0.074338578 0.79650003
0.25772038 -0.071929708 0.79654551
0.25916001 -0.067640007 0.79800004
0.26124942 -0.067289941 0.79642856
0.26246944 -0.062978357 0.7967273
0.26345524 -0.05815772 0.79720014
0.26722813 -0.055719528 0.79600006
0.26873034 -0.052935403 0.79783338
0.27188051 -0.05210191 0.79575002
0.27326602 -0.048452657 0.79671437
0.27665406 -0.047317695 0.79585719
0.23754478 -0.20546478 0.80200005
0.24212764 -0.20546478 0.80200005
0.24518287 -0.20546478 0.80200005
0.21358731 -0.20088892 0.80000007
0.2176508 -0.2016508 0.80000007
0.22228193 -0.20230973 0.80040008
0.2275216 -0.2023254 0.80166674
0.23253445 -0.20270464 0.80316675
0.23754478 -0.20240957 0.80200005
0.24248609 -0.20207332 0.80066675
0.24748053 -0.2024589 0.80000013
0.25066668 -0.20342858 0.80000001
0.21409525 -0.19885716 0.80000001
0.21714287 -0.19809526 0.80000007
0.22109097 -0.19821954 0.80049998
0.22834288 -0.1984465 0.80079997
0.23267144 -0.19834384 0.80100006
0.23695239 -0.19885716 0.80000007
0.24228573 -0.19885716 0.80000001
0.24609526 -0.19885716 0.80000001
0.19248977 -0.15681453 0.8012501
0.19580954 -0.15619048 0.80000001
0.19375621 -0.15314287 0.8016001
0.1971166 -0.15207317 0.8016001
0.20038097 -0.15085715 0.80000001
0.19477144 -0.14894287 0.80200005
0.19788191 -0.14745566 0.80222225
0.2016841 -0.1469875 0.80085725
0.19799241 -0.14448002 0.80266666
0.2029162 -0.14254141 0.80169243
0.2064762 -0.1417143 0.80000001
0.20320711 -0.1384947 0.80342859
0.20671208 -0.13759966 0.80145466
0.20778887 -0.13318205 0.8017143
0.21409525 -0.12876192 0.80000001
0.21615812 -0.12755367 0.80200005
0.21756382 -0.12273376 0.80155557
0.2201905 -0.12114286 0.80000001
0.21888638 -0.11950731 0.80266666
0.2225306 -0.11859706 0.80111116
0.22532383 -0.11762667 0.80200005
0.22990668 -0.10616953 0.80200005
0.23257564 -0.10255315 0.80120009
0.23572287 -0.1006962 0.801
0.23448955 -0.098531432 0.80200005
0.23709907 -0.097317368 0.80169243
0.23758447 -0.093555883 0.80300009
0.24219088 -0.091107436 0.80120003
0.24243164 -0.087989725 0.80200005
0.24563906 -0.08620286 0.801
0.24426287 -0.084228575 0.80400002
0.24689741 -0.082935005 0.80075008
0.25098002 -0.076284766 0.801
0.25289553 -0.072676204 0.80085719
0.25523812 -0.071619049 0.80000001
0.25379559 -0.068034284 0.80266666
0.25703052 -0.067359835 0.80127275
0.25943941 -0.064413339 0.80200005
0.26106858 -0.061563052 0.80200005
0.26320726 -0.05667467 0.80200005
0.26590478 -0.05561905 0.80000001
0.2666167 -0.052064288 0.80100006
0.19397755 -0.1518282 0.80760002
0.1989778 -0.14212573 0.80666673
0.20034859 -0.14200953 0.80600011
0.20239556 -0.13740382 0.80600011
0.20580511 -0.13353081 0.80733341
0.21418414 -0.13107556 0.80800003
0.21469715 -0.12851049 0.80800003
0.2162362 -0.12774096 0.80800003
0.21777526 -0.12235429 0.80800003
0.21904287 -0.11835906 0.80700004
0.22162287 -0.11696763 0.80800003
0.22887176 -0.10636254 0.80733341
0.23008764 -0.10542477 0.80800003
0.23169145 -0.1022616 0.80733341
0.23364478 -0.097608589 0.8070001
0.23419176 -0.094138429 0.80800003
0.23732954 -0.091753662 0.80733341
0.24026477 -0.091346674 0.80600005
0.23912446 -0.088420957 0.80733341
0.24133049 -0.086848579 0.8070001
0.24310642 -0.082720011 0.80742866
0.24714136 -0.080947056 0.8064
0.25101143 -0.080600008 0.80600005
0.24393906 -0.07926096 0.80800003
0.24739306 -0.078020312 0.80755562
0.25064495 -0.077298671 0.80680001
0.24855621 -0.074643813 0.80800003
0.25168192 -0.07304509 0.80733341
0.25324476 -0.067633331 0.80700004
0.25561717 -0.065247625 0.80600005
0.2580474 -0.062506132 0.80742866
0.26022288 -0.061409526 0.80600005
0.19980001 -0.13962857 0.81000006
0.20241441 -0.13663282 0.81155556
0.20265679 -0.13360839 0.81280005
0.20780274 -0.13171566 0.81285727
0.21225107 -0.13124686 0.81160003
0.21361463 -0.12770288 0.81266677
0.21574287 -0.12625715 0.81000012
0.21474096 -0.12326287 0.81400001
0.21666667 -0.12226048 0.81250012
0.21817081 -0.1175562 0.81266671
0.22144479 -0.11536857 0.81300002
0.22689603 -0.11584534 0.8120001
0.21939239 -0.11396001 0.81400001
0.22297204 -0.11272287 0.81180012
0.22754231 -0.11183983 0.81100005
0.23065716 -0.11108573 0.81000006
0.22386035 -0.10766858 0.81333339
0.22672784 -0.10756935 0.81140006
0.23122668 -0.10904001 0.81200004
0.22404383 -0.10465715 0.81400001
0.22779547 -0.10261159 0.81292325
0.23052001 -0.10122096 0.81133336
0.22830763 -0.097292386 0.81400001
0.2312244 -0.097438864 0.8120001
0.22869526 -0.093803816 0.81400001
0.23305038 -0.092843555 0.81142867
0.23599367 -0.090845726 0.81066674
0.23489715 -0.089152388 0.81400001
0.23766194 -0.087209344 0.8118
0.23833002 -0.084345244 0.8125
0.24162249 -0.081778668 0.81160003
0.24359784 -0.078106672 0.8120001
0.24608573 -0.076371431 0.81000006
0.24454287 -0.07482858 0.81000006
0.24748982 -0.073660135 0.81171435
0.25108424 -0.071539812 0.81120008
0.25280383 -0.067748576 0.81300008
0.19792859 -0.14514762 0.81500006
0.19853573 -0.14325573 0.8175
0.20046002 -0.14196001 0.81900007
0.19894764 -0.13755429 0.8160001
0.20103335 -0.13583334 0.81500006
0.20413812 -0.13195239 0.81500006
0.20569049 -0.1311762 0.81500006
0.20463906 -0.12994191 0.81700003
0.20775458 -0.1277324 0.81645465
0.21131787 -0.12741072 0.81575
0.20982002 -0.12402001 0.81900007
0.21252096 -0.12244153 0.81680006
0.21500477 -0.12186191 0.81500006
0.21319811 -0.11815619 0.81800008
0.21604173 -0.11664058 0.81540006
0.21450001 -0.11466001 0.81900007
0.21770458 -0.1127402 0.81640005
0.22121429 -0.11177143 0.81500006
0.2184816 -0.10937049 0.81833339
0.22151525 -0.10753983 0.81663638
0.22270098 -0.102277 0.81666678
0.22587144 -0.10090476 0.81500006
0.22391677 -0.097430296 0.81580001
0.22671412 -0.096807815 0.81580013
0.22781366 -0.093150489 0.8173334
0.23175272 -0.091923498 0.81566668
0.23303811 -0.08772929 0.81700003
0.23518573 -0.086933345 0.81500006
