# .PCD v0.7 - Point Cloud Data file format
VERSION 0.7
FIELDS x y z
SIZE 4 4 4
TYPE F F F
COUNT 1 1 1
WIDTH 1407
HEIGHT 1
VIEWPOINT 0 0 0 1 0 0 0
POINTS 1407
DATA ascii
0.3074581 -0.091758102 0.71900004
0.31129277 -0.091621153 0.71900004
0.29228637 -0.087413758 0.71706241
0.29645813 -0.088136204 0.71600002
0.30303133 -0.088071845 0.71685719
0.30707645 -0.087534443 0.71761543
0.3113955 -0.0881631 0.71899998
0.29327676 -0.082803816 0.71685719
0.29557407 -0.081912145 0.71675003
0.30399317 -0.082783245 0.71600002
0.30694574 -0.08271791 0.71780008
0.31019717 -0.084225722 0.71900004
0.29431143 -0.079894289 0.71700001
0.29793191 -0.077901438 0.71750003
0.30365956 -0.079155721 0.71650004
0.30566287 -0.079320952 0.71800005
0.28839719 -0.096460551 0.72271436
0.29287374 -0.09625084 0.72187507
0.29761368 -0.09733092 0.72200012
0.30241764 -0.097136825 0.72250003
0.30710286 -0.096400008 0.72300005
0.31301928 -0.096539058 0.72275007
0.31714979 -0.096883342 0.72275007
0.32121861 -0.096055724 0.72300005
0.28438002 -0.092957154 0.72300005
0.28723305 -0.092261471 0.72186679
0.29060575 -0.09284573 0.72000003
0.29828575 -0.093942866 0.72000003
0.30239999 -0.093942866 0.72000003
0.30720001 -0.093942866 0.72000003
0.31314287 -0.09302859 0.72000003
0.31765884 -0.092494823 0.72177786
0.32238919 -0.092314482 0.72299999
0.32638288 -0.090891428 0.72300005
0.28875825 -0.088129662 0.72214293
0.29046002 -0.087891437 0.72100008
0.31408355 -0.087119736 0.72028583
0.31776932 -0.087398522 0.72133338
0.32254657 -0.08823552 0.72300011
0.32615337 -0.088366672 0.72300005
0.29259431 -0.082743682 0.72142863
0.30899906 -0.081711434 0.72100008
0.3131237 -0.08361049 0.72214293
0.31753087 -0.083821148 0.7226001
0.29773906 -0.078388572 0.72200006
0.30916858 -0.079185717 0.72300005
0.28951716 -0.11108573 0.72900003
0.29273704 -0.11099083 0.72837508
0.29731306 -0.11169545 0.72844452
0.3027086 -0.11108573 0.72900003
0.30687431 -0.11039144 0.72900003
0.2887567 -0.10758938 0.72883338
0.29258668 -0.10746668 0.7280001
0.2976349 -0.10729887 0.72780007
0.30255827 -0.10761993 0.72818196
0.30718452 -0.10736739 0.72850007
0.31245777 -0.10713524 0.72888893
0.31683642 -0.10672287 0.72860008
0.32909143 -0.10622572 0.72900003
0.33186859 -0.10622572 0.72900003
0.27907908 -0.10104223 0.72833335
0.28343377 -0.10192116 0.7280001
0.28770643 -0.10249449 0.7274667
0.29248068 -0.10267197 0.727
0.29733902 -0.10234137 0.72606242
0.30277058 -0.10244822 0.72569227
0.30789721 -0.10263349 0.727
0.31267467 -0.10237943 0.72746164
0.31726569 -0.10252513 0.72735727
0.32245517 -0.10171344 0.72750008
0.32751191 -0.10279037 0.72826672
0.33174601 -0.10272213 0.72822231
0.27916497 -0.097867057 0.7288
0.28226939 -0.097391143 0.72684622
0.28676966 -0.097892031 0.72512496
0.29345241 -0.098738104 0.72500008
0.3079524 -0.098047629 0.72500002
0.31163496 -0.098277792 0.72500002
0.3196905 -0.098738104 0.72500002
0.3227286 -0.098185726 0.72500002
0.32769978 -0.097481512 0.72591674
0.3316505 -0.098319054 0.727
0.28313133 -0.093029849 0.72716677
0.28556001 -0.090577148 0.72600001
0.32817352 -0.093608849 0.72500002
0.33073813 -0.093904763 0.72500002
0.28744859 -0.087274022 0.72728574
0.28883594 -0.082736336 0.72828573
0.29191709 -0.082173862 0.72618181
0.31300193 -0.081532389 0.72549999
0.31747311 -0.081615478 0.72625005
0.32013145 -0.080897145 0.72600001
0.28951716 -0.079148576 0.72900003
0.29285368 -0.077842653 0.72792852
0.29700446 -0.077082932 0.72615385
0.30248034 -0.075965367 0.72512496
0.30789861 -0.076570958 0.72650003
0.31270635 -0.078132264 0.72762507
0.31757638 -0.078266196 0.72833341
0.32053953 -0.077705719 0.72850001
0.29417479 -0.07423763 0.72850001
0.29716656 -0.072279289 0.72712493
0.30206203 -0.072578214 0.72577775
0.30576003 -0.072106674 0.72800004
0.29799339 -0.067944951 0.7280001
0.30240476 -0.067811497 0.72699994
0.30284572 -0.064302862 0.72600001
0.27892002 -0.11534286 0.73400003
0.28246903 -0.11695605 0.73400015
0.28743052 -0.11653829 0.73360008
0.29200289 -0.11631285 0.73350006
0.29719338 -0.11575651 0.73366678
0.30296728 -0.1159021 0.73400003
0.30722329 -0.11617017 0.73333341
0.31191289 -0.11561381 0.7335
0.31638896 -0.1159021 0.73400003
0.26493907 -0.11114858 0.73400003
0.26832411 -0.11186098 0.7334286
0.27269429 -0.1125164 0.73380011
0.27772164 -0.11214723 0.73400009
0.28241527 -0.11254668 0.73400015
0.28718913 -0.11222786 0.73191679
0.29280004 -0.1136343 0.73200005
0.29866573 -0.11347906 0.73100001
0.30284286 -0.11347906 0.73100007
0.30771622 -0.1125508 0.73100007
0.31219172 -0.11219459 0.7317
0.31731176 -0.11244573 0.73333341
0.32226098 -0.11114858 0.73400009
0.32715431 -0.11114858 0.73400003
0.33251369 -0.11114858 0.73400009
0.34043622 -0.11114858 0.73400003
0.26493907 -0.10905144 0.73400003
0.26825517 -0.10766535 0.73313355
0.27252102 -0.10733524 0.7318334
0.27729803 -0.107211 0.73193341
0.28251338 -0.10766998 0.7330001
0.28639463 -0.10800795 0.73166668
0.30980477 -0.10930191 0.73100001
0.31189334 -0.10930191 0.73100001
0.31796801 -0.10905334 0.73120004
0.32256991 -0.10714529 0.73181832
0.32691753 -0.10796732 0.73216677
0.33270538 -0.10846299 0.73237509
0.33726564 -0.10768504 0.73290902
0.34123513 -0.10835239 0.73400009
0.26935369 -0.10359748 0.73333335
0.27237847 -0.10246658 0.73281819
0.27709985 -0.10254261 0.73154545
0.28195715 -0.10338429 0.73100001
0.33486763 -0.10234001 0.73100001
0.33718097 -0.10296953 0.73300004
0.27437621 -0.098915249 0.73400003
0.27735206 -0.097566195 0.73250014
0.28056479 -0.095378101 0.73100001
0.33485574 -0.098361433 0.73250002
0.33624193 -0.09856572 0.73400003
0.27876726 -0.093481153 0.73360002
0.28123963 -0.091792956 0.73240006
0.28361297 -0.088141039 0.73258346
0.2862317 -0.086008817 0.73124999
0.2842328 -0.082627431 0.73400003
0.2867097 -0.08209268 0.73192322
0.2845124 -0.078992389 0.73400003
0.28761396 -0.077767052 0.73300004
0.29122457 -0.076608196 0.73260003
0.31344289 -0.076092385 0.73300004
0.31676671 -0.075884774 0.73100007
0.29379693 -0.07397262 0.73275
0.29578906 -0.071158573 0.73250002
0.30848619 -0.073546678 0.73200005
0.31746286 -0.074492387 0.73100001
0.29674038 -0.066678457 0.73312509
0.30702001 -0.068922862 0.73100001
0.29876229 -0.062335126 0.73337501
0.30190414 -0.063495882 0.73266673
0.27870858 -0.12598191 0.73900002
0.28222764 -0.12598191 0.73900002
0.28574669 -0.12598191 0.73900002
0.27743942 -0.12206351 0.73800015
0.28232229 -0.1229467 0.73690921
0.28759411 -0.1227945 0.73760003
0.2930674 -0.12196287 0.73833334
0.29766995 -0.12148803 0.73820001
0.30247429 -0.12197544 0.73859996
0.3075648 -0.12246287 0.73900002
0.31220952 -0.12189429 0.73874998
0.31759971 -0.12094669 0.7383334
0.32234478 -0.12070334 0.73900002
0.32727146 -0.12035143 0.73900002
0.34322524 -0.12027001 0.73850006
0.34674096 -0.12002572 0.73700005
0.26392859 -0.11612858 0.73900002
0.26744762 -0.11612858 0.73900002
0.27289194 -0.11605001 0.7385
0.2773703 -0.11758539 0.73678577
0.28178287 -0.11986286 0.73600006
0.2873905 -0.11986286 0.73600006
0.29229718 -0.11892827 0.73600006
0.29762441 -0.11818057 0.73600006
0.30281141 -0.11846096 0.73600006
0.30771813 -0.11930211 0.73600006
0.31278574 -0.11828367 0.73614293
0.31820551 -0.1182312 0.73675001
0.32258421 -0.1171127 0.73633337
0.32755846 -0.11702394 0.73687506
0.33253464 -0.1173254 0.73766673
0.33779281 -0.11751906 0.73799998
0.34268385 -0.11727177 0.73733342
0.34685493 -0.11690369 0.73612505
0.26410097 -0.11288573 0.73850006
0.26647243 -0.11383076 0.73714292
0.27407241 -0.11425524 0.73600006
0.27757716 -0.11425524 0.73600006
0.32273853 -0.11365443 0.73600012
0.32734478 -0.11355429 0.73600006
0.33253562 -0.11333789 0.73611116
0.33777815 -0.11290509 0.73633337
0.34248415 -0.1131801 0.73630005
0.34767243 -0.11215237 0.73600006
0.35117716 -0.11215239 0.73600006
0.26697114 -0.10664859 0.7383334
0.34360692 -0.10696534 0.73600006
0.34733856 -0.10735884 0.73677784
0.35095245 -0.10739143 0.73700011
0.26809978 -0.10273248 0.73745459
0.27139086 -0.1002816 0.73633337
0.33926097 -0.10128763 0.73600006
0.34241253 -0.10302179 0.73712504
0.34838575 -0.10486762 0.73900002
0.3516646 -0.103628 0.73820001
0.26908988 -0.098767951 0.73900002
0.2724961 -0.097218379 0.73742861
0.27533191 -0.095522389 0.73750007
0.3388404 -0.09743239 0.73600006
0.27378193 -0.093606673 0.73900002
0.27740774 -0.092586122 0.73741668
0.27941239 -0.087976202 0.73900002
0.2814109 -0.087105535 0.73760003
0.28274971 -0.08267317 0.73736364
0.28324956 -0.079422861 0.73800004
0.2865833 -0.076230057 0.73733336
0.29179382 -0.075052857 0.73650002
0.31346768 -0.075035878 0.73633337
0.31683049 -0.07500191 0.73600006
0.2938599 -0.072409689 0.73816675
0.29570195 -0.071295559 0.73633337
0.31234765 -0.072998099 0.73700005
0.31641528 -0.073666677 0.73666668
0.29389313 -0.067497864 0.73825002
0.29570192 -0.067321911 0.73633337
0.29336527 -0.062399529 0.73825002
0.29662907 -0.062623575 0.73675001
0.30336812 -0.062777147 0.73650002
0.30532858 -0.061767623 0.73700005
0.29416096 -0.059300642 0.7383334
0.29770714 -0.058979288 0.73725003
0.3015117 -0.058899764 0.73625004
0.32304859 -0.058416195 0.73900002
0.27243334 -0.13090953 0.74300003
0.27738667 -0.13090953 0.74300003
0.28234002 -0.13090953 0.74300003
0.28729334 -0.13090953 0.74300003
0.29153907 -0.13090953 0.74300003
0.29507717 -0.13090953 0.74300003
0.32860002 -0.13073334 0.74200004
0.33001336 -0.13073334 0.74200004
0.25262001 -0.12524858 0.74300003
0.26960286 -0.12524858 0.74300003
0.27277499 -0.12736459 0.74213332
0.27737677 -0.12783431 0.74066663
0.28264222 -0.12856655 0.74114287
0.28765741 -0.12786883 0.74074996
0.29255947 -0.12790802 0.74200004
0.29750529 -0.12790807 0.7420001
0.30257145 -0.12800556 0.74181819
0.30737895 -0.12779561 0.74237502
0.31241593 -0.12793669 0.7421667
0.31727704 -0.12673464 0.74237508
0.32274011 -0.12657915 0.74250007
0.3273952 -0.12703879 0.7421819
0.33210903 -0.12706858 0.74174994
0.33583495 -0.12637842 0.74133337
0.26358098 -0.1205143 0.74000001
0.26774266 -0.12167428 0.74133337
0.27245569 -0.12235921 0.74049997
0.27556193 -0.1240381 0.74000001
0.29247624 -0.12474287 0.74000001
0.29740953 -0.12474287 0.74000001
0.30234289 -0.12474287 0.74000001
0.30727619 -0.12474287 0.74000001
0.31220955 -0.12474287 0.74000001
0.31731907 -0.12315715 0.74000001
0.32308301 -0.12272926 0.74000007
0.32743242 -0.12248763 0.74000001
0.33265203 -0.1221348 0.74061537
0.33798644 -0.12207153 0.74088889
0.34196287 -0.12197937 0.74033344
0.34674287 -0.12192382 0.74000001
0.25917193 -0.11651857 0.74150002
0.2619369 -0.11763047 0.74033332
0.26780954 -0.11839999 0.74000001
0.27274287 -0.1184 0.74000001
0.25969622 -0.11392667 0.74300003
0.26229978 -0.11270721 0.7409091
0.26569524 -0.11064763 0.74000001
0.26394191 -0.1075581 0.74300003
0.26534763 -0.10726857 0.74100006
0.26646781 -0.10239857 0.74150008
0.34778669 -0.10231154 0.74181819
0.35158935 -0.10212802 0.7416001
0.26795587 -0.097504392 0.74079996
0.27133334 -0.095142864 0.74000001
0.33899051 -0.095847622 0.74000001
0.34086987 -0.097022235 0.74000001
0.35262668 -0.099640004 0.74200004
0.26950169 -0.092894055 0.74175006
0.27240515 -0.092165165 0.741
0.27603179 -0.091384135 0.74000001
0.27384859 -0.089160003 0.74300003
0.27722988 -0.087579302 0.74120003
0.27896446 -0.082630262 0.74155563
0.28120002 -0.08175239 0.74000001
0.28295231 -0.077915594 0.74190915
0.28529954 -0.075562388 0.74150002
0.28375524 -0.074300006 0.74300003
0.28752774 -0.072764568 0.74178571
0.29158124 -0.072416604 0.74028575
0.31376001 -0.071373336 0.74200004
0.31696451 -0.072583184 0.74233341
0.28881466 -0.067900322 0.74266672
0.29149139 -0.06775596 0.74108332
0.31333736 -0.067557916 0.74200004
0.32224974 -0.066091634 0.74300003
0.28902668 -0.062893339 0.74200004
0.29142615 -0.062844358 0.74142867
0.31902882 -0.062250242 0.74275005
0.32220984 -0.062701985 0.74230778
0.32723707 -0.062537692 0.74257147
0.29294607 -0.058965083 0.74000001
0.29738402 -0.056987818 0.74240011
0.30188191 -0.056558423 0.74233341
0.31870669 -0.058653336 0.74200004
0.32199812 -0.05932327 0.74028575
0.32630479 -0.059904765 0.74000001
0.30215335 -0.05448667 0.74300003
0.26714286 -0.13606477 0.74800003
0.27141717 -0.13606477 0.74800003
0.29777527 -0.13606477 0.74800003
0.30276191 -0.13606477 0.74800003
0.30774859 -0.13606477 0.74800003
0.3113105 -0.13606477 0.74800003
0.31629717 -0.13606477 0.74800003
0.32299358 -0.13663469 0.74800009
0.32603306 -0.1365397 0.74800003
0.25272572 -0.13063477 0.7475
0.25747162 -0.1307535 0.74750006
0.26274064 -0.13211551 0.7476365
0.2672773 -0.13279217 0.7468462
0.27201474 -0.13331728 0.74628574
0.27708477 -0.13285905 0.74600005
0.28314766 -0.13351208 0.7470001
0.28739148 -0.13369757 0.74614298
0.29232383 -0.13303572 0.745
0.29748669 -0.1331563 0.74588895
0.3021549 -0.13268267 0.74580008
0.30734396 -0.13308676 0.74654555
0.31235033 -0.13278991 0.74640006
0.31756932 -0.13319959 0.74718189
0.32259199 -0.1328242 0.7474001
0.32656497 -0.13242367 0.7464546
0.24877219 -0.12659353 0.74760008
0.25231543 -0.12729013 0.74590909
0.25775734 -0.12738648 0.74640006
0.26273069 -0.12716971 0.74680012
0.26718655 -0.12776327 0.74528575
0.27032858 -0.12842382 0.74500006
0.31006193 -0.12984286 0.74500006
0.31857622 -0.12984286 0.74500006
0.32212383 -0.12913334 0.74500006
0.32638097 -0.12984286 0.74500006
0.3391524 -0.12629524 0.74500006
0.24916619 -0.12315953 0.74750006
0.2525011 -0.12234276 0.74599999
0.2576344 -0.12278467 0.74522227
0.26258558 -0.12299751 0.74572736
0.26749051 -0.12416668 0.74500006
0.25287384 -0.1183961 0.74710011
0.25742504 -0.11783798 0.74626672
0.26039526 -0.11849049 0.74500006
0.25793976 -0.11265145 0.74728578
0.26092479 -0.11146906 0.74550003
0.25913286 -0.10820952 0.74750006
0.26204544 -0.10763571 0.74600005
0.26390687 -0.10257768 0.74654555
0.26607144 -0.10217144 0.74500006
0.34757942 -0.10022192 0.74633336
0.35215718 -0.10031144 0.7470001
0.26429334 -0.098308578 0.74800003
0.26681826 -0.097232297 0.7463001
0.34771076 -0.097643584 0.7470001
0.35180146 -0.098532863 0.74700004
0.26429334 -0.094034292 0.74800003
0.26765698 -0.093314812 0.74690914
0.27223271 -0.090270802 0.74633336
0.27389929 -0.087789916 0.74700004
0.27577752 -0.08640223 0.74566674
0.27725273 -0.082884036 0.74666673
0.28026193 -0.080176197 0.74500006
0.27971622 -0.077580325 0.74733341
0.28122225 -0.077406675 0.74566674
0.27996573 -0.074800007 0.74800003
0.28301957 -0.072544843 0.74623084
0.28641114 -0.070715874 0.74500006
0.31786668 -0.070242859 0.74500006
0.32184511 -0.071047306 0.74600005
0.32512289 -0.070431434 0.74700004
0.28350431 -0.067941435 0.74700004
0.28660497 -0.067352585 0.74600017
0.31839883 -0.067227386 0.745
0.32274002 -0.068381593 0.74533337
0.28386003 -0.064740002 0.74700004
0.28743526 -0.064797781 0.74766672
0.29090476 -0.063147619 0.74500006
0.31786668 -0.064566672 0.74500006
0.29433286 -0.057587147 0.74650002
0.29677859 -0.056090005 0.74550009
0.2992 -0.054853339 0.74800003
0.30210266 -0.053018812 0.74725002
0.30204952 -0.048441909 0.74800003
0.2588886 -0.14127715 0.75300002
0.2624743 -0.14127715 0.75300002
0.26749432 -0.14127716 0.75300002
0.27251431 -0.14127715 0.75300002
0.28685716 -0.14127715 0.75300002
0.3026343 -0.14127715 0.75300002
0.30622002 -0.14127715 0.75300002
0.31769431 -0.14271143 0.75300002
0.25285605 -0.1359881 0.75283337
0.25777575 -0.13741513 0.75226671
0.26227963 -0.1377615 0.75141668
0.26682416 -0.13798097 0.75066674
0.27200499 -0.13836497 0.75120002
0.27733859 -0.13741969 0.75150001
0.28228629 -0.13786969 0.75228578
0.28715038 -0.13820584 0.75188905
0.29240036 -0.13831732 0.7525
0.29729649 -0.13876614 0.75271434
0.30243334 -0.13903382 0.75250006
0.30736205 -0.13870817 0.75128585
0.31289929 -0.13880929 0.75224996
0.31739825 -0.13838251 0.75187498
0.32166544 -0.13840351 0.75166672
0.24342847 -0.13241647 0.75271434
0.24766342 -0.13242327 0.75158334
0.25200289 -0.13279717 0.75100005
0.2572467 -0.13327335 0.75100005
0.26142859 -0.13357143 0.75000006
0.24330087 -0.12774372 0.75270003
0.2467654 -0.12749398 0.75066674
0.24406764 -0.12358763 0.75300002
0.24720564 -0.12224392 0.75150007
0.24859978 -0.11820978 0.75225008
0.25190637 -0.11620901 0.75166672
0.25500003 -0.11500001 0.75000006
0.25300139 -0.11252478 0.75255555
0.25598022 -0.11203506 0.75120008
0.25458574 -0.10900572 0.75300002
0.25765079 -0.10752334 0.75183338
0.26183456 -0.10289723 0.75172728
0.26376003 -0.097747222 0.75228578
0.26500002 -0.096428581 0.75000006
0.26439145 -0.092428893 0.7523334
0.26664019 -0.091455057 0.75140005
0.27035907 -0.090835243 0.75100005
0.26821142 -0.08964286 0.75300002
0.27258912 -0.087945081 0.75211114
0.27500001 -0.085000008 0.75000006
0.27421597 -0.082802147 0.75275004
0.2768029 -0.081904911 0.75157148
0.27394861 -0.07960286 0.75300002
0.27820835 -0.077718683 0.75184619
0.28151637 -0.072348446 0.75214297
0.28928572 -0.065000005 0.75000006
0.28809986 -0.062349688 0.75250006
0.29182011 -0.062026877 0.75244451
0.2879841 -0.058088582 0.75300002
0.29254922 -0.057495836 0.75246161
0.29656744 -0.056277152 0.7518
0.29417202 -0.052638292 0.75300002
0.29783374 -0.052265011 0.75174999
0.30173475 -0.052346941 0.75000012
0.30612192 -0.051496193 0.75100005
0.29757717 -0.049059048 0.75200003
0.30039907 -0.048636191 0.75100005
0.30652952 -0.048700951 0.75200003
0.23259774 -0.14539163 0.75800002
0.23678479 -0.14510287 0.75800002
0.25314796 -0.14558414 0.75800002
0.25735909 -0.14618573 0.75800002
0.26277333 -0.14654668 0.75800002
0.26782668 -0.14654669 0.75800008
0.27215812 -0.14654669 0.75800008
0.27721143 -0.14582478 0.75799996
0.28226477 -0.14654669 0.75800008
0.28707749 -0.14654669 0.75800008
0.29237145 -0.14510289 0.75800008
0.29670286 -0.14510287 0.75800002
0.30211717 -0.14618573 0.75800002
0.30765477 -0.14782409 0.75781816
0.31258479 -0.14654668 0.75800002
0.31720495 -0.14625792 0.75800002
0.23425812 -0.1425762 0.75800002
0.23760705 -0.14195946 0.75739998
0.24258184 -0.1422452 0.75745457
0.24777107 -0.14199659 0.75760001
0.25255969 -0.14217699 0.75709093
0.25734693 -0.14289846 0.75536364
0.26262623 -0.14390525 0.75550008
0.26732898 -0.14378886 0.75542867
0.27204001 -0.14393684 0.75566673
0.27773577 -0.14246622 0.75550002
0.28230029 -0.14334251 0.75563639
0.28750604 -0.14331408 0.75533336
0.29298422 -0.1425301 0.75660002
0.29770273 -0.14272608 0.75687504
0.3025938 -0.14384301 0.75571436
0.30792287 -0.14329281 0.75522226
0.31250441 -0.14302941 0.75562507
0.31786793 -0.14314254 0.75527281
0.32244822 -0.14172745 0.75540012
0.32635176 -0.1407562 0.75533342
0.23461907 -0.13932763 0.75800002
0.23760003 -0.13752002 0.75600004
0.24256828 -0.1374798 0.75577784
0.2475708 -0.13746002 0.75566673
0.25209811 -0.13820095 0.75500005
0.25526193 -0.1387762 0.75500005
0.2385086 -0.1337162 0.75711113
0.24145022 -0.13260558 0.75614291
0.24133714 -0.12760811 0.75699997
0.24311906 -0.12288033 0.75600004
0.24567464 -0.12056033 0.75500005
0.24472573 -0.11911429 0.75800002
0.24690108 -0.11723727 0.75637501
0.24917123 -0.11269227 0.75688887
0.25183287 -0.11152619 0.75550008
0.25260955 -0.10792596 0.75674999
0.25642502 -0.10609453 0.7552501
0.25844082 -0.10247804 0.75653857
0.26101431 -0.10138572 0.75500005
0.25891551 -0.097476438 0.75674999
0.26208827 -0.097593658 0.75533342
0.26332715 -0.093182385 0.75700003
0.26787022 -0.087935507 0.75627279
0.27205664 -0.086437017 0.75542867
0.26927048 -0.083019063 0.75800008
0.27205968 -0.082699321 0.75627279
0.27309659 -0.078829147 0.75660002
0.27642846 -0.07664232 0.75614291
0.2790162 -0.073273338 0.75800002
0.28153241 -0.072094291 0.75699997
0.28515241 -0.070024766 0.75800002
0.2837086 -0.067137152 0.75800002
0.28587431 -0.067137152 0.75800002
0.28370863 -0.062805727 0.75800008
0.28584716 -0.062502384 0.75650007
0.28393909 -0.058904134 0.7573334
0.28646931 -0.057125963 0.75608343
0.29265243 -0.056804769 0.75500005
0.28745279 -0.052813336 0.75646168
0.29212669 -0.052164771 0.75550008
0.28948382 -0.04981143 0.75800002
0.29321489 -0.049470861 0.75720006
0.29731718 -0.047271222 0.755889
0.2988686 -0.044036195 0.75800002
0.3010343 -0.043314289 0.75800002
0.22890002 -0.15042001 0.76300001
0.23326002 -0.15187335 0.76300001
0.23772192 -0.15002573 0.76100004
0.24256134 -0.15100135 0.76300001
0.24746858 -0.15094954 0.76200002
0.25218982 -0.15081757 0.76185721
0.25726166 -0.15108152 0.76214296
0.26234791 -0.15081757 0.76185727
0.26754639 -0.15094954 0.76200002
0.27250603 -0.15081757 0.76185727
0.27758548 -0.15108152 0.7621429
0.2825762 -0.15154383 0.76225007
0.28774735 -0.15108152 0.76214296
0.29254812 -0.15108144 0.7617501
0.29757872 -0.15149195 0.76188898
0.30228046 -0.15271422 0.7617501
0.3063724 -0.15210049 0.76050001
0.22868304 -0.14757088 0.76180005
0.23216192 -0.14856191 0.76000011
0.23775525 -0.14748098 0.76033342
0.24265367 -0.1470414 0.76055562
0.24759683 -0.14696589 0.76016676
0.25232002 -0.14780192 0.76000005
0.25767621 -0.14838096 0.76000005
0.26274288 -0.14838096 0.76000011
0.26780954 -0.14838096 0.76000005
0.2728762 -0.14838096 0.76000011
0.27721906 -0.14838096 0.76000011
0.28214097 -0.14867048 0.76000005
0.2877143 -0.14801906 0.76000005
0.29272929 -0.14776057 0.76000011
0.29748574 -0.14734696 0.76000011
0.30231115 -0.14838096 0.76000011
0.30617145 -0.14982858 0.76000005
0.31413335 -0.14838096 0.76000005
0.22888194 -0.14332414 0.76133341
0.23194554 -0.14197697 0.76060009
0.23348792 -0.13835102 0.7617144
0.23534128 -0.13685939 0.76033342
0.23471335 -0.13443334 0.76300001
0.23705755 -0.13208553 0.76120007
0.23471335 -0.12862001 0.76300001
0.23809767 -0.12759301 0.76121438
0.24102859 -0.12521906 0.76000005
0.23948479 -0.12337144 0.76200008
0.24213396 -0.12207282 0.76044452
0.24347669 -0.11937954 0.76200008
0.24581407 -0.11620929 0.76025003
0.24752775 -0.11261037 0.76162505
0.24779335 -0.10972667 0.76300001
0.25184321 -0.10731176 0.76133335
0.25550479 -0.10640001 0.76000005
0.25372115 -0.10343162 0.76160002
0.25607607 -0.10232108 0.76062506
0.25713822 -0.097378463 0.76162505
0.25910923 -0.094419055 0.76066673
0.26218194 -0.092225008 0.7610001
0.26563811 -0.0904762 0.76000005
0.26396954 -0.088231429 0.76250005
0.26629227 -0.087070368 0.76187503
0.26863846 -0.083176829 0.76166672
0.27123764 -0.080501437 0.7615
0.27268791 -0.077600479 0.76150006
0.27577144 -0.076000005 0.76000005
0.27359334 -0.074385241 0.76200002
0.27713969 -0.07304953 0.76111114
0.28174764 -0.070617631 0.76050007
0.27904001 -0.06903334 0.76300001
0.28222078 -0.067402288 0.7610001
0.2866286 -0.06731429 0.76000005
0.28214705 -0.062377062 0.76158333
0.28320384 -0.057475239 0.76150006
0.2844747 -0.053240009 0.76160002
0.28592193 -0.050513022 0.76133341
0.28864479 -0.049314767 0.7615
0.29303572 -0.047245547 0.76109099
0.2966505 -0.046102546 0.76033342
0.29749277 -0.042990837 0.76187509
0.30087405 -0.041686907 0.76125002
0.30229336 -0.039966669 0.76300001
0.2428343 -0.16018286 0.76800001
0.24649146 -0.16018286 0.76800001
0.29297194 -0.16147819 0.76790011
0.29603574 -0.16227096 0.76750004
0.22381717 -0.15579429 0.76800001
0.22747432 -0.15616001 0.76800001
0.23283812 -0.15579429 0.76800001
0.23784788 -0.15600787 0.76725006
0.24240486 -0.15697594 0.76727277
0.24746802 -0.15728116 0.76740009
0.25264731 -0.15681918 0.76744449
0.2579197 -0.15702699 0.76766676
0.26255086 -0.1565818 0.76737505
0.26756698 -0.1563694 0.76671439
0.27252847 -0.15601498 0.76600003
0.27766299 -0.15680076 0.76655561
0.2822541 -0.1571181 0.76660001
0.28774446 -0.15701923 0.76683342
0.29266638 -0.15691715 0.76633334
0.29749873 -0.15750083 0.76562512
0.30235717 -0.15705919 0.76500005
0.30527145 -0.15664287 0.76500005
0.22244781 -0.15266359 0.76763642
0.22732125 -0.15257096 0.76650006
0.23213987 -0.15354431 0.76650012
0.23766857 -0.15310048 0.76550001
0.24297859 -0.15336429 0.76500005
0.24710573 -0.15366572 0.76650006
0.25241333 -0.15392953 0.76600003
0.25718576 -0.15372857 0.76500005
0.26228571 -0.15372857 0.76500005
0.26738572 -0.15336429 0.76500005
0.27248573 -0.15372857 0.76500005
0.27758574 -0.15372857 0.76500005
0.28268576 -0.15372857 0.76500005
0.28778574 -0.15372857 0.76500005
0.29215717 -0.15372857 0.76500005
0.29652858 -0.15372857 0.76500005
0.22281796 -0.14801779 0.7675001
0.22585718 -0.14790002 0.76500005
0.22454859 -0.14336002 0.76800001
0.22717157 -0.1425644 0.76584625
0.22785042 -0.13811325 0.76730007
0.23157309 -0.13690193 0.76572734
0.22893718 -0.13238858 0.76800001
0.23228206 -0.1325094 0.76628584
0.2353286 -0.13187143 0.76500005
0.22893716 -0.12946287 0.76800001
0.23300067 -0.12752256 0.76733345
0.2358143 -0.12652859 0.76500005
0.23763303 -0.12296339 0.76645464
0.24074192 -0.12037143 0.76600003
0.24246351 -0.11758032 0.76683331
0.24552859 -0.11657144 0.76500005
0.2435893 -0.11348025 0.76750004
0.24681859 -0.11154382 0.76675004
0.24869397 -0.10720869 0.76577777
0.25184292 -0.10612857 0.76500005
0.2491736 -0.10229929 0.76725
0.25208628 -0.1021485 0.76653856
0.25444859 -0.097882867 0.76700008
0.25615373 -0.097241342 0.76540005
0.25775811 -0.093165718 0.76725
0.26116955 -0.091919057 0.76600003
0.25965717 -0.089965723 0.76800001
0.26251882 -0.087628335 0.7667501
0.2659286 -0.08524286 0.76500005
0.26404577 -0.082651436 0.76800001
0.26696324 -0.082351953 0.76645452
0.26848108 -0.077167347 0.76730007
0.27112642 -0.076972939 0.76557142
0.26916575 -0.073874287 0.76800001
0.27258539 -0.072347522 0.76733339
0.27673113 -0.07125017 0.76600003
0.28050002 -0.070671432 0.76500005
0.27741492 -0.067612648 0.76636368
0.28050002 -0.067028575 0.76500005
0.27913311 -0.063488334 0.76625007
0.28050002 -0.062657148 0.76500005
0.2822029 -0.057607304 0.76566672
0.28378478 -0.053253338 0.76600003
0.28561622 -0.051133335 0.76700002
0.28846288 -0.047759622 0.76680005
0.29117358 -0.046339288 0.76625007
0.29333007 -0.042947199 0.76722223
0.29653811 -0.041552279 0.76544446
0.30090001 -0.040071432 0.76500005
0.29770365 -0.037566882 0.76677781
0.30225849 -0.037087239 0.76660007
0.22895525 -0.16564287 0.77300006
0.23307638 -0.16609795 0.77283335
0.23778956 -0.16637906 0.77300012
0.24264061 -0.16648275 0.77262503
0.24725336 -0.16630764 0.77266669
0.25251335 -0.16564289 0.77300012
0.25766668 -0.16564287 0.77300006
0.26311448 -0.16623184 0.77300006
0.26723716 -0.16564289 0.77300012
0.27253777 -0.16593735 0.77300006
0.2779119 -0.16601096 0.77300006
0.28277895 -0.16662446 0.77300012
0.2876434 -0.16699576 0.77244455
0.29088074 -0.16695358 0.77225
0.20778979 -0.16214597 0.77300012
0.21275908 -0.1626981 0.77300012
0.21730816 -0.16234775 0.77288902
0.2226847 -0.16263555 0.77270007
0.22728626 -0.16255823 0.77233338
0.23241028 -0.16254073 0.77225006
0.23771374 -0.16229886 0.77179998
0.24226709 -0.16279112 0.77111107
0.24745432 -0.16301239 0.77100009
0.25215375 -0.16213162 0.77100003
0.25735152 -0.16250753 0.77145457
0.26250136 -0.16217372 0.77119994
0.26759231 -0.16246715 0.7719
0.27262023 -0.16271964 0.77239996
0.27740574 -0.16229963 0.77179998
0.28219825 -0.162431 0.77109087
0.28765288 -0.16217285 0.77050012
0.2915 -0.16390002 0.77000004
0.20815787 -0.1588331 0.77300012
0.21281733 -0.15768971 0.77272731
0.21733934 -0.15759811 0.77171439
0.22223312 -0.15800501 0.77074999
0.22694193 -0.1584689 0.77033341
0.23232502 -0.15837166 0.77074999
0.23728576 -0.15850478 0.7700001
0.25153336 -0.15913334 0.77000004
0.25666666 -0.15913334 0.77000004
0.264 -0.15913334 0.77000004
0.2676667 -0.15913334 0.7700001
0.27206668 -0.15913334 0.7700001
0.27573335 -0.15913334 0.77000004
0.21423145 -0.15386382 0.77300006
0.21761614 -0.15245831 0.77121437
0.22073334 -0.15473334 0.77000004
0.21850668 -0.14898191 0.77250004
0.22097267 -0.14685975 0.77157146
0.22307013 -0.14263506 0.77200001
0.22513334 -0.14080001 0.77000004
0.2237535 -0.13763763 0.77283347
0.22640352 -0.13682255 0.77100009
0.2240473 -0.13423207 0.77300012
0.22710703 -0.13241716 0.77127278
0.23120466 -0.12711319 0.77150005
0.2335597 -0.12327461 0.77200001
0.2364023 -0.12194287 0.77040005
0.23484477 -0.11999906 0.77300006
0.23814894 -0.11791968 0.77178568
0.24084479 -0.11528286 0.77100003
0.23877113 -0.11361873 0.77300012
0.24210264 -0.11223453 0.77150005
0.24420384 -0.10812732 0.77233338
0.24666043 -0.10753879 0.7711429
0.24747525 -0.10290971 0.77183342
0.24956858 -0.099385723 0.77300006
0.25220668 -0.097905964 0.77149999
0.25512764 -0.096316196 0.77200001
0.25398573 -0.094232388 0.77300006
0.25693765 -0.092162773 0.77170002
0.25897098 -0.087550007 0.77250004
0.26086909 -0.086955719 0.7705
0.25987527 -0.083925724 0.77300006
0.26255098 -0.082526065 0.77181816
0.26542097 -0.080140956 0.77200001
0.26429239 -0.078036197 0.77300006
0.26641992 -0.077925511 0.77111107
0.26820043 -0.073012114 0.77214295
0.27060002 -0.071866676 0.77000004
0.26983243 -0.068377152 0.77200001
0.27243754 -0.067443237 0.7716924
0.27619582 -0.066818647 0.77100003
0.27312672 -0.064048573 0.77300012
0.27818978 -0.063291669 0.77275002
0.28073686 -0.061541274 0.77233338
0.28297335 -0.056999765 0.77225006
0.28490573 -0.052269526 0.77300006
0.28619289 -0.052234765 0.77250004
0.28710645 -0.047575481 0.77150011
0.28857809 -0.042925529 0.77180004
0.29171053 -0.041672379 0.77066666
0.30840099 -0.040385716 0.77100003
0.31174099 -0.040438097 0.77200001
0.28858668 -0.039018098 0.77300006
0.29295594 -0.037795525 0.77209997
0.29609191 -0.03705667 0.7705
0.30814287 -0.037454426 0.7711429
0.31159392 -0.037791241 0.77200001
0.29374003 -0.034600955 0.77300006
0.297295 -0.032553066 0.77185714
0.30214137 -0.032698654 0.77158332
0.30565953 -0.033797622 0.77150005
0.27227908 -0.17583144 0.77900004
0.27796704 -0.17632604 0.77900004
0.28230289 -0.17634764 0.77800006
0.28637525 -0.17583144 0.77900004
0.20847526 -0.17138001 0.77900004
0.21218479 -0.17138001 0.77900004
0.22924858 -0.17138001 0.77900004
0.23298573 -0.17158878 0.77860004
0.23746547 -0.17203934 0.77814299
0.24268013 -0.17224076 0.77766669
0.24719527 -0.17261896 0.77788889
0.25211811 -0.17277583 0.77860016
0.25764573 -0.1721974 0.77849996
0.26266247 -0.17203934 0.77814287
0.26759842 -0.17271717 0.77833349
0.27208537 -0.17240669 0.77759999
0.27754846 -0.17260621 0.77783334
0.2826162 -0.17239422 0.77627277
0.28739622 -0.17207098 0.77625006
0.29007146 -0.17123811 0.77500004
0.20437098 -0.16586621 0.77749997
0.20725481 -0.16799836 0.77645463
0.2126206 -0.16779144 0.7768001
0.21737453 -0.16803059 0.77722234
0.22239798 -0.16740912 0.77728581
0.2274168 -0.16793905 0.77680004
0.23206 -0.16874985 0.77600002
0.23766668 -0.16902383 0.77500004
0.24209526 -0.16902383 0.77500004
0.24726193 -0.16902384 0.77500004
0.25220561 -0.1682426 0.77528584
0.25755227 -0.16864043 0.7761429
0.26226985 -0.16853176 0.77500004
0.2679286 -0.16828573 0.77500004
0.27206194 -0.16843335 0.77500004
0.27741104 -0.16851579 0.77557153
0.28195238 -0.16902383 0.77500004
0.28564286 -0.16902383 0.77500004
0.20423907 -0.16205905 0.77700007
0.20656143 -0.16332573 0.77600008
0.21035716 -0.16459525 0.77500004
0.21921431 -0.16459525 0.77500004
0.22069049 -0.16459525 0.77500004
0.20402382 -0.15950954 0.77900004
0.20783418 -0.15700562 0.77722234
0.21109524 -0.1557381 0.77500004
0.20921716 -0.1535743 0.77900004
0.21286252 -0.15254954 0.77669239
0.21453556 -0.14886509 0.77766675
0.21740478 -0.14744556 0.77733338
0.22069049 -0.14540477 0.77500004
0.21893239 -0.14393011 0.77820003
0.22116384 -0.14177017 0.77666676
0.22214985 -0.13758001 0.77666676
0.22353432 -0.13333176 0.77633333
0.22599845 -0.1313597 0.77633345
0.22895375 -0.12890802 0.77700007
0.23087905 -0.12579906 0.77700001
0.23327449 -0.12233315 0.77660006
0.23593698 -0.1176002 0.77660006
0.23858668 -0.11299382 0.778
0.24139477 -0.11107001 0.77750003
0.23963526 -0.10831811 0.77900004
0.24266462 -0.107277 0.77683342
0.23820288 -0.10390916 0.77820009
0.24286687 -0.10300648 0.77700001
0.24657668 -0.10107429 0.77750003
0.24821812 -0.099286675 0.778
0.25204834 -0.096942455 0.77871436
0.25389811 -0.092865728 0.77800006
0.25570953 -0.090902865 0.77600002
0.25691247 -0.087520778 0.77700013
0.25902256 -0.084040329 0.77633345
0.26092172 -0.081252001 0.77700007
0.26269725 -0.077699319 0.77700001
0.26411811 -0.074932389 0.77900004
0.26683527 -0.071797319 0.77572727
0.26814538 -0.068036005 0.77820003
0.27056354 -0.067454293 0.77833337
0.2733545 -0.062604003 0.77700007
0.27727357 -0.06158153 0.77720016
0.27925774 -0.057986099 0.77860004
0.28120393 -0.057423182 0.77633333
0.2796981 -0.054159053 0.77900004
0.28314435 -0.052723378 0.77772731
0.28564286 -0.052404765 0.77500004
0.2845248 -0.048902862 0.778
0.28606164 -0.046601232 0.77671438
0.28697088 -0.042432573 0.7762
0.28748858 -0.038529526 0.778
0.29110953 -0.036814667 0.77620006
0.29378352 -0.033575244 0.77766675
0.29561812 -0.031040002 0.77600002
0.29762575 -0.028563241 0.77700007
0.30117813 -0.028118096 0.77700007
0.26954669 -0.18293335 0.78400004
0.27301741 -0.18257216 0.78325003
0.27704763 -0.18097715 0.78200006
0.19861335 -0.17546667 0.78400004
0.20234668 -0.17546667 0.78400004
0.21309868 -0.176064 0.78400004
0.21578668 -0.17546667 0.78400004
0.22922668 -0.17546667 0.78400004
0.23257223 -0.17618287 0.78320009
0.23847201 -0.17680725 0.78200001
0.24269068 -0.17692459 0.78120005
0.24730833 -0.17716627 0.78114295
0.25253907 -0.17736529 0.78066671
0.25765043 -0.17796901 0.78127289
0.26263022 -0.17775738 0.78175008
0.26733035 -0.17781034 0.78116673
0.27243048 -0.17821476 0.78050005
0.27678856 -0.1784343 0.78000003
0.28005716 -0.17902859 0.78000003
0.19380161 -0.17290446 0.78366673
0.19800846 -0.17284383 0.78371435
0.2027472 -0.17222494 0.7834546
0.20699887 -0.17332116 0.78240001
0.21245717 -0.17271429 0.78000003
0.2174705 -0.17278604 0.78200006
0.22224978 -0.17209144 0.78222221
0.22711928 -0.17243405 0.78125
0.23251431 -0.17382859 0.78000003
0.23771431 -0.17457144 0.78000003
0.24142858 -0.17457144 0.78000003
0.25480002 -0.17457144 0.78000003
0.25777143 -0.17457144 0.78000003
0.26222861 -0.17457144 0.78000009
0.26520002 -0.17457144 0.78000003
0.1990978 -0.16757081 0.78200006
0.20212121 -0.16719596 0.78025007
0.19885144 -0.16459239 0.78200006
0.20186462 -0.16277683 0.78109103
0.20354287 -0.15897143 0.78000003
0.2066462 -0.15684335 0.78049999
0.20829831 -0.15313031 0.78280002
0.2110043 -0.15108812 0.78150004
0.21294534 -0.14742421 0.78180009
0.21442413 -0.14385906 0.78266668
0.21708113 -0.14228112 0.78150004
0.22062859 -0.14040001 0.78000003
0.21923906 -0.13944858 0.78300005
0.22096145 -0.13674954 0.78250003
0.22305478 -0.13238002 0.78200006
0.22558098 -0.13049525 0.78000009
0.22814287 -0.12735431 0.78200006
0.22848001 -0.12394667 0.78400004
0.23194461 -0.12209975 0.78218186
0.23412268 -0.1181783 0.78240007
0.23584647 -0.11621144 0.78119999
0.23715685 -0.1124308 0.7826668
0.23834746 -0.10853259 0.7816
0.24588573 -0.10028572 0.78000003
0.24400687 -0.097809531 0.78160006
0.24697144 -0.096818581 0.78050005
0.25034288 -0.096571431 0.78000003
0.24734701 -0.093186326 0.78163642
0.25147641 -0.09208297 0.7804445
0.253411 -0.087860808 0.78183335
0.25586954 -0.085538104 0.78100002
0.25748745 -0.082605161 0.78140008
0.25892809 -0.0777018 0.78200001
0.2611143 -0.076142855 0.78000003
0.25950763 -0.073825717 0.78300005
0.26252618 -0.072137989 0.78088892
0.26520002 -0.07205715 0.78000009
0.26362163 -0.068824135 0.78266668
0.26684356 -0.067536339 0.78171432
0.26885653 -0.064794295 0.78200006
0.27207452 -0.062064189 0.78140008
0.27434286 -0.057732578 0.78320009
0.27690372 -0.056933761 0.78088892
0.27747026 -0.053179052 0.78155559
0.28041431 -0.051320955 0.78100002
0.28226861 -0.047482036 0.78146666
0.28361303 -0.042541273 0.78366673
0.28620249 -0.042222586 0.78171432
0.28373334 -0.039573334 0.78400004
0.28700644 -0.037647381 0.78275007
0.29070413 -0.035499051 0.78200006
0.2933282 -0.032449797 0.78200012
0.29442543 -0.028524447 0.78133339
0.30085716 -0.026000002 0.78000003
0.21641144 -0.18560287 0.78900003
0.2336943 -0.18560287 0.78900003
0.23720096 -0.18610385 0.78900003
0.24271142 -0.18560287 0.78900003
0.24722002 -0.18560287 0.78900003
0.25248 -0.18560287 0.78900003
0.25774002 -0.18560287 0.78900003
0.26317853 -0.18614586 0.78857154
0.26720384 -0.1862562 0.787
0.27023432 -0.1863943 0.78600001
0.1993724 -0.18138382 0.78700006
0.20312738 -0.18174502 0.78775001
0.20810252 -0.18220729 0.78812504
0.21232447 -0.18231472 0.78777784
0.21750849 -0.18229292 0.7882728
0.22262654 -0.18205796 0.78883338
0.22718194 -0.18159525 0.78900003
0.23381639 -0.18155736 0.78840011
0.23760004 -0.1825166 0.78800011
0.24239564 -0.18198572 0.78700012
0.24768989 -0.182377 0.78745461
0.25240192 -0.18232287 0.78700006
0.25735986 -0.18307796 0.78783339
0.26241598 -0.18294263 0.78725004
0.26742718 -0.18321288 0.78600001
0.2712324 -0.18389904 0.78600001
0.27846858 -0.18340001 0.78600001
0.19837146 -0.17766097 0.78600001
0.20286286 -0.17759858 0.78600001
0.20741293 -0.17746203 0.78622234
0.21184573 -0.17805308 0.78600001
0.21802145 -0.17759858 0.78600001
0.22270329 -0.17771325 0.78733337
0.22720194 -0.17771368 0.78733337
0.23194924 -0.17871177 0.78733337
0.23729716 -0.17890859 0.78600001
0.24328573 -0.17890859 0.78600001
0.19276696 -0.17133647 0.78757155
0.19704001 -0.17106795 0.78666675
0.22532001 -0.17441715 0.78600001
0.19403684 -0.16849905 0.78866673
0.1971986 -0.16780621 0.78730005
0.19880249 -0.16322286 0.78771436
0.20087144 -0.16114762 0.78700006
0.19900239 -0.15920144 0.78850007
0.20257133 -0.15758871 0.78720015
0.20635621 -0.15695049 0.78600001
0.20363715 -0.15404287 0.78900003
0.20689414 -0.15249586 0.78736371
0.21034859 -0.15046287 0.78600001
0.20951572 -0.14868811 0.78850007
0.21129432 -0.14702922 0.78766674
0.21344194 -0.1427319 0.78775007
0.21538667 -0.14033906 0.78800005
0.21415716 -0.13901429 0.78900003
0.21739948 -0.13761508 0.78714299
0.21838774 -0.13283367 0.78800011
0.22142744 -0.13219772 0.78600001
0.21866573 -0.12999715 0.78900003
0.22219221 -0.12761115 0.7881875
0.22596164 -0.12693636 0.78600001
0.22392572 -0.12323429 0.78900003
0.22743869 -0.1218101 0.78660011
0.23130858 -0.12052001 0.78600001
0.22792564 -0.11771262 0.78725016
0.23237798 -0.11731184 0.78600001
0.22841068 -0.11367925 0.78840011
0.2327698 -0.11341897 0.78772736
0.23549858 -0.11025001 0.78750002
0.23795003 -0.10809191 0.7881667
0.24029145 -0.10704572 0.78600001
0.24478288 -0.095068574 0.78600001
0.2442143 -0.093928576 0.78900003
0.24715525 -0.09180858 0.78800005
0.25077143 -0.090577148 0.78600001
0.24943431 -0.088150859 0.78840011
0.25130525 -0.087263346 0.78650004
0.25259492 -0.082696542 0.78835732
0.25587019 -0.081877783 0.78633332
0.25412571 -0.078365713 0.78866673
0.2571578 -0.077222124 0.78722221
0.2576305 -0.074360006 0.78866673
0.26083335 -0.071954295 0.78700006
0.26291528 -0.068541534 0.78740007
0.26638004 -0.065807439 0.78700006
0.26851925 -0.062889919 0.78800005
0.2707805 -0.061795719 0.78650004
0.26976287 -0.057860009 0.78900003
0.27203748 -0.057704765 0.78688896
0.27332887 -0.053936198 0.78814292
0.27716774 -0.051570121 0.78762507
0.27946311 -0.047639765 0.78775007
0.2807143 -0.046411432 0.78600001
0.28158194 -0.042686038 0.78633344
0.27992764 -0.039775241 0.78800005
0.28274971 -0.038248733 0.78750008
0.28718734 -0.035992067 0.78733337
0.20792001 -0.19059335 0.79100001
0.21071145 -0.19183049 0.79300004
0.21901906 -0.19107525 0.79300004
0.24796987 -0.19157875 0.7930001
0.25300479 -0.19107525 0.7930001
0.20768288 -0.18739228 0.79233336
0.21209584 -0.18752457 0.79139996
0.21751526 -0.18834743 0.79211122
0.22273326 -0.18800204 0.79277784
0.22732668 -0.18775222 0.79300016
0.23205604 -0.1876079 0.79227275
0.23760098 -0.18894906 0.792
0.24251254 -0.18843062 0.79185712
0.2476837 -0.18864587 0.79185718
0.25268573 -0.18857239 0.792
0.25759551 -0.18843064 0.79185718
0.26240593 -0.18907221 0.79220003
0.26592669 -0.18908668 0.79100001
0.2232378 -0.18406445 0.79100007
0.22795868 -0.18336134 0.79100001
0.2322778 -0.18356225 0.79100001
0.19271953 -0.16688406 0.79200006
0.19511335 -0.16648668 0.79100001
0.19409621 -0.16388668 0.79300004
0.19667271 -0.16281833 0.79188889
0.19834028 -0.1576173 0.79185718
0.20114002 -0.15594001 0.79100001
0.20258833 -0.15335713 0.7922501
0.20651019 -0.15066826 0.79233336
0.2085216 -0.14915906 0.79233336
0.21018001 -0.14614668 0.79100001
0.21208811 -0.14302668 0.79250002
0.21437749 -0.13797748 0.79166669
0.21524288 -0.13518763 0.79300004
0.21622467 -0.13240668 0.79185718
0.21894841 -0.12780781 0.79220003
0.21977431 -0.12461429 0.79300004
0.22216891 -0.12289621 0.79166669
0.22524668 -0.12128668 0.79100001
0.22576572 -0.11759382 0.79149997
0.22883716 -0.11253048 0.79300004
0.23269668 -0.11125667 0.79200006
0.23427486 -0.10830116 0.79300004
0.23705736 -0.10728516 0.79220003
0.24293493 -0.10145366 0.7930001
0.2460566 -0.10225926 0.79300004
0.24398731 -0.09709271 0.79233336
0.2454524 -0.0989362 0.79300004
0.24438763 -0.093532383 0.79200006
0.24634002 -0.091153339 0.79100001
0.24802658 -0.08742509 0.79211116
0.24998383 -0.083076194 0.79300004
0.25086001 -0.08211334 0.79100001
0.25305089 -0.078012384 0.79220003
0.25538 -0.07608667 0.79100001
0.25796288 -0.07392095 0.79200006
0.26442 -0.067046672 0.79100001
0.26797813 -0.062190481 0.79150003
0.26785374 -0.057763245 0.79179996
0.27229717 -0.052799057 0.79200006
0.27606761 -0.050537147 0.79200006
0.27856174 -0.0478101 0.79179996
0.28072667 -0.04398191 0.79166669
0.21348973 -0.20165391 0.79660004
0.21748099 -0.20081113 0.79566669
0.22240099 -0.20114765 0.79700011
0.22622669 -0.20241337 0.79800004
0.25384003 -0.20140001 0.79800004
0.25612003 -0.20140001 0.79800004
0.21294656 -0.19777599 0.79633331
0.21726222 -0.19729327 0.79700005
0.22230859 -0.19802983 0.79666668
0.2272505 -0.19636604 0.7974444
0.23241381 -0.19557762 0.79750001
0.23778129 -0.19523844 0.79766673
0.24244003 -0.19532001 0.79800004
0.2476559 -0.19599812 0.79766673
0.25261724 -0.19823629 0.79750001
0.25731781 -0.19760585 0.79699999
0.26152971 -0.19621032 0.79750001
0.21378288 -0.19255716 0.796
0.21748161 -0.19298097 0.79566669
0.22260003 -0.19307145 0.79500002
0.22790001 -0.19231431 0.79500002
0.23260942 -0.1921286 0.79557151
0.23718511 -0.1924762 0.79566669
0.24230874 -0.19248369 0.79614288
0.24692403 -0.19326572 0.79580003
0.2519123 -0.19350411 0.79500002
0.25705004 -0.19288217 0.79500002
0.26267254 -0.19270001 0.79614288
0.26575717 -0.19155715 0.79500002
0.19295716 -0.16232564 0.79522228
0.19558764 -0.16071525 0.796
0.19329336 -0.15833335 0.79800004
0.19673674 -0.1571378 0.79622221
0.19841392 -0.15347907 0.79700005
0.20186335 -0.1518389 0.79583335
0.20518573 -0.15067144 0.79500002
0.20384794 -0.1491508 0.79766673
0.2074189 -0.1473105 0.79618186
0.20915556 -0.1444108 0.79666674
0.21169759 -0.14189021 0.79671437
0.21308234 -0.13725312 0.79622221
0.21345717 -0.13266777 0.79600006
0.21578573 -0.13098572 0.79500002
0.21356001 -0.12996002 0.79800004
0.21730831 -0.12762314 0.7967
0.21964002 -0.12388001 0.79800004
0.22231202 -0.12168916 0.79560006
0.22638573 -0.11584286 0.79500002
0.22758637 -0.11391842 0.79566669
0.23092858 -0.11130001 0.79500002
0.2323437 -0.10730448 0.79570001
0.23698573 -0.10524287 0.79500002
0.24077144 -0.10524286 0.79500002
0.23394096 -0.10344001 0.79666674
0.23758128 -0.10246995 0.79699999
0.24112445 -0.10276128 0.79533339
0.23940001 -0.098800004 0.79800004
0.24166256 -0.097524136 0.79655558
0.2429042 -0.092365727 0.79646158
0.24607144 -0.090857148 0.79500002
0.24396002 -0.088920005 0.79800004
0.24599092 -0.086979739 0.79614294
0.2481177 -0.083357148 0.79671443
0.25061432 -0.08101429 0.79500002
0.25193948 -0.07740286 0.79680002
0.25776875 -0.073611274 0.7968334
0.2617642 -0.071252204 0.79760009
0.26334003 -0.068020009 0.79800004
0.26541242 -0.066543818 0.79700005
0.26372001 -0.062320005 0.79800004
0.26635659 -0.06252972 0.79680002
0.26372001 -0.058520004 0.79800004
0.26632109 -0.057055358 0.79612499
0.26875859 -0.052383974 0.79716676
0.27142289 -0.051759373 0.79533339
0.26980001 -0.049400002 0.79800004
0.27285072 -0.048129208 0.79655558
0.27699551 -0.047176197 0.79575002
0.23448955 -0.20546478 0.80200005
0.23754478 -0.20546478 0.80200005
0.24273145 -0.20597717 0.80400008
0.24656001 -0.20597716 0.80400002
0.22831747 -0.20139685 0.80000007
0.23251006 -0.2020161 0.80044454
0.23741399 -0.20229694 0.80155563
0.24212763 -0.20240954 0.80200005
0.24747431 -0.20240955 0.80200005
0.25168252 -0.20241271 0.80000007
0.22933334 -0.19885716 0.80000001
0.23280267 -0.19834708 0.80040008
0.23715049 -0.19826096 0.80066675
0.24251215 -0.19828168 0.80075002
0.24723811 -0.19847623 0.80000001
0.19366133 -0.1561185 0.80120003
0.19605431 -0.15562192 0.801
0.19400764 -0.15352573 0.80200005
0.19731578 -0.15182711 0.80199999
0.20088892 -0.15060319 0.80000007
0.19968574 -0.14765906 0.8033334
0.20273283 -0.14710894 0.80109096
0.2064762 -0.14552382 0.80000001
0.20362973 -0.14335163 0.80320007
0.20726842 -0.14255293 0.80200005
0.21054763 -0.14112858 0.801
0.20891002 -0.13774145 0.80350006
0.2104762 -0.13766532 0.80114293
0.20904002 -0.134 0.80400002
0.2115088 -0.13266942 0.80111116
0.21369939 -0.12811843 0.80233335
0.21613477 -0.12693574 0.80049998
0.21846169 -0.12289596 0.80274999
0.22185221 -0.12138362 0.80159998
0.22285692 -0.11869073 0.80274999
0.22611594 -0.11725662 0.80171436
0.22813764 -0.11254095 0.80250007
0.23085716 -0.11123811 0.80000001
0.22958732 -0.10880636 0.80266666
0.23105145 -0.10731334 0.80200005
0.23298155 -0.1027324 0.80260009
0.23572287 -0.1006962 0.801
0.23765039 -0.097879663 0.80236375
0.24000001 -0.096000008 0.80000001
0.2391367 -0.092975721 0.80350006
0.24068096 -0.091923818 0.801
0.24270801 -0.087772004 0.80140013
0.24380524 -0.08445286 0.80250001
0.24748914 -0.081873871 0.80177784
0.24931145 -0.077240959 0.80299997
0.25117463 -0.075936511 0.80000007
0.25205463 -0.072561286 0.80200005
0.25703216 -0.071831666 0.80025005
0.2539905 -0.068351619 0.8028
0.25795841 -0.067703441 0.80153859
0.26194289 -0.067504771 0.80000001
0.25936192 -0.063500322 0.8033334
0.26204765 -0.062542595 0.80085725
0.26304519 -0.057762999 0.80257148
0.26547337 -0.055688575 0.801
0.26700494 -0.052920006 0.80200011
0.19420764 -0.1527562 0.80600005
0.1969981 -0.15082668 0.80800003
0.19867526 -0.14833334 0.80700004
0.2011162 -0.14508002 0.80600005
0.20315842 -0.14167272 0.8070001
0.20648953 -0.14047429 0.80600005
0.20693669 -0.1377662 0.8070001
0.20811176 -0.13276128 0.80733341
0.21041843 -0.13096699 0.80733341
0.21289431 -0.12758192 0.8070001
0.21570097 -0.12512191 0.80600005
0.21469717 -0.12235429 0.80800003
0.21702698 -0.12196191 0.80685729
0.2178324 -0.11785572 0.80750006
0.22213933 -0.11682886 0.8062858
0.21931431 -0.11388953 0.80800003
0.22300066 -0.11350731 0.80711114
0.22656509 -0.11123176 0.80733341
0.22770461 -0.10706525 0.80683339
0.22887176 -0.10328698 0.80733341
0.2313799 -0.10179838 0.80714297
0.23328547 -0.097891212 0.80775005
0.23617081 -0.096464142 0.80600011
0.23393525 -0.094651438 0.80800003
0.23766586 -0.092540421 0.80685729
0.23912446 -0.088420957 0.80733341
0.24087588 -0.087032072 0.80633342
0.24332692 -0.082455009 0.80725008
0.24717335 -0.080600008 0.80600005
0.24697931 -0.0778412 0.80725008
0.24864276 -0.073220685 0.80685723
0.2516343 -0.070026673 0.80800003
0.25362858 -0.067633331 0.80700004
0.25638479 -0.065247625 0.80600005
0.25766242 -0.062446196 0.8070001
0.26022288 -0.060641907 0.80600005
0.19584636 -0.15106669 0.81066674
0.19752359 -0.14746834 0.81175005
0.19863087 -0.14413564 0.81280005
0.20112117 -0.14268534 0.81160015
0.20352592 -0.13786252 0.8120001
0.20648573 -0.1355143 0.81000012
0.20476508 -0.13213144 0.81133336
0.20689717 -0.13129716 0.81000006
0.20853907 -0.12946478 0.81400001
0.21140487 -0.12732573 0.81244451
0.21311739 -0.12280358 0.81225002
0.2143892 -0.11841588 0.81266677
0.21592066 -0.11683747 0.81066674
0.21825778 -0.11325525 0.81266677
0.22199592 -0.1110539 0.81057155
0.2228542 -0.10777652 0.81155556
0.2255343 -0.10658763 0.81100005
0.22404383 -0.10388191 0.81400001
0.22671334 -0.102207 0.81200004
0.22865392 -0.09824682 0.81228584
0.23094064 -0.09680286 0.81100005
0.23313279 -0.092875928 0.81171435
0.23615399 -0.091837153 0.81033337
0.23783658 -0.087275438 0.81240004
0.23910525 -0.083570004 0.81250006
0.24138553 -0.081697904 0.81080002
0.24325371 -0.078143239 0.81240004
0.24545971 -0.075981595 0.81133336
0.24779758 -0.072360277 0.81200004
0.2507143 -0.070200004 0.81000006
0.25249144 -0.067473337 0.81200004
0.19407228 -0.14791118 0.81557149
0.1960181 -0.14578383 0.81566668
0.1981063 -0.14249104 0.81757152
0.20103335 -0.14049049 0.81500006
0.19943525 -0.13867049 0.81800008
0.20132783 -0.13696478 0.81620008
0.2032755 -0.13324836 0.81700003
0.20514001 -0.13026001 0.81900007
