# .PCD v0.7 - Point Cloud Data file format
VERSION 0.7
FIELDS x y z
SIZE 4 4 4
TYPE F F F
COUNT 1 1 1
WIDTH 1403
HEIGHT 1
VIEWPOINT 0 0 0 1 0 0 0
POINTS 1403
DATA ascii
0.1578667 -0.11769523 0.73999995
0.16326615 -0.11753987 0.74028575
0.16796333 -0.11742175 0.74049997
0.1730694 -0.11749389 0.74000007
0.17802286 -0.11882287 0.74000001
0.18253335 -0.11769524 0.74000001
0.18724652 -0.11782324 0.74080002
0.19178066 -0.11868858 0.74033344
0.19733334 -0.11910477 0.74000001
0.21354286 -0.11910477 0.74000001
0.21777144 -0.11910477 0.74000001
0.22284572 -0.11882287 0.74000001
0.22693335 -0.11910477 0.74000001
0.23292382 -0.11840001 0.74000001
0.2388626 -0.11716083 0.74171436
0.24271338 -0.11746477 0.74300003
0.24749951 -0.11738598 0.74249995
0.25250298 -0.11778912 0.7405833
0.25739303 -0.11776678 0.74044448
0.26233211 -0.11772736 0.741
0.26729789 -0.11810891 0.74018174
0.27291906 -0.11787144 0.74000001
0.27784616 -0.11752704 0.74030769
0.28226638 -0.11821874 0.74033344
0.2878336 -0.11852071 0.74075001
0.2934159 -0.11816509 0.74000001
0.29529527 -0.11769524 0.74000001
0.30093336 -0.11910477 0.74000001
0.30939049 -0.11769524 0.74000001
0.14364667 -0.11392667 0.74300003
0.14703551 -0.11239786 0.74224997
0.15247875 -0.11270096 0.74053329
0.1577016 -0.11305966 0.74064285
0.16271022 -0.11277524 0.74142855
0.16803706 -0.11361416 0.74212503
0.17260516 -0.11330372 0.74124998
0.17771885 -0.11253489 0.74049991
0.18257415 -0.11278685 0.7401666
0.18746665 -0.11276191 0.73999989
0.19225906 -0.11233904 0.73999995
0.19651833 -0.11191834 0.74024999
0.20261906 -0.111 0.74000001
0.20726931 -0.11138977 0.74024999
0.21241526 -0.11092954 0.74000001
0.2182413 -0.11111747 0.74000001
0.22289702 -0.11231345 0.73999995
0.2276215 -0.11223967 0.7403636
0.23255582 -0.11296268 0.7403999
0.23778744 -0.11267181 0.74220008
0.242309 -0.11271362 0.74300009
0.2477072 -0.11257108 0.7425456
0.25251704 -0.11285584 0.74062485
0.25729638 -0.11278683 0.7401666
0.26118481 -0.11304382 0.73999995
0.26992384 -0.11135238 0.74000001
0.27309886 -0.1125103 0.74020004
0.27758494 -0.11293203 0.74076915
0.28176576 -0.11200065 0.74066669
0.28817716 -0.11137988 0.74085718
0.29282859 -0.11205715 0.74000001
0.29686138 -0.11190053 0.74000001
0.30234289 -0.11135238 0.74000001
0.30769089 -0.11248934 0.741
0.31212941 -0.11294598 0.7416364
0.14860001 -0.10968096 0.74300003
0.15322857 -0.10936838 0.74280006
0.15779907 -0.10968097 0.74300003
0.17336668 -0.10968096 0.74300003
0.17800415 -0.10845239 0.74266672
0.18248563 -0.10841649 0.74210006
0.18718833 -0.10787024 0.74118185
0.19224997 -0.10834137 0.74244452
0.19804382 -0.10916001 0.74266672
0.20263962 -0.10902629 0.74240011
0.20790134 -0.1092503 0.74200004
0.21282451 -0.1088849 0.74171436
0.21753635 -0.10851593 0.74057156
0.22214501 -0.10833215 0.74225003
0.22773871 -0.10891797 0.74262506
0.23280668 -0.10897334 0.74300003
0.23563716 -0.10968096 0.74300003
0.24920574 -0.10916001 0.74266672
0.25263417 -0.10890625 0.74185723
0.2570101 -0.10877277 0.74260008
0.26273641 -0.10913219 0.74120003
0.26798287 -0.10859004 0.74199998
0.27244893 -0.10817862 0.74133343
0.27773678 -0.10908534 0.74280006
0.2828567 -0.1091354 0.74250007
0.28761145 -0.10882573 0.74200004
0.29268423 -0.10763639 0.74160004
0.2971929 -0.10788867 0.7421819
0.30218512 -0.10822131 0.74181825
0.30725786 -0.10814001 0.74214292
0.31254393 -0.10811105 0.74275005
0.28424001 -0.14033906 0.74800003
0.28713417 -0.14072017 0.74750006
0.18379429 -0.13606477 0.74800003
0.18664382 -0.13606477 0.74800003
0.27141717 -0.13606477 0.74800003
0.27996573 -0.13606477 0.74800003
0.28335744 -0.13674898 0.74728578
0.28743553 -0.13735275 0.74654555
0.29236612 -0.13719727 0.74737513
0.29615289 -0.13597381 0.74750006
0.30632383 -0.13606477 0.74800003
0.14461334 -0.13036573 0.74800003
0.14739652 -0.13030764 0.74766672
0.15031239 -0.13036573 0.74800003
0.15864858 -0.13090286 0.74700004
0.16397542 -0.13194048 0.74750006
0.16688548 -0.1309469 0.74725002
0.17263621 -0.13194369 0.7477144
0.17595811 -0.13036573 0.74800003
0.18376344 -0.13248037 0.74787509
0.18721011 -0.13240042 0.74741685
0.1922781 -0.13245904 0.74775004
0.19756135 -0.13161317 0.74780011
0.20243649 -0.13187246 0.74772733
0.20724127 -0.13175175 0.74777788
0.21214707 -0.13150553 0.74800009
0.21699126 -0.13093564 0.74800009
0.22242728 -0.1320097 0.74800009
0.22707199 -0.1324001 0.74741673
0.23170193 -0.13125621 0.74800009
0.23579811 -0.13036573 0.74800003
0.24305917 -0.1315906 0.74787509
0.24759309 -0.13159724 0.7476365
0.25231931 -0.13261859 0.74750012
0.25730592 -0.13216104 0.74721444
0.26237765 -0.13247681 0.74753851
0.26780343 -0.13273294 0.74757153
0.27251345 -0.132213 0.74745464
0.27807018 -0.13156049 0.74750012
0.28278112 -0.1325547 0.74657142
0.28735712 -0.13268097 0.745
0.29199219 -0.13250285 0.74560004
0.29742712 -0.13234822 0.74712497
0.30249849 -0.13204174 0.7470001
0.30692515 -0.13314438 0.74600005
0.14385088 -0.12706116 0.74700004
0.14700204 -0.12711926 0.74566674
0.15212709 -0.12724707 0.74641675
0.15715557 -0.1272908 0.74666673
0.16220936 -0.12716973 0.74672735
0.1677088 -0.12759788 0.74592304
0.17232494 -0.12751575 0.7457273
0.17725112 -0.12742212 0.74744451
0.18289717 -0.12703286 0.74725002
0.18764985 -0.12723303 0.74633336
0.1927398 -0.12730826 0.74677783
0.1977993 -0.12735993 0.74708343
0.20275715 -0.12734571 0.7470001
0.20771441 -0.12733182 0.74691671
0.21278086 -0.12738381 0.7472223
0.21759969 -0.12729 0.74666679
0.22257778 -0.1272908 0.74666673
0.22749059 -0.12723203 0.74709105
0.23255083 -0.12730078 0.74672729
0.23745671 -0.12726219 0.74650013
0.24228029 -0.12747191 0.74690002
0.24752145 -0.12731764 0.74683344
0.25259048 -0.12700476 0.745
0.2577599 -0.12741022 0.74500006
0.26279542 -0.12727612 0.74530768
0.26777813 -0.12742609 0.74580014
0.27263907 -0.12780048 0.74550009
0.27767274 -0.12782922 0.74566674
0.28227937 -0.12871778 0.74533343
0.28764093 -0.12799811 0.745
0.29162833 -0.12758312 0.74536371
0.29689294 -0.12735179 0.74627274
0.30239144 -0.1287178 0.74533337
0.30757856 -0.12877859 0.74500006
0.31077147 -0.12913334 0.74500006
0.1397762 -0.12132858 0.74500006
0.14252077 -0.12262477 0.74600005
0.14768234 -0.12315308 0.74500006
0.15271296 -0.12373163 0.74580008
0.15822381 -0.12322064 0.74500006
0.16248098 -0.12345716 0.74500006
0.16720751 -0.12360613 0.74528581
0.17383334 -0.12345715 0.74500006
0.17790306 -0.12394953 0.74540013
0.18225887 -0.12373239 0.74580008
0.18778732 -0.12369366 0.74500006
0.19192621 -0.12381192 0.74500006
0.1975143 -0.12433334 0.74600005
0.21356669 -0.12416668 0.74500006
0.21782383 -0.12416668 0.74500006
0.22279049 -0.12416667 0.74500006
0.22740239 -0.12381191 0.74500006
0.23130476 -0.12416667 0.74500006
0.24265717 -0.12303145 0.745
0.2478843 -0.12296667 0.74525005
0.25159717 -0.12331525 0.74500006
0.26228732 -0.12369366 0.74500006
0.26607144 -0.12416667 0.74500006
0.2883032 -0.12369366 0.74500006
0.2918981 -0.12388287 0.74500006
0.29587144 -0.12416667 0.74500006
0.1397762 -0.11990953 0.74500006
0.14303418 -0.118266 0.74614292
0.1454524 -0.11920001 0.74500006
0.14342049 -0.11217858 0.74550009
0.14584287 -0.11027144 0.74700004
0.16805315 -0.11094572 0.74580008
0.17181858 -0.11111429 0.74550003
0.23910955 -0.11139525 0.74500006
0.24478573 -0.11210477 0.74500006
0.24620478 -0.11139525 0.74500006
0.31431907 -0.11139525 0.74500006
0.31573811 -0.11139525 0.74500006
0.14261429 -0.10997619 0.74500006
0.14746939 -0.10858589 0.74683332
0.15204 -0.10870287 0.74600005
0.1583831 -0.10831025 0.74575007
0.16263485 -0.10814467 0.74625009
0.16685846 -0.10815393 0.74712509
0.17203282 -0.10774817 0.74642867
0.17681411 -0.10736515 0.74560004
0.18254267 -0.10640021 0.74580002
0.18755081 -0.10571905 0.74500006
0.19263573 -0.10607381 0.74500006
0.19722742 -0.10669662 0.74522227
0.20216723 -0.10681375 0.74557155
0.20718972 -0.1071123 0.7457273
0.21278669 -0.10692572 0.74600011
0.21758384 -0.10640831 0.74557149
0.2232635 -0.10619207 0.74500006
0.22759564 -0.10662725 0.74540013
0.23200265 -0.10710549 0.74725002
0.23799303 -0.10845038 0.74644452
0.24250181 -0.10904952 0.7462222
0.24766211 -0.10833295 0.74640006
0.25253269 -0.10649207 0.74600005
0.25825894 -0.10705702 0.74585718
0.2624492 -0.10728077 0.74600005
0.26718658 -0.10636776 0.74528575
0.27245715 -0.10607382 0.74500006
0.27744287 -0.1064894 0.74614292
0.28230014 -0.10715471 0.74622226
0.28750116 -0.10653049 0.74642867
0.29208732 -0.10642858 0.74500006
0.29870954 -0.10571905 0.74500006
0.30181751 -0.10581367 0.74566674
0.30670002 -0.10611639 0.74580008
0.31148097 -0.10571905 0.74500006
0.17310858 -0.10472 0.74800003
0.17730319 -0.10467334 0.74766672
0.18265012 -0.10435106 0.74739999
0.18751226 -0.10396967 0.74700004
0.19204555 -0.1040661 0.74739999
0.19777715 -0.10458001 0.74700004
0.20289287 -0.10393763 0.74750012
0.20773715 -0.10458001 0.74700004
0.22368763 -0.10472 0.74800003
0.22653715 -0.10472 0.74800003
0.25308192 -0.10429382 0.74750006
0.25705558 -0.10467334 0.74766672
0.26215622 -0.10472 0.74800003
0.26776192 -0.10365573 0.74675012
0.27175486 -0.10384287 0.74580002
0.28424001 -0.10472 0.74800003
0.28815183 -0.10440705 0.74780005
0.29265875 -0.10467334 0.74766672
0.29706287 -0.10472 0.74800003
0.30703625 -0.10472001 0.74800003
0.31148097 -0.10430001 0.74500006
0.27681714 -0.14558001 0.75300002
0.28327143 -0.14593858 0.75300002
0.28757429 -0.14558002 0.75300002
0.29044288 -0.14558001 0.75300002
0.15848859 -0.14127715 0.75300002
0.16422573 -0.14127715 0.75300002
0.18258458 -0.141564 0.75300002
0.18717431 -0.14127716 0.75300002
0.19205087 -0.141564 0.75300002
0.19649716 -0.14127715 0.75300002
0.24347001 -0.14163572 0.75300002
0.24741432 -0.14199428 0.75300002
0.2513586 -0.1419943 0.75300002
0.26720744 -0.14185086 0.75300002
0.27276489 -0.14240581 0.75290012
0.27721679 -0.14246179 0.75262499
0.28233486 -0.14260137 0.75241673
0.28701982 -0.14315315 0.75080007
0.29280752 -0.14281964 0.75262499
0.29618001 -0.14271143 0.75300002
0.30908859 -0.14127715 0.75300002
0.31124002 -0.14127715 0.75300002
0.14808325 -0.13675886 0.75260001
0.15275145 -0.13625714 0.75300002
0.15791649 -0.13733265 0.75271446
0.16271266 -0.13743022 0.75263649
0.16743602 -0.13704555 0.75260013
0.17183392 -0.13657907 0.7524001
0.1781704 -0.13675472 0.75266671
0.1818305 -0.13792668 0.75166667
0.18771452 -0.13858011 0.7513333
0.19248445 -0.1381035 0.75133336
0.19734141 -0.13734345 0.75138468
0.20219555 -0.13766341 0.75171435
0.20746057 -0.13683788 0.75158334
0.21236518 -0.13690117 0.75180006
0.21739472 -0.13658141 0.75154549
0.22235973 -0.13688278 0.75169998
0.22748424 -0.1374331 0.75214285
0.23253737 -0.13697316 0.75220001
0.2377314 -0.13719393 0.75238466
0.2423784 -0.13771471 0.75200003
0.24754865 -0.13730648 0.75166667
0.25252804 -0.13836953 0.75199997
0.25747719 -0.1380129 0.75154549
0.26245403 -0.13803014 0.75163645
0.2671763 -0.13795458 0.75129998
0.27193281 -0.13832819 0.75100005
0.27704793 -0.13704436 0.75057149
0.2816577 -0.13893825 0.75142866
0.29773766 -0.13861097 0.75150001
0.30283442 -0.13761006 0.75211114
0.30699003 -0.13827239 0.75225008
0.31096449 -0.13828669 0.7523334
0.14724001 -0.13294621 0.75050008
0.15257452 -0.1325431 0.75124997
0.15688191 -0.13242821 0.75080001
0.16192003 -0.13249962 0.75085723
0.1684162 -0.13365857 0.75250006
0.17116953 -0.13392763 0.75200003
0.17801271 -0.13269737 0.75133336
0.18158922 -0.13226096 0.75066674
0.21214287 -0.13357143 0.75000006
0.21757145 -0.13328572 0.75000006
0.23285715 -0.13357143 0.75000006
0.23755582 -0.13249983 0.75040001
0.24107145 -0.13250001 0.75000006
0.27785715 -0.13357143 0.75000012
0.16214287 -0.12928572 0.75000006
0.18142858 -0.12857144 0.75000006
0.14414573 -0.10542001 0.75300002
0.14639916 -0.1068398 0.75066668
0.15236826 -0.10658499 0.75111109
0.15730953 -0.10654294 0.75172728
0.16215983 -0.10576743 0.75140005
0.16791622 -0.10566287 0.75133342
0.21414097 -0.10528 0.75200003
0.21700573 -0.10528 0.75200003
0.22130287 -0.10528 0.75200003
0.23317261 -0.10590897 0.7524001
0.23769547 -0.10596072 0.75174999
0.24246573 -0.1058543 0.75100011
0.24666026 -0.10642596 0.75125003
0.30294859 -0.10528 0.75200003
0.31267428 -0.10542001 0.75300002
0.1481943 -0.10401145 0.75171435
0.15299772 -0.10338439 0.75280005
0.15734115 -0.10369886 0.75300002
0.16135715 -0.10398572 0.75300002
0.16824172 -0.10369886 0.75300002
0.1721326 -0.10430858 0.75120002
0.17716677 -0.10324658 0.75111115
0.18209675 -0.10238308 0.75177777
0.18678764 -0.10192324 0.75260007
0.1921943 -0.10326858 0.75300002
0.19778682 -0.10313485 0.75128573
0.2024388 -0.10198519 0.75185716
0.20741905 -0.10335144 0.75100005
0.21213683 -0.10427778 0.75166672
0.21779217 -0.10423929 0.75225002
0.22222041 -0.10416096 0.75220007
0.22731736 -0.10384648 0.75200003
0.23163716 -0.10398572 0.75300002
0.23803829 -0.10348462 0.75283337
0.24260914 -0.10312667 0.75271434
0.24784204 -0.10350561 0.75212502
0.25236312 -0.10264902 0.75181824
0.25759557 -0.10251217 0.75155556
0.26255509 -0.10227048 0.75200003
0.26678216 -0.10216668 0.75150001
0.27245936 -0.10159674 0.75200003
0.27730817 -0.10304961 0.75141668
0.28224698 -0.10295906 0.75180006
0.28728771 -0.10248905 0.75150007
0.29241392 -0.10210001 0.7518
0.29753026 -0.10295294 0.75158334
0.30238393 -0.10270272 0.7516923
0.30669472 -0.10256439 0.75100005
0.3115429 -0.10241525 0.75199997
0.25817144 -0.09968286 0.75300002
0.2611632 -0.099160641 0.75266671
0.26892859 -0.09968286 0.75300002
0.27251431 -0.09968286 0.75300002
0.27789289 -0.099324286 0.75300002
0.28255433 -0.09968286 0.75300002
0.28685716 -0.09968286 0.75300002
0.29474574 -0.09968286 0.75300002
0.29761431 -0.099109143 0.75300002
0.30242312 -0.098070227 0.75263649
0.30751842 -0.09892159 0.75266671
0.3108629 -0.099160641 0.75266671
0.13932763 -0.1508781 0.75800002
0.14112002 -0.15120001 0.75600004
0.27071431 -0.1508781 0.75800002
0.27793336 -0.1508781 0.75800008
0.28279859 -0.15077859 0.75750005
0.28791398 -0.15153366 0.75766671
0.29201049 -0.15123905 0.75800002
0.29525906 -0.1508781 0.75800002
0.1342743 -0.14510287 0.75800002
0.13846135 -0.14625792 0.75800002
0.14106637 -0.14755335 0.75700009
0.1494343 -0.14510287 0.75800002
0.15232192 -0.14510289 0.75800008
0.15723087 -0.14539163 0.75800002
0.16242859 -0.14510289 0.75800008
0.16724128 -0.14510289 0.75800008
0.18264192 -0.14510289 0.75800008
0.18697335 -0.14582478 0.75800002
0.19274859 -0.14654669 0.75800008
0.19780192 -0.14654668 0.75800002
0.203144 -0.14596915 0.75800002
0.20718668 -0.14582478 0.75800002
0.21224003 -0.14582478 0.75799996
0.21729335 -0.14510289 0.75800008
0.23245335 -0.14510287 0.75800002
0.23750669 -0.14510289 0.75800008
0.24239859 -0.14608905 0.75750005
0.24773416 -0.1466735 0.7561667
0.25268954 -0.14720599 0.7571429
0.25772005 -0.14630604 0.75800002
0.26277336 -0.14654668 0.75799996
0.26787394 -0.14773752 0.75762498
0.27202809 -0.1475058 0.7561819
0.27724284 -0.14803059 0.75655556
0.28183228 -0.14811608 0.75587505
0.2873655 -0.14804928 0.75514293
0.29248622 -0.14768286 0.75550008
0.29794431 -0.14782408 0.75781816
0.30211717 -0.14582478 0.75800002
0.30705017 -0.14558414 0.75800002
0.13932763 -0.14221525 0.75800008
0.14220762 -0.14172889 0.75711113
0.14750341 -0.14174339 0.75633335
0.15242574 -0.14169326 0.75590914
0.15696001 -0.14220144 0.75600004
0.1622397 -0.1420816 0.75600004
0.16772246 -0.14226635 0.75655556
0.17252792 -0.14182867 0.75670004
0.17728202 -0.14226048 0.75669998
0.18191907 -0.14309049 0.75500005
0.18805888 -0.14374231 0.75540012
0.19284354 -0.1439396 0.75514299
0.19809349 -0.14361051 0.75557154
0.20236573 -0.14264621 0.75550008
0.20744732 -0.14205621 0.75544453
0.21260333 -0.14164089 0.75570005
0.21752547 -0.14189801 0.75630003
0.22233842 -0.14207993 0.75650001
0.22737788 -0.14174497 0.7561819
0.2327019 -0.1422482 0.75739998
0.23734279 -0.14214793 0.75610006
0.24220507 -0.14355607 0.75528586
0.24735241 -0.14452858 0.75500005
0.25274059 -0.14370401 0.75520009
0.25736892 -0.14271642 0.75555563
0.26285678 -0.14278819 0.75557148
0.26732847 -0.14378858 0.75542867
0.27180001 -0.14452858 0.75500005
0.27970955 -0.14452858 0.75500005
0.29749104 -0.1432042 0.75560009
0.30238622 -0.14213794 0.75566673
0.30756018 -0.14252833 0.75528586
0.31196555 -0.14410612 0.75580007
0.13932763 -0.13932763 0.75800002
0.14332645 -0.13792597 0.75625002
0.14616001 -0.13824001 0.75600004
0.15315716 -0.13877621 0.75500005
0.1689762 -0.1387762 0.75500005
0.17362438 -0.13795011 0.75520009
0.17664604 -0.13829683 0.75500005
0.14472 -0.13464001 0.75600004
0.14452858 -0.10426191 0.75500005
0.14809567 -0.10178138 0.7564286
0.1524061 -0.10124274 0.756625
0.15775114 -0.1013471 0.75711113
0.1628827 -0.1023646 0.75645459
0.16741689 -0.10149707 0.75681829
0.17258818 -0.10198762 0.75642866
0.17749389 -0.10094069 0.75628579
0.18347763 -0.10073286 0.75550008
0.18800351 -0.10060351 0.75633335
0.1928905 -0.10184827 0.75666678
0.19722639 -0.10135114 0.75690001
0.20222668 -0.10057239 0.75700003
0.20766777 -0.10151892 0.7560001
0.21256083 -0.1020071 0.75657147
0.21737286 -0.10216504 0.75690913
0.22236669 -0.10145523 0.75660008
0.22728603 -0.10147934 0.75570005
0.23245542 -0.10145543 0.75660002
0.23722643 -0.10155541 0.75627279
0.24215947 -0.10086343 0.75540006
0.24784993 -0.10112458 0.75520009
0.25111383 -0.10073286 0.75550008
0.2574054 -0.10051525 0.75566673
0.1494343 -0.098900959 0.75800002
0.1508781 -0.098900959 0.75800002
0.16387239 -0.098900959 0.75800002
0.16676001 -0.098179065 0.75800002
0.17109144 -0.098900959 0.75800002
0.17927304 -0.098419689 0.75800008
0.18222913 -0.098787501 0.75714284
0.18696496 -0.099319629 0.7568
0.19780192 -0.098900959 0.75800002
0.20574287 -0.098900959 0.75800002
0.2245124 -0.098900959 0.75800002
0.23895049 -0.098900959 0.75800002
0.2429059 -0.09874779 0.75683331
0.24721453 -0.098739594 0.75677776
0.25262019 -0.098480582 0.75699997
0.25774288 -0.09813308 0.75685722
0.26281691 -0.097350232 0.75718188
0.26738504 -0.098014526 0.75675011
0.27233899 -0.097550966 0.75650001
0.27706546 -0.097021475 0.75563639
0.28235525 -0.09715651 0.75566673
0.28770626 -0.09760236 0.75609094
0.29288271 -0.098280631 0.75627279
0.29744148 -0.096748486 0.75554556
0.30223972 -0.096592069 0.75500005
0.30744424 -0.096455112 0.75500005
0.2777867 -0.093942098 0.75760001
0.2822648 -0.094569527 0.75800008
0.28515241 -0.094569527 0.75800002
0.30320001 -0.094569527 0.75800002
0.30753145 -0.094569527 0.75800002
0.26959336 -0.15623334 0.76300001
0.27286974 -0.15623735 0.76160002
0.27729431 -0.15656897 0.76180011
0.28193966 -0.1565682 0.76180011
0.28776002 -0.15623334 0.76300001
0.29318953 -0.15602858 0.76200002
0.29648003 -0.15623334 0.76300001
0.14416446 -0.15140891 0.76066673
0.14725555 -0.15160923 0.76166672
0.15190297 -0.15141852 0.76233339
0.16303717 -0.15084364 0.76220006
0.1673978 -0.15143335 0.76200002
0.17199525 -0.15094763 0.76200008
0.17658001 -0.15042001 0.76300001
0.18312001 -0.15042001 0.76300001
0.18745363 -0.15156132 0.76209098
0.19268489 -0.15207025 0.76155567
0.19821623 -0.15200424 0.76157153
0.20240787 -0.15180714 0.76175004
0.20719096 -0.15113121 0.76200002
0.21254256 -0.15015715 0.76166672
0.21727335 -0.15042001 0.76300001
0.22236001 -0.15042001 0.76300001
0.22807793 -0.15055297 0.76220006
0.23207477 -0.15048763 0.7615
0.23815678 -0.15031563 0.7610001
0.24288644 -0.15111852 0.76128584
0.24691471 -0.15159008 0.76157153
0.25218984 -0.15226872 0.76185727
0.25716504 -0.1524758 0.76185721
0.26236582 -0.15236148 0.76081824
0.26786798 -0.15275763 0.76016676
0.27305716 -0.15290478 0.76000011
0.27701226 -0.15313742 0.76000011
0.28228572 -0.15344761 0.76000011
0.28708455 -0.15386024 0.76025009
0.29296589 -0.1537227 0.76016676
0.29791155 -0.15303108 0.76062512
0.30262285 -0.15240097 0.76200002
0.30691966 -0.15164696 0.76185721
0.31262574 -0.15068477 0.76250005
0.13258786 -0.14635405 0.76075006
0.14353488 -0.14672077 0.7604
0.14735802 -0.14706908 0.76070017
0.15251118 -0.14795552 0.7610001
0.15779033 -0.14788494 0.76116669
0.1626256 -0.14792791 0.76085728
0.16761668 -0.14770596 0.76025009
0.17238049 -0.14739242 0.76050013
0.17751463 -0.14708416 0.76077783
0.182238 -0.14748079 0.76033342
0.18710478 -0.14801906 0.76000005
0.19253334 -0.14874285 0.76000011
0.19731049 -0.14896002 0.76000005
0.20252192 -0.14867048 0.76000005
0.20773336 -0.14838096 0.76000011
0.21216986 -0.14844605 0.76033342
0.21749349 -0.14778847 0.76014298
0.22227474 -0.14697674 0.76022232
0.22732572 -0.14696589 0.76016682
0.23234288 -0.14765716 0.76000011
0.23740953 -0.14765717 0.76000011
0.24211431 -0.14801906 0.76000005
0.24754287 -0.14910477 0.76000005
0.25260955 -0.14982858 0.76000011
0.25782099 -0.14924954 0.76000005
0.26238096 -0.14946668 0.76000005
0.26636192 -0.14982858 0.76000005
0.30327624 -0.14862224 0.76000011
0.30768687 -0.14865479 0.76016676
0.31244147 -0.14788494 0.76116675
0.13337715 -0.14249608 0.76171434
0.13666952 -0.1430845 0.76042867
0.14403811 -0.14403811 0.76000005
0.14620954 -0.14403811 0.76000005
0.16285716 -0.14403811 0.76000005
0.13378154 -0.13842915 0.76260006
0.13553049 -0.1391543 0.76100004
0.14640935 -0.10200935 0.76179999
0.16140953 -0.10060953 0.76000005
0.1737143 -0.10060953 0.76000005
0.17588572 -0.10060953 0.76000005
0.19253334 -0.10060953 0.76000005
0.20918097 -0.10060953 0.76000005
0.21255875 -0.10060953 0.76000011
0.21786667 -0.10060953 0.76000005
0.14853512 -0.097744636 0.76185721
0.15266143 -0.096937947 0.76150006
0.15759145 -0.097341776 0.76146173
0.16207023 -0.097268321 0.76063651
0.16720001 -0.096266672 0.76000011
0.17239913 -0.097425811 0.7605834
0.17745627 -0.096929707 0.76109099
0.18266895 -0.096045129 0.76112503
0.18754619 -0.096309818 0.76150006
0.19248235 -0.09754961 0.76046163
0.19760001 -0.096990488 0.76000011
0.20269769 -0.097496644 0.76036376
0.20750764 -0.097596914 0.76050013
0.21261851 -0.097851992 0.76108336
0.21752131 -0.09739957 0.76063651
0.22258858 -0.097525917 0.76080012
0.22771835 -0.09768685 0.7608183
0.23275049 -0.097883821 0.76133341
0.23787764 -0.097905822 0.76150012
0.24269584 -0.096322492 0.76160014
0.24754287 -0.096266672 0.76000005
0.25260955 -0.096266672 0.76000011
0.25767621 -0.096266672 0.76000005
0.27142859 -0.096266672 0.76000005
0.28735241 -0.096266672 0.76000005
0.29241908 -0.096266672 0.76000005
0.15114668 -0.093740009 0.76300001
0.16274723 -0.094167903 0.76142865
0.16737035 -0.093995385 0.76171434
0.17031907 -0.094943814 0.76100004
0.19496097 -0.094943814 0.76100004
0.19930954 -0.094943814 0.76100004
0.20102286 -0.094341911 0.76200002
0.24416003 -0.093740009 0.76300001
0.24762928 -0.094013207 0.76185727
0.25248155 -0.093881726 0.76180005
0.25720268 -0.093421154 0.76160008
0.26235321 -0.093691699 0.76154554
0.26756391 -0.093536898 0.76136369
0.2727693 -0.094097152 0.76085722
0.2768575 -0.093894921 0.76033342
0.28300953 -0.093371436 0.76000011
0.2878181 -0.093035065 0.76200008
0.29245123 -0.094097868 0.76150006
0.29747701 -0.094321124 0.76183337
0.30204231 -0.09419658 0.76200002
0.30730593 -0.092592306 0.76118195
0.16457143 -0.16676572 0.76800001
0.18273763 -0.1659262 0.76750004
0.18578288 -0.1660343 0.76800001
0.26770288 -0.1660343 0.76800001
0.28013715 -0.1660343 0.76800001
0.29657334 -0.16581811 0.76700002
0.1787124 -0.16164574 0.76800001
0.18273717 -0.16263668 0.7675001
0.18770298 -0.16284655 0.76762503
0.19236574 -0.16164574 0.76800001
0.19602287 -0.16018286 0.76800001
0.20260572 -0.16018286 0.76800001
0.20772573 -0.16018286 0.76800001
0.2131383 -0.16076802 0.76800007
0.21650288 -0.16018286 0.76800001
0.24210289 -0.16018286 0.76800001
0.2466545 -0.16126896 0.7676
0.25257254 -0.16215239 0.76742864
0.25776726 -0.1630242 0.76760006
0.26279187 -0.16269062 0.76800007
0.26787078 -0.16215855 0.76790917
0.27270404 -0.16206296 0.7676667
0.27713314 -0.16264276 0.76733339
0.28178275 -0.16258588 0.76783341
0.28745145 -0.16164573 0.76800007
0.29241186 -0.16301993 0.76758337
0.29716992 -0.16274014 0.76712507
0.30208001 -0.16164574 0.76800001
0.30720001 -0.16018286 0.76800001
0.31232002 -0.16018286 0.76800001
0.31524575 -0.16018286 0.76800001
0.1490016 -0.15580796 0.76566672
0.15250334 -0.15615319 0.76616669
0.15755756 -0.15630531 0.76742864
0.16284607 -0.15681538 0.76762509
0.16745315 -0.15633887 0.76780003
0.17083651 -0.1562143 0.7676667
0.1778816 -0.15726045 0.76722229
0.18270116 -0.15758269 0.76673347
0.18752812 -0.1576132 0.76616669
0.1922453 -0.15734124 0.76585734
0.19757923 -0.15745732 0.76600003
0.20236953 -0.15670305 0.76600009
0.20748104 -0.15705611 0.7663638
0.2126383 -0.156744 0.76620007
0.21773867 -0.15709372 0.76720011
0.22250153 -0.15672301 0.76742864
0.22732621 -0.1564243 0.76750004
0.23225018 -0.1562143 0.7676667
0.23832722 -0.15648532 0.76728576
0.24260114 -0.15711179 0.76663643
0.2476788 -0.15734123 0.76585728
0.25263295 -0.15772834 0.76571435
0.25735384 -0.15747574 0.76550007
0.26204467 -0.15747526 0.7657693
0.26704013 -0.15821451 0.7663334
0.27277431 -0.1587663 0.76540005
0.27776715 -0.15929715 0.76550007
0.28269088 -0.15922457 0.76620001
0.28822765 -0.1587663 0.76540005
0.29237595 -0.15863553 0.76557148
0.29754788 -0.15862073 0.76575005
0.30257878 -0.1576405 0.76630014
0.30726403 -0.15691672 0.7663334
0.312168 -0.15699799 0.76762503
0.31573337 -0.15676954 0.76800001
0.15372857 -0.15372857 0.76500005
0.15768288 -0.1525135 0.76554555
0.16188858 -0.15285429 0.76500005
0.16695192 -0.15346476 0.76550007
0.17337573 -0.15366572 0.76650006
0.17800933 -0.15264325 0.76539999
0.18266328 -0.15268777 0.76500005
0.18578573 -0.15372857 0.76500005
0.20764287 -0.15372857 0.76500005
0.21274288 -0.15300001 0.76499999
0.21784288 -0.15300001 0.76500005
0.22221431 -0.15300003 0.76500005
0.22700205 -0.1531041 0.76500005
0.23294954 -0.15330648 0.76580006
0.2375143 -0.15300001 0.76499999
0.24188572 -0.15372857 0.76500005
0.24771431 -0.15372857 0.76500005
0.30964288 -0.15372857 0.76500005
0.31288478 -0.15330648 0.76580006
0.31588382 -0.15320095 0.76600003
0.13075525 -0.14536478 0.76700002
0.13159239 -0.14325809 0.76550007
0.13187143 -0.13842857 0.76500005
0.14371467 -0.10213182 0.76600003
0.14536478 -0.10007524 0.76700002
0.14399764 -0.09794715 0.76750004
0.14657746 -0.09725789 0.76655561
0.15372857 -0.095442861 0.76500005
0.17412858 -0.095442861 0.76500005
0.17558573 -0.095442861 0.76500005
0.1938 -0.095442861 0.76500005
0.19817144 -0.095442861 0.76500005
0.20472859 -0.095442861 0.76500005
0.20764288 -0.095442861 0.76500005
0.21274288 -0.095442861 0.76500005
0.21857145 -0.095442861 0.76500005
0.22221431 -0.095442861 0.76500005
0.22824034 -0.09552604 0.76566672
0.23261558 -0.09552604 0.76566672
0.2374924 -0.095784202 0.76540011
0.1486993 -0.093896434 0.76725006
0.15280224 -0.093338743 0.7676667
0.15803297 -0.093037523 0.76680011
0.16271955 -0.091938898 0.76616669
0.16768745 -0.092088573 0.76620007
0.17283069 -0.092622861 0.76700008
0.17761201 -0.092818305 0.76620001
0.18264408 -0.092549011 0.76627284
0.1874065 -0.09260837 0.76566672
0.19232668 -0.092747971 0.76572734
0.19725393 -0.092430487 0.76539999
0.20225579 -0.092581488 0.76544452
0.20750642 -0.092570655 0.76645464
0.21269391 -0.092842102 0.76640004
0.21734805 -0.092824027 0.7661112
0.22253115 -0.092635527 0.7671001
0.22711273 -0.092743181 0.76677781
0.23285107 -0.092964388 0.76740009
0.2376966 -0.092915244 0.76700008
0.24242297 -0.092441045 0.76670009
0.24730858 -0.091919057 0.76600003
0.25233433 -0.091505721 0.76620007
0.25763527 -0.091230169 0.76633334
0.26178512 -0.091150805 0.76566672
0.26683003 -0.091130957 0.76550007
0.272798 -0.091695927 0.76500005
0.27770603 -0.091839686 0.76533341
0.28277737 -0.091829769 0.76525003
0.28778571 -0.091071434 0.76500005
0.29252145 -0.091435716 0.76500005
0.29727715 -0.092006132 0.76585728
0.3024075 -0.092317425 0.76671439
0.3058686 -0.091614291 0.7665
0.17481144 -0.089965723 0.76800001
0.17773716 -0.089965723 0.76800001
0.18244126 -0.088661648 0.76757151
0.18697472 -0.088574715 0.76722223
0.19219938 -0.089887634 0.76733339
0.19742215 -0.089936435 0.76774997
0.20243049 -0.089887634 0.76733339
0.20772573 -0.089965723 0.76800001
0.21284573 -0.089965723 0.76800001
0.21650288 -0.089965723 0.76800001
0.22454859 -0.089965723 0.76800001
0.24722287 -0.089965723 0.76800001
0.25380573 -0.089965723 0.76800001
0.2577824 -0.089419536 0.76750004
0.2624307 -0.088451006 0.76755565
0.26749933 -0.088435009 0.76741672
0.27258602 -0.088425398 0.76733339
0.27725098 -0.088567719 0.76730007
0.28248167 -0.088069931 0.76741683
0.28776035 -0.08764191 0.76687509
0.29276583 -0.088275664 0.76744449
0.29769146 -0.089965723 0.76800001
0.30866289 -0.089965723 0.76800001
0.3113448 -0.08899048 0.76800001
0.28818285 -0.084114291 0.76800001
0.29037717 -0.08338286 0.76800001
0.19729906 -0.17006001 0.77300006
0.2017162 -0.17006001 0.77300006
0.2090781 -0.17006001 0.77300006
0.21275906 -0.17006001 0.77300012
0.2171762 -0.17006001 0.77300012
0.22159335 -0.17006001 0.77300012
0.24367906 -0.17006001 0.77300006
0.24515145 -0.17006001 0.77300006
0.25398573 -0.17006001 0.77300006
0.2569305 -0.17006001 0.77300006
0.14421581 -0.16656058 0.77180004
0.147655 -0.16713639 0.77063638
0.15172809 -0.16642335 0.77150005
0.15756355 -0.16618179 0.7725715
0.16261786 -0.16666096 0.77175003
0.16796589 -0.16735256 0.77183336
0.17255241 -0.16666396 0.77285731
0.17738335 -0.16634336 0.77283335
0.18077907 -0.16655239 0.77266669
0.18846668 -0.16646668 0.77000004
0.19300002 -0.16689906 0.77199996
0.19753562 -0.16708975 0.77219999
0.20237866 -0.16725373 0.77159995
0.20726898 -0.16775505 0.7712
0.2125759 -0.167707 0.77233338
0.21733001 -0.16686068 0.77249998
0.22250426 -0.16722964 0.77290916
0.22744997 -0.16709143 0.77288896
0.23258558 -0.16707937 0.77283347
0.23754989 -0.1669471 0.77222222
0.24265456 -0.16691694 0.77208328
0.24777524 -0.16616382 0.77200001
0.2522524 -0.1669427 0.77220005
0.25727829 -0.16815726 0.77163637
0.26261789 -0.16725454 0.77025002
0.26620001 -0.16646668 0.77000004
0.27353334 -0.16646668 0.77000004
0.27720001 -0.16646668 0.77000004
0.28306669 -0.16646668 0.77000004
0.28723115 -0.16577461 0.7713334
0.30244449 -0.16606161 0.77266669
0.30920005 -0.16564287 0.77300006
0.31140858 -0.16564287 0.77300006
0.14337143 -0.16175239 0.77200001
0.14858192 -0.1625578 0.77233338
0.15225592 -0.16294444 0.77163637
0.15740907 -0.16255829 0.77233338
0.16225335 -0.16225503 0.77088886
0.16738018 -0.16224302 0.77083337
0.17275673 -0.16246489 0.77188885
0.17706549 -0.1627243 0.77225
0.18113334 -0.16500001 0.77000004
0.18993334 -0.16500001 0.77000004
0.19250001 -0.16390002 0.77000004
0.19752288 -0.16301242 0.77100003
0.20259747 -0.1633018 0.77044445
0.2072832 -0.16355917 0.77088892
0.21209632 -0.1636963 0.77000004
0.21817173 -0.1626071 0.77057147
0.22264934 -0.16239493 0.77155554
0.2269924 -0.16234858 0.77133334
0.23233527 -0.16248763 0.77200001
0.2379034 -0.16227777 0.77163637
0.2424033 -0.16296546 0.77028579
0.24713336 -0.16353336 0.7700001
0.25226668 -0.16463335 0.77000004
0.25593334 -0.16500001 0.77000004
0.26253337 -0.16500001 0.77000004
0.2676667 -0.16500001 0.77000004
0.27206671 -0.16500001 0.7700001
0.27940002 -0.16500001 0.77000004
0.28331113 -0.16451113 0.7700001
0.28575557 -0.16402224 0.7700001
0.29993334 -0.16500001 0.77000004
0.30338988 -0.16283874 0.7713334
0.30735826 -0.16317785 0.77128577
0.31193715 -0.16245145 0.77066678
0.31541717 -0.16248763 0.77200001
0.14805984 -0.15811032 0.77216673
0.15263095 -0.15923667 0.7705
0.15766668 -0.15913334 0.7700001
0.16206668 -0.15913334 0.7700001
0.16793334 -0.15876669 0.77000004
0.17297207 -0.15829335 0.77066672
0.17603263 -0.15839404 0.77175003
0.22293335 -0.15913334 0.77000004
0.22733335 -0.15913334 0.77000004
0.23261763 -0.15887001 0.7705
0.23694248 -0.15879469 0.77120006
0.31313336 -0.15913334 0.77000004
0.3168 -0.15766668 0.77000004
0.14348891 -0.096555561 0.7700001
0.14389192 -0.093148738 0.77216673
0.14708996 -0.091975808 0.77158332
0.15227483 -0.091281094 0.77028579
0.15696736 -0.091030493 0.77171433
0.16206668 -0.090200007 0.7700001
0.16760838 -0.090633906 0.77120006
0.17233334 -0.090200007 0.7700001
0.21340002 -0.090200007 0.77000004
0.21926668 -0.090933338 0.77000004
0.22220002 -0.090200007 0.7700001
0.22806668 -0.090200007 0.7700001
0.2323608 -0.091269717 0.77160007
0.23760001 -0.090200007 0.77000004
0.24294226 -0.090278104 0.77066672
0.24566668 -0.090200007 0.77000004
0.25153336 -0.090200007 0.7700001
0.3028667 -0.090200007 0.7700001
0.30693239 -0.090317145 0.77100003
0.14355715 -0.089079052 0.77300006
0.14829406 -0.088682145 0.77275002
0.15229288 -0.088285252 0.77250004
0.15719733 -0.088530645 0.77250004
0.16259289 -0.088285252 0.77250004
0.16741185 -0.088382192 0.77242863
0.1723066 -0.087389536 0.77227277
0.17745395 -0.087491527 0.77081823
0.18238369 -0.087152667 0.77085716
0.18826896 -0.086564958 0.77160001
0.19276804 -0.087831169 0.77128571
0.19753295 -0.087895937 0.77185714
0.20268546 -0.087734707 0.77228576
0.20747098 -0.087549053 0.77249998
0.21258564 -0.087793224 0.77177781
0.21723457 -0.08787974 0.77171439
0.22226799 -0.087368578 0.77209103
0.22700548 -0.087676428 0.77200001
0.23232457 -0.088072069 0.77277786
0.23773795 -0.088323653 0.77283347
0.24244778 -0.088382192 0.77242863
0.24735603 -0.08739984 0.77236366
0.25222322 -0.087505721 0.77211106
0.25701076 -0.087317757 0.77163637
0.26222858 -0.086137913 0.77039999
0.26789972 -0.085874289 0.77066672
0.27277336 -0.086022869 0.77200001
0.27755812 -0.085911438 0.77100003
0.28233334 -0.085800014 0.7700001
0.2940667 -0.085800007 0.77000004
0.29796478 -0.087333523 0.77060002
0.30243474 -0.08723335 0.77157146
0.3073101 -0.087678015 0.77245462
0.31267861 -0.087304294 0.77250004
0.17271028 -0.084072955 0.77300006
0.17762382 -0.084029533 0.77260005
0.18160382 -0.083817147 0.77200001
0.20318858 -0.084661908 0.77300006
0.22159335 -0.084661908 0.77300006
0.24956858 -0.084661908 0.77300006
0.25251335 -0.084661916 0.77300012
0.26368761 -0.084134609 0.77266669
0.26724666 -0.083468057 0.77255565
0.27224326 -0.084072962 0.77300006
0.27776608 -0.084051065 0.77280003
0.28269812 -0.083263986 0.77245462
0.28718618 -0.082785934 0.77077782
0.29289669 -0.08250238 0.77175003
0.29787695 -0.083346196 0.77275014
0.30208349 -0.083680324 0.77300012
0.30551907 -0.084661908 0.77300006
0.14245239 -0.16607144 0.77500004
0.1572143 -0.16754763 0.77500004
0.17345241 -0.16902384 0.77500004
0.17714286 -0.16902383 0.77500004
0.30409527 -0.16754763 0.77500004
0.30780745 -0.16713011 0.77580005
0.31073812 -0.16754763 0.77500004
0.14614287 -0.16238096 0.77500004
0.14614287 -0.15869048 0.77500004
0.14245239 -0.090785719 0.77500004
0.14265274 -0.087095164 0.77681822
0.14725569 -0.086765647 0.77627277
0.15258819 -0.085638784 0.7761429
0.15762112 -0.086155519 0.77700007
0.16213977 -0.086153336 0.77649999
0.16702382 -0.085728578 0.77600002
0.18722002 -0.08510001 0.77700007
0.1928086 -0.085555553 0.77666664
0.19707143 -0.086357147 0.77500004
0.20100795 -0.086849213 0.77500004
0.21367526 -0.085519046 0.77633333
0.21786541 -0.085519046 0.77633333
0.22954763 -0.086357147 0.77500004
0.23238802 -0.085647427 0.7766
0.23715171 -0.085881494 0.77642858
0.24299 -0.086042859 0.77550006
0.31147623 -0.086357147 0.77500004
0.13986 -0.082880005 0.77700001
0.14306636 -0.082280971 0.77833349
0.14742708 -0.082775384 0.77900004
0.15271334 -0.082584016 0.77840012
0.15690255 -0.082527623 0.77833337
0.16247714 -0.083464295 0.77900004
0.16794115 -0.084044389 0.77820009
0.17241926 -0.083321713 0.77700007
0.17742819 -0.081896745 0.77671438
0.18096098 -0.081221275 0.77766675
0.18807286 -0.083464295 0.77900004
0.19277002 -0.083781436 0.77850002
0.19739406 -0.083802626 0.77700007
0.20233908 -0.082806364 0.77633333
0.20767084 -0.082689472 0.77684623
0.21235216 -0.083011672 0.77825004
0.21817875 -0.083022229 0.77833337
0.22244494 -0.082489848 0.7768333
0.22668116 -0.083194859 0.77580005
0.23225732 -0.08271388 0.77842867
0.23830339 -0.083384246 0.77788895
0.24273287 -0.082843192 0.7778334
0.2474269 -0.082852677 0.77730781
0.25239736 -0.082156464 0.77718192
0.25758797 -0.082787342 0.77669239
0.26242894 -0.082429826 0.77653861
0.26770622 -0.080977149 0.77649999
0.27252311 -0.081478812 0.77600002
0.27731502 -0.081952624 0.77700001
0.28206322 -0.081118099 0.77666664
0.28711909 -0.080452383 0.77500004
0.29253876 -0.080590799 0.77633333
0.29805544 -0.081125908 0.77580005
0.30311114 -0.081436515 0.77500004
0.30774572 -0.082583822 0.7765556
0.31202713 -0.083137415 0.77754551
0.31600255 -0.083689213 0.77766675
0.22405526 -0.079383813 0.77900004
0.22628097 -0.079383813 0.77900004
0.24260287 -0.079383813 0.77900004
0.2455705 -0.079383813 0.77900004
0.25373143 -0.079383813 0.77900004
0.25744098 -0.079383813 0.77900004
0.26263431 -0.079383813 0.77900004
0.26782763 -0.079383813 0.77900004
0.27153715 -0.079383813 0.77900004
0.27598858 -0.079383813 0.77900004
0.29378957 -0.078821279 0.77833337
0.29759881 -0.078660548 0.77814299
0.30181324 -0.07812123 0.77700007
0.30762827 -0.079315886 0.77833337
0.31085813 -0.079383813 0.77900004
0.14857143 -0.080971435 0.78000003
0.1508 -0.080971435 0.78000003
0.15897143 -0.081714295 0.78000003
0.16268574 -0.081565715 0.78000003
0.16714287 -0.081714287 0.78000009
0.17216858 -0.081501275 0.7803334
0.17605716 -0.080971435 0.78000003
0.18422858 -0.081714287 0.78000003
0.18764572 -0.081565715 0.78000003
0.19248287 -0.081748895 0.7803334
0.19768415 -0.081501275 0.7803334
0.2013143 -0.080971435 0.78000003
0.21394287 -0.080971435 0.78000003
0.21765716 -0.081862859 0.78000003
0.22880001 -0.080971435 0.78000003
0.23177144 -0.080971435 0.78000003
0.23667431 -0.081565723 0.78000003
0.31422859 -0.080971435 0.78000003
0.31645715 -0.080971435 0.78000003
0.14373906 -0.078944772 0.78200006
0.14757696 -0.078338861 0.7834
0.15187377 -0.077665985 0.7834546
0.15700971 -0.077656627 0.78200006
0.16200572 -0.078858107 0.78299999
0.16730525 -0.078621909 0.78250003
0.17239167 -0.078460239 0.78275007
0.17742404 -0.07901977 0.78275001
0.18842477 -0.079317153 0.78200006
0.19246534 -0.078497432 0.78285724
0.19746783 -0.079255246 0.78360003
0.20246097 -0.0794181 0.78300005
0.20743784 -0.079078652 0.78228575
0.21256737 -0.07873933 0.78314292
0.21774724 -0.078597538 0.78300005
0.22221506 -0.077542298 0.78140014
0.22689335 -0.077191576 0.78257149
0.23292878 -0.079432391 0.78240007
0.23809652 -0.078040324 0.78166676
0.24226336 -0.07684572 0.78150004
0.24755216 -0.077986442 0.78175002
0.25235826 -0.077280454 0.78200006
0.25762078 -0.076688968 0.78180009
0.26240319 -0.076707944 0.78199995
0.26715028 -0.076837152 0.78180003
0.272901 -0.077772796 0.78200012
0.27753401 -0.07801652 0.78266668
0.28285107 -0.078427061 0.78280002
0.2870259 -0.078577153 0.78280002
0.29201061 -0.077991866 0.78127283
0.29826766 -0.076239049 0.78100002
0.30138797 -0.075780325 0.78266668
0.30664429 -0.07777667 0.78149998
0.31267679 -0.078140691 0.78142858
0.3157143 -0.079485722 0.78000003
0.15082668 -0.073920004 0.78400004
0.15754668 -0.073920004 0.78400004
0.25909334 -0.073920004 0.78400004
0.18340001 -0.080097154 0.78600001
0.1863943 -0.080097146 0.78600001
0.14659429 -0.076168895 0.78666675
0.15420572 -0.077102862 0.78600001
0.15944572 -0.07560572 0.78600001
0.16273944 -0.076204583 0.78600001
0.16757306 -0.076247357 0.78600001
0.17254573 -0.075980008 0.78600001
0.17771398 -0.076483183 0.78733337
0.18278764 -0.07726445 0.78766668
0.1873804 -0.076899998 0.78700012
0.19271335 -0.076635882 0.78633332
0.19787237 -0.076770172 0.78600007
0.2028693 -0.076987855 0.78675008
0.20736656 -0.076757565 0.78685725
0.21227431 -0.076418415 0.78666675
0.21715546 -0.075982101 0.78680009
0.22270416 -0.075733975 0.78733343
0.22981144 -0.07785143 0.78600001
0.23286057 -0.077069335 0.78720009
0.23692288 -0.075980008 0.78600001
0.24478288 -0.07560572 0.78600001
0.24777716 -0.07560572 0.78600001
0.25077143 -0.07560572 0.78600001
0.27248001 -0.07560572 0.78600001
0.27844763 -0.076076195 0.78700006
0.28219622 -0.076076195 0.78700006
0.28806573 -0.076700009 0.78700006
0.29208881 -0.075982101 0.78680009
0.29718289 -0.07560572 0.78600001
0.30806351 -0.076265089 0.78766674
0.31201297 -0.076243058 0.78640002
0.31514859 -0.07560572 0.78600001
0.14806782 -0.073658668 0.78760004
0.15269084 -0.072503462 0.78687513
0.15684924 -0.072794929 0.78800005
0.16319488 -0.073715247 0.78820008
0.16735619 -0.07354667 0.78800005
0.17233492 -0.073285617 0.78788894
0.17765692 -0.073992148 0.78875005
0.18259716 -0.074391432 0.78900003
0.18743268 -0.07370694 0.78857154
0.19266973 -0.072832577 0.78840011
0.19732065 -0.07277482 0.7877779
0.20251723 -0.072965719 0.78836375
0.20760329 -0.073277555 0.78857154
0.21249259 -0.07373371 0.78840011
0.21774131 -0.073581308 0.78837508
0.22308034 -0.073608577 0.78866673
0.22758606 -0.074360006 0.78866673
0.23334447 -0.073859364 0.78866673
0.23759845 -0.073453024 0.78700006
0.24156716 -0.073780484 0.78650004
0.24765715 -0.074297145 0.78800005
0.25260589 -0.073530011 0.78783339
0.25748777 -0.073183551 0.78757149
0.26237455 -0.073005959 0.78825003
0.26752788 -0.072701566 0.78845459
0.27230695 -0.073992148 0.78875005
0.27727717 -0.07439144 0.78900003
0.28284404 -0.074053146 0.78860009
0.28738159 -0.073017977 0.78837508
0.29263705 -0.073393449 0.78837508
0.29618797 -0.073358104 0.78866673
0.30883718 -0.073640004 0.78900003
0.31240493 -0.073626675 0.78771436
0.31554955 -0.073452383 0.78700006
0.15254001 -0.069882862 0.78900003
0.26149714 -0.069882862 0.78900003
0.26645657 -0.06928172 0.78900003
0.14865556 -0.072190806 0.79233336
0.15204859 -0.070119053 0.79166669
0.15764764 -0.071659058 0.79200006
0.16299303 -0.071939051 0.79233336
0.16745049 -0.070901915 0.792
0.17273049 -0.070901908 0.79200006
0.17763382 -0.072033815 0.79200006
0.18221466 -0.072075248 0.79209095
0.18712121 -0.070924528 0.7922501
0.19208764 -0.07056953 0.79250002
0.19636191 -0.070237145 0.79300004
0.20240383 -0.070237145 0.79300004
0.2077823 -0.070768952 0.79220003
0.21269849 -0.071904197 0.79140007
0.21696001 -0.071566671 0.79100001
0.22204001 -0.071747623 0.79300004
0.22845113 -0.073134929 0.79166669
0.23268479 -0.071884774 0.79214299
0.23760003 -0.070901915 0.79200006
0.24238519 -0.071237974 0.79214293
0.24801692 -0.072290957 0.79275006
0.25254846 -0.071186811 0.7915715
0.25750223 -0.070756339 0.79157144
0.26442 -0.070813343 0.79100001
0.27311009 -0.071427897 0.79185718
0.27744162 -0.071686029 0.79233342
0.28247026 -0.071559913 0.79245466
0.28664336 -0.070436671 0.79100001
0.29197049 -0.070705727 0.79100001
0.29821187 -0.07188423 0.79214293
0.30234131 -0.073133655 0.79166663
0.30744991 -0.073051624 0.79240006
0.31256098 -0.071113817 0.79225004
0.18654382 -0.068726674 0.7930001
0.25904667 -0.068726674 0.79300004
0.26131243 -0.068726674 0.79300004
0.2676318 -0.067410797 0.79233336
0.27163401 -0.068223178 0.7930001
0.28775677 -0.068053149 0.79220003
0.29227719 -0.067971431 0.7930001
0.29580161 -0.068223178 0.7930001
0.31417906 -0.068726674 0.79300004
0.14649621 -0.075145721 0.79700005
0.14774629 -0.071825147 0.79720008
0.15945145 -0.071007624 0.796
0.16177621 -0.070919052 0.79500002
0.17262858 -0.07041429 0.79500002
0.1779286 -0.07041429 0.79500002
0.19912858 -0.07041429 0.79500002
0.21275716 -0.07041429 0.79500002
0.21730003 -0.07041429 0.79500002
0.2226924 -0.070948571 0.79533339
0.22782575 -0.071393721 0.79580003
0.23234072 -0.070613578 0.79725003
0.24758573 -0.070792861 0.79500002
0.30210003 -0.07041429 0.79500002
0.30740002 -0.07041429 0.79500002
0.14364001 -0.067640007 0.79800004
0.14776573 -0.067857154 0.79800004
0.15273896 -0.067630373 0.79788888
0.15713002 -0.067640007 0.79799998
0.1623143 -0.068074301 0.79800004
0.16811675 -0.067832388 0.79771435
0.17224139 -0.068049528 0.79771435
0.17768279 -0.067883722 0.79730004
0.18244229 -0.067334108 0.79620004
0.18724954 -0.066711441 0.796
0.19169916 -0.067690127 0.79637504
0.19747619 -0.068356663 0.79750001
0.20282322 -0.067732975 0.796875
0.20758651 -0.067427471 0.79550004
0.21287651 -0.067422546 0.79544449
0.21760479 -0.067478627 0.79611117
0.22252478 -0.067592278 0.7974444
0.22672491 -0.067832664 0.79771435
0.23247558 -0.068146676 0.79799998
0.23801143 -0.068049811 0.79771429
0.24228716 -0.067662574 0.79650003
0.2475426 -0.067579716 0.79729998
0.25217307 -0.067325816 0.79610002
0.25710386 -0.067418866 0.79540008
0.26276696 -0.067072526 0.79642862
0.26634073 -0.066395961 0.79675007
0.27307624 -0.066880956 0.79500002
0.27737504 -0.067447864 0.79575002
0.28237882 -0.067369618 0.79645455
0.2871629 -0.066784084 0.79557151
0.29301435 -0.065871432 0.79500002
0.29786003 -0.06708286 0.79500002
0.30198643 -0.067275725 0.79549998
0.3074646 -0.067399532 0.79516667
0.31226739 -0.067385718 0.79500002
0.16036001 -0.064600006 0.79800004
0.18392001 -0.064600006 0.79800004
0.18772003 -0.064600006 0.79800004
0.20765977 -0.063502721 0.79785717
0.21195176 -0.063813031 0.79766673
0.21736002 -0.064093344 0.79800004
0.23889336 -0.064093344 0.79800004
0.24206002 -0.064220004 0.79800004
0.24700001 -0.064220004 0.79800004
0.25250983 -0.063913882 0.79757142
0.25747859 -0.063799538 0.79750007
0.26165622 -0.064179532 0.79750007
0.26740193 -0.064231239 0.79720008
0.27385339 -0.064093336 0.79800004
0.27740002 -0.063840002 0.79800004
0.28044003 -0.064600006 0.79800004
0.28766605 -0.06406635 0.79766673
0.29238877 -0.064183049 0.79660004
0.29736143 -0.064478576 0.79650003
0.302544 -0.0639989 0.7968334
0.30747327 -0.062405724 0.79771435
0.31129143 -0.063048005 0.79760003
0.31540003 -0.063840002 0.79800004
0.14400001 -0.071619049 0.80000001
0.14590476 -0.072000004 0.80000001
0.14349207 -0.068317465 0.80000007
0.14742413 -0.067101598 0.80066669
0.1592381 -0.06780953 0.80000001
0.16304764 -0.067047626 0.80000001
0.16685715 -0.067301594 0.80000007
0.17371431 -0.066285722 0.80000001
0.17600001 -0.066285722 0.80000001
0.19428572 -0.066285722 0.80000001
0.19733337 -0.066285722 0.80000007
0.20114288 -0.066285722 0.80000001
0.22933334 -0.067047626 0.80000001
0.23238097 -0.066285722 0.80000001
0.23695239 -0.066285722 0.80000007
0.14436001 -0.064923815 0.80200005
0.14804827 -0.064467311 0.80266666
0.15263399 -0.063086346 0.80133337
0.15742917 -0.062534496 0.80153853
0.16256383 -0.062247932 0.80200005
0.1675729 -0.062829167 0.80230772
0.17256165 -0.062806897 0.80200011
0.17796762 -0.063393645 0.80200005
0.18241163 -0.062421303 0.80200005
0.18751709 -0.061949272 0.80127275
0.19282345 -0.06239384 0.80123091
0.19758002 -0.062552378 0.80100006
0.2027496 -0.062699549 0.80093342
0.2077543 -0.060849529 0.80200005
0.21274923 -0.061002545 0.80066675
0.2170022 -0.061300416 0.80028576
0.22251417 -0.062592968 0.80076933
0.22761598 -0.062522933 0.80138469
0.23236883 -0.062358245 0.80076939
0.23686737 -0.062282082 0.80018193
0.242505 -0.061578412 0.80044448
0.24755473 -0.061442543 0.80088896
0.25224301 -0.061343409 0.80085719
0.25772479 -0.061180007 0.80300009
0.26232764 -0.06184436 0.80171436
0.26754811 -0.061828576 0.80150008
0.27240768 -0.062111247 0.80120009
0.27668735 -0.06097747 0.80033338
0.28269941 -0.062504768 0.80127287
0.28736636 -0.061509848 0.80177778
0.29234043 -0.061343953 0.80085725
0.29764819 -0.062066477 0.80260003
0.30201489 -0.061470091 0.80080003
0.30755562 -0.06196826 0.80000007
0.31265908 -0.061920002 0.80266666
0.31596258 -0.063396201 0.80200005
0.15620573 -0.058960006 0.80400002
0.16207621 -0.058960006 0.80400008
0.19066288 -0.058960006 0.80400002
0.19755429 -0.058960006 0.80400002
0.20444573 -0.058194291 0.80400002
0.20546478 -0.058813337 0.80200005
0.21746287 -0.058960006 0.80400002
0.22129144 -0.058960006 0.80400002
0.22588573 -0.058960006 0.80400002
0.23277715 -0.058960006 0.80400002
0.23728685 -0.058595058 0.80319995
0.24189574 -0.058467146 0.80250001
0.24695659 -0.058259435 0.8028
0.25192004 -0.058960006 0.80400008
0.27649906 -0.058813337 0.80200005
0.29213718 -0.058886673 0.80299997
0.29847547 -0.058041152 0.80400002
0.30213472 -0.057584494 0.80314291
0.30628574 -0.058960006 0.80400002
0.14798974 -0.062852964 0.80680007
0.15083304 -0.061203819 0.80666673
0.17468192 -0.060792387 0.80800003
0.17761207 -0.060742229 0.80733341
0.18039049 -0.060641907 0.80600005
0.26482859 -0.060641907 0.80600005
0.26713145 -0.060641907 0.80600005
0.28325143 -0.060641907 0.80600005
0.31702667 -0.062177148 0.80600005
0.15288129 -0.059155561 0.80666673
0.15803859 -0.058062382 0.80750006
0.16216859 -0.05738572 0.80700004
0.16744334 -0.058758579 0.80650002
0.17237334 -0.059253339 0.80800003
0.17852953 -0.059253339 0.80800003
0.18253525 -0.058795244 0.80700004
0.1869943 -0.059253342 0.80800003
