# .PCD v0.7 - Point Cloud Data file format
VERSION 0.7
FIELDS x y z
SIZE 4 4 4
TYPE F F F
COUNT 1 1 1
WIDTH 1140
HEIGHT 1
VIEWPOINT 0 0 0 1 0 0 0
POINTS 1140
DATA ascii
0.24338287 -0.076434292 0.70400006
0.24338287 -0.074422859 0.70400006
0.23802289 -0.080240004 0.70800006
0.24248645 -0.080155008 0.70725
0.24746287 -0.080240004 0.70800006
0.23869431 -0.077546291 0.70679998
0.24200207 -0.077406131 0.70500004
0.24715786 -0.077172212 0.70572728
0.25167415 -0.07752461 0.70783329
0.23895632 -0.073370062 0.70677781
0.24224931 -0.07223691 0.70558333
0.24717405 -0.072540484 0.70524997
0.25261986 -0.072755247 0.70733333
0.25555429 -0.071474291 0.708
0.24330191 -0.069418743 0.70766675
0.2476549 -0.068642981 0.70662498
0.25213265 -0.068031192 0.70550001
0.22780001 -0.090440005 0.71400005
0.21782669 -0.086586677 0.71400011
0.22236001 -0.087040007 0.71400011
0.22725603 -0.087176003 0.71400011
0.23188001 -0.086360008 0.71400011
0.23777336 -0.085906677 0.71400011
0.24208002 -0.085000008 0.71400005
0.24777944 -0.086214863 0.71280003
0.2527824 -0.086979531 0.71350002
0.25755003 -0.086870015 0.71400011
0.26044002 -0.085000008 0.71400005
0.21846621 -0.083920956 0.71350002
0.22243662 -0.084298924 0.71300006
0.22750297 -0.082495145 0.71350014
0.2327574 -0.082446188 0.71175003
0.23707421 -0.082839049 0.71100008
0.24228965 -0.082568213 0.71062499
0.24757183 -0.08339379 0.71100003
0.25267348 -0.082420886 0.71069235
0.25704744 -0.082481049 0.71145457
0.26143399 -0.082165405 0.71300006
0.22955145 -0.079225719 0.71100003
0.23280175 -0.07743939 0.71217656
0.23661871 -0.076671317 0.71087503
0.25458574 -0.078100003 0.71000004
0.25775021 -0.077121913 0.71033335
0.26217765 -0.078009292 0.71224999
0.26550764 -0.078769527 0.71300006
0.23351203 -0.073576011 0.71400005
0.23721461 -0.072057314 0.71266675
0.24004763 -0.071000002 0.71000004
0.2571778 -0.073253974 0.71000004
0.23913842 -0.06900318 0.71266669
0.24207856 -0.06767986 0.71230769
0.24728444 -0.066611864 0.71172744
0.25154287 -0.066266671 0.71000004
0.24366669 -0.064146675 0.71400011
0.24755293 -0.06364391 0.71344453
0.25849766 -0.095524296 0.71900004
0.26226383 -0.095181912 0.71900004
0.21761431 -0.091478251 0.7175715
0.22299179 -0.091690838 0.71712506
0.22742756 -0.092276037 0.71672738
0.2323273 -0.092158005 0.7167778
0.23648034 -0.091445409 0.71833342
0.25325105 -0.091514982 0.71785718
0.25719917 -0.092336491 0.71710008
0.26209965 -0.092153154 0.71780008
0.26624891 -0.092172399 0.71866673
0.21730034 -0.088193029 0.71600002
0.22189184 -0.088784017 0.71600002
0.23287049 -0.08898858 0.71600002
0.23738167 -0.088399775 0.71675003
0.24283978 -0.087608576 0.71724999
0.24783131 -0.088798374 0.71800005
0.25196552 -0.089081727 0.71620005
0.25776002 -0.089329533 0.71600002
0.26275733 -0.087503821 0.71627277
0.26674944 -0.087397888 0.71755558
0.26389715 -0.082510486 0.71600002
0.26526096 -0.083192386 0.71600002
0.22728835 -0.077281162 0.71811116
0.23096526 -0.077219531 0.71750003
0.26389715 -0.076373339 0.71600002
0.26526096 -0.076373339 0.71600002
0.22307763 -0.073902383 0.71850002
0.2266562 -0.074639052 0.71900004
0.23276043 -0.071866535 0.71671432
0.23571175 -0.070690803 0.71600002
0.23386288 -0.068380006 0.71800005
0.2376363 -0.067732811 0.7167778
0.24053192 -0.065598577 0.71750003
0.24286829 -0.063050263 0.71700007
0.24719064 -0.061286129 0.71614295
0.25025907 -0.060689528 0.71600002
0.24446002 -0.059574291 0.71900004
0.24733202 -0.059200954 0.71780008
0.25025907 -0.059325717 0.71600002
0.25316477 -0.10167906 0.72300005
0.25760221 -0.10213809 0.72300005
0.26238641 -0.10194694 0.72257155
0.26716575 -0.10156429 0.72300005
0.27307034 -0.10165572 0.7228334
0.27680576 -0.10190857 0.72300005
0.21286574 -0.095446676 0.72100008
0.21728763 -0.09557905 0.72200006
0.22278859 -0.09557905 0.72200006
0.2279081 -0.096980087 0.72218192
0.23266383 -0.097624086 0.72185725
0.23728316 -0.097528495 0.72254556
0.24444288 -0.096400008 0.72300005
0.24788575 -0.096400008 0.72300005
0.2529192 -0.097229958 0.72218198
0.2571106 -0.098037161 0.72128588
0.26279125 -0.098359242 0.72120011
0.2674523 -0.097293064 0.72085732
0.27226806 -0.097723812 0.72114301
0.27727109 -0.097698502 0.72241676
0.28093717 -0.095711432 0.72300005
0.21301287 -0.094138578 0.72150004
0.21651322 -0.09259484 0.72171438
0.22148573 -0.093600005 0.72000003
0.23799035 -0.093136683 0.72083342
0.24290121 -0.092657626 0.72200006
0.24771383 -0.092893824 0.72250003
0.25185636 -0.093233757 0.72057158
0.2686629 -0.093120016 0.72000003
0.2728723 -0.092377059 0.72170007
0.27749431 -0.092760421 0.72300011
0.28024858 -0.094334289 0.72300005
0.21384954 -0.088702865 0.72200006
0.21568319 -0.088244453 0.72200006
0.2425143 -0.089828581 0.72000003
0.24617144 -0.089828581 0.72000003
0.26948577 -0.088000014 0.72000003
0.27173409 -0.08810287 0.72160006
0.27887145 -0.088825718 0.72300005
0.2681143 -0.082971439 0.72000003
0.27167973 -0.082399055 0.72300005
0.2297143 -0.076114289 0.72000003
0.23108573 -0.076800004 0.72000003
0.22454002 -0.071412385 0.72100008
0.22749829 -0.07235314 0.7208001
0.23121738 -0.072393224 0.72088897
0.22844811 -0.069497623 0.72250009
0.23216614 -0.068479873 0.72214293
0.23752548 -0.065887079 0.72171438
0.23863377 -0.062774293 0.72255564
0.24182349 -0.061999373 0.72066677
0.23945668 -0.05986429 0.72250009
0.24287069 -0.058224212 0.72208345
0.24740572 -0.056733336 0.72120011
0.25074923 -0.057018414 0.72133338
0.24444288 -0.054397147 0.72300005
0.24762811 -0.053652626 0.7222501
0.19898668 -0.11024 0.72800004
0.20182978 -0.11062453 0.72825003
0.21592288 -0.11039144 0.72900003
0.24813774 -0.11094687 0.72900003
0.2525467 -0.11101 0.72850007
0.25716135 -0.1108863 0.72860008
0.26244 -0.11039144 0.72900003
0.26730001 -0.11039144 0.72900003
0.27192861 -0.11039144 0.72900003
0.27794573 -0.11039144 0.72900003
0.19916891 -0.10756445 0.72866672
0.20228735 -0.10746049 0.72890007
0.2079386 -0.10657287 0.72900003
0.21268287 -0.10668858 0.72900003
0.21727395 -0.1074225 0.72887504
0.22255714 -0.10730574 0.72900003
0.22772573 -0.10622572 0.72900003
0.23207003 -0.10712715 0.72883338
0.23760822 -0.10650965 0.72737503
0.24287467 -0.10738608 0.72862506
0.24723032 -0.10744335 0.72783339
0.25222564 -0.10720977 0.72625005
0.25731689 -0.10721743 0.72630006
0.26243168 -0.10723469 0.72641671
0.26756373 -0.10741477 0.72670007
0.27230784 -0.10715239 0.72680002
0.27750754 -0.10735802 0.72725004
0.2826288 -0.1072489 0.72755557
0.28654334 -0.10684715 0.72850001
0.19870459 -0.10317086 0.72900003
0.20264731 -0.10278014 0.72820008
0.20742272 -0.10226039 0.72646672
0.21241528 -0.10266712 0.72723079
0.21721806 -0.10232634 0.72735715
0.22225298 -0.10247488 0.72699994
0.22737384 -0.10266157 0.72692859
0.23219264 -0.10277779 0.72576922
0.2378348 -0.10273446 0.72546154
0.24280259 -0.10237938 0.72633332
0.24738255 -0.10227042 0.72556245
0.25214934 -0.10262989 0.72499996
0.25685716 -0.10426191 0.72500002
0.26272622 -0.10391667 0.72500002
0.26790476 -0.10357144 0.72500002
0.2722978 -0.10389747 0.7256667
0.27826196 -0.10357144 0.72500002
0.28272903 -0.10230763 0.7258333
0.28670308 -0.10278039 0.72820008
0.20357865 -0.097665183 0.72844452
0.20740357 -0.097479925 0.72591662
0.21225959 -0.097570695 0.72544444
0.21723405 -0.098204359 0.72542864
0.22233334 -0.098047629 0.72499996
0.22647621 -0.098738104 0.72500002
0.24239451 -0.097372279 0.72511107
0.24782178 -0.098115727 0.72550005
0.25133336 -0.098738104 0.72500002
0.28260207 -0.097751714 0.72500002
0.28684336 -0.097693816 0.72750014
0.2077461 -0.093547247 0.7276001
0.21215299 -0.092368111 0.72649997
0.2162178 -0.092796199 0.72533339
0.24166667 -0.094595246 0.72500002
0.27750975 -0.091858678 0.7252
0.28207344 -0.092795983 0.72533333
0.28516668 -0.094595246 0.72500002
0.20898001 -0.088174284 0.72900003
0.21222904 -0.087802209 0.72769243
0.21503431 -0.087120004 0.72600001
0.27411908 -0.087000005 0.72500002
0.27803916 -0.087592043 0.72836375
0.27342859 -0.08492858 0.72500002
0.22971097 -0.068498574 0.72650003
0.23316972 -0.066422701 0.72649997
0.2354524 -0.065595239 0.72500002
0.23352383 -0.063611813 0.72760004
0.23631737 -0.061788019 0.72625005
0.23793302 -0.057750635 0.72766674
0.24179335 -0.056266483 0.72579998
0.23895621 -0.054360639 0.72866672
0.24258995 -0.053202625 0.72708333
0.24661751 -0.051398695 0.72687507
0.2509867 -0.051306669 0.72800004
0.24779736 -0.047424003 0.7280001
0.25029334 -0.048533335 0.72800004
0.24844447 -0.043217778 0.72800004
0.20757431 -0.1159 0.73199999
0.21134542 -0.11697398 0.73400009
0.22928762 -0.11534286 0.73400003
0.23278289 -0.11534287 0.73400009
0.2376762 -0.11534286 0.73400003
0.24304637 -0.11570413 0.73333335
0.24746913 -0.11678234 0.73345464
0.25189018 -0.11627492 0.73400009
0.26493907 -0.11534286 0.73400003
0.26633716 -0.11534286 0.73400003
0.27402669 -0.11534286 0.73400003
0.27752194 -0.11534287 0.73400009
0.28241527 -0.11534286 0.73400003
0.28591049 -0.11534286 0.73400003
0.20398383 -0.11278287 0.73100001
0.20758313 -0.1121512 0.7314167
0.21272606 -0.11229219 0.73233342
0.21745744 -0.11228752 0.73229998
0.22302382 -0.11193124 0.73180002
0.22774859 -0.11241125 0.73220003
0.23277144 -0.11217005 0.73236364
0.23747821 -0.1123961 0.73210001
0.24238414 -0.11213811 0.73133337
0.24719568 -0.11270559 0.73114288
0.25283301 -0.11353081 0.73133337
0.25776666 -0.11320858 0.73150003
0.26227063 -0.11297103 0.7315715
0.26740414 -0.11283865 0.73200005
0.27240691 -0.11276405 0.73199999
0.27752465 -0.11268608 0.73262501
0.28259706 -0.11242715 0.73229998
0.28753564 -0.11236382 0.73279995
0.29238808 -0.11210396 0.7337144
0.20716645 -0.10870519 0.73100007
0.21245468 -0.10880478 0.73140001
0.21651526 -0.10930191 0.73100001
0.22162065 -0.10883778 0.73100007
0.22765432 -0.10860573 0.73100007
0.23266688 -0.10874497 0.73100001
0.23705287 -0.10895382 0.73100001
0.24088192 -0.10930191 0.73100001
0.28474194 -0.10930191 0.73100001
0.28828877 -0.10793445 0.73116672
0.29215872 -0.10761724 0.7324546
0.29569715 -0.10835239 0.73400009
0.19877431 -0.10113175 0.73233336
0.20119905 -0.10094763 0.73100001
0.28911668 -0.10171287 0.73150003
0.29174444 -0.10292687 0.73320007
0.19860762 -0.098780006 0.73300004
0.20178309 -0.097367205 0.73199999
0.30175561 -0.096701592 0.73400009
0.2037029 -0.0933543 0.73333335
0.20641296 -0.091904089 0.73185718
0.30175561 -0.093905412 0.73400009
0.30618286 -0.094371438 0.73400003
0.20791951 -0.087956727 0.73233336
0.21233812 -0.085631445 0.73100007
0.30688193 -0.085982859 0.73400003
0.2126018 -0.083903275 0.73328578
0.21648407 -0.082401201 0.73325002
0.22020002 -0.080390483 0.73400003
0.30688193 -0.083885714 0.73400003
0.21845239 -0.077244766 0.73400003
0.22183068 -0.077370398 0.73309094
0.22439431 -0.072700962 0.73400003
0.22672479 -0.071904033 0.7330001
0.22439431 -0.069205716 0.73400003
0.22841987 -0.067442387 0.73383349
0.23124821 -0.066487812 0.73180002
0.23316263 -0.062653817 0.73300004
0.23493716 -0.05716572 0.73200005
0.23600858 -0.057087623 0.73100001
0.23418097 -0.053826671 0.73400003
0.23755977 -0.052937757 0.73227268
0.24136534 -0.051392764 0.73120004
0.23930731 -0.049166352 0.73400009
0.24294572 -0.048258621 0.7324546
0.24653079 -0.04675198 0.7327143
0.2479682 -0.042608712 0.7334286
0.24956001 -0.039845716 0.73400003
0.28645051 -0.12598191 0.73900002
0.21311778 -0.12244034 0.73744446
0.21718383 -0.12229748 0.73800009
0.22029239 -0.12246287 0.73900002
0.22873811 -0.12175906 0.73900002
0.23237079 -0.12195057 0.73884624
0.23744683 -0.12216936 0.73806679
0.24270265 -0.12176859 0.73827279
0.24743165 -0.12266085 0.73877776
0.25314322 -0.12223821 0.73811114
0.2578069 -0.12180211 0.73839998
0.262521 -0.12175906 0.73899996
0.26744762 -0.12105525 0.73899996
0.2723743 -0.12105525 0.73900002
0.27739158 -0.1223004 0.73886681
0.28220859 -0.12220024 0.73838472
0.28737101 -0.12228668 0.73817658
0.29225692 -0.12228692 0.73899996
0.21308954 -0.11846095 0.73600006
0.21711107 -0.11704686 0.73680007
0.22181539 -0.11729022 0.73871434
0.22727287 -0.11736295 0.73789996
0.23225024 -0.11788072 0.73675001
0.23740628 -0.11795212 0.73657149
0.24211702 -0.11802047 0.73616672
0.24743621 -0.11986287 0.73600006
0.25281021 -0.11892827 0.73600006
0.25740492 -0.11713038 0.73644447
0.26239371 -0.11716574 0.7366668
0.26777026 -0.11731454 0.73650002
0.27222794 -0.11745153 0.73670006
0.27743801 -0.11772885 0.73642862
0.28235662 -0.11797485 0.7367143
0.28790554 -0.11743563 0.73660004
0.29257771 -0.11713144 0.73771435
0.22150096 -0.11425524 0.73600006
0.29319763 -0.11433286 0.73650002
0.29787016 -0.11242771 0.7365455
0.30295801 -0.11292943 0.73900002
0.30615717 -0.11472096 0.73900002
0.29790476 -0.10689525 0.73600006
0.30246413 -0.10800731 0.73800009
0.30686098 -0.10838667 0.73900002
0.29299811 -0.10093715 0.73600006
0.29730684 -0.10398109 0.73700011
0.30061764 -0.10324858 0.73750007
0.19917811 -0.095718101 0.73900002
0.20088765 -0.096584767 0.73666668
0.29931718 -0.095865719 0.7383334
0.30246097 -0.096380956 0.73600006
0.30701715 -0.096030481 0.73600006
0.20231199 -0.092726476 0.73760003
0.20537905 -0.090422861 0.73600006
0.29971334 -0.094757147 0.73700005
0.30342996 -0.09326259 0.73628581
0.3063162 -0.092525721 0.73600006
0.20462382 -0.087895565 0.7383334
0.20649935 -0.086951308 0.73714292
0.30803841 -0.087653071 0.73628581
0.31308979 -0.087770961 0.73874998
0.3160105 -0.087272383 0.73900002
0.20846574 -0.08493048 0.73700011
0.21231177 -0.08212699 0.73844445
0.2164631 -0.081042148 0.73675007
0.30912003 -0.084114291 0.73600006
0.31189814 -0.084323242 0.73660004
0.21381289 -0.078420959 0.73850006
0.21742611 -0.077392191 0.7374
0.22220191 -0.07500191 0.73600006
0.21890423 -0.072566539 0.73771435
0.22223526 -0.072208785 0.73611116
0.22286774 -0.068316795 0.737625
0.22609472 -0.066415519 0.73628581
0.22802229 -0.062660009 0.73760003
0.2316002 -0.061931267 0.73616672
0.2280343 -0.059120003 0.73900002
0.23274383 -0.05833647 0.73800009
0.2351381 -0.056152385 0.73700005
0.23436859 -0.054193337 0.73900002
0.23646025 -0.052274525 0.73675007
0.23824522 -0.04783418 0.73744446
0.24211667 -0.046039529 0.73616672
0.24326229 -0.043986481 0.73780006
0.24661931 -0.04285834 0.73775005
0.22845845 -0.13085081 0.74266672
0.28800097 -0.13090953 0.74300003
0.29275671 -0.13129318 0.74250001
0.29717427 -0.13235681 0.74245453
0.30130419 -0.13204174 0.74300003
0.22302882 -0.12688977 0.74225008
0.22753921 -0.12738976 0.74215388
0.23265012 -0.1276985 0.74160004
0.23760533 -0.12722872 0.74157149
0.24241607 -0.12690423 0.74085718
0.24734969 -0.12715486 0.74114287
0.2525543 -0.12724954 0.74125004
0.25722614 -0.12790839 0.74200004
0.26222384 -0.12752831 0.74214292
0.26730001 -0.12657905 0.74250007
0.27270052 -0.1275124 0.74244446
0.27765059 -0.12787707 0.74181819
0.28254694 -0.12789536 0.74118185
0.28781837 -0.12778512 0.74054545
0.29265144 -0.12763938 0.74044442
0.29708743 -0.12738307 0.74060005
0.30210248 -0.12706421 0.74258339
0.30852193 -0.12524858 0.74300003
0.3113524 -0.12524858 0.74300003
0.22286746 -0.12246595 0.73999995
0.22728573 -0.12262858 0.74000001
0.23186669 -0.12474287 0.74000001
0.24267304 -0.12474287 0.74000001
0.2480762 -0.12474287 0.74000001
0.25160003 -0.12474287 0.74000001
0.25723812 -0.12474287 0.74000001
0.26217145 -0.12474287 0.74000001
0.26780954 -0.12380318 0.74000001
0.27274287 -0.1240381 0.74000001
0.27556193 -0.12474287 0.74000001
0.29318097 -0.12474287 0.74000001
0.29702336 -0.12235921 0.74049997
0.30268252 -0.1223975 0.74209094
0.30726171 -0.12219948 0.74166667
0.3119669 -0.12238149 0.74277782
0.2241143 -0.11840001 0.74000001
0.29760176 -0.11782338 0.73999995
0.30279559 -0.11787239 0.7411111
0.30633983 -0.11838782 0.74080008
0.3113524 -0.11958763 0.74300003
0.30375239 -0.11205715 0.74000001
0.30586669 -0.11205715 0.74000001
0.29774463 -0.10159922 0.7408334
0.30073813 -0.10118953 0.74300003
0.29725027 -0.099321194 0.74225003
0.30093336 -0.09796191 0.74000001
0.31249207 -0.095228583 0.74066675
0.31588003 -0.095400006 0.74200004
0.19907835 -0.093184531 0.74125004
0.20119502 -0.091420248 0.74125004
0.30939049 -0.091619059 0.74000001
0.31226557 -0.09256497 0.7407999
0.31588003 -0.092573345 0.74200004
0.2027376 -0.088043042 0.74172735
0.20508572 -0.085276194 0.74000001
0.31361908 -0.089504771 0.74000001
0.20824711 -0.082592279 0.7412222
0.21072382 -0.081047624 0.74000001
0.20891753 -0.079352193 0.74260008
0.21242045 -0.077610746 0.7414546
0.21608573 -0.075947307 0.74066675
0.21393685 -0.073828265 0.74300003
0.21651299 -0.072523937 0.74112505
0.21899216 -0.06922929 0.74175006
0.22234151 -0.067055523 0.74114287
0.22387938 -0.063663505 0.74000001
0.22582763 -0.062102862 0.74100006
0.22799049 -0.057085719 0.74000001
0.2315143 -0.056028578 0.74000001
0.22895953 -0.053705722 0.74200004
0.23278955 -0.053115662 0.74144447
0.23604953 -0.051069211 0.74133343
0.23723412 -0.047050864 0.74180001
0.23917526 -0.044580001 0.74300003
0.24238668 -0.042162757 0.74200004
0.2468867 -0.040861912 0.74157155
0.25086668 -0.040280003 0.74200004
0.24898225 -0.038395561 0.74200004
0.25086668 -0.038866669 0.74200004
0.30276191 -0.14033906 0.74800003
0.30703622 -0.14033906 0.74800003
0.23406002 -0.13588287 0.74700004
0.23714408 -0.13637549 0.74775004
0.24149716 -0.13606477 0.74800003
0.26001906 -0.13606477 0.74800003
0.28780192 -0.13606477 0.74800003
0.29233503 -0.13637549 0.74774998
0.29784119 -0.13694997 0.74677783
0.30243129 -0.13697724 0.74590921
0.30788812 -0.13750336 0.74730009
0.23320644 -0.13258111 0.74557149
0.23758566 -0.13301991 0.74690008
0.2424487 -0.13295808 0.74654555
0.24768002 -0.13311948 0.74672735
0.25273997 -0.13284315 0.74670005
0.25757077 -0.13305591 0.74710006
0.26258004 -0.13307057 0.74718189
0.26762557 -0.13313586 0.74681824
0.27257857 -0.13280793 0.74650002
0.27772787 -0.1328214 0.74666673
0.28265873 -0.13260435 0.74633336
0.28732765 -0.13321562 0.74640012
0.29185081 -0.133627 0.74500006
0.30403095 -0.13303573 0.74500006
0.30759123 -0.13284011 0.74588895
0.31245652 -0.13309716 0.74733341
0.3171148 -0.13172677 0.7476365
0.32270861 -0.13107812 0.74800009
0.23769049 -0.12984286 0.74500006
0.24265715 -0.12984286 0.74500006
0.24762383 -0.12984286 0.74500006
0.25188097 -0.12984286 0.74500006
0.26228735 -0.12984286 0.74500006
0.26784527 -0.12948811 0.74500006
0.27210242 -0.1294881 0.74500006
0.30438572 -0.12842382 0.74500006
0.30730629 -0.12817448 0.74520004
0.31219053 -0.12806906 0.745
0.31801048 -0.12734573 0.7470001
0.32230154 -0.12771975 0.74800009
0.31630349 -0.12225556 0.74633348
0.30947146 -0.11809716 0.74700004
0.31239194 -0.11716526 0.74650013
0.31576788 -0.11734787 0.74675
0.30083811 -0.10004286 0.74500006
0.29782128 -0.098089539 0.74633336
0.30012858 -0.097914293 0.74500006
0.19828162 -0.09109588 0.74533337
0.19841187 -0.087877423 0.74671435
0.20125543 -0.086894445 0.7458334
0.20402882 -0.083676428 0.74774998
0.20633651 -0.08279743 0.74671435
0.20868134 -0.077137344 0.74580008
0.21143812 -0.075919054 0.74500006
0.20939717 -0.074225716 0.7470001
0.21266866 -0.072270244 0.74641675
0.21659717 -0.07030572 0.74566674
0.21357097 -0.069054767 0.74750006
0.21748155 -0.067929409 0.74687511
0.22117978 -0.066495478 0.74675006
0.22283377 -0.063316934 0.74700004
0.22552288 -0.061182864 0.74700004
0.22948383 -0.051153336 0.74600005
0.23210421 -0.051024955 0.74620003
0.23587716 -0.050443813 0.74600005
0.22979145 -0.049088575 0.74700004
0.23294859 -0.048584383 0.74800009
0.2359297 -0.047612231 0.74616671
0.23795265 -0.042858619 0.74663651
0.24104477 -0.04153429 0.74550003
0.24265943 -0.039139055 0.74720001
0.24712572 -0.037538812 0.74725002
0.25004572 -0.03704381 0.74800003
0.25004572 -0.03490667 0.74800003
0.29797286 -0.14593858 0.75300002
0.30253333 -0.14624882 0.75275004
0.30758652 -0.14626494 0.75283337
0.31283629 -0.14666943 0.75270015
0.31714621 -0.14650397 0.75283337
0.23928574 -0.14071429 0.75000006
0.24285169 -0.14248525 0.75274998
0.24712744 -0.14185086 0.75300002
0.25028288 -0.14127715 0.75300002
0.2588886 -0.14127715 0.75300002
0.2624743 -0.14127715 0.75300002
0.26677716 -0.14127715 0.75300002
0.27251431 -0.14127715 0.75300002
0.27753431 -0.14127716 0.75300002
0.28298461 -0.141564 0.75300002
0.28757432 -0.14199428 0.75300002
0.29266068 -0.14214996 0.75255567
0.29758367 -0.14241754 0.75220007
0.30179515 -0.14283133 0.75111109
0.30718696 -0.14291918 0.75085717
0.31243905 -0.14255258 0.75139999
0.3170943 -0.1423431 0.75199997
0.23923366 -0.13905716 0.75133342
0.24246572 -0.13875715 0.75100011
0.24736694 -0.13796225 0.75127274
0.25246117 -0.13833316 0.75180006
0.25765684 -0.13813445 0.75150001
0.26275834 -0.13826691 0.75125003
0.26721185 -0.13797316 0.75139999
0.27214983 -0.13825576 0.75145453
0.27730405 -0.13746215 0.75108331
0.2822921 -0.13804635 0.75166672
0.28698859 -0.13839953 0.75099999
0.29192448 -0.13893336 0.75066674
0.29614291 -0.1387143 0.75000006
0.31285715 -0.13785715 0.75000012
0.31724766 -0.13786572 0.75159997
0.3223629 -0.13690884 0.75263649
0.31928572 -0.13357143 0.75000006
0.3221429 -0.13357143 0.75000012
0.32690477 -0.13309525 0.75000012
0.3214286 -0.12500001 0.75000006
0.31928572 -0.12285715 0.75000006
0.32222372 -0.12235647 0.75257146
0.31870478 -0.11960382 0.75200003
0.32153216 -0.11936501 0.75275004
0.19785716 -0.086428575 0.75000006
0.20115843 -0.085188895 0.75166672
0.2027481 -0.082747146 0.75225008
0.2057143 -0.080714293 0.75000006
0.2040989 -0.077881716 0.75300002
0.20690912 -0.077321522 0.75174999
0.20792495 -0.073371276 0.75283337
0.21069953 -0.071666673 0.75250006
0.21253648 -0.067598395 0.75190002
0.21689525 -0.065980002 0.75100005
0.21442573 -0.063825719 0.75300002
0.21784185 -0.062342785 0.75241673
0.22207268 -0.062031843 0.75114292
0.2182505 -0.059044771 0.75300002
0.22175024 -0.057930134 0.75263643
0.23270015 -0.046089526 0.75114286
0.23500001 -0.046428576 0.75000006
0.23386972 -0.042586673 0.75280005
0.23604955 -0.042349052 0.75050002
0.23450573 -0.03944286 0.75300002
0.23805569 -0.038101561 0.75227278
0.24253403 -0.036387142 0.75209999
0.24653748 -0.035729848 0.75033343
0.24454573 -0.033705715 0.75300002
0.24809226 -0.032866944 0.75257152
0.25028288 -0.031554289 0.75300002
0.24814306 -0.028239811 0.75260007
0.25028288 -0.02940286 0.75300002
0.31330669 -0.15520954 0.75800002
0.3176381 -0.15520954 0.75800002
0.32124764 -0.15520954 0.75800002
0.29381526 -0.1508781 0.75800002
0.29756808 -0.15152507 0.75690001
0.30263942 -0.15204172 0.75660002
0.30747658 -0.15222628 0.7568
0.31258342 -0.15193664 0.75672734
0.31760985 -0.15224658 0.75690001
0.32096511 -0.15218922 0.7573334
0.24768956 -0.14692873 0.75571436
0.25267813 -0.14646934 0.75760001
0.25808099 -0.14690763 0.75800002
0.26277336 -0.14726858 0.75799996
0.26746571 -0.14690763 0.75800002
0.27186936 -0.14596915 0.75800002
0.27721149 -0.14726858 0.75799996
0.28218004 -0.1476524 0.75700003
0.28720462 -0.14796321 0.75718188
0.29254439 -0.14771502 0.75658339
0.29724455 -0.14799334 0.7552501
0.30271906 -0.14884287 0.75500005
0.3077524 -0.14884287 0.75500005
0.31206667 -0.14884287 0.75500005
0.31949687 -0.14836352 0.75500005
0.32298702 -0.14779651 0.75700009
0.32594004 -0.14618573 0.75800002
0.24778382 -0.14424096 0.75500005
0.25278249 -0.14319935 0.75557154
0.25743967 -0.14334251 0.75563639
0.26262623 -0.14390525 0.75550008
0.26737976 -0.14361048 0.75557154
0.27251941 -0.14369684 0.75566673
0.27745378 -0.14381593 0.75557154
0.28228152 -0.14396696 0.75528586
0.28690001 -0.1445286 0.75500005
0.29202932 -0.14457645 0.75525004
0.31997621 -0.14452858 0.75500005
0.32302347 -0.14244764 0.75540012
0.3275823 -0.14173156 0.75637501
0.33222061 -0.1419265 0.75800002
0.32141432 -0.1387762 0.75500005
0.32782599 -0.13764778 0.75557154
0.33193183 -0.13817258 0.75800002
0.32904002 -0.13464001 0.75600004
0.19845715 -0.08556667 0.75500005
0.19803762 -0.082009621 0.75670004
0.20139977 -0.081998341 0.7552501
0.19947478 -0.07827381 0.75750005
0.20213957 -0.077544428 0.75581831
0.20369323 -0.073048584 0.75728571
0.20656057 -0.071457967 0.75571436
0.20785643 -0.068804286 0.75650001
0.21111813 -0.066597842 0.75657147
0.21338262 -0.063098513 0.75657153
0.21528001 -0.061200004 0.75600004
0.21727011 -0.057378814 0.75625008
0.22104001 -0.055440005 0.75600004
0.22114351 -0.053661596 0.75800008
0.23096716 -0.046049051 0.75550008
0.23291954 -0.042121433 0.75600004
0.23306277 -0.037762009 0.75669998
0.23661117 -0.036061775 0.75514299
0.23822859 -0.033929527 0.75800002
0.24246307 -0.032721527 0.7568
0.24641068 -0.031502478 0.75520009
0.24424446 -0.029116828 0.75800008
0.24656574 -0.028837144 0.75699997
0.31392002 -0.16059335 0.76300001
0.31749955 -0.1607462 0.76200002
0.32264 -0.16059335 0.76300001
0.28921336 -0.15623334 0.76300001
0.29248333 -0.15659668 0.76300001
0.29728645 -0.15668069 0.76214296
0.30285749 -0.15694259 0.76150006
0.30762935 -0.15732117 0.7612223
0.31206232 -0.15748134 0.76060009
0.31745744 -0.15795349 0.76028579
0.32260534 -0.15762845 0.76071441
0.32711601 -0.15729977 0.76200008
0.33250195 -0.15685621 0.76300007
0.35897335 -0.15768668 0.76300001
0.36115336 -0.15696001 0.76300001
0.25310811 -0.15048763 0.7615
0.25726163 -0.1519109 0.7621429
0.26265356 -0.15263565 0.7610001
0.26771113 -0.15308256 0.76177782
0.27250421 -0.15302211 0.76220006
0.27731311 -0.15281406 0.76225007
0.28249285 -0.152813 0.76109099
0.28747725 -0.15309118 0.76110011
0.29236159 -0.1529292 0.76036376
0.29748577 -0.15417144 0.76000011
0.32420707 -0.15247487 0.76020002
0.3279843 -0.15261498 0.76090014
0.33250937 -0.15239848 0.76115394
0.33744687 -0.15225741 0.76227278
0.34187967 -0.1524141 0.76280004
0.34516668 -0.15042001 0.76300001
0.25333336 -0.14838096 0.76000005
0.25767624 -0.14910477 0.76000011
0.26274288 -0.14982858 0.76000011
0.2682921 -0.14934604 0.76000011
0.2728762 -0.14910477 0.76000011
0.27721906 -0.14982858 0.76000011
0.28011429 -0.14982858 0.76000005
0.32829937 -0.14796738 0.76000011
0.3323743 -0.14699844 0.76033348
0.33706418 -0.14714795 0.76111114
0.34205243 -0.14792858 0.76300007
0.34516668 -0.14896667 0.76300001
0.33150479 -0.14403811 0.76000005
0.33748034 -0.14273024 0.7614547
0.33367622 -0.13680001 0.76000005
0.33632252 -0.13821124 0.76140004
0.19615239 -0.080342859 0.76000005
0.19496097 -0.078274295 0.76100004
0.19777207 -0.077998415 0.76066673
0.20049526 -0.076000005 0.76000005
0.20245525 -0.072318345 0.76125002
0.20385739 -0.068556912 0.76175004
0.20693092 -0.066561915 0.76085728
0.2075524 -0.064588577 0.76200002
0.21206963 -0.061854195 0.76050013
0.21350324 -0.058492195 0.76200002
0.21611589 -0.056387626 0.76233339
0.21819924 -0.053643968 0.76116675
0.22076192 -0.052838098 0.76000005
0.2291832 -0.041868262 0.76233339
0.23141655 -0.042949647 0.76112503
0.22932479 -0.039914288 0.76200002
0.23159158 -0.037712544 0.76150006
0.23400898 -0.032973528 0.76260006
0.2371821 -0.032290097 0.7602002
0.2417524 -0.031123811 0.76000005
0.23821738 -0.027885379 0.76192874
0.24248946 -0.027322859 0.76045465
0.24766465 -0.026069641 0.76037508
0.23948479 -0.023948573 0.76200002
0.24256179 -0.023105716 0.76157153
0.24714383 -0.023192381 0.7610001
0.32287049 -0.16581811 0.76700002
0.32746765 -0.1659262 0.76750004
0.33206859 -0.1660343 0.76800001
0.35720289 -0.16581813 0.76700008
0.26404575 -0.16018286 0.76800001
0.26989716 -0.16018286 0.76800001
0.27282292 -0.16018286 0.76800001
0.27684572 -0.16128001 0.76800001
0.28233144 -0.16164573 0.76800001
0.28825355 -0.1618962 0.76780003
0.29272127 -0.16239145 0.76757157
0.2975561 -0.1627302 0.76690006
0.30221862 -0.16206145 0.76650012
0.30724251 -0.16191188 0.76628578
0.31257361 -0.16259785 0.76657158
0.31716138 -0.16364083 0.76657146
0.32246032 -0.16336532 0.76528579
0.3277393 -0.16286692 0.76599997
0.33207783 -0.16275589 0.76633334
0.33685476 -0.16221225 0.76771438
0.34182096 -0.16067049 0.76800007
0.34779429 -0.16054858 0.76800001
0.35328004 -0.16164571 0.76800007
0.35722399 -0.16253275 0.76590914
0.25841951 -0.1562205 0.7665
0.2621268 -0.15698519 0.76666677
0.26748466 -0.15786037 0.76737505
0.27257892 -0.15750301 0.7661429
0.27788702 -0.15785636 0.76616669
0.28256685 -0.15787445 0.76566666
0.28763357 -0.15860923 0.76588887
0.29215714 -0.1589743 0.76500005
0.29682001 -0.15926573 0.76500005
0.30235717 -0.15955715 0.76500005
0.3322286 -0.15955715 0.76500005
0.33776957 -0.15806445 0.76600003
0.34248349 -0.15694256 0.76566666
0.3480545 -0.15715791 0.76680011
0.35292205 -0.15709832 0.76722229
0.35735285 -0.15776858 0.76642865
0.36047018 -0.15580669 0.76566672
0.25645715 -0.15372857 0.76500005
0.3446143 -0.15227143 0.76500005
0.34816596 -0.15265357 0.76600003
0.35282001 -0.15266953 0.76700008
0.35721412 -0.1525505 0.76640004
0.3601248 -0.15413049 0.76700002
0.34388572 -0.14644286 0.76500005
0.34796575 -0.14726876 0.76654559
0.35284945 -0.14812885 0.76770008
0.35574192 -0.14974762 0.76700002
0.34263846 -0.1424149 0.76587504
0.34695548 -0.14343126 0.76760006
0.33791831 -0.13601469 0.76700002
0.34149811 -0.13842429 0.76699996
0.19862407 -0.075944051 0.76675004
0.20088096 -0.075239055 0.76700002
0.19924931 -0.072753102 0.76775002
0.20135982 -0.071987242 0.76660001
0.19382858 -0.068022862 0.76800001
0.1978182 -0.067357928 0.76800013
0.20239596 -0.066938341 0.76675004
0.19382858 -0.063634291 0.76800001
0.19602287 -0.063634291 0.76800001
0.20366812 -0.062961668 0.7665
0.20751317 -0.06183029 0.76559997
0.21104288 -0.060957149 0.76500005
0.20897749 -0.058630165 0.76633334
0.21240334 -0.057066195 0.76574999
0.21349907 -0.054507434 0.76719999
0.21717477 -0.052376196 0.76650006
0.22145219 -0.050946292 0.76640004
0.22279394 -0.047701791 0.76762503
0.22454859 -0.043154288 0.76800001
0.22731915 -0.042690873 0.76625007
0.22863764 -0.038349524 0.76700008
0.23102652 -0.036339622 0.76620001
0.23239446 -0.033080954 0.76700002
0.2339043 -0.027776193 0.76750004
0.23615968 -0.026968256 0.76533335
0.23478858 -0.024137145 0.76800001
0.23778732 -0.022795981 0.76666671
0.24204241 -0.021142382 0.76550001
0.24698573 -0.021128573 0.76500005
0.23917715 -0.019748572 0.76800001
0.24273922 -0.019089116 0.76671433
0.24752447 -0.018983811 0.76666677
0.27754384 -0.17006001 0.77300012
0.28048858 -0.17006001 0.77300006
0.29742098 -0.17006001 0.77300006
0.30220622 -0.1704281 0.77300006
0.30723688 -0.17202318 0.77300012
0.31288099 -0.17177778 0.77300012
0.31759259 -0.17212133 0.77300006
0.32189098 -0.17198619 0.77283347
0.32760477 -0.17094344 0.77300006
0.33202195 -0.17006001 0.77300012
0.33643907 -0.17006001 0.77300006
0.27288437 -0.16674042 0.77277786
0.27738383 -0.16701959 0.77255565
0.2822639 -0.16684455 0.77236366
0.2878949 -0.16685084 0.77262509
0.29230964 -0.16740251 0.77262503
0.29734999 -0.16773988 0.77200001
0.30249012 -0.16746752 0.77171433
0.3073124 -0.1683853 0.77145457
0.31255835 -0.16813168 0.77174997
0.3176229 -0.16836953 0.77200001
0.32206362 -0.16828167 0.77075005
0.32725832 -0.16840191 0.77080005
0.33220002 -0.16793334 0.7700001
0.33728835 -0.16785647 0.77157152
0.34194598 -0.16618897 0.77280003
0.34704024 -0.16593735 0.77300006
0.35266608 -0.16591749 0.77200007
0.3556667 -0.16646668 0.77000004
0.26797611 -0.16170833 0.77028579
0.27242005 -0.1630124 0.77100003
0.27690288 -0.16332495 0.77040005
0.28233334 -0.16353336 0.7700001
0.28673339 -0.16353336 0.7700001
0.29260004 -0.16500001 0.7700001
0.29553336 -0.16500001 0.77000004
0.3028667 -0.16500001 0.7700001
0.30763334 -0.16463333 0.77000004
0.3116667 -0.16500001 0.7700001
0.33880001 -0.16426668 0.77000004
0.34283334 -0.16316667 0.77000004
0.34754261 -0.16302614 0.77057147
0.35244 -0.16382669 0.77000004
0.35346669 -0.14593334 0.77000004
0.34797639 -0.14119604 0.77083343
0.35269567 -0.14242104 0.77115405
0.35558003 -0.14061239 0.77300006
0.34305671 -0.13685572 0.7705
0.34665602 -0.13763164 0.77280009
0.35558003 -0.13914001 0.77300006
0.34217811 -0.13437429 0.77100003
0.34895432 -0.12294382 0.77300006
0.32196069 -0.11656351 0.77300012
0.32392383 -0.11410953 0.77300006
0.19653335 -0.076266676 0.77000004
0.19410285 -0.072053336 0.77200001
0.19721097 -0.07246381 0.7705
0.19368415 -0.067007944 0.77033341
0.19726668 -0.067320004 0.77000004
0.19873334 -0.063800007 0.77000004
0.2027555 -0.062555477 0.77275008
0.20733623 -0.058818735 0.77200001
0.21332248 -0.05241143 0.77200013
0.2169883 -0.050753336 0.77233338
0.21780375 -0.047918186 0.77190912
0.22092447 -0.047706671 0.77066672
0.22645335 -0.046320003 0.77200001
0.21859162 -0.044012576 0.77280003
0.22259247 -0.042842712 0.7725386
0.2256462 -0.04182905 0.77050006
0.22377487 -0.037811052 0.77240008
0.22708869 -0.037127625 0.77111113
0.26429239 -0.036073335 0.77300006
0.26650095 -0.036809526 0.77300006
0.2245381 -0.033864766 0.77300006
0.22757256 -0.032541763 0.77253848
0.23122752 -0.031405598 0.771375
0.26576477 -0.034600955 0.77300006
0.22846447 -0.028220637 0.77300012
0.23156521 -0.027199475 0.77188897
0.23336601 -0.023220411 0.77228576
0.23609273 -0.02177397 0.77066672
0.23828393 -0.018371072 0.77162504
0.24240616 -0.016409736 0.7715556
0.24748154 -0.016321525 0.77200007
0.25071621 -0.016910477 0.77200001
0.28414956 -0.17583144 0.77900004
0.28860098 -0.17583144 0.77900004
0.29231048 -0.17583144 0.77900004
0.29750383 -0.17583144 0.77900004
0.30281398 -0.1762508 0.77866668
0.30711946 -0.17704287 0.77780002
0.31274879 -0.17674612 0.77780002
0.3170608 -0.17772667 0.77820003
0.32268527 -0.17671762 0.778
0.32718003 -0.17583144 0.77900004
0.33235773 -0.17661485 0.77871436
0.33723614 -0.17699456 0.77700001
0.34228316 -0.17637156 0.77671427
0.28310737 -0.17223091 0.7761429
0.28763658 -0.17261431 0.77719998
0.29249483 -0.17208548 0.77609092
0.2970345 -0.17330955 0.77700007
0.30239654 -0.17309387 0.77633339
0.30815476 -0.17455953 0.77500004
0.31184527 -0.17419048 0.77500004
0.31723335 -0.17463334 0.77500004
0.32254764 -0.17419049 0.77500004
0.32792526 -0.1735643 0.7755
0.33316669 -0.17286351 0.77566665
0.33741787 -0.17277025 0.77525002
0.34262085 -0.17242129 0.77700007
0.34721002 -0.17240192 0.77775002
0.35196525 -0.17223991 0.77766669
0.35759813 -0.17138001 0.77900004
0.28638095 -0.16902383 0.77500004
0.34358338 -0.16865477 0.77500004
0.34786716 -0.16839477 0.77550006
0.35193717 -0.16857652 0.77633345
0.35667908 -0.16909097 0.77700001
0.34801194 -0.13617858 0.77500004
0.35221907 -0.13772859 0.77500004
0.35502383 -0.13876191 0.77500004
0.33385718 -0.12241429 0.77900004
0.34838098 -0.12400001 0.77500004
0.35059527 -0.1247381 0.77500004
0.32353181 -0.11784922 0.77500004
0.32739756 -0.11801582 0.77740002
0.33064228 -0.11697366 0.77900004
0.32829288 -0.11239858 0.77900004
0.33014765 -0.11425334 0.77900004
0.19780955 -0.062738098 0.77500004
0.20193462 -0.061638415 0.77666676
0.20498002 -0.059940003 0.77700001
0.20782028 -0.057064362 0.77814287
0.21136762 -0.056166671 0.77600002
0.2095997 -0.052586354 0.77766669
0.21161336 -0.052226987 0.77600002
0.20995906 -0.049707621 0.77900004
0.21298958 -0.047765352 0.77715385
0.21593954 -0.045850005 0.77650005
0.21731083 -0.042180005 0.77700001
0.22142859 -0.040595241 0.77500004
0.21882699 -0.03828191 0.77800006
0.22185527 -0.037345238 0.77650005
0.22305727 -0.033511218 0.77811116
0.22570002 -0.031080004 0.77700001
0.2649762 -0.034690477 0.77500004
0.26692641 -0.033242226 0.77566665
0.22756153 -0.027138913 0.7761429
0.22821239 -0.024451431 0.778
0.23161788 -0.022281377 0.77700013
0.29381049 -0.18120858 0.78300005
0.29753333 -0.18135048 0.78200006
0.30238479 -0.18181553 0.78285718
0.3081567 -0.18146621 0.78250003
0.31205529 -0.18097715 0.78200006
0.3169286 -0.18195525 0.78299999
0.32032001 -0.18144001 0.78400004
0.32853335 -0.18144001 0.78400004
0.33269358 -0.18257214 0.78325003
0.33617276 -0.18113145 0.78266668
0.28748572 -0.17680001 0.78000003
0.29290152 -0.17850749 0.78142858
0.29756927 -0.17845744 0.78028578
0.30234289 -0.1784343 0.78000003
0.30729526 -0.1790286 0.78000009
0.31274289 -0.1790286 0.78000009
0.31868574 -0.17902859 0.78000003
0.32330668 -0.17994669 0.7840001
0.32777333 -0.17871973 0.78142864
0.33227098 -0.17840049 0.78049999
0.33502859 -0.17902859 0.78000003
0.34988573 -0.17457144 0.78000003
0.35731432 -0.17011429 0.78000003
0.35301715 -0.13629144 0.78200006
0.35525146 -0.13629144 0.78200006
0.35227239 -0.13405715 0.78200006
0.35599622 -0.13331239 0.78200006
0.34988573 -0.12554286 0.78000003
0.33365145 -0.12064953 0.78200006
0.33730915 -0.12249497 0.78085726
0.34238738 -0.1227503 0.78200012
0.33318204 -0.11764899 0.78114295
0.33724698 -0.11747798 0.78071433
0.34228957 -0.11768264 0.78092313
0.32908574 -0.11217143 0.78000003
0.33209401 -0.11226857 0.78066671
0.3369306 -0.11275154 0.78288889
0.34110099 -0.11394858 0.78200006
0.32834288 -0.10845715 0.78000003
0.33216384 -0.10873524 0.78200006
0.19934 -0.060992382 0.78100002
0.20205715 -0.060171433 0.78000003
0.19885068 -0.057345908 0.78200001
0.20254201 -0.057279319 0.78109103
0.20626669 -0.056209531 0.78000009
0.20392917 -0.053556573 0.78320009
0.20705128 -0.052557405 0.78127283
0.20807676 -0.048851706 0.78228581
0.21060002 -0.046428576 0.78000003
0.21359023 -0.042568814 0.78075004
0.21617144 -0.040857144 0.78000003
0.21429335 -0.037333336 0.78400004
0.21626079 -0.037208956 0.78140008
0.2175203 -0.033536602 0.78257149
0.22205263 -0.03182786 0.78175008
0.27104002 -0.033600003 0.78400004
0.22591165 -0.027215241 0.78080004
0.30282575 -0.19011144 0.78900003
0.30808574 -0.19011144 0.78900003
0.31259429 -0.19011144 0.78900003
0.31848803 -0.19157372 0.78760004
0.32255027 -0.19225645 0.78625011
0.32666382 -0.19074145 0.78850007
0.29944003 -0.18536763 0.78800005
0.30294228 -0.18786922 0.78800005
0.30763257 -0.18722808 0.78836375
0.31258383 -0.18755096 0.78850007
0.31777611 -0.1882395 0.78745461
0.32300499 -0.18776914 0.78800005
0.32794833 -0.18703459 0.78870004
0.33196068 -0.18711874 0.78800005
0.29793143 -0.18340001 0.78600001
0.30242288 -0.18489715 0.78600001
0.3076629 -0.18340001 0.78600001
0.31290287 -0.18414858 0.78600001
0.31694517 -0.18459773 0.78600001
0.32290861 -0.18330607 0.78666675
0.32715851 -0.18298781 0.78680009
0.33111814 -0.18389904 0.78600001
0.34897146 -0.1358362 0.78800005
0.35232228 -0.13577873 0.78766674
0.35632002 -0.13549143 0.78600001
0.34844178 -0.13291889 0.78850007
0.35257399 -0.13277748 0.78766674
0.35797715 -0.13208383 0.78800005
0.34866291 -0.12849431 0.78900003
0.35216472 -0.12830183 0.78781825
0.35767695 -0.129232 0.78800005
0.33546287 -0.12232763 0.78800005
0.19762287 -0.056142859 0.78600001
0.29230571 -0.056357145 0.78900003
0.29606289 -0.056357145 0.78900003
0.19862327 -0.053643137 0.787
0.20262401 -0.051891621 0.78740007
0.20425859 -0.048811905 0.78850007
0.20718645 -0.04687405 0.78750002
0.21034859 -0.045662861 0.78600001
0.20855813 -0.043313973 0.78866673
0.21164738 -0.042501226 0.78685725
0.20964858 -0.039825715 0.78900003
0.21261853 -0.037744939 0.78836375
0.21409146 -0.032188572 0.78600001
0.31417906 -0.19560668 0.79300004
0.30782232 -0.19259639 0.79179996
0.31265348 -0.19324072 0.79214293
0.31697619 -0.1933524 0.79150003
0.32016668 -0.19360667 0.79100001
0.32920668 -0.19059335 0.79100001
0.33071336 -0.19059335 0.79100001
0.29303241 -0.055132385 0.79300004
0.29781562 -0.055132385 0.7930001
0.20114002 -0.050473336 0.79100001
0.29606003 -0.054993335 0.79100001
0.20286518 -0.047511436 0.79185718
0.20566002 -0.045953337 0.79100001
0.20466954 -0.04455905 0.79300004
0.20695959 -0.042123951 0.7918573
0.19975477 -0.051647145 0.79750001
0.20064287 -0.050728574 0.79500002
0.2937648 -0.053296193 0.79566669
0.2967926 -0.052927434 0.79619998
0.19988002 -0.048640002 0.79800004
0.20159025 -0.047455005 0.79725003
0.19796002 -0.051492382 0.801
