# .PCD v0.7 - Point Cloud Data file format
VERSION 0.7
FIELDS x y z
SIZE 4 4 4
TYPE F F F
COUNT 1 1 1
WIDTH 330
HEIGHT 1
VIEWPOINT 0 0 0 1 0 0 0
POINTS 330
DATA ascii
0.20750557 -0.041842062 0.67740005
0.21474718 -0.041727651 0.67440003
0.22445008 -0.041204579 0.67700005
0.23209673 -0.040306758 0.67800009
0.20616548 -0.036210388 0.6765185
0.21467531 -0.034692701 0.67467493
0.22441466 -0.035053305 0.67646551
0.2315872 -0.037458073 0.67800003
0.21511057 -0.028271804 0.67764717
0.2216007 -0.028746091 0.67800003
0.18843161 -0.042832293 0.68842864
0.19468498 -0.043155018 0.68487799
0.20473538 -0.042597342 0.68375003
0.21815081 -0.046572085 0.68611115
0.22497915 -0.045425933 0.68297511
0.23565219 -0.043715063 0.68192506
0.2429921 -0.044019021 0.68454558
0.18903843 -0.039073903 0.68800002
0.19523898 -0.035276793 0.68475288
0.20332423 -0.032902092 0.68092102
0.22822446 -0.031291857 0.68042862
0.23568231 -0.034371257 0.68264431
0.24177557 -0.034753907 0.68622231
0.19747317 -0.026771246 0.68790317
0.20519952 -0.025073914 0.68398684
0.21510527 -0.02386242 0.68215674
0.22511092 -0.024783447 0.68306774
0.23408721 -0.026192283 0.68673456
0.24114367 -0.028972013 0.68900001
0.20667061 -0.018661112 0.68880957
0.21556309 -0.01742004 0.68723983
0.22414103 -0.017256914 0.68748373
0.23099515 -0.018211389 0.68900001
0.18714161 -0.051170498 0.69575006
0.19285457 -0.05097514 0.69485724
0.20558217 -0.050996225 0.69800007
0.21748933 -0.051518228 0.69800001
0.23647285 -0.051810224 0.69755554
0.24594778 -0.052798789 0.69587505
0.25123435 -0.053265687 0.69485724
0.18625273 -0.045783337 0.69263345
0.19477142 -0.04809574 0.69300008
0.20494983 -0.047396034 0.69409376
0.21481575 -0.048125833 0.69304353
0.22697297 -0.048231065 0.69274998
0.23494132 -0.049212173 0.693353
0.24452594 -0.048730943 0.6912778
0.18792053 -0.034905579 0.69539988
0.19117869 -0.03255786 0.69181818
0.24354002 -0.030985381 0.6910001
0.18838947 -0.026611457 0.69785714
0.19373143 -0.024404593 0.69421065
0.20011471 -0.021308145 0.69000006
0.23762652 -0.022493713 0.69157147
0.24255577 -0.024271287 0.69296545
0.19726565 -0.016018415 0.69570822
0.20408715 -0.014074574 0.69150013
0.21431595 -0.012313371 0.69018209
0.22609437 -0.013014354 0.690844
0.23527734 -0.0151071 0.69389802
0.24183345 -0.016179871 0.69740009
0.19912937 -0.0088872015 0.69800007
0.20552236 -0.0054579042 0.69622034
0.21500419 -0.0049009938 0.69408107
0.22503997 -0.0050598606 0.69516879
0.23304184 -0.0064339284 0.69729036
0.20899336 0.0011003867 0.69783342
0.21502638 0.001969856 0.69766682
0.2240034 0.0013669076 0.69863635
0.18533352 -0.060325012 0.70700002
0.24581194 -0.060609896 0.70718187
0.18723704 -0.056332503 0.70483327
0.19530985 -0.05468259 0.70542878
0.2043985 -0.054622136 0.70371068
0.21487668 -0.054327197 0.70400017
0.22533876 -0.055234097 0.70500004
0.23537375 -0.05551184 0.70336592
0.24491505 -0.057249289 0.70300001
0.25049323 -0.057695501 0.70200002
0.18539055 -0.033449277 0.70380956
0.1867225 -0.024874417 0.70393747
0.19044639 -0.021448651 0.70050007
0.18897906 -0.015863739 0.70769233
0.19254431 -0.014502616 0.70344442
0.2398383 -0.010623465 0.70000005
0.24257815 -0.011555289 0.70100003
0.18921451 -0.0075433217 0.70900005
0.19538121 -0.0051275841 0.70417112
0.20218194 -0.0020955582 0.7003637
0.23716833 -0.0039245044 0.70129627
0.24341017 -0.0044124541 0.70586216
0.19769721 0.0031335703 0.70672739
0.20483027 0.0052514309 0.70380604
0.21480739 0.0065143732 0.70148009
0.22520454 0.006206146 0.70153987
0.23479511 0.0048414944 0.70430368
0.24349186 0.0016736741 0.70866674
0.20710999 0.013407441 0.70720017
0.21477793 0.014974884 0.70588243
0.22489195 0.014509945 0.70606577
0.23244491 0.012532569 0.7067858
0.21486963 0.021080554 0.70800018
0.222095 0.020388698 0.708
0.18916811 -0.062398169 0.71375
0.19471227 -0.062900662 0.71550006
0.20455836 -0.061592001 0.71609998
0.2143257 -0.061815541 0.71566665
0.22622651 -0.062098302 0.71350014
0.23547602 -0.063297674 0.71466666
0.24305336 -0.064756848 0.71361113
0.18974826 -0.059921898 0.71100003
0.19508804 -0.058738872 0.71053851
0.2049184 -0.058598883 0.71074998
0.21538298 -0.059342667 0.71054554
0.22085491 -0.05909425 0.71000004
0.23385251 -0.05909425 0.71000004
0.18413796 -0.031261861 0.71100003
0.18451197 -0.028656403 0.71100003
0.18647657 -0.01427313 0.71161109
0.18836421 -0.005251097 0.71544451
0.19134951 -0.0021055436 0.71140009
0.18890324 0.0018848174 0.71860009
0.1937764 0.0057424339 0.71328342
0.20094337 0.0091131805 0.71025002
0.23952962 0.0085523799 0.71000004
0.24401763 0.0055867988 0.71076924
0.19603385 0.014331747 0.7156924
0.20324025 0.015995475 0.71172321
0.2290718 0.018959554 0.71000004
0.23575217 0.016321639 0.7127499
0.24269079 0.014162476 0.71570587
0.19847587 0.021937262 0.7182222
0.20495632 0.024724532 0.71370524
0.21514557 0.025769699 0.71149987
0.22518612 0.024948196 0.7125178
0.23433581 0.025130447 0.71666664
0.241053 0.020705473 0.71900004
0.2071548 0.031310901 0.71706676
0.21493886 0.033127014 0.71584451
0.22432156 0.032501098 0.71667737
0.23197551 0.031620964 0.71900004
0.19544595 -0.070427574 0.72500002
0.2060837 -0.072621264 0.72736359
0.21433735 -0.072325543 0.72794998
0.22479339 -0.072349131 0.72711551
0.23426798 -0.071089618 0.72313344
0.24096496 -0.070578203 0.72100002
0.19600564 -0.067837216 0.72205883
0.20548293 -0.067043595 0.72378802
0.2151287 -0.067100741 0.72369444
0.22439422 -0.067068085 0.7233429
0.23496334 -0.068378903 0.72131836
0.18709438 -0.0054458817 0.72330004
0.18813169 0.0052722343 0.72687095
0.19072628 0.0085139666 0.72250003
0.18923993 0.016051799 0.72774994
0.19223164 0.015871067 0.72317857
0.2442289 0.019980429 0.72000003
0.18916965 0.022946784 0.72633338
0.19491035 0.025395226 0.7231847
0.23860012 0.027946813 0.72022235
0.2440972 0.025350746 0.72312129
0.19713156 0.033638228 0.72678787
0.20403779 0.035580449 0.72178686
0.21403348 0.037964843 0.72010016
0.2250018 0.03747825 0.72055167
0.23507042 0.035769254 0.72290206
0.24315053 0.034586854 0.72791666
0.19992086 0.041219905 0.72900003
0.20557655 0.04439969 0.72596782
0.21497369 0.04472696 0.72340012
0.22493584 0.044960324 0.72411495
0.23353951 0.045040555 0.72766662
0.24095422 0.040075012 0.72900003
0.20874131 0.051010288 0.72820008
0.21566784 0.052610531 0.72771412
0.22357118 0.05261765 0.72804356
0.2309835 0.05152395 0.72900003
0.22477208 -0.074898608 0.73000002
0.18569587 0.0086156353 0.731125
0.18571874 0.014759659 0.73358339
0.18766384 0.02214583 0.7334668
0.19174677 0.02942965 0.73000002
0.24892154 0.029087286 0.73100001
0.25003222 0.029510278 0.73200005
0.19392702 0.036540564 0.73279428
0.24734917 0.034835946 0.73120004
0.2509869 0.032613441 0.73285717
0.19623116 0.044863209 0.7345385
0.20157158 0.047599282 0.73092318
0.23795533 0.046298098 0.73081815
0.24445502 0.045014657 0.73446685
0.19829723 0.054568116 0.73752636
0.20449758 0.055438768 0.73331892
0.21433845 0.057294704 0.7310937
0.22556891 0.056895148 0.73103446
0.234832 0.055203374 0.73355114
0.24361356 0.053027418 0.73791307
0.20658962 0.063602433 0.73700023
0.21491072 0.065024622 0.73564279
0.22460043 0.064558789 0.7355094
0.23306023 0.063762575 0.73779321
0.20888326 0.070026577 0.73900002
0.21551791 0.07090348 0.73900008
0.22470368 0.071237631 0.73900014
0.18815017 0.039031707 0.74737513
0.19094275 0.038136244 0.74180001
0.18834342 0.044341896 0.74778253
0.19187103 0.045601003 0.74249995
0.18885723 0.050584894 0.74900001
0.1940832 0.054581977 0.74402088
0.24336219 0.057270676 0.74013335
0.19662897 0.0642194 0.74527919
0.20253277 0.066513203 0.74183863
0.23673052 0.066500299 0.7413044
0.24430567 0.064867191 0.74479079
0.19825749 0.074004002 0.74789989
0.20491919 0.074868396 0.74455893
0.21491085 0.075956926 0.74192172
0.22558393 0.076137558 0.74167573
0.23441847 0.075305752 0.7440002
0.24370931 0.071710587 0.74849993
0.20692775 0.082221955 0.7473157
0.21546315 0.083580822 0.74600005
0.22488828 0.08376164 0.74578577
0.23308918 0.083309956 0.74776179
0.18604316 0.046578661 0.75156265
0.18755442 0.055045675 0.75424999
0.19136588 0.057338815 0.75154549
0.18893164 0.061402008 0.75666678
0.19223447 0.065342188 0.75400001
0.25040731 0.068290204 0.75400001
0.19527777 0.075155906 0.7539143
0.23882094 0.078921415 0.75000006
0.2459653 0.076125495 0.75294447
0.25064635 0.075835519 0.75520003
0.19775645 0.084210329 0.75686204
0.20443523 0.086323619 0.75336361
0.21396086 0.088018231 0.7503078
0.224519 0.088246249 0.75000006
0.23674315 0.086206928 0.75216675
0.24450661 0.083997265 0.75648475
0.25093824 0.082144126 0.75800008
0.1990447 0.092106424 0.75900006
0.20575626 0.094491929 0.75661391
0.21478418 0.095064104 0.75341898
0.2248079 0.094498858 0.75318646
0.23414047 0.094800867 0.75574452
0.24092922 0.091132611 0.75849998
0.2077488 0.10251663 0.75900006
0.21531087 0.10290417 0.7587145
0.2251927 0.10403453 0.75782627
0.2331219 0.10289855 0.75855553
0.18814839 0.065454297 0.7615791
0.19083124 0.068037905 0.76000005
0.18867718 0.074672073 0.76423818
0.19208065 0.076031879 0.76192015
0.18933861 0.081887655 0.76800001
0.19391006 0.085785918 0.7642439
0.24730344 0.087893911 0.76044452
0.250321 0.086498596 0.76000005
0.19667415 0.095075645 0.76424384
0.20282514 0.099024273 0.7610001
0.23952138 0.098802947 0.76100004
0.24537496 0.094899565 0.76370007
0.25020874 0.096093342 0.76800001
0.19811413 0.1031964 0.7669999
0.20434456 0.1057178 0.76320851
0.21491055 0.10766585 0.76120681
0.2249096 0.10866292 0.7610001
0.23620889 0.10638878 0.76174068
0.2444423 0.10384465 0.76628566
0.25020874 0.10011382 0.76800001
0.20656472 0.11313921 0.76775879
0.21492156 0.11495522 0.76562482
0.22477637 0.11492729 0.76426381
0.23408501 0.11413909 0.76597315
0.24051259 0.11137116 0.76800001
0.21658048 0.12181406 0.76877785
0.22511725 0.1228006 0.76817662
0.23125187 0.12198304 0.76900005
0.18758824 0.078913674 0.773
0.18831672 0.085346282 0.7750476
0.19063766 0.087551989 0.77144456
0.18835393 0.093508661 0.77699995
0.19222994 0.096157566 0.77260011
0.19390076 0.10521947 0.7734319
0.20008262 0.10938449 0.77100003
0.2461779 0.10845953 0.77087504
0.19679721 0.11438496 0.77565795
0.20339824 0.11602682 0.77187091
0.2388086 0.1174866 0.77177781
0.24539047 0.11521628 0.77475011
0.25084352 0.11721098 0.77875006
0.1990919 0.12213182 0.77800006
0.20482978 0.12478803 0.77506661
0.21399616 0.12610368 0.77209747
0.22488961 0.12798905 0.77122736
0.23565823 0.12534475 0.77386117
0.24285892 0.1231558 0.77766675
0.20700343 0.13291235 0.77735013
0.21509257 0.1347277 0.77546436
0.22483465 0.13479064 0.77448964
0.23456226 0.13478847 0.77680498
0.18649347 0.0865753 0.78057152
0.18614812 0.096344866 0.78186357
0.19010867 0.099228121 0.78000003
0.18651949 0.10474732 0.78610539
0.19052736 0.10557457 0.78087503
0.1875101 0.11298294 0.78533345
0.19267379 0.11557969 0.78277785
0.25225285 0.11952543 0.78100002
0.18874229 0.12087173 0.78800005
0.19508858 0.12485281 0.78389382
0.20041807 0.12797506 0.78100002
0.24628669 0.12598743 0.78142434
0.25048766 0.12300705 0.78233337
0.19796978 0.13517177 0.7867918
0.2036307 0.13631688 0.78215563
0.21062456 0.13924444 0.78000003
0.23883195 0.13860524 0.78100002
0.24448116 0.13553548 0.78316689
0.21062456 0.14169443 0.78000003
0.23862809 0.14175427 0.7803334
0.18506555 0.10678645 0.79000002
0.18903825 0.12562855 0.79449999
0.19102232 0.126635 0.79439998
0.19291462 0.13489434 0.79234231
0.24989575 0.1319312 0.79000002
0.19098242 0.12478552 0.80800003
