# .PCD v0.7 - Point Cloud Data file format
VERSION 0.7
FIELDS x y z
SIZE 4 4 4
TYPE F F F
COUNT 1 1 1
WIDTH 1391
HEIGHT 1
VIEWPOINT 0 0 0 1 0 0 0
POINTS 1391
DATA ascii
-0.14594801 0.092529714 0.8936668
-0.13602029 0.091496922 0.89260006
-0.12435715 0.091287218 0.89254558
-0.11709128 0.090928689 0.89200008
-0.10073508 0.090128176 0.89200002
-0.096981198 0.090128176 0.89200002
-0.45290327 0.10895457 0.89900005
-0.44402137 0.10798025 0.89653337
-0.4348385 0.10779531 0.89480007
-0.42443842 0.10730093 0.8940835
-0.41521639 0.10546189 0.89384633
-0.40500671 0.10353521 0.89440644
-0.39481834 0.10418738 0.89429051
-0.38548115 0.1042232 0.89452189
-0.37483472 0.1037759 0.89368188
-0.36872372 0.10168809 0.89100003
-0.34378839 0.10066193 0.89099997
-0.33778891 0.10028878 0.89100003
-0.32055524 0.10017622 0.89000005
-0.31587341 0.10017622 0.89000005
-0.29059154 0.10110804 0.89000005
-0.2851359 0.10122165 0.89100003
-0.2734248 0.10110804 0.89000005
-0.26670772 0.10069841 0.89050001
-0.23438571 0.1002325 0.89050001
-0.22832316 0.10017622 0.89000005
-0.45445916 0.11232877 0.89480013
-0.44548249 0.11277278 0.89200014
-0.43795824 0.11255449 0.89024997
-0.41746944 0.11055042 0.89100003
0.2999709 0.059487298 0.90900004
0.40950084 0.05847118 0.90800005
0.44484708 0.05942186 0.90800011
0.45427582 0.059131235 0.90537506
0.46522641 0.058981959 0.90542865
0.47549853 0.057823889 0.90533334
0.48459336 0.05752622 0.90364999
0.49475622 0.057985943 0.90454555
0.50469047 0.057518922 0.90519053
0.51479125 0.057634942 0.90400016
0.52212793 0.057107382 0.90488893
0.018781595 0.068928614 0.90800005
0.02671266 0.069326989 0.90700006
0.034036651 0.069532514 0.90720004
0.045112081 0.069725364 0.90600008
0.055356089 0.069879293 0.90800011
0.06635572 0.069879293 0.90800011
0.075698614 0.069365472 0.90750009
0.083893053 0.068561114 0.90733337
0.095293812 0.068244219 0.90733337
0.10404807 0.068377361 0.90700006
0.11577944 0.068551898 0.90680009
0.12554879 0.069186687 0.90572739
0.13556685 0.068512417 0.90547061
0.14522363 0.068132587 0.90488231
0.15428774 0.069083735 0.90588897
0.16429856 0.069674067 0.9053334
0.17464398 0.068476729 0.90580004
0.18489218 0.068827398 0.90666676
0.19442944 0.068827398 0.90666676
0.20165914 0.068852708 0.90700006
0.29909649 0.065106004 0.9052
0.30511919 0.065046668 0.90442318
0.31496099 0.064845443 0.9053638
0.32474095 0.065320387 0.90560901
0.33541262 0.064665928 0.90645474
0.34457606 0.064262658 0.90633339
0.35483605 0.064125106 0.90625018
0.3651129 0.065961413 0.9049201
0.3752099 0.064679004 0.90488482
0.38517442 0.064089999 0.90472019
0.39539313 0.063826963 0.90476018
0.40509051 0.063396439 0.90400028
0.4150641 0.062481366 0.90416664
0.4252876 0.063021146 0.90460014
0.43482131 0.06325651 0.90454173
0.44452834 0.06214834 0.90274996
0.45543641 0.061872944 0.90216672
0.46528581 0.062223069 0.90241176
0.47455251 0.061327565 0.90161538
0.48409012 0.061179679 0.90122223
0.50676507 0.061042208 0.90185714
0.51282907 0.061793797 0.90100002
-0.12210082 0.079473481 0.9090001
-0.11456589 0.078435227 0.9090001
-0.10560368 0.07804589 0.9090001
-0.096247338 0.078236237 0.90900004
-0.08512415 0.077498049 0.90816677
-0.075150326 0.077796258 0.90823096
-0.064276293 0.077785678 0.90654993
-0.054804519 0.076926202 0.90596014
-0.044479769 0.076643497 0.90624142
-0.034899849 0.076360084 0.90515381
-0.024708148 0.076117858 0.90635717
-0.014802837 0.075288236 0.90622222
-0.0050812331 0.075524099 0.90445173
0.0043675583 0.074485116 0.90431035
0.014188988 0.072087832 0.90322721
0.0242444 0.071934529 0.90280008
0.035345376 0.072722681 0.90266675
0.044643797 0.07255917 0.90250021
0.055295113 0.071975701 0.90364301
0.065758817 0.071698911 0.90423089
0.074834809 0.072136633 0.90356261
0.084566981 0.071431838 0.90269238
0.095049247 0.0714228 0.90264297
0.10472658 0.071826838 0.90294749
0.11402141 0.071273729 0.90320015
0.12559932 0.072297923 0.90260017
0.13529555 0.072352633 0.90238482
0.14493728 0.071810491 0.90141672
0.15479362 0.071559213 0.90153843
0.16454019 0.070587747 0.90187502
0.17539299 0.071285248 0.90074992
0.1859557 0.071384169 0.903
0.19526282 0.071003661 0.90316665
0.20132963 0.070728026 0.90266675
0.29936811 0.070205905 0.90000004
0.30173534 0.070205905 0.90000004
-0.37263975 0.088456199 0.90771437
-0.36461246 0.08793851 0.9054212
-0.35516381 0.088018067 0.90764719
-0.34529781 0.088624328 0.90850013
-0.33567694 0.088367261 0.90881824
-0.32589418 0.088448517 0.90777779
-0.31283161 0.089823686 0.90780002
-0.30436102 0.08943148 0.90811116
-0.29561028 0.088807911 0.90775013
-0.28591114 0.089642219 0.90871435
-0.27534544 0.089942418 0.90900004
-0.26442966 0.089101873 0.90820009
-0.25592646 0.089193694 0.90720004
-0.24167195 0.088941753 0.90850008
-0.23457401 0.088593215 0.90771437
-0.22505924 0.0874689 0.90592867
-0.21523356 0.0880199 0.90671444
-0.20586355 0.087744176 0.90550011
-0.19529384 0.087416194 0.90450025
-0.18490539 0.086769313 0.90416014
-0.17493789 0.086207524 0.90482163
-0.16542067 0.085633717 0.90456009
-0.15423302 0.084933423 0.90454555
-0.14488849 0.084810391 0.90400016
-0.13521019 0.084042929 0.90409541
-0.12443335 0.083263993 0.90439141
-0.11523216 0.082143664 0.90490001
-0.10495905 0.08190427 0.90326321
-0.094961263 0.08141879 0.90305573
-0.085002854 0.081332162 0.90266663
-0.075403012 0.081224911 0.90205556
-0.065809794 0.081509218 0.90090919
-0.05464926 0.080806769 0.90000004
-0.045188699 0.081289053 0.90036362
-0.45068917 0.099969514 0.90500003
-0.44735664 0.099969514 0.90500003
-0.43275934 0.098922879 0.90700006
-0.4252134 0.099498533 0.90590012
-0.41469541 0.098854363 0.90427274
-0.40396425 0.098431394 0.90466666
-0.39534321 0.09864673 0.90472734
-0.38396832 0.098059282 0.90633339
-0.37485299 0.095443971 0.90450013
-0.36501586 0.092451319 0.90100002
-0.35553023 0.091816232 0.90184212
-0.34456107 0.092110485 0.90272725
-0.33473283 0.092181399 0.90300006
-0.32537982 0.092177935 0.9025237
-0.31535295 0.091819257 0.90270591
-0.30479255 0.092825264 0.90293753
-0.29553744 0.093502499 0.90224004
-0.28548473 0.093363754 0.90292597
-0.27509341 0.092969291 0.90331984
-0.26517722 0.093068205 0.90243477
-0.2556628 0.091981269 0.90205556
-0.24488255 0.092247747 0.9052943
-0.2350091 0.09239614 0.90279174
-0.22522506 0.092007585 0.90127271
-0.21533382 0.090618514 0.90085721
-0.20629559 0.091576591 0.90100008
-0.46193653 0.10607772 0.9054001
-0.45495901 0.1050537 0.90396702
-0.4448646 0.10281719 0.90385205
-0.43559805 0.10313198 0.90368187
-0.42558879 0.10235235 0.90199995
-0.41687074 0.10131145 0.90128577
-0.40130019 0.100471 0.90100002
-0.39542297 0.10047101 0.90100002
-0.38498697 0.10127161 0.9018333
-0.37949762 0.100471 0.90100002
0.49773359 0.049377859 0.91566676
0.50493431 0.048595324 0.9162308
0.51456857 0.048488196 0.91700011
0.52525723 0.04888862 0.91730005
0.53145385 0.047633223 0.91900003
0.13890186 0.059179533 0.91900003
0.18869601 0.058217343 0.91900003
0.1935304 0.058217343 0.91900003
0.30685383 0.058936216 0.91525006
0.31463054 0.057708781 0.91688907
0.32490379 0.057957165 0.91693354
0.33583909 0.057252016 0.91515011
0.34550846 0.057163239 0.91488242
0.3547596 0.057679132 0.91465384
0.36522242 0.058235925 0.91555005
0.37485617 0.057519447 0.91490924
0.38490519 0.057731397 0.91549987
0.39532414 0.057614416 0.91510522
0.40475121 0.057409376 0.9145456
0.41569725 0.056787144 0.91339993
0.42523509 0.056543153 0.91379994
0.43525472 0.05782542 0.91288233
0.44532564 0.057671547 0.91363156
0.45466474 0.056530844 0.91328585
0.46552119 0.055990204 0.91288006
0.47508737 0.053549025 0.91330779
0.48519373 0.052721769 0.91357142
0.49574596 0.052950375 0.9129473
0.50525337 0.052699756 0.9129473
0.51481146 0.052483607 0.9126842
0.52464908 0.052138466 0.9127059
-0.064142279 0.068801455 0.91900003
-0.050606005 0.068801455 0.91900003
-0.046093911 0.068801455 0.91900003
-0.032441724 0.068726592 0.91800004
-0.02344515 0.068185382 0.91545463
-0.01485481 0.068084426 0.91372234
-0.0050407466 0.067835905 0.91557914
0.0049202298 0.067484461 0.91490012
0.014755196 0.067535006 0.91494465
0.024742195 0.066398568 0.91457897
0.034592781 0.065831751 0.91458333
0.045077879 0.066823222 0.91472739
0.054630712 0.066159144 0.91434789
0.065063283 0.066300727 0.91400015
0.074743524 0.065268621 0.91432005
0.085919119 0.0648214 0.91515398
0.094941668 0.063305244 0.91551536
0.1054027 0.064045429 0.91562086
0.1147541 0.064386554 0.91487998
0.12480587 0.064361654 0.91467756
0.13517746 0.063683763 0.91516674
0.14545096 0.063161813 0.91543996
0.15534204 0.064174451 0.9155485
0.16508895 0.064349391 0.91397244
0.1746558 0.064051658 0.91400003
0.1853537 0.063991755 0.91432428
0.1950075 0.063581981 0.91362178
0.20269923 0.063225716 0.91434997
0.29871398 0.064387269 0.91100007
0.30478424 0.061207883 0.91100013
0.31538853 0.061098777 0.91175014
0.32508904 0.061454032 0.91323096
0.33500934 0.061019298 0.9117502
0.34472007 0.060810454 0.91100007
0.3519085 0.061525818 0.91100007
0.36501318 0.062054999 0.91123098
0.37555051 0.061525818 0.91100013
0.38459203 0.060572006 0.91100007
0.39711589 0.060572006 0.91100013
0.40574202 0.060572006 0.91100013
0.42402327 0.060605247 0.91150004
0.43385929 0.060505513 0.91000003
-0.19301009 0.079299197 0.91800004
-0.18518691 0.079299204 0.91800004
-0.1746299 0.078732297 0.91562504
-0.16489652 0.078746729 0.91533345
-0.1546689 0.077797212 0.91545844
-0.1451861 0.077510193 0.91537517
-0.13498911 0.076918691 0.91490012
-0.12561071 0.076124407 0.91546166
-0.11539562 0.074697748 0.91524994
-0.10502086 0.073922217 0.91513032
-0.095108666 0.074476518 0.91603863
-0.084736109 0.073739275 0.9158501
-0.075010523 0.07349994 0.91510731
-0.065451153 0.072868675 0.91474986
-0.054891821 0.072067373 0.91470003
-0.045105722 0.071718983 0.9140625
-0.034152843 0.07147985 0.91442096
-0.02490974 0.071300887 0.91215396
-0.014017838 0.071336508 0.91100013
-0.0052775946 0.071063988 0.91100013
0.0030290592 0.07106398 0.91100007
0.061974354 0.070110165 0.91100007
-0.40190458 0.089007497 0.91900003
-0.39636117 0.088815056 0.91900009
-0.38145018 0.087732121 0.91825002
-0.37432751 0.085804813 0.91360009
-0.3638345 0.083839543 0.91664296
-0.35465983 0.083859921 0.91538471
-0.34486595 0.084197022 0.91465396
-0.33503523 0.084763959 0.91431826
-0.32496178 0.086144403 0.9157393
-0.31489953 0.086437613 0.9157694
-0.30542198 0.085173398 0.91491675
-0.29515362 0.08473511 0.91491663
-0.28510693 0.086205341 0.91503716
-0.27485502 0.08627747 0.91342854
-0.26483452 0.085993141 0.91336852
-0.25447416 0.0866732 0.9156366
-0.24472494 0.085481942 0.91360015
-0.23502003 0.084728256 0.91323084
-0.2253679 0.083772518 0.91390008
-0.21504009 0.083776735 0.9135651
-0.20429881 0.083342329 0.91377777
-0.19483404 0.082406275 0.91378957
-0.18561555 0.081835359 0.91281253
-0.17607574 0.081770986 0.91074991
-0.16452929 0.081919737 0.91033334
-0.15556207 0.082010888 0.91000003
-0.14527677 0.081466444 0.91000003
-0.1354793 0.08130765 0.91000003
-0.12829873 0.080513671 0.91000003
-0.47017196 0.096494578 0.91700006
-0.46487194 0.09788993 0.91381246
-0.45514789 0.097663492 0.91284209
-0.44512668 0.096798599 0.91249996
-0.43524483 0.096172951 0.9119091
-0.42521423 0.095236428 0.91355187
-0.41452417 0.095180765 0.91364998
-0.40449524 0.094293371 0.91284001
-0.3949326 0.094590038 0.91443342
-0.38485515 0.094332874 0.9131667
-0.37757051 0.093302161 0.91083348
-0.24952517 0.091094121 0.91100007
-0.46458507 0.10218573 0.91040003
-0.45956191 0.10115701 0.91000003
-0.43786064 0.10052183 0.91000003
0.30883679 0.0490174 0.92700005
0.31292504 0.048886303 0.92714292
0.35491943 0.049018446 0.92700005
0.37857029 0.049989015 0.92700005
0.38451827 0.049917113 0.92566675
0.39401245 0.049989015 0.92700005
0.40487579 0.049942795 0.92614299
0.41474339 0.04904785 0.92590922
0.42382306 0.049463283 0.92625004
0.43513736 0.049341969 0.92700005
0.44460484 0.048663817 0.92580014
0.45473844 0.04895499 0.92580014
0.4655081 0.047906175 0.92553347
0.4746477 0.047332235 0.92423534
0.48586881 0.047845982 0.924375
0.49476895 0.046573177 0.92556268
0.50432974 0.045060754 0.92469567
0.515185 0.044650469 0.92552638
0.52519637 0.044865664 0.92431051
0.53343201 0.043214604 0.92592311
0.0084554851 0.058787476 0.92800003
0.015567034 0.059215326 0.92710012
0.0256541 0.058805406 0.92626685
0.0354391 0.058451153 0.92600018
0.045209724 0.058770429 0.92636383
0.056043897 0.058085699 0.92672729
0.065365158 0.057173688 0.92695457
0.075372368 0.057427395 0.92725003
0.085575506 0.057005249 0.92568415
0.095130965 0.05694655 0.92533326
0.10502896 0.05686485 0.9258948
0.11484519 0.057541404 0.92616004
0.12528689 0.057229728 0.92584634
0.13498376 0.057034671 0.92500007
0.14489612 0.056960769 0.92537516
0.1549221 0.057110846 0.9255653
0.16503756 0.056800298 0.92530435
0.17447202 0.057053223 0.92533332
0.18483947 0.056213278 0.92536008
0.19509786 0.055885606 0.92506665
0.20413701 0.05603392 0.92568415
0.30826366 0.053333282 0.92333341
0.31575903 0.052482892 0.92400008
0.32518983 0.053458758 0.92416686
0.33493587 0.052529819 0.92437053
0.34544691 0.052753158 0.92450029
0.35488579 0.052289713 0.92388904
0.36514312 0.053078618 0.92425025
0.37475771 0.052791502 0.92336845
0.38500383 0.053290345 0.92146677
0.39513132 0.053234506 0.92275017
0.4055301 0.052705947 0.92150003
0.41472429 0.052560911 0.92106253
0.42549816 0.052086834 0.92121434
0.435628 0.053037461 0.92185014
0.44479501 0.052750569 0.92158353
0.45495513 0.052196402 0.92164707
0.46436316 0.051734257 0.92137504
0.47353193 0.050801046 0.92022228
-0.17365721 0.069550119 0.92900008
-0.16355741 0.069550119 0.92900008
-0.15541244 0.069550119 0.92900008
-0.14303206 0.069550119 0.92900002
-0.13363999 0.068764471 0.92824996
-0.12453823 0.068187699 0.92750001
-0.11474193 0.067801856 0.9276154
-0.10428534 0.067936547 0.92612493
-0.094260767 0.067247793 0.92792851
-0.084322408 0.067015357 0.9258182
-0.074797407 0.066983894 0.92499989
-0.06495177 0.066639945 0.92595249
-0.055127315 0.066361941 0.92476004
-0.044597782 0.065595098 0.92506433
-0.03466551 0.065170594 0.92426926
-0.025294198 0.064479105 0.92389476
-0.01415259 0.063212499 0.92470831
-0.0041000373 0.062664822 0.92437494
0.0055831075 0.062504455 0.9236958
0.014896843 0.063131973 0.92278951
0.024238834 0.062475804 0.92100012
0.035745271 0.062120937 0.92092317
0.045022763 0.062392179 0.92206264
0.055298001 0.061631989 0.92138469
0.064090192 0.061826877 0.92120016
0.073981479 0.061189923 0.92163646
0.083346836 0.061317466 0.92090911
0.10482211 0.060531117 0.92200005
0.11704453 0.061303388 0.92200011
0.12868492 0.061303385 0.92200005
0.15633085 0.06033805 0.92200005
0.16215105 0.06033805 0.92200005
0.17718658 0.06033805 0.92200011
0.18106671 0.06033805 0.92200005
-0.37478763 0.078601778 0.92723072
-0.36524704 0.078152657 0.92721438
-0.35487261 0.077855609 0.92552638
-0.34529525 0.078267932 0.92666686
-0.33457622 0.077747941 0.92684615
-0.32437405 0.078050956 0.92538899
-0.31502667 0.078988239 0.92564297
-0.30538175 0.078699194 0.92550015
-0.29485583 0.079015255 0.92507702
-0.28634775 0.079398625 0.92557156
-0.27445099 0.078814067 0.92611122
-0.26511464 0.078212999 0.9250626
-0.25447887 0.077833079 0.92607707
-0.24446835 0.077218592 0.92494124
-0.23492937 0.076985881 0.92433321
-0.22445133 0.077422619 0.92381817
-0.21505247 0.0777485 0.92437506
-0.20471977 0.077197999 0.92454171
-0.19494176 0.076583803 0.92266685
-0.1846581 0.075122736 0.92400014
-0.17487822 0.073970273 0.92404175
-0.16500162 0.073427476 0.923926
-0.15490089 0.072608173 0.92431581
-0.14473253 0.072235569 0.92410529
-0.13519488 0.071569301 0.92323101
-0.12525541 0.071407348 0.92250013
-0.1152261 0.070963256 0.92307711
-0.10654209 0.07082355 0.92280006
-0.094595045 0.070579477 0.92281818
-0.087679982 0.07051149 0.92250007
-0.45286715 0.089003362 0.92900002
-0.44341898 0.089003369 0.92900008
-0.43409854 0.087314866 0.92776924
-0.42592475 0.087072156 0.92600006
-0.4153685 0.088424891 0.92476469
-0.40524703 0.087138772 0.92475015
-0.39497447 0.087095179 0.92362517
-0.38524592 0.085325316 0.92380005
-0.37487611 0.082526468 0.92427772
-0.3666887 0.081673898 0.92471433
-0.35473391 0.080522627 0.92100006
-0.34395576 0.080551773 0.92133343
-0.33505645 0.081183299 0.92176938
-0.32531321 0.08200185 0.92137522
-0.3159391 0.082169093 0.92144448
-0.30594081 0.081545904 0.92166674
-0.29478866 0.08176019 0.92166668
-0.28421539 0.081609398 0.92240018
-0.2748073 0.081910796 0.92161548
-0.26532298 0.082192175 0.92111111
-0.25553983 0.08221586 0.92077774
-0.24544221 0.081009187 0.92044449
-0.2357506 0.080756277 0.91999996
-0.22601753 0.080916815 0.92000002
-0.21472502 0.081398435 0.92000002
-0.20528772 0.081398435 0.92000002
-0.47262201 0.093357801 0.92400002
-0.46483749 0.09372215 0.9253335
-0.45512301 0.093055472 0.92535001
-0.44497651 0.092063397 0.92645472
-0.43521819 0.091608532 0.92390007
-0.42443886 0.091128983 0.921
-0.41567135 0.091694988 0.92022216
-0.40453586 0.091030829 0.92000002
-0.39595997 0.091368407 0.92016673
-0.38902456 0.092033654 0.92040008
0.45509502 0.039821666 0.93900007
0.467444 0.039821666 0.93900007
0.47533965 0.039101705 0.93857157
0.48435423 0.038264245 0.93700004
0.49489692 0.038015459 0.93738472
0.50486368 0.03787709 0.93736362
0.51574379 0.038363893 0.93811119
0.52464008 0.037724596 0.93584591
0.53490794 0.036941424 0.9361155
0.54130417 0.036218513 0.93740004
0.059927486 0.04965299 0.93900007
0.065008216 0.049512547 0.93900013
0.075358845 0.04931166 0.93785727
0.083928198 0.048974067 0.9385556
0.094504647 0.04965299 0.93900007
0.10421918 0.048997566 0.93900007
0.11447932 0.048411112 0.93875009
0.12359621 0.048255872 0.93860006
0.13500932 0.048669856 0.93900007
0.14528616 0.049068663 0.93809104
0.15427598 0.049134191 0.93763649
0.16522616 0.048974067 0.9385556
0.17335509 0.048945386 0.93800002
0.18404439 0.049600106 0.93800008
0.19605127 0.049010854 0.93800002
0.20406982 0.048191432 0.93687505
0.30918995 0.045330934 0.93100005
0.31514391 0.045818441 0.93392861
0.32448158 0.046792656 0.93505895
0.33510599 0.046362869 0.9332633
0.34495792 0.046806749 0.93288469
0.35498825 0.046661727 0.93357152
0.36444882 0.046737984 0.93323827
0.37509269 0.046966389 0.93454188
0.3847478 0.046925452 0.93330449
0.39526087 0.046414822 0.93418193
0.40505746 0.046199407 0.93350011
0.414698 0.045422006 0.93405563
0.42585209 0.045633178 0.93347633
0.43504202 0.04488951 0.93334377
0.4449752 0.044585042 0.93276936
0.4547638 0.044974394 0.93339145
0.46483395 0.04377912 0.93462056
0.47503793 0.04272227 0.93290466
0.48463774 0.042709984 0.93213052
0.49479434 0.041577574 0.9326154
0.50465238 0.041150447 0.93200004
0.51477432 0.041075934 0.93277794
0.52296627 0.041188218 0.93100005
0.53153688 0.041431908 0.93100005
-0.08076483 0.058438875 0.93800002
-0.074310042 0.058407724 0.93750012
-0.064646006 0.058438875 0.93800008
-0.054777347 0.058438875 0.93800008
-0.044613112 0.058069203 0.93400007
-0.035654917 0.058493085 0.93442869
-0.025252968 0.057769939 0.935579
-0.014499548 0.057388812 0.9331429
-0.0042255172 0.05627184 0.93411547
0.0046930229 0.05573649 0.93364006
0.015095212 0.055302281 0.93405008
0.024750041 0.0537613 0.93448371
0.035271384 0.053360291 0.93457139
0.044797804 0.053758197 0.93482143
0.054742295 0.054357067 0.93484604
0.064506173 0.052700363 0.9338001
0.074730225 0.05270049 0.93400013
0.084561929 0.052540086 0.93405563
0.095030867 0.052345511 0.93447375
0.10501003 0.052337464 0.93433338
0.11508482 0.052148785 0.93445015
0.12498607 0.0518975 0.93422234
0.13501009 0.051842798 0.93468434
0.14497498 0.052067529 0.93321437
0.15540484 0.052572411 0.93350005
0.16517973 0.052509967 0.93364298
0.17474912 0.052566852 0.93293756
0.18463726 0.051756848 0.93487513
0.19620714 0.051932339 0.93323529
0.20363301 0.05153482 0.93155563
0.32657608 0.050204717 0.93100005
0.33318776 0.050204717 0.93100005
0.36854327 0.051124498 0.93000007
0.37147862 0.051124498 0.93000007
0.3965922 0.050150793 0.93000007
-0.2201715 0.069168001 0.93700004
-0.21475892 0.068627223 0.93633336
-0.20687696 0.068791077 0.93633336
-0.19479363 0.06794253 0.93726677
-0.18493898 0.067623459 0.9347198
-0.17517273 0.067052737 0.9361304
-0.16522548 0.066342369 0.93528569
-0.15500741 0.066354387 0.93558592
-0.14508232 0.065921523 0.93492311
-0.13534684 0.064933918 0.93454546
-0.12488125 0.063503601 0.93469566
-0.11492358 0.063837305 0.9335714
-0.1042339 0.063680932 0.93430007
-0.094932623 0.062695533 0.93408692
-0.084649369 0.062115185 0.93427783
-0.074193545 0.061649177 0.93241179
-0.064303271 0.061684955 0.93163168
-0.054542445 0.061266687 0.9315626
-0.045083728 0.06075009 0.93042868
-0.034741163 0.060861595 0.93000019
-0.025048593 0.061372988 0.9303751
-0.017210603 0.060861591 0.93000007
-0.43756902 0.079874083 0.93600005
-0.41434285 0.078543536 0.93766677
-0.39166552 0.078774482 0.93750006
-0.38414791 0.075364664 0.9351579
-0.37488294 0.073657848 0.93503696
-0.36598572 0.073833227 0.93464994
-0.35485083 0.074687861 0.93449992
-0.3451474 0.074207298 0.93480003
-0.33513486 0.073857807 0.93490481
-0.32439041 0.073995456 0.93400013
-0.31492886 0.074632011 0.9338333
-0.30430934 0.074048221 0.93420696
-0.29477528 0.075419806 0.93452644
-0.28474885 0.076254673 0.93315023
-0.27535257 0.074506149 0.93274999
-0.26483819 0.074027702 0.93287504
-0.25515774 0.073780112 0.93336385
-0.2457318 0.07288342 0.93300015
-0.23513383 0.072631344 0.93378961
-0.22487794 0.072733432 0.93244469
-0.2148039 0.07279487 0.93142867
-0.20541801 0.071926542 0.93164724
-0.19485398 0.07173375 0.9312669
-0.18574861 0.071572393 0.93000007
-0.48078018 0.087933384 0.93833339
-0.47439134 0.08799696 0.93573701
-0.46441469 0.086536676 0.93437499
-0.45519194 0.085180864 0.93415612
-0.44517645 0.084313385 0.93374342
-0.43477681 0.082741685 0.93378258
-0.4243373 0.084328443 0.93534768
-0.4150793 0.08353626 0.93413639
-0.40532866 0.08294072 0.93495452
-0.39528805 0.08259622 0.93506664
-0.38718712 0.081455216 0.93166673
-0.48046407 0.091927685 0.93900007
-0.47391024 0.092378326 0.93362504
-0.46648845 0.091632701 0.9320001
0.50986356 0.029316122 0.94900006
0.52933311 0.02832252 0.94900006
0.5343253 0.02832252 0.94900006
0.54446435 0.027922032 0.94666672
0.31732392 0.039086699 0.94500005
0.32549062 0.038948979 0.9465
0.33410978 0.038197551 0.94749999
0.3461377 0.039083563 0.94500005
0.35529959 0.038792234 0.94478571
0.36541224 0.037721947 0.94666672
0.37529203 0.038156193 0.9465
0.38569906 0.038390011 0.94661546
0.39516252 0.038156182 0.94650006
0.4050619 0.03816653 0.94675004
0.41533905 0.039022785 0.94590008
0.42589575 0.038237885 0.94509518
0.4349896 0.037791219 0.94444001
0.44509614 0.037464477 0.94479173
0.45456165 0.036784023 0.94383347
0.46545982 0.036485739 0.94422245
0.47527412 0.035231292 0.94472003
0.48493791 0.034894321 0.94450009
0.49588031 0.034551732 0.94478583
0.50568497 0.033579856 0.9451741
0.51523787 0.033810854 0.94520849
0.52494031 0.032568783 0.94500011
0.53447515 0.031495851 0.94258839
0.54293483 0.031589549 0.94280005
-0.032194566 0.049239669 0.94620007
-0.028207047 0.049361434 0.9460001
-0.010312649 0.048143785 0.94800007
-0.0037669539 0.048886437 0.94533336
0.0051039881 0.047833029 0.94535291
0.014294881 0.04786621 0.94535732
0.024504669 0.047963422 0.94450015
0.0342643 0.047947198 0.94416684
0.044671677 0.047787413 0.94447082
0.055044588 0.048294216 0.94420004
0.065093018 0.046031415 0.9444502
0.075056382 0.046385612 0.94435298
0.085503422 0.0457405 0.94325012
0.094946608 0.045648839 0.94338107
0.10494839 0.045173835 0.94408005
0.11469415 0.045329951 0.94344455
0.12578636 0.044525154 0.94505018
0.13512853 0.044281989 0.9457407
0.14518063 0.044381142 0.94438475
0.1551813 0.04486173 0.94466662
0.16457286 0.045418903 0.94452369
0.17511398 0.044314113 0.94458628
0.18506812 0.045297977 0.94453835
0.19506256 0.044737861 0.94469982
0.20478341 0.043715734 0.94484603
0.21133009 0.041239351 0.94900006
0.31652448 0.041697722 0.94066679
0.32583398 0.04264864 0.94147068
0.33516183 0.042157743 0.94389474
0.34563932 0.041500241 0.94305903
0.35585842 0.042324524 0.94000024
0.36602017 0.041388355 0.94256258
0.37432647 0.042149857 0.94126683
0.38537064 0.042252813 0.94157153
0.39462337 0.042088185 0.94133347
0.4049966 0.041349292 0.94107705
0.41480038 0.041760091 0.9406001
0.4249008 0.04228963 0.94044453
0.44568992 0.041832432 0.94000006
0.45731035 0.041094296 0.94000006
0.46349141 0.042816609 0.94000006
-0.19470209 0.058958597 0.94900006
-0.18445534 0.058430638 0.9485001
-0.17472203 0.058316622 0.94763654
-0.16391684 0.059124198 0.94900006
-0.15375051 0.057996795 0.94685727
-0.14541715 0.058910768 0.94666678
-0.13465945 0.058143891 0.94735301
-0.12541218 0.057579219 0.94522721
-0.11529459 0.057199933 0.94600004
-0.1049646 0.05721949 0.94538462
-0.094415203 0.056341894 0.94381487
-0.085309625 0.055930749 0.94352025
-0.074606888 0.05535781 0.94500011
-0.064813711 0.054645285 0.94466662
-0.054646797 0.053797677 0.94407159
-0.044669483 0.052677002 0.94396019
-0.034669366 0.053408846 0.94265407
-0.024057165 0.052512459 0.94309109
-0.014635443 0.05227311 0.94500005
-0.0059575732 0.051293086 0.94208336
0.005825391 0.051400095 0.9410001
0.014419353 0.05162888 0.94081831
0.035342071 0.050797898 0.94200003
0.051199272 0.051784173 0.94200003
-0.39365482 0.06774094 0.94661546
-0.38529536 0.06792666 0.94547057
-0.37481621 0.067600429 0.94400007
-0.36522415 0.067422457 0.94652963
-0.35461026 0.06699191 0.94437516
-0.34509692 0.067049518 0.94405556
-0.33451161 0.067341551 0.9443478
-0.32524073 0.06768471 0.94487512
-0.3146995 0.067824967 0.94481248
-0.30446765 0.06780275 0.94330019
-0.29405332 0.068736516 0.94561541
-0.28441581 0.067915007 0.94574994
-0.27526885 0.067767687 0.94485724
-0.2645528 0.067504682 0.94438469
-0.25565013 0.067244239 0.94399995
-0.24474959 0.06719248 0.94342858
-0.23484506 0.066868871 0.94282776
-0.22529569 0.066047437 0.94424134
-0.21494576 0.064271383 0.94422555
-0.20476586 0.06459555 0.94383872
-0.1952665 0.063335359 0.94414276
-0.18486054 0.062306426 0.9432354
-0.17542936 0.062154569 0.94225007
-0.16524869 0.061371118 0.94283342
-0.15611751 0.061245322 0.94190007
-0.1453681 0.061609514 0.94142872
-0.13503218 0.061679628 0.94250011
-0.11369389 0.061581463 0.94100004
-0.10701124 0.060596235 0.94100004
-0.48225272 0.07866504 0.94900006
-0.47859177 0.078747839 0.94900006
-0.4639976 0.078933813 0.94825006
-0.45474029 0.078033313 0.94637507
-0.44434977 0.077809103 0.94466662
-0.43425894 0.077739976 0.9458499
-0.42479366 0.076852314 0.94408357
-0.413991 0.076818921 0.94400007
-0.40478051 0.076477721 0.94477767
-0.39516661 0.074636415 0.9432593
-0.3850309 0.070729986 0.9410001
-0.37852505 0.070448495 0.94100004
-0.36391574 0.071331613 0.94291663
-0.35534841 0.071401715 0.94166672
-0.34478033 0.070514247 0.94000012
-0.33619043 0.07096415 0.94000006
-0.32491615 0.071357816 0.94000006
-0.31680655 0.071357816 0.94000006
-0.30856517 0.071357816 0.94000006
-0.29522929 0.071760744 0.94100016
-0.28580636 0.071805462 0.94158351
-0.27551121 0.070713267 0.94125003
-0.26418865 0.070535637 0.9402858
-0.25450143 0.070373647 0.94000006
-0.24724898 0.070373639 0.94000006
-0.483702 0.083854511 0.94778955
-0.47492886 0.082408175 0.94543767
-0.46518272 0.081675373 0.94458342
-0.45523223 0.080442995 0.94266671
-0.44733164 0.080300763 0.94100004
-0.43198627 0.081285991 0.94100004
-0.42629364 0.081285991 0.94100004
-0.40426564 0.0808919 0.9410001
0.35897705 0.029594148 0.95800006
0.45526057 0.029062264 0.95699996
0.46621907 0.029414836 0.95624995
0.47507033 0.029198371 0.95600003
0.48093539 0.029563254 0.95700002
0.49802905 0.029125392 0.95580006
0.50526887 0.028413884 0.95469236
0.51498318 0.027124833 0.95355552
0.52504814 0.026241727 0.95483321
0.5344156 0.02451735 0.95578945
0.54339784 0.025517566 0.95574999
0.5516547 0.024076987 0.95800006
0.0087197181 0.039583039 0.95700002
0.014156744 0.039583039 0.95699996
0.029360278 0.039583039 0.95700002
0.032884274 0.039583039 0.95700002
0.045167923 0.038581062 0.95699996
0.054196075 0.038581062 0.95699996
0.063341685 0.038581062 0.95700002
0.075042218 0.037904117 0.95677769
0.08313109 0.038900305 0.95590907
0.095364913 0.039068781 0.95533341
0.10493626 0.03747315 0.95561892
0.11518528 0.037390098 0.95610011
0.12507407 0.037710924 0.95412523
0.13553865 0.037538208 0.95458817
0.14504461 0.037361991 0.95631266
0.15521158 0.037134871 0.95593345
0.16504408 0.036806405 0.95722222
0.17509687 0.037319854 0.95726663
0.18422265 0.037869621 0.95600015
0.19514599 0.038186025 0.95605898
0.20544229 0.037137695 0.95473927
0.21188205 0.035907675 0.95600003
0.32544088 0.035281189 0.95409101
0.335298 0.035146698 0.95410538
0.34504467 0.034867752 0.95393121
0.35476264 0.034230508 0.95511544
0.36484301 0.033883747 0.95369571
0.37497845 0.033705976 0.95429409
0.38581982 0.034377228 0.95322216
0.39523825 0.033563673 0.95309085
0.40506983 0.033879127 0.95310014
0.41551906 0.034111589 0.9539566
0.42433491 0.033362836 0.95338464
0.43485996 0.032317944 0.95458341
0.44564205 0.031947903 0.95435292
0.45491385 0.032654047 0.95366681
0.46473891 0.03242135 0.95492315
0.4752183 0.031415481 0.95240003
0.4862051 0.03174153 0.95475006
0.49474642 0.031382121 0.95376945
0.50271142 0.030405542 0.95200002
0.51748496 0.030405542 0.95200002
0.52149135 0.030405542 0.95200002
-0.12129138 0.048651632 0.95800006
-0.11493952 0.048951421 0.95733345
-0.10516912 0.048914589 0.95500004
-0.095856585 0.049087927 0.95566666
-0.084698379 0.04872397 0.95763654
-0.074303359 0.04814091 0.95642871
-0.064221382 0.047879558 0.95466685
-0.054708008 0.047444776 0.95400006
-0.044789582 0.047118865 0.95411134
-0.035068512 0.045957327 0.95422721
-0.024880189 0.045861192 0.95447838
-0.015139069 0.044926945 0.95357162
-0.0055616684 0.044710159 0.95424998
0.0044109058 0.042970177 0.95384204
0.014833751 0.04339686 0.9528181
0.025152639 0.043240197 0.95507413
0.035625577 0.043200061 0.954
0.045967434 0.042855266 0.95234776
0.055695627 0.042745214 0.95182627
0.066149876 0.041465733 0.95273328
0.075367503 0.041777927 0.9519999
0.085442342 0.042234443 0.95109093
0.094921708 0.041984532 0.95088893
0.10510689 0.04128281 0.94999999
0.11544712 0.04173281 0.95120001
0.12434712 0.041780133 0.94999993
0.13516434 0.041304011 0.95050007
0.14490579 0.040330566 0.95100009
0.15567608 0.040783465 0.95287508
0.16484275 0.040892024 0.9525001
0.17386253 0.04035601 0.95160007
0.18696198 0.041326266 0.95100003
0.19426595 0.041326266 0.95100003
-0.40148997 0.05968491 0.95800006
-0.39465934 0.059410788 0.95762509
-0.38461334 0.059658207 0.95757163
-0.37629226 0.05968491 0.95800006
-0.35814992 0.05968491 0.95800006
-0.33396012 0.058681887 0.95800006
-0.31212211 0.059684914 0.95800006
-0.30727419 0.059591457 0.95650005
-0.28054094 0.05968491 0.95800006
-0.27499744 0.05968491 0.95800006
-0.26645705 0.059653759 0.9575001
-0.25317809 0.058493324 0.9582001
-0.24483782 0.057977341 0.95784616
-0.23535304 0.057677813 0.95799994
-0.22490038 0.05703412 0.95711762
-0.21505353 0.056744378 0.95638889
-0.2040389 0.056838207 0.95600003
-0.19482911 0.055149361 0.9557308
-0.18539424 0.054897543 0.95622212
-0.17510174 0.054801174 0.95599997
-0.1650441 0.054090034 0.95587099
-0.15495528 0.053536855 0.95576197
-0.14442345 0.053813294 0.95500004
-0.13528742 0.052812196 0.95395821
-0.12484851 0.052381475 0.95475
-0.11526448 0.052059397 0.95221442
-0.10539695 0.052278932 0.95100015
-0.096213125 0.051970996 0.95144451
-0.084182359 0.05174334 0.95281827
-0.074944198 0.051624872 0.95180005
-0.064207897 0.050287537 0.95100009
-0.057871118 0.050287534 0.95100003
-0.017349092 0.050287534 0.95100003
-0.45426294 0.068783857 0.95900005
-0.44356477 0.068496987 0.95900011
-0.43486282 0.068730064 0.95825005
-0.42107934 0.068783857 0.95900005
-0.41473731 0.06849698 0.95900011
-0.40459394 0.066206925 0.95625001
-0.39530793 0.063577905 0.95182353
-0.38515991 0.062906951 0.95214999
-0.37449205 0.0626285 0.95342863
-0.36460117 0.062985659 0.95340025
-0.3550778 0.062697843 0.95472223
-0.3443529 0.063097432 0.9546876
-0.33493915 0.062266633 0.95343751
-0.32456914 0.062429562 0.95269561
-0.3154633 0.063400388 0.95504773
-0.30422932 0.063549735 0.95360011
-0.2949658 0.063924968 0.95400017
-0.28552979 0.063462518 0.95380014
-0.27508163 0.063634694 0.9529199
-0.26507068 0.062812589 0.95295477
-0.25507092 0.062839635 0.95376205
-0.24526036 0.062431287 0.95223528
-0.23501121 0.061528444 0.95239997
-0.2254943 0.060931232 0.95240003
-0.21568334 0.060307842 0.95200008
-0.20917298 0.060307842 0.95200002
-0.49167311 0.076044098 0.95566672
-0.48475447 0.076270685 0.95421046
-0.47451586 0.075308748 0.95578772
-0.46467668 0.074444607 0.95537025
-0.45518321 0.073609009 0.9540478
-0.44569436 0.073317707 0.95370376
-0.43525526 0.072203472 0.95315009
-0.42542133 0.071988359 0.95566666
-0.4152633 0.072017953 0.95311135
-0.40614471 0.071363471 0.95190018
-0.48861825 0.081239454 0.95200002
0.4895187 0.01976811 0.96800005
0.49619946 0.01914289 0.96571445
0.51648223 0.018735241 0.96700013
0.52631688 0.018735241 0.96700013
0.53537065 0.018040899 0.96600002
0.54506862 0.018752821 0.96400017
0.5536648 0.018249942 0.96442866
0.066801347 0.029872173 0.96700007
0.072227366 0.029872175 0.96700013
0.082062013 0.029872173 0.96700007
0.15683925 0.029112834 0.96700007
0.16426675 0.029835105 0.96580011
0.17627117 0.029872173 0.96700013
0.18354541 0.029872173 0.96700007
0.20394823 0.028540043 0.96766675
0.21150672 0.029136121 0.96500009
0.32720268 0.027393773 0.96642876
0.33492947 0.027251991 0.96705872
0.34434226 0.02698594 0.96494746
0.35455027 0.027006445 0.96391296
0.36496195 0.0273827 0.96377289
0.3747077 0.027237201 0.96426105
0.38525027 0.027638363 0.9654212
0.39547828 0.027916091 0.9654119
0.40504304 0.028375307 0.96384627
0.41499114 0.027441436 0.96410543
0.42506027 0.026448447 0.96387517
0.43507999 0.026341975 0.96365231
0.44562367 0.026461607 0.96326315
0.45547068 0.025785627 0.96372247
0.46479398 0.025362186 0.9630385
0.47517669 0.025251435 0.96295464
0.4850691 0.025717651 0.9619655
0.49422461 0.024863405 0.96163875
0.50463825 0.023225168 0.96188009
0.51458478 0.022556055 0.96165007
0.52515078 0.021428887 0.96300018
0.53436375 0.020858321 0.96220011
0.54693162 0.022212442 0.96100008
0.55338311 0.02163749 0.96100008
-0.077147238 0.039064836 0.96900004
-0.052679673 0.039064836 0.96900004
-0.044308133 0.039024521 0.96800005
-0.034661517 0.038154505 0.96700013
-0.025890974 0.038375538 0.96515805
-0.015679562 0.038374588 0.96450013
-0.00531623 0.038068548 0.96547377
0.0054697436 0.036543231 0.96438485
0.015707254 0.035920147 0.96319973
0.024913864 0.036302734 0.96378261
0.034862708 0.03628489 0.96336859
0.044399288 0.035751455 0.96324998
0.054188792 0.034987342 0.96328592
0.064641945 0.034799792 0.96342325
0.074049108 0.03389921 0.96233326
0.085144497 0.034809589 0.96368206
0.094673283 0.034558672 0.96371424
0.10498153 0.032685515 0.96446669
0.1150233 0.032552473 0.96399999
0.12434803 0.033763655 0.96476924
0.13469765 0.033230655 0.96507692
0.14506328 0.032432798 0.96461117
0.15471487 0.032741353 0.9636001
0.16457723 0.032761347 0.96266663
0.17515288 0.033269759 0.96281248
0.18533203 0.032900427 0.96306252
0.19465876 0.033564087 0.9641
0.2041295 0.032288428 0.96362489
0.21220079 0.031530701 0.96200007
0.32836968 0.031406354 0.96233338
0.33511418 0.031390376 0.9618336
0.34493527 0.030692991 0.96100008
0.37880591 0.031699155 0.96100003
0.38541093 0.032041874 0.96122223
0.40534541 0.030661052 0.96000004
0.41308889 0.030661052 0.96000004
0.42133731 0.03066105 0.96000004
0.43732917 0.030661052 0.96000004
0.44330508 0.03066105 0.96000004
-0.20076892 0.048096243 0.96700007
-0.19485071 0.04864629 0.96518189
-0.18436474 0.048063084 0.96633339
-0.17359348 0.04783155 0.96580011
-0.16484906 0.047127765 0.96518189
-0.15504581 0.046998788 0.96536362
-0.14475432 0.046695229 0.96477276
-0.13458246 0.045662135 0.96563345
-0.12459645 0.044860002 0.96521431
-0.11503077 0.044511937 0.9646669
-0.10522672 0.044973418 0.96527779
-0.094931729 0.044574011 0.96477795
-0.085202679 0.043606095 0.96488887
-0.075445674 0.043305337 0.96466678
-0.064874373 0.043134052 0.96522731
-0.054326907 0.042329058 0.96594113
-0.04510713 0.042337902 0.96418756
-0.035978805 0.041373055 0.96263653
-0.025425045 0.041717362 0.96000004
-0.019533304 0.041717362 0.96000004
-0.0049891206 0.041717362 0.96000004
-0.40322086 0.056403246 0.96399999
-0.39509475 0.055360839 0.96433347
-0.38501737 0.055531941 0.96435714
-0.37449011 0.05697234 0.96447998
-0.36469311 0.05630986 0.96474993
-0.35538504 0.05689634 0.9647826
-0.34514472 0.05642283 0.96520829
-0.3358233 0.056499142 0.96440887
-0.32498589 0.057099722 0.9644286
-0.3144213 0.056764275 0.96470016
-0.30459395 0.057794526 0.96319056
-0.29486573 0.057572842 0.96395463
-0.285395 0.056901373 0.96444434
-0.27462998 0.056469154 0.9636668
-0.26477298 0.056260373 0.96452641
-0.25500122 0.055324469 0.96417403
-0.24494025 0.054007128 0.96413344
-0.23495834 0.053257596 0.96408695
-0.22485611 0.052260406 0.96450007
-0.21493809 0.052419782 0.9642632
-0.20568764 0.05183186 0.96452951
-0.19369285 0.051132835 0.96320009
-0.18449762 0.050695144 0.96350002
-0.17615202 0.050549801 0.96312505
-0.16936731 0.050869193 0.96200007
-0.15249869 0.050869193 0.96200007
-0.14912497 0.050869193 0.96200007
-0.49224615 0.068486564 0.96900004
-0.48424509 0.0668047 0.96736366
-0.4751083 0.067392863 0.96448016
-0.4647249 0.066699065 0.96459103
-0.45481905 0.064970478 0.96469575
-0.44508684 0.065600157 0.96431583
-0.43523204 0.066532865 0.96523833
-0.42455208 0.065476969 0.96444851
-0.41452456 0.064026959 0.96463162
-0.40698776 0.063539624 0.96066666
-0.3518275 0.060814634 0.96000004
-0.34745079 0.060814634 0.96000004
-0.32152712 0.060814634 0.96000004
-0.31950709 0.060814634 0.96000004
-0.49400529 0.071699798 0.96607703
-0.48548377 0.071709558 0.96350002
-0.47958815 0.070939645 0.96100003
-0.46827993 0.070677027 0.96200007
0.55425489 0.0097326711 0.97800004
0.32874653 0.01791366 0.97750008
0.33731514 0.019278772 0.97750008
0.34528494 0.019273669 0.9772501
0.35528958 0.018702919 0.97761542
0.36511242 0.018957527 0.97850007
0.37511942 0.018942209 0.97775
0.38519567 0.018624313 0.97761548
0.3952539 0.018568825 0.97825009
0.40432554 0.018092912 0.97535712
0.41498837 0.017798983 0.97627276
0.4247416 0.018052682 0.97574997
0.43433684 0.018410329 0.9767499
0.44503596 0.018930517 0.97715396
0.45462403 0.018452724 0.97562492
0.46472678 0.018097367 0.97522217
0.47408766 0.018929444 0.97712505
0.48487821 0.018066378 0.97475016
0.4943409 0.016908227 0.97450006
0.50626165 0.017139688 0.97400016
0.51434141 0.01620784 0.97351986
0.52481651 0.015522049 0.97286963
0.5351572 0.01435798 0.97313648
0.54554337 0.013761559 0.97357893
0.55494869 0.013379729 0.97305268
0.56158036 0.011741953 0.97500008
-0.012967382 0.028192846 0.97900003
-0.0046415292 0.028192846 0.97900003
0.0065837437 0.028894454 0.97675008
0.01574184 0.028023658 0.97616673
0.023888413 0.027997613 0.97735715
0.034114003 0.028362034 0.97780001
0.044893358 0.027529495 0.97733337
0.055285942 0.027911624 0.97527778
0.064725868 0.027766857 0.97404546
0.075151719 0.027636679 0.97441179
0.085305288 0.027924204 0.97399992
0.095284604 0.027715487 0.97319996
0.10548992 0.027766604 0.97368419
0.11558344 0.027144918 0.97309506
0.12560861 0.026615512 0.97300005
0.13504496 0.026234534 0.97308326
0.14485817 0.02638879 0.97343481
0.15441252 0.025952637 0.97385716
0.16498797 0.026593618 0.97358829
0.17420177 0.026663825 0.97436351
0.18504606 0.026430577 0.97274989
0.19502009 0.027079837 0.97303998
0.20493479 0.025786793 0.9724139
0.21105905 0.025560452 0.9726001
0.32764488 0.022097288 0.97240013
0.33529133 0.022457071 0.973077
0.34534061 0.02291598 0.97258347
0.35532531 0.022698469 0.97200006
0.36483347 0.022404738 0.97250003
0.37499163 0.021985114 0.97275007
0.38539013 0.022783153 0.97205871
0.39493883 0.022659978 0.97256243
0.40456206 0.023181111 0.9720909
0.41448921 0.022527885 0.97205263
0.42483616 0.021747276 0.97193336
0.43565077 0.022033313 0.97214299
0.44455051 0.022791339 0.97211117
0.45441794 0.022291817 0.97200012
0.46406594 0.021862648 0.97100013
0.47552857 0.021199202 0.97166675
0.48449764 0.020846011 0.97100013
-0.14219913 0.039387353 0.97700012
-0.13447508 0.03873492 0.97528577
-0.12509912 0.03800087 0.97376931
-0.1147913 0.0382859 0.97500014
-0.10387623 0.037310105 0.97620004
-0.095147312 0.037378162 0.97554559
-0.084819995 0.036129642 0.97615004
-0.075025864 0.037157908 0.97586685
-0.064378813 0.036521386 0.97543478
-0.055104561 0.035424992 0.97448158
-0.044574134 0.034197502 0.97503728
-0.035082549 0.032895088 0.97490913
-0.024756433 0.032763422 0.97485018
-0.014901805 0.032655738 0.97469246
-0.0042761243 0.032372333 0.97379184
0.0045960094 0.031321123 0.97274995
0.014976794 0.031012375 0.97100013
0.024712993 0.031864014 0.97220004
0.03478412 0.031946793 0.97330773
0.044213314 0.031434037 0.9726364
0.054847926 0.031366698 0.9715001
0.085633337 0.031996027 0.97000003
0.10578888 0.030980436 0.97000003
0.12692851 0.031415693 0.97000015
0.13555445 0.030980436 0.97000015
0.14661023 0.030980436 0.97000003
-0.41260841 0.048436839 0.97900003
-0.40532523 0.047628295 0.97820008
-0.39549527 0.04834358 0.97712511
-0.38396966 0.047995854 0.97787511
-0.37515315 0.049009372 0.97746164
-0.36546671 0.049352702 0.97757155
-0.35478711 0.048496336 0.97823089
-0.34489179 0.04892648 0.978091
-0.33475652 0.049287789 0.97860003
-0.3248007 0.048693098 0.97900003
-0.31683341 0.048655789 0.97825003
-0.29205698 0.04915534 0.97800004
-0.28498459 0.049155653 0.97723079
-0.27454764 0.048525844 0.97723085
-0.26495537 0.047900498 0.9756667
-0.25473204 0.048034325 0.97607142
-0.2449141 0.04750352 0.9756875
-0.23515368 0.047699142 0.97505552
-0.22505023 0.045851529 0.97488445
-0.21493287 0.046214037 0.97439986
-0.20498134 0.045948047 0.97352618
-0.195474 0.045202266 0.97306675
-0.18555361 0.044999529 0.9735294
-0.17488937 0.043893389 0.97366673
-0.16478999 0.042073704 0.9754616
-0.15459891 0.041987006 0.97464305
-0.14543466 0.041813236 0.9740001
-0.13591993 0.04049423 0.97200012
-0.12613182 0.040203463 0.97200006
-0.11386086 0.040697131 0.97299999
-0.10483862 0.040977437 0.97281826
-0.094941363 0.040203467 0.97200006
-0.088294208 0.040203463 0.97200006
-0.47418121 0.059906974 0.97800004
-0.46464318 0.059588157 0.97757161
-0.45459881 0.059561912 0.97714299
-0.44468462 0.059906971 0.9780001
-0.43515658 0.057881873 0.97840005
-0.42597562 0.058660608 0.97716677
-0.41403526 0.053305626 0.97450006
-0.40565515 0.051881094 0.97376931
-0.39495888 0.050729144 0.97137511
-0.38444859 0.051110402 0.97207141
-0.37469396 0.052206006 0.97190011
-0.36468583 0.051748887 0.97314292
-0.35455048 0.052500952 0.9721539
-0.3452526 0.051713236 0.97220004
-0.33439052 0.052037615 0.97394115
-0.32448509 0.05253407 0.97427779
-0.31471747 0.052168172 0.97421438
-0.30485183 0.052688658 0.97593755
-0.2953425 0.05208151 0.97293746
-0.28367442 0.052184638 0.9715001
-0.27524281 0.052875195 0.97299999
-0.26464605 0.05230201 0.97163653
-0.25587621 0.051540803 0.97150004
-0.24544482 0.051292222 0.97000015
-0.238131 0.050276633 0.97000003
-0.22690512 0.050276633 0.97000003
-0.20955606 0.050276633 0.97000003
-0.50188845 0.066019803 0.97542864
-0.49537432 0.065930486 0.9746843
-0.48472306 0.063599207 0.97500002
-0.47469124 0.062745169 0.97440004
-0.46532992 0.062316623 0.97300011
-0.45344877 0.061612826 0.9726001
-0.44485638 0.061838411 0.97350013
-0.43535656 0.06160124 0.97390914
-0.42471737 0.060989812 0.97350013
-0.41860628 0.060557131 0.97200006
-0.49734941 0.070733972 0.97200006
0.35681415 0.009792381 0.98400003
0.4553977 0.0098122843 0.98600006
0.46239948 0.0094219754 0.9884001
0.48519501 0.0084525915 0.98800004
0.49379492 0.0080166878 0.98750001
0.50527751 0.0085444469 0.98862499
0.51546842 0.0075510233 0.98540914
0.52505016 0.0074975993 0.98472726
0.53507739 0.0073744101 0.9848696
0.54553878 0.0076364917 0.98422736
0.55517435 0.0062040854 0.98400021
0.5644449 0.0061580725 0.98423821
0.57031679 0.0036255748 0.98800004
0.026700189 0.01916148 0.98900002
0.031902809 0.01916148 0.98900002
0.047510654 0.018126 0.98900002
0.050632231 0.018125998 0.98900002
0.067974292 0.018126 0.98900002
0.073989838 0.018112252 0.98825008
0.086703718 0.019161481 0.98900002
0.096663043 0.018796943 0.98800004
0.10439055 0.018091962 0.9872309
0.11539165 0.018857324 0.98857141
0.12610617 0.019087857 0.98520005
0.1353642 0.018824112 0.98685724
0.14391883 0.01797935 0.98733342
0.15397215 0.017677398 0.98710006
0.16441125 0.017399719 0.98700005
0.17440218 0.017562959 0.98650008
0.18588112 0.019095605 0.98560011
0.19554219 0.018693455 0.98620003
0.20490538 0.018080223 0.98658323
0.21165155 0.01755598 0.98616672
0.3369717 0.014838658 0.98410004
0.34536079 0.015198037 0.98400015
0.35550177 0.014233669 0.98384225
0.3651678 0.0138065 0.98366684
0.37526715 0.014508453 0.98410535
0.38524157 0.013911703 0.98406273
0.39509752 0.014840961 0.98463172
0.40411267 0.014658881 0.98390919
0.41551691 0.015207725 0.98450005
0.42583653 0.014066675 0.98376936
0.43538347 0.014028743 0.98427796
0.44567162 0.014146497 0.98413646
0.45467091 0.013481267 0.98260003
0.46465224 0.013327868 0.98381257
0.47582775 0.013832349 0.98504359
0.4847469 0.01291381 0.98329175
0.49522859 0.012492848 0.98235714
0.50509036 0.012199404 0.98305005
0.51446754 0.011720628 0.98159999
0.52499181 0.011816739 0.98100013
0.53187251 0.011816739 0.98100013
0.5404734 0.011816739 0.98100007
0.55079448 0.011816739 0.98100007
-0.11157652 0.029486461 0.98800004
-0.10455085 0.02913578 0.98614293
-0.095268831 0.029426768 0.98600006
-0.084983885 0.029456615 0.98700011
-0.074641407 0.028761055 0.98677784
-0.064496242 0.02839338 0.986
-0.054824412 0.028399348 0.98620015
-0.04515643 0.027912749 0.98522228
-0.035417564 0.028370431 0.98516679
-0.024242325 0.026941039 0.98414296
-0.015765723 0.025560288 0.9845295
-0.0046692137 0.02525888 0.98458338
0.0051940181 0.025814617 0.98505908
0.014103674 0.023614788 0.98538899
0.024883626 0.023074917 0.98517406
0.03482344 0.023866469 0.98460877
0.044607941 0.022593621 0.98404765
0.054791197 0.022455018 0.9844287
0.065255791 0.021991743 0.98410517
0.075608909 0.022140574 0.98349988
0.08551497 0.023017559 0.98394758
0.095367588 0.022878902 0.98357153
0.10436081 0.022645866 0.98300004
0.11416302 0.022143029 0.98353344
0.1244039 0.021776723 0.98123085
0.13539422 0.021181785 0.98190016
0.14522621 0.021091327 0.98250002
0.15552236 0.021342998 0.98225009
0.16521564 0.021687701 0.98211771
0.17513713 0.021154486 0.98200005
0.1837233 0.021851972 0.98199999
0.19417123 0.021995431 0.9810909
0.2047634 0.021049961 0.98049998
0.21217906 0.021103635 0.98300004
-0.37494192 0.039871126 0.98900002
-0.35829353 0.039871126 0.98900002
-0.26256537 0.039871126 0.98900002
-0.25505745 0.039540719 0.98814285
-0.2441929 0.038636889 0.98833334
-0.23503551 0.038757116 0.98700011
-0.22450043 0.038512044 0.98828572
-0.21468274 0.037288737 0.98691672
-0.20534946 0.038086221 0.98573333
-0.19434161 0.037786733 0.98470002
-0.1843428 0.03680684 0.98580009
-0.17508271 0.036212225 0.98496163
-0.16564846 0.037222978 0.98504543
-0.1548302 0.036596317 0.98464
-0.14519672 0.036086723 0.98479998
-0.13542514 0.034797475 0.98474991
-0.12517804 0.034618407 0.98427272
-0.11502725 0.034525938 0.98436368
-0.10521175 0.033415485 0.98194993
-0.09450338 0.033062775 0.98161095
-0.0858429 0.032308389 0.9830001
-0.075173028 0.033089038 0.98244435
-0.066229142 0.032387547 0.98192322
-0.054695081 0.030335546 0.98200005
-0.047876235 0.030335546 0.98200005
-0.032378849 0.030335546 0.98200005
-0.028246215 0.030335546 0.98200005
-0.4141646 0.044088554 0.9849999
-0.40518492 0.044558201 0.98537505
-0.39499772 0.045625549 0.98475015
-0.38504851 0.045515522 0.98425001
-0.37492096 0.045263734 0.98499995
-0.36460936 0.045175597 0.98594755
-0.35502595 0.043710213 0.98545474
-0.34482479 0.044354681 0.98656017
-0.33499536 0.04453966 0.9858079
-0.32496333 0.045427795 0.98442346
-0.31517965 0.045131918 0.98529166
-0.30568957 0.046401132 0.98486364
-0.29539484 0.046283834 0.98526323
-0.28476959 0.044399608 0.98457164
-0.27514651 0.043287996 0.98545468
-0.26403907 0.043119851 0.98400015
-0.25529656 0.043108616 0.98336852
-0.24533735 0.04289167 0.98355007
-0.23486778 0.042243399 0.98250002
-0.22461747 0.0414236 0.98287505
