# .PCD v0.7 - Point Cloud Data file format
VERSION 0.7
FIELDS x y z
SIZE 4 4 4
TYPE F F F
COUNT 1 1 1
WIDTH 1493
HEIGHT 1
VIEWPOINT 0 0 0 1 0 0 0
POINTS 1493
DATA ascii
0.74398422 -0.50376308 1.6569998
0.74223083 -0.49499592 1.6569999
0.74380893 -0.48342323 1.6569999
0.75275147 -0.48131907 1.6570001
0.74696511 -0.47500667 1.6569999
0.75275147 -0.47658479 1.6570001
0.74801719 -0.46553811 1.6569999
0.74770159 -0.45606956 1.6569999
0.7485432 -0.44607493 1.6569999
0.74801719 -0.43397623 1.6569999
0.74801719 -0.42450768 1.6569999
0.74801719 -0.41503906 1.6570001
0.74854326 -0.40767464 1.6570001
0.75590765 -0.40399241 1.6569999
0.76222003 -0.40557051 1.6570001
0.75538158 -0.39504987 1.6569999
0.75455499 -0.38437897 1.6569999
0.75432956 -0.37400863 1.6569999
0.75590765 -0.36454004 1.6569999
0.75748575 -0.35507146 1.6570001
0.76222003 -0.34875908 1.6570001
0.77439392 -0.34650466 1.6569999
0.76590228 -0.33666036 1.6569999
0.77295113 -0.33550307 1.6569999
0.75748575 -0.32035336 1.6570001
0.76537627 -0.32613972 1.6569999
0.75748575 -0.31561908 1.6570001
0.76432419 -0.31614512 1.6570001
0.76695436 -0.30141622 1.6570001
0.77484483 -0.30141622 1.6570001
0.76327217 -0.29720798 1.6570001
0.72625721 -0.65172863 1.6650001
0.73260003 -0.65172863 1.6650001
0.72625721 -0.64538574 1.6650002
0.73312867 -0.64432859 1.6650002
0.72657436 -0.63650578 1.6650002
0.73180717 -0.63666433 1.6650001
0.72784293 -0.62477148 1.6650001
0.73101431 -0.62477148 1.6650001
0.72784299 -0.61367148 1.6650002
0.73180717 -0.61287862 1.6650001
0.72705007 -0.60495007 1.6650001
0.73228288 -0.60352296 1.6650002
0.72784299 -0.59464288 1.6650002
0.73228288 -0.59527719 1.6650002
0.72784293 -0.58830005 1.6650001
0.73101437 -0.58512866 1.6650002
0.73418581 -0.57561439 1.6650002
0.73577154 -0.56610006 1.6650002
0.7405287 -0.56610006 1.6650002
0.73482007 -0.55436581 1.6650002
0.74052864 -0.55817145 1.6650001
0.73524296 -0.54495716 1.6650002
0.74052864 -0.54072863 1.6650001
0.73656434 -0.5351786 1.6650001
0.74052864 -0.53438574 1.6650001
0.73656434 -0.52487147 1.6650001
0.74324697 -0.5239653 1.6650002
0.73735726 -0.5153572 1.6650002
0.74370003 -0.51535714 1.6650001
0.73608863 -0.50520861 1.6650002
0.74132144 -0.50663579 1.6650001
0.73577154 -0.49632859 1.6650002
0.7405287 -0.49632859 1.6650002
0.73656434 -0.48760718 1.6650001
0.74234086 -0.48364291 1.6650002
0.7373572 -0.47254288 1.6650001
0.7433036 -0.47412857 1.6650001
0.7373572 -0.46778575 1.6650001
0.74370003 -0.46461433 1.6650001
0.74370003 -0.45510006 1.6650001
0.74528575 -0.44558573 1.6650002
0.75004292 -0.44400004 1.6650001
0.7442286 -0.4371286 1.6650002
0.74433434 -0.4249714 1.6650002
0.74279392 -0.41341844 1.6650002
0.75162864 -0.41704288 1.6650001
0.74528575 -0.40752861 1.6650001
0.75131148 -0.40372291 1.6650002
0.75230825 -0.39438981 1.6650002
0.74687147 -0.38215718 1.6650001
0.75162864 -0.38532859 1.6650002
0.74687147 -0.37581432 1.6650002
0.75162864 -0.37581429 1.6650002
0.75400722 -0.36550716 1.6650001
0.7563858 -0.35520002 1.6650001
0.76272863 -0.35044289 1.6650001
0.7722429 -0.35044289 1.6650001
0.75850004 -0.34515715 1.6650002
0.76550364 -0.34449643 1.6650001
0.7722429 -0.34568572 1.6650001
0.75797147 -0.33458573 1.6650002
0.76352149 -0.33458576 1.6650001
0.7722429 -0.333 1.6650001
0.75850004 -0.32507145 1.6650002
0.76590008 -0.32560003 1.6650002
0.75638574 -0.31714287 1.6650001
0.76590008 -0.31238574 1.6650002
0.77541435 -0.31238574 1.6650002
0.75532866 -0.30287144 1.6650002
0.76590008 -0.30604288 1.6650002
0.77586752 -0.30694902 1.6650002
0.75638574 -0.29688096 1.6650001
0.76554769 -0.29370952 1.6650001
0.77506202 -0.2961762 1.6650001
0.7563858 -0.28542858 1.6650001
0.76590008 -0.28384286 1.6650001
0.75955719 -0.27432859 1.6650002
0.76544702 -0.27523473 1.6650002
0.75955719 -0.26481432 1.6650002
0.76463151 -0.2654486 1.6650002
0.75828862 -0.25466573 1.6650002
0.76748574 -0.20772858 1.6650001
0.72390455 -0.65273559 1.6730001
0.72337341 -0.64530009 1.6730002
0.71859336 -0.63574004 1.6730001
0.7249667 -0.63482964 1.6730002
0.72496676 -0.62618005 1.6730002
0.72542202 -0.61388862 1.6730002
0.7249667 -0.60387337 1.6730002
0.72656006 -0.59431338 1.6730002
0.72735673 -0.58555007 1.6730001
0.73134011 -0.58475339 1.6730001
0.72815341 -0.5720067 1.6730001
0.7326147 -0.57455605 1.6730002
0.72815341 -0.56563342 1.6730001
0.7329334 -0.56563342 1.6730002
0.72687876 -0.55543607 1.6730002
0.73213673 -0.55687004 1.6730001
0.72815341 -0.54970002 1.6730001
0.73333168 -0.54412335 1.6730002
0.72815341 -0.53058004 1.6730001
0.73452669 -0.53376669 1.6730002
0.72815341 -0.5242067 1.6730001
0.73412836 -0.52380836 1.6730002
0.72815341 -0.51783335 1.6730001
0.73452669 -0.51464665 1.6730002
0.72815341 -0.50827336 1.6730001
0.7329334 -0.50508672 1.6730002
0.72815341 -0.4955267 1.6730001
0.7329334 -0.49552673 1.6730002
0.72815341 -0.48915336 1.6730001
0.73543721 -0.48642194 1.6730002
0.74090004 -0.48278004 1.6730001
0.73612005 -0.47481334 1.6730002
0.74090004 -0.47959337 1.6730001
0.7361201 -0.46366006 1.6730002
0.74090004 -0.46366006 1.6730001
0.73543721 -0.4545553 1.6730002
0.74169672 -0.4533034 1.6730001
0.7361201 -0.44454002 1.6730002
0.74217474 -0.44517738 1.6730002
0.73771346 -0.43498003 1.6730001
0.74249339 -0.43498003 1.6730002
0.75046003 -0.43498003 1.6730001
0.73691672 -0.42542005 1.6730001
0.74169672 -0.42462337 1.6730001
0.7377134 -0.4190467 1.6730001
0.74090004 -0.41586003 1.6730001
0.75046003 -0.41745335 1.6730001
0.74408674 -0.40693736 1.6730002
0.75046003 -0.40630004 1.6730001
0.7377134 -0.3903667 1.6730001
0.74437648 -0.39471215 1.6730002
0.75046003 -0.3951467 1.6730001
0.7377134 -0.38399336 1.6730001
0.74408674 -0.38399336 1.6730002
0.75046003 -0.38718003 1.6730001
0.74499726 -0.3748886 1.6730002
0.75205338 -0.3712467 1.6730001
0.74568009 -0.36487335 1.6730002
0.75205344 -0.36487338 1.6730002
0.74647671 -0.35611004 1.6730001
0.75319159 -0.35531339 1.6730002
0.74727339 -0.34575337 1.6730001
0.75364673 -0.34535503 1.6730002
0.76108229 -0.34469113 1.6730001
0.74727339 -0.33938003 1.6730001
0.75364673 -0.33619332 1.6730002
0.75470906 -0.32557112 1.6730002
0.76002008 -0.32822669 1.6730001
0.75683343 -0.3138867 1.6730001
0.76256937 -0.31197473 1.6730002
0.75364667 -0.30432668 1.6730001
0.76161337 -0.30751336 1.6730001
0.75428408 -0.2928547 1.6730002
0.76002008 -0.29317337 1.6730001
0.74727339 -0.28202003 1.6730001
0.75417781 -0.28520674 1.6730002
0.76129472 -0.28456935 1.6730002
0.75410199 -0.27473623 1.6730002
0.76002014 -0.27564669 1.6730001
0.75555867 -0.2660867 1.6730002
0.76002014 -0.2660867 1.6730001
0.75393647 -0.25449881 1.6730002
0.76002008 -0.25493336 1.6730001
0.75555879 -0.24441735 1.6730002
0.76373786 -0.24271779 1.6730002
0.75683337 -0.23581335 1.6730001
0.76384407 -0.2345387 1.6730002
0.76575595 -0.22497869 1.6730002
0.76320672 -0.21555525 1.6730002
0.76480007 -0.20490268 1.6730002
0.77276671 -0.20394668 1.6730001
0.7667917 -0.19637834 1.6730002
0.77276671 -0.19916669 1.6730001
0.76575601 -0.18482667 1.6730002
0.76639336 -0.17367333 1.6730002
0.76703078 -0.16347602 1.6730002
0.76719004 -0.15375668 1.6730001
0.71882766 -0.65318859 1.6810001
0.72309685 -0.65478963 1.6810001
0.71882766 -0.64678478 1.6810001
0.72309685 -0.64518392 1.6810001
0.71776044 -0.63771284 1.6810001
0.72202957 -0.63397717 1.6810001
0.72469795 -0.62543881 1.6810001
0.7239508 -0.61764741 1.6810001
0.72267002 -0.60419941 1.6810001
0.72523153 -0.59395337 1.6810001
0.72736609 -0.58648229 1.6810001
0.73163527 -0.58114576 1.6810001
0.72736609 -0.5726074 1.6810001
0.73163527 -0.57794386 1.6810001
0.72563177 -0.56473601 1.681
0.71882766 -0.55553049 1.6810001
0.72431666 -0.55507314 1.6810001
0.72763288 -0.54512429 1.6810001
0.73163527 -0.54592484 1.6810001
0.72763288 -0.53551865 1.6810001
0.73163527 -0.53792 1.6810001
0.72736609 -0.52564609 1.6810001
0.73163527 -0.52671337 1.6810001
0.72843337 -0.51390576 1.6810001
0.73163527 -0.51550674 1.6810001
0.73163527 -0.50590098 1.6810001
0.72843337 -0.49149242 1.6810001
0.73163527 -0.49789622 1.6810001
0.73323625 -0.48508859 1.6810001
0.73323625 -0.47548291 1.6810001
0.73323625 -0.46587718 1.6810001
0.73291606 -0.45563108 1.6810001
0.73483717 -0.44602537 1.6810001
0.73803914 -0.43385813 1.6810001
0.7369718 -0.42425239 1.6810001
0.73803908 -0.41624764 1.6810001
0.74124098 -0.41464671 1.6810001
0.74444288 -0.40504098 1.6810001
0.75404865 -0.40504098 1.6810001
0.73803908 -0.39223337 1.6810001
0.74124098 -0.39703622 1.6810001
0.73803914 -0.38582954 1.6810001
0.74124098 -0.38582954 1.6810001
0.73803908 -0.37942573 1.6810001
0.74230832 -0.37729114 1.6810001
0.74444288 -0.36501718 1.6810001
0.74636406 -0.35381049 1.6810001
0.75725055 -0.35220954 1.6810001
0.73803908 -0.34420478 1.6810001
0.74490041 -0.34420478 1.6810001
0.75084674 -0.33459911 1.6810001
0.75324816 -0.32579383 1.6810001
0.75725055 -0.31538767 1.6810001
0.75725055 -0.30898383 1.6810001
0.75404865 -0.29697669 1.6810001
0.75313383 -0.2842834 1.6810001
0.75191402 -0.27376288 1.6810001
0.75484914 -0.26495764 1.6810001
0.75484914 -0.24414527 1.6810001
0.75511599 -0.23640732 1.6810001
0.76045245 -0.23213811 1.6810001
0.75725055 -0.22893621 1.6810001
0.76173323 -0.22509392 1.6810001
0.75725055 -0.21933049 1.6810001
0.76125294 -0.21532811 1.6810001
0.75725055 -0.20172001 1.6810001
0.76151979 -0.20492193 1.6810001
0.76301402 -0.19371524 1.6810001
0.76237357 -0.18346916 1.6810001
0.75725055 -0.17450383 1.6810001
0.76205343 -0.17450383 1.6810001
0.75725055 -0.16810001 1.6810001
0.76325405 -0.16449787 1.681
0.76557553 -0.15529239 1.6810001
0.76525533 -0.14568669 1.6810001
0.75725055 -0.13287906 1.6810001
0.76456922 -0.13562356 1.6810001
0.75596976 -0.12711564 1.6810001
0.76182467 -0.12418817 1.6810001
0.76285386 -0.11446811 1.6810001
0.76605576 -0.10326144 1.6810001
0.76525533 -0.094456196 1.6810001
0.76365435 -0.088052385 1.6810001
0.70830864 -0.66141146 1.6980001
0.71477717 -0.66141146 1.6980001
0.70992577 -0.6581772 1.6980001
0.71656752 -0.65475571 1.6943078
0.70992577 -0.64362288 1.6980001
0.71600538 -0.64531165 1.6948003
0.72428572 -0.64541906 1.6900001
0.70830858 -0.63472861 1.6980001
0.71631241 -0.63564956 1.6940002
0.72267622 -0.63415241 1.6900001
0.70669144 -0.62745148 1.6980001
0.71708918 -0.62616521 1.6955386
0.72267622 -0.62610483 1.6900001
0.71826637 -0.6152907 1.6948
0.72267622 -0.61483812 1.6900001
0.71796006 -0.60524803 1.6956002
0.723481 -0.60276669 1.6900001
0.71683192 -0.59516799 1.6968572
0.72455096 -0.59336537 1.6935556
0.70992577 -0.58055431 1.6980001
0.71639436 -0.58378869 1.6980001
0.72677791 -0.58418036 1.6955386
0.73233336 -0.58264768 1.6900001
0.70992577 -0.57570291 1.6980001
0.71599001 -0.57449007 1.6980001
0.72456902 -0.57445526 1.6922859
0.70830864 -0.56761718 1.6980001
0.717134 -0.56488454 1.6946669
0.72267622 -0.56494296 1.6900001
0.7173304 -0.55512303 1.6964
0.72464502 -0.55323327 1.6916001
0.7177937 -0.54583901 1.6962223
0.72538072 -0.54509634 1.6929092
0.71833491 -0.53592122 1.6980002
0.72536802 -0.53587508 1.6948
0.71962863 -0.52880573 1.6980001
0.72664005 -0.52594286 1.6940001
0.71962863 -0.51748574 1.6980001
0.72764915 -0.51610518 1.6956002
0.73239148 -0.51404196 1.692
0.71962869 -0.50616574 1.6980002
0.72655928 -0.50524169 1.6980002
0.73244953 -0.50497335 1.694
0.71962863 -0.49969718 1.6980001
0.72609723 -0.49646288 1.6980001
0.73247284 -0.49552727 1.6948
0.7277143 -0.48837718 1.6980001
0.73418295 -0.48514289 1.6980001
0.73418295 -0.47382292 1.6980002
0.73385954 -0.46476689 1.6980002
0.7277143 -0.45280001 1.6980001
0.73244965 -0.45495623 1.6940001
0.72872007 -0.44509146 1.6953335
0.73463273 -0.4453783 1.6900003
0.72927719 -0.43610859 1.6960001
0.73500937 -0.4362624 1.6914549
0.72927719 -0.42641717 1.696
0.73517776 -0.42493907 1.6928574
0.73625273 -0.41495174 1.6953334
0.74306357 -0.41150162 1.6900001
0.73648959 -0.40533274 1.6971111
0.74399334 -0.40600738 1.6945714
0.75486672 -0.40720955 1.6900001
0.73733836 -0.39596346 1.6956002
0.74199051 -0.3975524 1.6900001
0.73778647 -0.38482445 1.6958183
0.73791254 -0.37487876 1.6966667
0.74351388 -0.37417504 1.6926668
0.73741722 -0.36385721 1.6980002
0.74411488 -0.36524418 1.6921821
0.7377407 -0.35480115 1.6980002
0.74384069 -0.3557196 1.6917779
0.73772293 -0.34424147 1.6949999
0.74520963 -0.34604764 1.6900001
0.73671782 -0.3357223 1.6964
0.74532127 -0.33526021 1.6930772
0.75164765 -0.3363905 1.6900001
0.74582797 -0.32559094 1.6971111
0.75352263 -0.32436249 1.6929092
0.746427 -0.31580493 1.6980002
0.75503242 -0.31460002 1.6940002
0.74792862 -0.30644858 1.6980001
0.75480872 -0.30548003 1.6971111
0.74873722 -0.29755431 1.6980001
0.7542817 -0.29639924 1.6980002
0.7474435 -0.28558746 1.6980002
0.75240266 -0.28578731 1.6953334
0.74809039 -0.2758846 1.6980002
0.75254458 -0.27415726 1.6944444
0.74873722 -0.2668286 1.6980001
0.75338054 -0.26442766 1.6930001
0.75459844 -0.25429636 1.6945717
0.74712008 -0.24257144 1.6980001
0.75362808 -0.24583486 1.6934286
0.74755633 -0.23483282 1.6953335
0.75393337 -0.23381333 1.6908003
0.746427 -0.22478285 1.6980002
0.75473595 -0.22416508 1.6933335
0.7613048 -0.22533335 1.6900001
0.74712008 -0.21508001 1.6980002
0.75503248 -0.21457335 1.6940002
0.7613048 -0.21406668 1.6900001
0.74712002 -0.20861144 1.6980001
0.75549382 -0.20495848 1.6972001
0.76155114 -0.20720574 1.6953335
0.75714636 -0.19502746 1.6980002
0.76265055 -0.1950981 1.6930001
0.75616747 -0.18496405 1.6953332
0.76202255 -0.18656115 1.6916001
0.74873722 -0.17626858 1.6980002
0.75503242 -0.17585336 1.6940002
0.74873722 -0.16494858 1.6980001
0.75554365 -0.16506176 1.6958668
0.7613048 -0.16417143 1.6900001
0.74873722 -0.15362859 1.6980002
0.75549376 -0.15420002 1.6972001
0.76397616 -0.15609123 1.6935556
0.74873722 -0.14392573 1.6980002
0.75526732 -0.14405583 1.6936924
0.76291436 -0.14485715 1.6900003
0.75507975 -0.13428694 1.695091
0.7629143 -0.13680953 1.6900001
0.75475484 -0.1239607 1.6943637
0.7613048 -0.12071429 1.6900001
0.75741476 -0.1155845 1.6957145
0.76243943 -0.11329081 1.6913335
0.75844014 -0.1051143 1.6980002
0.76443702 -0.10518181 1.6943637
0.75844014 -0.095411442 1.6980002
0.76370233 -0.095261596 1.6953335
0.76476592 -0.085267715 1.6950911
0.77257144 -0.083695248 1.6900001
0.76640576 -0.075574867 1.6955999
0.7725715 -0.075647622 1.6900003
0.76531571 -0.06620001 1.6953335
0.76479656 -0.055366538 1.6957145
0.76733434 -0.044471432 1.6980001
0.76652575 -0.033960007 1.6980002
0.76733434 -0.025065716 1.6980001
0.76684922 -0.015201144 1.6980002
0.76167434 0.50616574 1.6980001
0.69702291 -0.66452765 1.7060001
0.70352197 -0.66290295 1.7060002
0.71002102 -0.66127813 1.7060001
0.70595908 -0.65396667 1.7060001
0.71164584 -0.65477908 1.7060002
0.70514673 -0.6450305 1.7060002
0.71002102 -0.6450305 1.7060001
0.70433432 -0.63609433 1.7060001
0.71002102 -0.63528192 1.7060001
0.70406359 -0.62499189 1.7060002
0.7132706 -0.62414074 1.7060002
0.70352197 -0.61578488 1.7060002
0.7128644 -0.61537862 1.7060002
0.70514673 -0.60603625 1.7060002
0.71234214 -0.60650051 1.7060002
0.70352203 -0.59628767 1.7060002
0.71164584 -0.59628767 1.7060002
0.70352197 -0.58491439 1.7060001
0.71110427 -0.58599752 1.7060002
0.70482177 -0.57484078 1.7060002
0.71110427 -0.57462418 1.7060001
0.70677149 -0.56379241 1.7060001
0.71234214 -0.56379241 1.7060002
0.71234214 -0.55450809 1.7060002
0.7132706 -0.54429519 1.7060002
0.71611387 -0.53414047 1.7060002
0.71814483 -0.52479815 1.7060002
0.72496879 -0.52544802 1.7060002
0.71895719 -0.51423717 1.7060001
0.72626859 -0.51342481 1.7060001
0.71814483 -0.505301 1.7060002
0.7184698 -0.49555245 1.7060002
0.72383147 -0.49474004 1.7060001
0.71895719 -0.48661622 1.7060001
0.72586244 -0.48539767 1.7060002
0.73276764 -0.48417908 1.7060001
0.72667474 -0.47605526 1.7060002
0.7327677 -0.47605526 1.7060001
0.72719705 -0.46677095 1.7060002
0.7327677 -0.46630669 1.7060001
0.71868646 -0.45601654 1.7060002
0.72518545 -0.45547497 1.7060002
0.73276764 -0.45980763 1.7060001
0.71976966 -0.44356006 1.7060001
0.72626859 -0.44356003 1.7060002
0.72667474 -0.43421766 1.7060002
0.72821832 -0.42471281 1.7060002
0.73276764 -0.42081335 1.7060001
0.72951812 -0.41431433 1.7060001
0.7327677 -0.41431433 1.7060001
0.72951812 -0.40456575 1.7060001
0.73357999 -0.40537816 1.7060001
0.72951812 -0.39156765 1.7060001
0.7343924 -0.3948172 1.7060002
0.72951812 -0.3850686 1.7060001
0.7343924 -0.3850686 1.7060002
0.72951812 -0.37369525 1.7060001
0.73508871 -0.37485585 1.7060002
0.72951812 -0.36882097 1.7060001
0.73471737 -0.3662214 1.7060002
0.73547554 -0.35473973 1.7060002
0.7366671 -0.34672424 1.7060002
0.73357999 -0.33551335 1.7060001
0.7366671 -0.32527733 1.7060002
0.74381608 -0.32527736 1.7060002
0.7379669 -0.31422898 1.7060002
0.74414098 -0.31357908 1.7060002
0.73926669 -0.30708003 1.7060001
0.74576569 -0.3038305 1.7060002
0.74576569 -0.29408193 1.7060002
0.7522648 -0.29408193 1.7060001
0.73926669 -0.28108382 1.7060001
0.74414098 -0.28433335 1.7060002
0.73926675 -0.27458477 1.7060001
0.74576575 -0.27458477 1.7060002
0.73926669 -0.26483619 1.7060001
0.74576575 -0.26483622 1.7060002
0.75334799 -0.26266989 1.7060001
0.73926669 -0.25833717 1.7060001
0.74576575 -0.25508764 1.7060002
0.7535646 -0.25573754 1.7060002
0.74483734 -0.24580328 1.7060002
0.7522648 -0.24858859 1.7060001
0.73926669 -0.23234096 1.7060001
0.74414104 -0.23559049 1.7060002
0.74414098 -0.22665431 1.7060001
0.74414104 -0.21609335 1.7060002
0.74535954 -0.20593856 1.7060002
0.7522648 -0.20472002 1.7060001
0.74715847 -0.19659622 1.7060002
0.75443113 -0.19551304 1.7060002
0.74901527 -0.1835981 1.7060001
0.75334799 -0.18576446 1.7060001
0.74901527 -0.17384955 1.7060001
0.74820292 -0.16328858 1.7060001
0.74739051 -0.1543524 1.7060002
0.74739051 -0.14460383 1.7060002
0.74771547 -0.13550515 1.7060002
0.75226486 -0.13485524 1.7060001
0.74739051 -0.12348191 1.7060001
0.75226486 -0.12510668 1.7060001
0.74739051 -0.11535811 1.7060002
0.75458592 -0.11489389 1.7060002
0.74901527 -0.10560954 1.7060001
0.75551438 -0.10560954 1.7060002
0.75551432 -0.095860958 1.7060002
0.75746405 -0.086762294 1.7060002
0.76201338 -0.086112395 1.7060001
0.75768065 -0.074197471 1.7060001
0.76331323 -0.077013724 1.7060002
0.74739051 -0.060116194 1.7060001
0.75551432 -0.064990476 1.7060001
0.76201338 -0.064990476 1.7060001
0.74793214 -0.055783495 1.7060001
0.75592047 -0.054023337 1.7060002
0.76201338 -0.05361715 1.7060001
0.75876391 -0.043868572 1.7060001
0.7648567 -0.043462381 1.7060002
0.75746405 -0.033470094 1.7060002
0.7636382 -0.034120005 1.7060002
0.75876391 -0.02437143 1.7060001
0.7648567 -0.02396524 1.7060002
0.75876391 -0.014622858 1.7060001
0.7643345 -0.014158641 1.7060002
0.75644284 -0.0044100685 1.7060002
0.7652629 -0.0048742862 1.7060002
0.75592053 0.0048742862 1.7060002
0.7652629 0.0048742862 1.7060002
0.74901527 0.017872382 1.7060001
0.75551432 0.014622857 1.7060002
0.74901527 0.02437143 1.7060001
0.75551432 0.02437143 1.7060002
0.74901527 0.032495238 1.7060001
0.75551432 0.034119997 1.7060002
0.7652629 0.034119997 1.7060002
0.7652629 0.043868572 1.7060002
0.76619136 0.054081369 1.7060002
0.75876385 0.069864765 1.7060001
0.76555836 0.065138176 1.7060001
0.75876391 0.076363817 1.7060001
0.7661913 0.076363817 1.7060002
0.75876385 0.084487624 1.7060001
0.76721263 0.085462481 1.7060002
0.76851243 0.095860958 1.7060001
0.76851243 0.10560954 1.7060001
0.76688766 0.11535811 1.7060002
0.77176201 0.1153581 1.7060001
0.76770002 0.1242943 1.7060001
0.76851243 0.13160573 1.7060001
0.75876385 0.17709906 1.7060001
0.75876385 0.18197334 1.7060001
0.69463336 -0.66570014 1.7150002
0.70315003 -0.66231668 1.715
0.69743335 -0.6582334 1.715
0.70342225 -0.65605563 1.715
0.70396674 -0.64516675 1.715
0.7039668 -0.6353668 1.715
0.70396674 -0.62556672 1.715
0.70396674 -0.61250001 1.715
0.70396674 -0.60760003 1.715
0.70070004 -0.59453338 1.715
0.70070004 -0.58636665 1.715
0.70462006 -0.57591337 1.715
0.71050006 -0.57003337 1.715
0.71050006 -0.55206668 1.715
0.7113167 -0.54308337 1.715
0.71322227 -0.53410006 1.715
0.71417505 -0.52430004 1.715
0.72030002 -0.52103335 1.715
0.70723337 -0.51286674 1.715
0.71417505 -0.51409173 1.715
0.72030002 -0.51776671 1.715
0.70723337 -0.50633335 1.715
0.71376675 -0.50470006 1.715
0.71417505 -0.4953084 1.715
0.72030002 -0.49816671 1.715
0.71703339 -0.48510003 1.715
0.72111666 -0.48428336 1.715
0.71621668 -0.47448337 1.715
0.72263342 -0.47576672 1.7150002
0.71540004 -0.46876669 1.715
0.72356671 -0.46746001 1.715
0.72030002 -0.44263336 1.715
0.72356671 -0.43610001 1.715
0.7260167 -0.42711669 1.715
0.73010004 -0.42303336 1.715
0.72683346 -0.41650006 1.715
0.73010004 -0.41650006 1.715
0.73075336 -0.40408668 1.715
0.73091674 -0.39445004 1.715
0.73091674 -0.38301671 1.715
0.73010004 -0.37403339 1.715
0.73336667 -0.36260003 1.715
0.73243344 -0.35396674 1.7150002
0.73663336 -0.34790003 1.715
0.73500001 -0.32176667 1.715
0.73608893 -0.31523335 1.715
0.73826671 -0.30543336 1.715
0.74316674 -0.30380005 1.715
0.7431668 -0.29563335 1.715
0.73990005 -0.2825667 1.715
0.74316674 -0.2874667 1.715
0.73990005 -0.27603337 1.715
0.7385934 -0.26688668 1.715
0.74316674 -0.26623335 1.715
0.73826671 -0.25806668 1.715
0.74316674 -0.25480002 1.715
0.74316674 -0.24500002 1.715
0.73990005 -0.23193336 1.715
0.74316674 -0.23356667 1.715
0.74398339 -0.22376668 1.715
0.7431668 -0.2139667 1.715
0.7431668 -0.2041667 1.715
0.74697781 -0.19436668 1.715
0.73990005 -0.18130001 1.715
0.74736673 -0.18410002 1.7150002
0.73990005 -0.17313334 1.715
0.74736673 -0.17430001 1.7150002
0.73826671 -0.16823335 1.715
0.74602509 -0.16537502 1.715
0.74512672 -0.15582003 1.715
0.74643338 -0.14863335 1.715
0.74970007 -0.1323 1.715
0.74643338 -0.12250001 1.715
0.7529667 -0.12903334 1.715
0.74970007 -0.10616668 1.715
0.74970007 -0.098000005 1.715
0.75296676 -0.096366674 1.715
0.75677788 -0.085477792 1.715
0.76276672 -0.08003334 1.715
0.74806672 -0.070233338 1.715
0.75558007 -0.074153341 1.715
0.74806672 -0.063700005 1.715
0.7529667 -0.065333337 1.715
0.74806666 -0.053900003 1.715
0.75460005 -0.050633337 1.715
0.74970007 -0.044100001 1.715
0.75623339 -0.044100001 1.715
0.74970007 -0.034300003 1.715
0.75529999 -0.03476667 1.7150002
0.74970007 -0.027766669 1.715
0.75623339 -0.024500001 1.715
0.74970007 -0.013066668 1.715
0.75623345 -0.0147 1.715
0.74861115 -0.0038111112 1.715
0.75427336 -0.005553334 1.715
0.74888337 0.0040833335 1.715
0.75378335 0.0049000005 1.715
0.74970007 0.014700001 1.715
0.7529667 0.013066668 1.715
0.74736673 0.024966666 1.7150002
0.74806672 0.032666668 1.715
0.7529667 0.037566669 1.715
0.75705004 0.041650001 1.715
0.76276672 0.044100001 1.715
0.75950003 0.05716667 1.715
0.76407349 0.053246673 1.715
0.75950003 0.063700005 1.715
0.76358336 0.063700005 1.715
0.75950003 0.073500007 1.715
0.76603341 0.073500007 1.715
0.7588467 0.085259996 1.715
0.76603341 0.086566679 1.715
0.75950003 0.093100004 1.715
0.7664417 0.095958345 1.715
0.76799339 0.10682001 1.715
0.75950003 0.11923334 1.715
0.76472676 0.11662 1.715
0.75819343 0.12511335 1.715
0.765625 0.126175 1.715
0.7664417 0.13515835 1.715
0.77256674 0.13720001 1.715
0.7693001 0.14536668 1.715
0.77420014 0.14536667 1.715
0.7693001 0.15516669 1.715
0.76712227 0.16605556 1.715
0.75950003 0.17640001 1.715
0.76521671 0.17231669 1.715
0.75950003 0.18293335 1.715
0.76603341 0.18783335 1.715
0.76766676 0.19436668 1.715
0.76930004 0.20743334 1.715
0.76930004 0.21233335 1.715
0.69631088 -0.66349185 1.723
0.69576383 -0.65802193 1.723
0.70199949 -0.65408367 1.7229999
0.70478916 -0.64571476 1.723
0.70265585 -0.63439226 1.7229999
0.70232773 -0.62520289 1.7229999
0.70265591 -0.61601359 1.7229999
0.7039687 -0.60551149 1.723
0.70068669 -0.59566575 1.723
0.70068669 -0.58582008 1.723
0.70331228 -0.57663071 1.7229999
0.71053243 -0.57269239 1.723
0.70725054 -0.5694105 1.723
0.71217334 -0.56612861 1.723
0.71162641 -0.55628288 1.723
0.70725054 -0.5464372 1.723
0.71053243 -0.5464372 1.723
0.70725054 -0.53002763 1.723
0.71118879 -0.53462231 1.7229999
0.70725054 -0.52346385 1.723
0.71184516 -0.52346385 1.7229999
0.70725054 -0.51361817 1.723
0.7059378 -0.5044288 1.7229999
0.71053243 -0.50213146 1.723
0.71381432 -0.49310622 1.723
0.71578354 -0.484081 1.7229999
0.71463478 -0.47505575 1.723
0.71272039 -0.46438956 1.723
0.72366005 -0.46438956 1.723
0.71709621 -0.4561848 1.723
0.72201914 -0.45454383 1.7229999
0.72119862 -0.44551861 1.723
0.72234732 -0.43550879 1.7229999
0.72530103 -0.42500672 1.7229999
0.72694194 -0.41680193 1.723
0.73022383 -0.41187906 1.723
0.73022383 -0.40531525 1.723
0.72694194 -0.39218765 1.723
0.73022383 -0.39546961 1.723
0.72694194 -0.38234192 1.723
0.73022383 -0.38562387 1.723
0.72530103 -0.37906003 1.723
0.73022383 -0.37741905 1.723
0.73219299 -0.36724517 1.7229999
0.73022383 -0.3560867 1.723
0.73444349 -0.34670985 1.7229999
0.73547488 -0.33573887 1.7229999
0.73678768 -0.32983145 1.723
0.74006957 -0.32983145 1.723
0.73678768 -0.31342193 1.723
0.73678768 -0.30029431 1.723
0.74171054 -0.3035762 1.723
0.73678768 -0.2937305 1.723
0.74171054 -0.2937305 1.7229999
0.73678768 -0.28388482 1.723
0.74089009 -0.28470525 1.723
0.73481858 -0.27272633 1.7229999
0.74006957 -0.27568001 1.723
0.73391598 -0.26460359 1.7229998
0.74006957 -0.26419336 1.723
0.73678768 -0.25434765 1.723
0.74171054 -0.25270668 1.723
0.73678768 -0.24450192 1.723
0.74171054 -0.24450193 1.7229999
0.73678768 -0.23793811 1.723
0.74089009 -0.23547667 1.723
0.74335146 -0.22481051 1.723
0.74335146 -0.21496478 1.723
0.74203873 -0.20446268 1.7229999
0.74466431 -0.19461696 1.7229999
0.74288267 -0.18636534 1.7229999
0.73678768 -0.17230001 1.723
0.74280453 -0.17667589 1.7229999
0.73678768 -0.1690181 1.723
0.74171054 -0.16409525 1.723
0.73678768 -0.15589048 1.723
0.74335152 -0.1552341 1.7229999
0.7471804 -0.14495081 1.7229999
0.7471022 -0.13713676 1.7229999
0.74663341 -0.12635334 1.7229999
0.75319719 -0.12963524 1.723
0.74663335 -0.11650763 1.7229998
0.74772739 -0.10556795 1.7229998
0.74860257 -0.094190672 1.7229999
0.75319719 -0.091893338 1.723
0.7499153 -0.086970478 1.723
0.75593209 -0.083141595 1.7229999
0.7499153 -0.075483814 1.723
0.75429118 -0.076030806 1.723
0.74827433 -0.063997149 1.723
0.74745393 -0.053330954 1.723
0.74827445 -0.044305719 1.7229999
0.74827445 -0.034460001 1.7229999
0.7499153 -0.026255239 1.723
0.75319719 -0.022973336 1.723
0.7499153 -0.014768573 1.723
0.75319719 -0.018050477 1.723
0.74663341 -0.0043758731 1.7229999
0.75319719 -0.0049228575 1.723
0.74745393 0.0041023814 1.723
0.74909484 0.015589048 1.723
0.74466425 0.023957908 1.7229999
0.74663341 0.033639528 1.723
0.75319719 0.037741907 1.723
0.75647914 0.0448527 1.7229999
0.76304293 0.047587622 1.723
0.75741684 0.054620277 1.7229999
0.76304293 0.052510478 1.723
0.75647908 0.063528314 1.7229999
0.75688934 0.073432624 1.7229998
0.75702608 0.083688579 1.7229999
0.7499153 0.090252385 1.723
0.75779182 0.092221536 1.7229999
0.76304293 0.096816197 1.723
0.76585603 0.10478655 1.7229999
0.7499153 0.11978953 1.723
0.75694793 0.11744532 1.7229999
0.76413691 0.1143197 1.723
0.7499153 0.12635335 1.723
0.75554144 0.12682219 1.7229999
0.75866699 0.13401112 1.723
0.76386338 0.13701953 1.723
0.76726258 0.14557594 1.7229999
0.76796579 0.15589049 1.7229999
0.76566845 0.16507982 1.7229999
0.75866699 0.17776987 1.723
0.76304293 0.17230001 1.723
0.75844818 0.18477125 1.7229999
0.76304293 0.18870954 1.723
0.7646839 0.19527334 1.7229999
0.76829392 0.20511906 1.7229999
0.7728886 0.2034781 1.723
0.76960677 0.21496479 1.723
0.7728886 0.21824668 1.723
0.76878619 0.22563097 1.723
0.77507663 0.22535747 1.7229999
0.76960677 0.2346562 1.723
0.7646839 0.42500672 1.7229999
0.76878619 0.43403193 1.723
0.76679367 0.44563583 1.7229999
0.69444954 -0.67300576 1.7320001
0.69527435 -0.66475815 1.7320001
0.69609904 -0.65486097 1.7320002
0.70187241 -0.65403622 1.7320001
0.6977486 -0.64496386 1.7320001
0.70269716 -0.64496386 1.7320002
0.69692385 -0.634242 1.7320001
0.70104766 -0.63506675 1.7320001
0.69692385 -0.62516958 1.7320001
0.70104766 -0.62516963 1.7320001
0.6977486 -0.6152724 1.7320001
0.70236725 -0.61461258 1.7320002
0.6977486 -0.60537529 1.7320001
0.70236725 -0.60603511 1.7320002
0.6977486 -0.59547812 1.7320001
0.70104766 -0.59547818 1.7320001
0.6977486 -0.58723056 1.7320001
0.70104766 -0.58558106 1.7320001
0.6977486 -0.57898289 1.7320001
0.70434678 -0.57513404 1.7320002
0.70599627 -0.56578672 1.7320002
0.71226448 -0.5651269 1.7320002
0.70632613 -0.55588955 1.7320002
0.71094483 -0.55753911 1.7320001
0.70475912 -0.54558003 1.7320002
0.71094483 -0.54269338 1.7320001
0.70599627 -0.53609526 1.7320002
0.71094483 -0.53774476 1.7320001
0.70475912 -0.52661049 1.7320002
0.70528942 -0.51582968 1.7320004
0.70434666 -0.50722861 1.7320001
0.70764577 -0.49650669 1.7320001
0.71226448 -0.4958469 1.7320002
0.70764577 -0.48496002 1.7320001
0.71314418 -0.4851433 1.7320002
0.71314418 -0.47341335 1.7320002
0.7224915 -0.47011432 1.7320001
0.71424383 -0.46310386 1.7320002
0.7224915 -0.46681526 1.7320001
0.71534359 -0.45471877 1.7320002
0.72084194 -0.45196956 1.7320001
0.71754289 -0.44537145 1.7320001
0.720842 -0.44372195 1.7320001
0.72216159 -0.43316498 1.7320002
0.72414106 -0.42392763 1.7320002
0.72414094 -0.41403052 1.7320002
0.73073912 -0.41238099 1.7320001
0.71754289 -0.40578288 1.7320001
0.72414094 -0.40413332 1.7320002
0.73073912 -0.40413338 1.7320001
0.72455335 -0.39464861 1.7320002
0.73073912 -0.39423621 1.7320001
0.72414106 -0.38433912 1.7320004
0.73073912 -0.38763812 1.7320001
0.72508359 -0.37491325 1.7320004
0.73156387 -0.37444195 1.7320001
0.72744006 -0.36454481 1.7320001
0.73073912 -0.36454481 1.7320001
0.73073912 -0.35464764 1.7320001
0.72744006 -0.34145144 1.7320001
0.73348826 -0.34365082 1.7320002
0.73309559 -0.33438209 1.7320004
0.73403811 -0.32495621 1.7320002
0.74063623 -0.32825527 1.7320001
0.72744006 -0.31340954 1.7320001
0.73403811 -0.3150591 1.7320002
0.74063623 -0.31176001 1.7320001
0.72744006 -0.30516192 1.7320001
0.73403811 -0.30516192 1.7320002
0.74063623 -0.30681145 1.7320001
0.72744006 -0.29526478 1.7320001
0.73403817 -0.29526478 1.7320002
0.74063623 -0.29526478 1.7320001
0.72744006 -0.28371811 1.7320001
0.73403817 -0.28536764 1.7320002
0.72744006 -0.2754705 1.7320001
0.73356688 -0.27641308 1.7320004
0.72744006 -0.26557335 1.7320001
0.73156387 -0.26474857 1.7320001
0.73445046 -0.25608861 1.7320002
0.73568767 -0.24577908 1.7320002
0.73568767 -0.23588191 1.7320002
0.74063623 -0.2342324 1.7320001
0.73601753 -0.22664459 1.7320002
0.74228573 -0.22598478 1.7320002
0.73733717 -0.21773717 1.7320001
0.74228573 -0.21608764 1.7320002
0.73733717 -0.20948954 1.7320001
0.74146098 -0.20701525 1.7320001
0.73623753 -0.19409399 1.7320001
0.74228585 -0.19629335 1.7320002
0.72744006 -0.18639621 1.7320001
0.73498076 -0.18592492 1.7320004
0.74063623 -0.18639621 1.7320001
0.73403817 -0.17649907 1.7320002
0.74063623 -0.17814858 1.7320001
0.73623753 -0.16605207 1.7320002
0.74146098 -0.16247812 1.7320001
0.73733723 -0.15340573 1.7320001
0.74327552 -0.1514263 1.7320002
0.73733723 -0.14350858 1.7320001
0.7429927 -0.14397988 1.7320004
0.73733723 -0.13361144 1.7320001
0.74352288 -0.13319905 1.7320002
0.7505334 -0.13361144 1.7320001
0.73733723 -0.1237143 1.7320001
0.74228585 -0.1237143 1.7320002
0.73733717 -0.11051811 1.7320001
0.74228585 -0.11381715 1.7320002
0.73733717 -0.10721906 1.7320001
0.74393529 -0.10392001 1.7320002
0.74487793 -0.094494171 1.7320004
0.7505334 -0.090723813 1.7320001
0.74558485 -0.08412572 1.7320002
0.75273275 -0.083575875 1.7320002
0.74393529 -0.074228585 1.7320002
0.75053346 -0.074228585 1.7320001
0.73733717 -0.067630477 1.7320001
0.74393529 -0.064331435 1.7320002
0.7505334 -0.065980956 1.7320001
0.74393529 -0.054434288 1.7320002
0.74558485 -0.044537149 1.7320002
0.74558485 -0.034640007 1.7320002
0.74723434 -0.028041907 1.7320001
0.75135815 -0.023918096 1.7320001
0.74723434 -0.013196191 1.7320001
0.75053346 -0.014845716 1.7320001
0.74558485 -0.0049485718 1.7320001
0.7505334 -0.0082476195 1.7320001
0.74558485 0.0032990479 1.7320001
0.7505334 0.0065980954 1.7320001
0.74723434 0.018144764 1.7320001
0.7505334 0.013196191 1.7320001
0.74723434 0.034640003 1.7320001
0.7505334 0.037939049 1.7320001
0.75288987 0.045008436 1.7320004
0.74723434 0.057733338 1.7320001
0.75342 0.054021906 1.7320002
0.74723434 0.064331435 1.7320001
0.75218296 0.064331435 1.7320002
0.76043051 0.065980956 1.7320001
0.74723434 0.070929527 1.7320001
0.75288993 0.074699871 1.7320004
0.75342005 0.083713323 1.7320002
0.74723434 0.094022863 1.7320001
0.75336117 0.094965465 1.7320004
0.76043051 0.095672384 1.7320001
0.75383252 0.10392001 1.7320002
0.76331717 0.10433239 1.7320002
0.75342011 0.11340477 1.7320002
0.76153028 0.11161779 1.7320001
0.74723434 0.12371429 1.7320001
0.75053346 0.12371429 1.7320001
0.74723434 0.13361144 1.7320001
0.75336117 0.13455403 1.7320004
0.76043051 0.13691048 1.7320001
0.74723434 0.14020953 1.7320001
0.75424486 0.14309619 1.7320002
0.76278704 0.14397988 1.7320004
0.75548196 0.15340573 1.7320002
0.76372957 0.15340573 1.7320002
0.75548196 0.1649524 1.7320002
0.76306981 0.16429259 1.7320002
0.75548196 0.17649907 1.7320002
0.76153028 0.1742997 1.7320001
0.75548196 0.18639621 1.7320002
0.76043051 0.18969525 1.7320001
0.75630677 0.1971181 1.7320001
0.76208007 0.19629334 1.7320002
0.75713146 0.20784003 1.7320001
0.76372957 0.20619051 1.7320002
0.77032769 0.2061905 1.7320001
0.76372957 0.21608764 1.7320002
0.77032775 0.21608764 1.7320001
0.75713146 0.22763431 1.7320001
0.76414198 0.22639716 1.7320002
0.77032769 0.22433525 1.7320001
0.75713146 0.23588192 1.7320001
0.76372951 0.23588191 1.7320002
0.77032775 0.23588192 1.7320001
0.75713146 0.24577908 1.7320001
0.76372957 0.24577907 1.7320002
0.76372957 0.25567621 1.7320002
0.77197719 0.25567621 1.7320002
0.76372957 0.26557335 1.7320002
0.77362669 0.26557338 1.7320002
0.76504916 0.27415091 1.7320002
0.77362669 0.2754705 1.7320002
0.76504922 0.28404805 1.7320002
0.77362669 0.28536764 1.7320002
0.76620382 0.29608953 1.7320001
0.77362669 0.29526478 1.7320002
0.76537907 0.30516192 1.7320001
0.77362669 0.30516192 1.7320002
0.76467222 0.31553039 1.7320004
0.77321434 0.31464669 1.7320002
0.76467216 0.32448494 1.7320004
0.77321434 0.32495624 1.7320002
0.76620382 0.33402857 1.7320001
0.76702869 0.34475049 1.7320001
0.76208007 0.42392766 1.7320002
0.76331723 0.43423715 1.7320002
0.77032769 0.43712384 1.7320001
0.76331717 0.44330955 1.7320002
0.77032769 0.44207239 1.7320001
0.75383246 0.49320766 1.7320001
0.75713146 0.53774476 1.7320001
0.76372957 0.53939432 1.7320001
0.77032769 0.53939432 1.7320001
0.69474196 -0.67484486 1.7410001
0.69341546 -0.66423303 1.7410001
0.69379449 -0.65447396 1.7410002
0.69474196 -0.64499921 1.7410001
0.68810958 -0.63173431 1.7410001
0.69432741 -0.63505054 1.7410001
0.68810958 -0.62510198 1.7410001
0.69432747 -0.62468743 1.7410001
0.69474196 -0.61515343 1.7410001
0.69805813 -0.60520482 1.7410001
0.69515646 -0.59484172 1.7410001
0.69640005 -0.58530766 1.7410001
0.70137435 -0.58530766 1.7410001
0.69673169 -0.57602233 1.7410001
0.70270079 -0.57469589 1.7410001
0.69805813 -0.56541049 1.7410001
0.70303243 -0.56541049 1.7410001
0.69695276 -0.55325121 1.7410001
0.7037431 -0.55593568 1.7410002
0.69515646 -0.54592788 1.7410001
0.70220339 -0.54468435 1.7410001
0.69640005 -0.5339067 1.7410001
0.70270079 -0.53622806 1.7410001
0.69640005 -0.52893239 1.7410001
0.70270079 -0.52495295 1.7410001
0.69805813 -0.51235145 1.7410001
0.70220339 -0.51649672 1.7410001
0.70469058 -0.50571907 1.7410002
0.70717776 -0.49659956 1.7410001
0.70717776 -0.48499289 1.7410001
0.7066803 -0.4752101 1.7410001
0.71132296 -0.47587335 1.7410001
0.70469058 -0.4659248 1.7410001
0.71132296 -0.46592483 1.7410001
0.70516431 -0.45692372 1.7410002
0.71353364 -0.45487088 1.7410001
0.70717764 -0.44602764 1.7410001
0.71463913 -0.4460277 1.7410001
0.72127146 -0.44271147 1.7410001
0.7155866 -0.43655282 1.7410002
0.72127146 -0.43607908 1.7410001
0.71712625 -0.42530143 1.7410001
0.72259802 -0.42546725 1.7410001
0.71629715 -0.41618192 1.7410001
0.72127146 -0.41618192 1.7410001
0.71629715 -0.4062334 1.7410001
0.72127146 -0.40291718 1.7410001
0.71596563 -0.39761129 1.7410001
0.72210056 -0.39545572 1.7410001
0.71795529 -0.38302001 1.7410001
0.72210056 -0.38716528 1.7410001
0.71795529 -0.37970382 1.7410001
0.72259802 -0.37572441 1.7410001
0.71795529 -0.36643907 1.7410001
0.72458768 -0.36643907 1.7410001
0.72500223 -0.35690501 1.7410001
0.73122013 -0.35649049 1.7410001
0.72458768 -0.34654191 1.7410001
0.73232549 -0.34875274 1.7410001
0.72458768 -0.33659336 1.7410001
0.73122013 -0.33659336 1.7410001
0.71795529 -0.32498667 1.7410001
0.72458762 -0.32498667 1.7409999
0.73122007 -0.3249867 1.7410001
0.71795529 -0.3166962 1.7410001
0.72500217 -0.31379452 1.7410001
0.7265774 -0.3040947 1.7410001
0.73122007 -0.30674765 1.7410001
0.7270748 -0.29265383 1.7410001
0.73122007 -0.29348287 1.7410001
0.7265774 -0.2828711 1.7410001
0.72500223 -0.27400029 1.7410001
0.72624576 -0.26529527 1.7410001
0.73122007 -0.26032096 1.7410001
0.72790384 -0.25203049 1.7410001
0.73254651 -0.25302535 1.7410001
0.72790384 -0.24374002 1.7410001
0.73287815 -0.24374002 1.7410001
0.7270748 -0.23296238 1.7410001
0.73287815 -0.23379146 1.7410001
0.72790384 -0.22384289 1.7410001
0.73412174 -0.22342835 1.7410001
0.72790384 -0.21389429 1.7410001
0.73453629 -0.21389431 1.7410001
0.74116862 -0.21389429 1.7410001
0.72790384 -0.20394573 1.7410001
0.73453629 -0.20394573 1.7410001
0.74116868 -0.20394573 1.7410001
0.72790384 -0.19399717 1.7410001
0.73398352 -0.19510256 1.7410001
0.7265774 -0.18338536 1.7410001
0.73232549 -0.18515399 1.7410001
0.72624576 -0.17410001 1.7410001
0.73204911 -0.17327097 1.7410001
0.73508894 -0.16415145 1.7410001
0.72790384 -0.15088667 1.7410001
0.73619431 -0.15420286 1.7410001
0.7265774 -0.14359106 1.7410001
0.73453635 -0.14425431 1.7410001
0.72790384 -0.13762191 1.7410001
0.73453629 -0.13430572 1.7410001
0.73652601 -0.12369392 1.7410001
0.73564166 -0.11330318 1.7410001
0.74116862 -0.11606668 1.7410001
0.73495084 -0.10446 1.7410001
0.74116862 -0.10280191 1.7410001
0.73586273 -0.095837913 1.7410001
0.74249506 -0.093848191 1.7410001
0.73785245 -0.08456286 1.7410001
0.7428267 -0.084562868 1.7410001
0.73652601 -0.073951058 1.7410001
0.74116868 -0.074614286 1.7410001
0.73619437 -0.06466572 1.7410001
0.74116862 -0.063007623 1.7410001
0.73619431 -0.05471715 1.7410001
0.74116868 -0.05471715 1.7410001
0.73495078 -0.044354048 1.7410001
0.7428267 -0.044768572 1.7410001
0.73495078 -0.034405477 1.7410001
0.7428267 -0.034820002 1.7410001
0.73785245 -0.028187621 1.7410001
0.74489927 -0.025285956 1.7410001
0.75111717 -0.023213334 1.7410001
0.74543226 -0.014449116 1.7410002
0.75111717 -0.018239049 1.7410001
0.74581134 -0.0056375242 1.7410001
0.74503756 0.0049742865 1.7410001
0.75111717 0.0082904771 1.7410001
0.74614298 0.014922857 1.7410001
0.75111717 0.013264762 1.7410001
0.74614286 0.024871431 1.7410001
0.74489927 0.035234526 1.7410001
0.75111717 0.038136192 1.7410001
0.74489933 0.0451831 1.7410001
0.75111717 0.044768572 1.7410001
0.73785245 0.054717146 1.7410001
0.74448478 0.05471715 1.7410001
0.75111717 0.053059049 1.7410001
0.73785245 0.06466572 1.7410001
0.74448478 0.064665712 1.7410001
0.74489927 0.074199766 1.7410001
0.75111717 0.076272383 1.7410001
0.74647456 0.083899632 1.7410001
0.75111717 0.084562868 1.7410001
0.74780101 0.094511434 1.7410001
0.74780101 0.10446 1.7410001
0.75111717 0.10446 1.7410001
0.74780101 0.11440858 1.7410001
0.75111717 0.11440858 1.7410001
0.74647456 0.12502038 1.7410001
0.74489933 0.13389121 1.7410001
0.74448472 0.1442543 1.7410001
0.75222254 0.14646509 1.7410001
0.74780101 0.15088667 1.7410001
0.75277531 0.15420288 1.7410001
0.75277531 0.16415146 1.7410001
0.75360435 0.17327097 1.7410001
0.75360435 0.18487763 1.7410001
0.75443339 0.19494465 1.7410002
0.75443345 0.20394573 1.7410002
0.76106578 0.20394573 1.7410001
0.75609148 0.21389431 1.7410001
0.76106578 0.21555239 1.7410001
0.75774956 0.22384289 1.7410001
0.76217121 0.22273748 1.7410001
0.75774956 0.23379144 1.7410001
0.75642312 0.24440327 1.7410001
0.75609148 0.25368857 1.7410001
0.76106578 0.25534666 1.7410001
0.75774956 0.26363719 1.7410001
0.76106584 0.26363719 1.7410001
0.75774956 0.27026954 1.7410001
0.7630555 0.27491224 1.7410001
0.76390827 0.28353429 1.7410002
0.7647965 0.29306832 1.7410001
0.76382923 0.30453688 1.7410001
0.77101433 0.30674765 1.7410001
0.76272386 0.31338 1.7410001
0.75774956 0.32167047 1.7410001
0.76272386 0.3249867 1.7410001
0.76570845 0.33725661 1.7410001
0.76637173 0.34720516 1.7410001
0.76769817 0.35649049 1.7410001
0.77101439 0.35649049 1.7410001
0.76769817 0.36478096 1.7410001
0.773004 0.36776558 1.7410001
0.76769817 0.37638769 1.7410001
0.7743305 0.37638763 1.7410001
0.76769817 0.38633621 1.7410001
0.77391601 0.38633624 1.7410001
0.73652595 0.43541583 1.7410001
0.7436558 0.43856624 1.7410001
0.75553882 0.52782702 1.7410001
0.75484788 0.53597933 1.7410001
0.75443345 0.54551345 1.7410001
0.75609148 0.55546194 1.7410001
0.76396745 0.55587643 1.7410001
0.77267241 0.55629098 1.7410001
0.75692052 0.56623954 1.7410001
0.69600546 -0.68262076 1.7567501
0.69462812 -0.67398685 1.7575001
0.69354862 -0.66506958 1.7590001
0.69438624 -0.65418053 1.7590001
0.69292134 -0.6461004 1.756
0.68842816 -0.63161576 1.7545002
0.69177008 -0.63829958 1.7545002
0.68833339 -0.62500012 1.7500002
0.69166672 -0.62166673 1.7500001
0.68833339 -0.61666673 1.7500001
0.69315439 -0.6135155 1.7525716
0.69449109 -0.60580206 1.754091
0.69305021 -0.59439969 1.755625
0.69324195 -0.58410537 1.7540001
0.69512773 -0.57421368 1.7552502
0.68852288 -0.56455529 1.7590001
0.69510686 -0.5647794 1.7545
0.70166671 -0.56500006 1.7500001
0.68852288 -0.55617905 1.7590001
0.6932171 -0.55557537 1.753
0.69377345 -0.54405779 1.7545
0.70166671 -0.54166669 1.7500001
0.69560659 -0.53417909 1.7551429
0.6985141 -0.5253455 1.7567501
0.70179576 -0.52467477 1.7545002
0.69847792 -0.5139122 1.7554001
0.70166671 -0.51500005 1.7500001
0.69849396 -0.50449216 1.756
0.70329541 -0.50420928 1.755
0.6985743 -0.49419531 1.7590002
0.70629615 -0.49474129 1.7560003
0.6985743 -0.48414385 1.7590002
0.70518923 -0.48440242 1.7563
0.6985743 -0.47744289 1.7590001
0.70324528 -0.47495759 1.7551429
0.7017312 -0.46476027 1.7522501
0.70736849 -0.4544948 1.7545002
0.70847952 -0.44614431 1.7545002
0.71187305 -0.44206417 1.7560003
0.70862573 -0.43388671 1.7590002
0.71393174 -0.43418938 1.7540911
0.70778817 -0.42299765 1.7590001
0.71452421 -0.42463452 1.7554001
0.70862573 -0.41378385 1.7590002
0.71370661 -0.41495988 1.7538573
0.70847958 -0.40436623 1.7545002
0.71282935 -0.40478587 1.7515001
0.70862573 -0.39703146 1.7590001
0.71516216 -0.39433807 1.7545002
0.72184718 -0.3909986 1.7545002
0.71733695 -0.38295946 1.7590001
0.72193742 -0.3848055 1.7567501
0.71700191 -0.37357813 1.7590001
0.72184724 -0.3742891 1.7545002
0.71700191 -0.3635267 1.7590001
0.7218833 -0.36344936 1.7554001
0.71867722 -0.35347527 1.7590002
0.72229773 -0.35434657 1.7538573
0.71733481 -0.34340122 1.75675
0.72166669 -0.34500003 1.7500002
0.71629268 -0.33409768 1.755
0.72166669 -0.3366667 1.7500001
0.7154606 -0.32499853 1.7536001
0.7165311 -0.31630537 1.7554001
0.72277784 -0.31277782 1.7500002
0.71744573 -0.30604574 1.756
0.72404772 -0.30452386 1.7500002
0.71867716 -0.29651716 1.7590001
0.72557813 -0.296408 1.7565455
0.71867716 -0.28814095 1.7590001
0.72381282 -0.28591794 1.7536001
0.72435582 -0.27487382 1.7545002
0.72670358 -0.2654973 1.7564287
0.73166674 -0.26166669 1.7500001
0.72737336 -0.25556692 1.75675
0.73187292 -0.25899762 1.7545002
0.72747999 -0.24584003 1.756
0.7264412 -0.23602311 1.7545
0.72581625 -0.22579792 1.7536001
0.72634453 -0.21569526 1.7522501
0.72693485 -0.20540297 1.7563
0.7261498 -0.19563974 1.7557275
0.72483587 -0.18627125 1.755
0.72518909 -0.17545003 1.7545002
0.72623712 -0.16528288 1.753
0.7330001 -0.16433334 1.7500002
0.72581619 -0.1549838 1.7536001
0.73366678 -0.15566669 1.7500002
0.72418398 -0.14570792 1.7545
0.72487557 -0.13528785 1.7537502
0.73166674 -0.13333334 1.7500001
0.72705334 -0.12731811 1.7590001
0.73383331 -0.12558877 1.7536001
0.72872859 -0.11224096 1.7590001
0.73484755 -0.11578418 1.755625
0.72692168 -0.10312921 1.756
0.73392099 -0.10599411 1.7554001
0.72648877 -0.095659919 1.7565455
0.73452389 -0.094047636 1.7500002
0.72797942 -0.086686485 1.7572001
0.734469 -0.084774904 1.7516365
0.72872865 -0.07538572 1.7590002
0.73345709 -0.075449057 1.7527001
0.72872859 -0.068684764 1.7590001
0.73333341 -0.065150477 1.7540001
0.72859687 -0.052960642 1.7560003
0.73301983 -0.055489529 1.7522501
0.728531 -0.045115717 1.7545002
0.73250008 -0.045833334 1.7500001
0.72872865 -0.035180002 1.7590002
0.73231965 -0.035553336 1.7538573
0.72872859 -0.028479049 1.7590001
0.73489702 -0.025052149 1.7537502
0.74277782 -0.022777781 1.7500002
0.73521143 -0.014370193 1.7545
0.74285519 -0.016126826 1.7515001
0.73584688 -0.0054982323 1.7577144
0.74293244 -0.0050085708 1.753
0.73710483 0.0050257151 1.7590001
0.74315071 0.0054316665 1.7545
0.73710477 0.015077144 1.7590001
0.74378002 0.015040953 1.755
0.73878002 0.025128573 1.7590002
0.74293244 0.025042858 1.753
0.73728031 0.035630479 1.7577144
0.74237698 0.033946034 1.7530001
0.73741198 0.045590241 1.75675
0.74242622 0.043709528 1.7518002
0.73625433 0.055094291 1.753
0.74166673 0.055000003 1.7500001
0.73583686 0.065133713 1.7536001
0.74166673 0.065000005 1.7500001
0.7376951 0.074320689 1.7564287
0.74242622 0.076413922 1.7518002
0.73878002 0.082086675 1.7590001
0.74446929 0.085194297 1.7540001
0.7458477 0.095108591 1.7520001
0.74697161 0.10492299 1.755625
0.75218195 0.10889048 1.7590001
0.74780703 0.11495084 1.755625
0.74629849 0.12593783 1.7564287
0.73878002 0.13569431 1.7590002
0.7428866 0.13587539 1.7551429
0.73878002 0.14574572 1.7590002
0.74189872 0.14537287 1.7545002
0.74624223 0.15506695 1.7545
0.75166672 0.15666668 1.7500001
0.74858242 0.16208239 1.7545002
0.75187284 0.16600955 1.7536001
0.75317651 0.17586881 1.7545
0.74883145 0.18930192 1.7590001
0.75269324 0.18494013 1.7533751
0.74806184 0.19647239 1.7572001
0.75239408 0.19477874 1.7530001
0.74799389 0.20521668 1.7590001
0.75236374 0.20592806 1.7538573
0.74883145 0.21945621 1.7590001
0.75380862 0.21561238 1.755
0.74883145 0.22615716 1.7590001
0.75526202 0.22557859 1.7545002
0.74883145 0.23620859 1.7590001
0.7552619 0.23560429 1.7545002
0.75535309 0.24584003 1.756
0.75423813 0.25587431 1.756
0.75626624 0.26534814 1.7545
0.7566545 0.27618194 1.7554001
0.76166672 0.2766667 1.7500001
0.75736851 0.28673255 1.7577144
0.76189339 0.28491622 1.7536001
0.75869977 0.29489464 1.7560003
0.76241112 0.29606128 1.7530001
0.7565577 0.30853796 1.7575001
0.76241124 0.30440891 1.7530001
0.75623268 0.31621507 1.7567501
0.76166672 0.31500003 1.7500002
0.75603467 0.32481179 1.755
0.76333338 0.32833335 1.7500001
0.75776613 0.33113876 1.7590002
0.76305836 0.33501193 1.7522501
0.7637074 0.34410426 1.753
0.76606518 0.35452333 1.755
0.76668543 0.36444932 1.7554001
0.76771957 0.37466615 1.7551429
0.77166671 0.3716667 1.7500001
0.76761723 0.38408637 1.756
0.76617396 0.39450842 1.7552502
0.73500007 0.43500003 1.7500002
0.7384451 0.44473454 1.7522501
0.74166673 0.44666669 1.7500001
0.75500005 0.53333336 1.7500001
0.75312704 0.54575181 1.756
0.75387079 0.55471653 1.7551429
0.75546372 0.5646109 1.757875
0.75776613 0.57572353 1.7590002
0.75720763 0.58130765 1.7590001
0.68867815 -0.68699431 1.7680001
0.69445115 -0.68482947 1.768
0.69204581 -0.67520773 1.7680001
0.6928876 -0.66426289 1.7680001
0.6928876 -0.65584385 1.7680001
0.69339275 -0.64557266 1.768
0.68867815 -0.63479626 1.7680001
0.69204575 -0.63479626 1.7680001
0.69204581 -0.62469339 1.7680001
0.69204575 -0.61122292 1.7680001
0.69204581 -0.60448766 1.7680001
0.69204581 -0.59438485 1.7680001
0.69204581 -0.58428192 1.7680001
0.68867815 -0.57417911 1.7680001
0.69204575 -0.57586288 1.7680001
0.68733114 -0.56340265 1.768
0.69204575 -0.56744385 1.7680001
0.68755567 -0.55621845 1.7680001
0.69204575 -0.55228961 1.7680001
0.69288766 -0.54302859 1.7680001
0.69709718 -0.5337677 1.7680001
0.6979391 -0.52282286 1.7680001
0.6979391 -0.51440388 1.7680001
0.70214862 -0.5101943 1.7680001
0.69743395 -0.50413269 1.768
0.69765848 -0.4956013 1.7680001
0.70551622 -0.49672383 1.7680001
0.6979391 -0.48577908 1.7680001
0.69878101 -0.47820193 1.7680001
0.70214862 -0.47483432 1.7680001
0.70349568 -0.46641526 1.768
0.69709718 -0.45631242 1.7680001
0.70593721 -0.45673338 1.7679999
