# .PCD v0.7 - Point Cloud Data file format
VERSION 0.7
FIELDS x y z
SIZE 4 4 4
TYPE F F F
COUNT 1 1 1
WIDTH 632
HEIGHT 1
VIEWPOINT 0 0 0 1 0 0 0
POINTS 632
DATA ascii
-0.51381528 0.26815906 1.9690001
-0.50818956 0.26815906 1.9690001
-0.52319145 0.27378476 1.9690001
-0.51662815 0.27284715 1.9690001
-0.50818956 0.27190953 1.9690001
-0.51857144 0.25834286 1.9800001
-0.52536011 0.2681486 1.9800001
-0.51574284 0.26494288 1.9800001
-0.50725716 0.26965716 1.9800001
-0.56005716 0.27720001 1.9800001
-0.55628574 0.27720001 1.9800001
-0.53365719 0.27342859 1.9800001
-0.52988577 0.2753143 1.9800001
-0.51480001 0.27720004 1.9800003
-0.50537145 0.27342859 1.9800001
-0.56005716 0.28097144 1.9800001
-0.5236001 0.28222859 1.9800003
-0.53365719 0.29982859 1.9800001
-0.53365719 0.30360001 1.9800001
-0.52234292 0.30737144 1.9800001
-0.51668572 0.30737144 1.9800001
-0.52234292 0.31114289 1.9800001
-0.51668572 0.31114289 1.9800001
-0.58242291 0.24093716 1.9920001
-0.53309721 0.25990859 1.9920001
-0.52550864 0.25864384 1.9920001
-0.51412576 0.25990862 1.9920001
-0.49641907 0.25737908 1.9920001
-0.4856686 0.2561143 1.9920001
-0.57483435 0.26749715 1.9920001
-0.56534863 0.26749715 1.9920001
-0.5558629 0.26749715 1.9920001
-0.54448003 0.26749715 1.9920001
-0.53499436 0.26560003 1.9920001
-0.52740574 0.26370287 1.9920001
-0.51317716 0.26465145 1.9920001
-0.50464004 0.26560003 1.9920001
-0.49515432 0.26560003 1.9920003
-0.48377147 0.26560003 1.9920001
-0.47713143 0.2665486 1.9920001
-0.46100575 0.26749715 1.9920001
-0.40219432 0.26560003 1.9920001
-0.39523813 0.26623243 1.9920001
-0.57293713 0.27413717 1.9920001
-0.56572807 0.27432689 1.9920002
-0.55538863 0.27461144 1.9920003
-0.54448009 0.27508575 1.9920003
-0.53689146 0.27508575 1.9920001
-0.51033145 0.27888003 1.9920001
-0.50426066 0.27508575 1.9920002
-0.49515432 0.27508578 1.9920003
-0.4856686 0.27318859 1.9920001
-0.47618288 0.27508575 1.9920003
-0.46432573 0.27461144 1.9920003
-0.45626289 0.27508575 1.9920001
-0.44772574 0.27508575 1.9920001
-0.43824002 0.27129143 1.9920001
-0.42496002 0.27318859 1.9920001
-0.41623315 0.27660346 1.9920002
-0.55776 0.28457147 1.9920001
-0.54448009 0.28457147 1.9920003
-0.53499436 0.28457147 1.9920001
-0.52424383 0.28520387 1.9920001
-0.51412576 0.28457147 1.9920003
-0.50464004 0.28457147 1.9920001
-0.49515432 0.28457147 1.9920003
-0.4723886 0.28457147 1.9920001
-0.4629029 0.28457147 1.9920001
-0.45721146 0.28267431 1.9920001
-0.54220343 0.29329833 1.9920002
-0.53499436 0.29405716 1.9920003
-0.5255087 0.29405716 1.9920003
-0.51488465 0.29178059 1.9920002
-0.49562863 0.29453146 1.9920003
-0.4629029 0.29026288 1.9920001
-0.41926861 0.29026288 1.9920001
-0.54195052 0.30670476 1.9920001
-0.53309721 0.30544004 1.9920001
-0.52605069 0.30435595 1.9920003
-0.51222861 0.30733714 1.9920001
-0.50464004 0.30733716 1.9920001
-0.4956286 0.3049657 1.9920003
-0.4856686 0.30544001 1.9920001
-0.37373716 0.30923429 1.9920001
-0.51222861 0.3130286 1.9920001
-0.50464004 0.31492573 1.9920001
-0.49515432 0.31492573 1.9920003
-0.47997716 0.31682289 1.9920001
-0.37500191 0.31555814 1.9920001
-0.36994287 0.31682289 1.9920001
-0.49136004 0.32630861 1.9920001
-0.38132575 0.3225143 1.9920001
-0.37563428 0.32441148 1.9920003
-0.36867809 0.3231467 1.9920001
-0.38132575 0.33389717 1.9920001
-0.37563431 0.33389717 1.9920001
-0.44456384 0.35729527 1.9920001
-0.36994287 0.35666287 1.9920001
-0.44582859 0.36235431 1.9920001
-0.36994287 0.36425143 1.9920001
-0.39106193 0.22700669 2.003
-0.3872467 0.22700669 2.003
-0.53604102 0.2384524 2.003
-0.50361145 0.23654477 2.003
-0.58373141 0.24417526 2.003
-0.57800859 0.24226764 2.003
-0.54367149 0.24226764 2.003
-0.53713107 0.24553785 2.0030003
-0.52841049 0.24226764 2.003
-0.4933103 0.24837203 2.003
-0.48453528 0.24799049 2.003
-0.40250763 0.24989811 2.003
-0.39678478 0.24989811 2.003
-0.55130196 0.2575286 2.003
-0.546215 0.25625685 2.003
-0.53604102 0.25562099 2.0030003
-0.52554905 0.25562096 2.003
-0.51505721 0.2575286 2.003
-0.50628215 0.25523946 2.003
-0.49502715 0.25466716 2.003
-0.48389941 0.25498509 2.003
-0.47690481 0.25562096 2.003
-0.44066003 0.2575286 2.003
-0.43493718 0.2575286 2.003
-0.42539907 0.2575286 2.003
-0.41395339 0.2575286 2.003
-0.40441528 0.25562096 2.003
-0.39678478 0.25562096 2.003
-0.58182383 0.26515907 2.003
-0.57419336 0.26363298 2.003
-0.56529117 0.26388735 2.003
-0.55511725 0.26325148 2.0030003
-0.54557914 0.26325145 2.003
-0.53985626 0.26134384 2.003
-0.50742674 0.26134384 2.003
-0.49254727 0.26363298 2.003
-0.48453528 0.26134384 2.003
-0.47445217 0.26406902 2.0030003
-0.46545911 0.26515907 2.003
-0.45537597 0.26624915 2.0030003
-0.44447523 0.26515907 2.003
-0.43493721 0.26515907 2.0030003
-0.42539907 0.26515907 2.003
-0.41395336 0.26515907 2.003
-0.40441525 0.26134384 2.003
-0.39360544 0.26388735 2.0030003
-0.38533908 0.26706669 2.003
-0.3796162 0.2689743 2.003
-0.57800859 0.27469715 2.003
-0.45401335 0.27278954 2.003
-0.44447526 0.27469715 2.003
-0.43493718 0.27469715 2.003
-0.42158383 0.27278954 2.003
-0.41299957 0.27374333 2.003
-0.40441525 0.27469715 2.003
-0.39487717 0.27278954 2.003
-0.38533908 0.27278954 2.003
-0.376564 0.27431566 2.003
-0.3681705 0.27278954 2.003
-0.55511719 0.28614289 2.003
-0.49025816 0.28423527 2.003
-0.48491684 0.2849983 2.003
-0.47423416 0.28499833 2.003
-0.45483091 0.28478032 2.0030003
-0.44447529 0.28423527 2.003
-0.43493721 0.28423524 2.0030003
-0.42587596 0.28471217 2.003
-0.41395336 0.2842353 2.0030003
-0.40441525 0.28423524 2.003
-0.37770858 0.28042001 2.003
-0.55130196 0.29186574 2.003
-0.54748672 0.2994962 2.003
-0.52078003 0.2994962 2.003
-0.51442134 0.29822445 2.003
-0.50742674 0.29568097 2.0030003
-0.49121195 0.29472715 2.003
-0.48453528 0.295681 2.0030003
-0.47499716 0.29568097 2.003
-0.46545911 0.29758859 2.003
-0.45592102 0.29568097 2.003
-0.44399834 0.29520407 2.003
-0.43493721 0.295681 2.0030003
-0.42587599 0.2961579 2.003
-0.41504344 0.29513595 2.0030003
-0.40403375 0.29491794 2.003
-0.39869243 0.29568097 2.003
-0.38533908 0.29758859 2.003
-0.37580097 0.29568097 2.003
-0.55257368 0.30585495 2.003
-0.54557908 0.30331144 2.003
-0.52078003 0.30521905 2.003
-0.51505721 0.30331144 2.003
-0.50742674 0.30331144 2.003
-0.49025813 0.30331144 2.003
-0.48389941 0.30458319 2.003
-0.47499716 0.30521911 2.0030003
-0.46545908 0.30521908 2.003
-0.4549672 0.30521908 2.003
-0.44320354 0.30458319 2.003
-0.43493718 0.30331144 2.003
-0.42539907 0.30331144 2.003
-0.4177686 0.30331144 2.003
-0.40250763 0.30521905 2.003
-0.39487717 0.30521911 2.0030003
-0.38533908 0.30521905 2.003
-0.37770861 0.30521905 2.003
-0.55257368 0.31221369 2.003
-0.54748672 0.31284955 2.003
-0.49121192 0.31380337 2.003
-0.48491684 0.31399414 2.003
-0.47499716 0.3147572 2.003
-0.46545911 0.31475717 2.0030003
-0.45537597 0.31366712 2.0030003
-0.44447523 0.3147572 2.003
-0.43493718 0.31666479 2.003
-0.42730671 0.31475717 2.003
-0.39335105 0.31323108 2.003
-0.38533911 0.31475717 2.0030003
-0.37580097 0.31284955 2.003
-0.36544535 0.31421214 2.0030003
-0.49407336 0.32391372 2.003
-0.48453528 0.32429525 2.003
-0.47576022 0.32391372 2.003
-0.46609497 0.32493114 2.003
-0.45210573 0.32238764 2.003
-0.44523832 0.32391372 2.003
-0.43430132 0.32365939 2.003
-0.39106193 0.32429525 2.003
-0.3872467 0.32429525 2.003
-0.36562702 0.32365939 2.003
-0.49025813 0.3300181 2.003
-0.48453528 0.3300181 2.003
-0.47881243 0.3300181 2.003
-0.46355146 0.3376486 2.003
-0.45210573 0.3376486 2.003
-0.44371223 0.33612251 2.003
-0.43455568 0.3345964 2.003
-0.42635289 0.33669481 2.003
-0.39201573 0.33478719 2.003
-0.3862929 0.33287954 2.003
-0.37198576 0.3338334 2.003
-0.36721671 0.33287954 2.003
-0.44256765 0.34146383 2.003
-0.43493718 0.34146383 2.003
-0.42539907 0.34146383 2.003
-0.40441525 0.3490943 2.003
-0.39258802 0.34604213 2.003
-0.38533908 0.34527907 2.0030003
-0.37580094 0.34527907 2.003
-0.36721671 0.34623289 2.003
-0.45592099 0.35481715 2.003
-0.4437122 0.35443565 2.003
-0.40441525 0.35481715 2.003
-0.39487717 0.35481715 2.0030003
-0.38533908 0.35481715 2.003
-0.376564 0.35443565 2.003
-0.36511832 0.35519868 2.003
-0.3567248 0.3567248 2.003
-0.44218612 0.36511832 2.003
-0.4063229 0.36054003 2.003
-0.39440027 0.36435527 2.003
-0.38533911 0.3643553 2.0030003
-0.37770861 0.3643553 2.0030003
-0.36435524 0.36435524 2.003
-0.35577101 0.36435527 2.003
-0.39440027 0.37627792 2.003
-0.38533908 0.37389335 2.003
-0.37532407 0.37532404 2.003
-0.36435527 0.37532407 2.003
-0.35672483 0.37580097 2.003
-0.39487717 0.3872467 2.003
-0.39487717 0.39296955 2.003
-0.36244765 0.3986924 2.003
-0.36054003 0.40250763 2.003
-0.50701249 0.22529618 2.0150001
-0.58147144 0.23988096 2.0150001
-0.57763338 0.23988096 2.0150001
-0.55268574 0.23988096 2.0150001
-0.54500955 0.23604287 2.0150001
-0.53541434 0.23732224 2.0150001
-0.52313244 0.23834574 2.0150001
-0.51366508 0.23860161 2.0150001
-0.5031743 0.23450764 2.0150001
-0.495754 0.23860161 2.0150001
-0.48647863 0.23892143 2.0150001
-0.39340478 0.23220478 2.0150001
-0.38956669 0.23220478 2.0150001
-0.57571435 0.24371906 2.0150001
-0.5699572 0.2456381 2.0150001
-0.55383718 0.24602191 2.0150001
-0.54692858 0.24755716 2.0150001
-0.53349531 0.24755716 2.0150001
-0.52466768 0.24525431 2.0150001
-0.5047096 0.24563812 2.0150003
-0.49511433 0.24371906 2.0150001
-0.48455957 0.24467859 2.0150001
-0.47592387 0.2456381 2.0150001
-0.40491909 0.24755716 2.0150001
-0.39532381 0.24755716 2.0150001
-0.57379526 0.25907144 2.0150001
-0.56515956 0.25811192 2.0150001
-0.55588412 0.25395399 2.0150003
-0.54692858 0.25331432 2.0150001
-0.53349531 0.25139526 2.0150001
-0.52313244 0.25293049 2.0150001
-0.51494449 0.25267464 2.0150001
-0.50662863 0.25139526 2.0150001
-0.48168099 0.25139526 2.0150001
-0.4729082 0.25468507 2.0150003
-0.46536905 0.25619286 2.0150001
-0.45481434 0.25523335 2.0150001
-0.44585881 0.2565127 2.0150001
-0.43562385 0.25523335 2.0150001
-0.42315 0.25427383 2.0150001
-0.4145143 0.25523335 2.0150001
-0.40875718 0.25139526 2.0150001
-0.39340481 0.25523335 2.0150001
-0.38726383 0.25446576 2.0150001
-0.36270002 0.25907144 2.0150001
-0.35886192 0.25907144 2.0150001
-0.57763338 0.26290953 2.0150001
-0.56611907 0.26290953 2.0150001
-0.47016668 0.26290953 2.0150001
-0.4624905 0.26290953 2.0150001
-0.45865241 0.26290953 2.0150001
-0.38476908 0.26386905 2.0150001
-0.37805241 0.26482856 2.0150001
-0.40108097 0.27826193 2.0150001
-0.39532381 0.27826193 2.0150001
-0.38764763 0.27826193 2.0150001
-0.37421432 0.27442384 2.0150001
-0.36653811 0.27442384 2.0150001
-0.41259527 0.28977621 2.0150001
-0.40437081 0.28593811 2.0150003
-0.39532384 0.28593811 2.0150003
-0.38620836 0.28641787 2.0150001
-0.37373459 0.28641787 2.0150001
-0.36653811 0.28977621 2.0150001
-0.55460477 0.29745239 2.0150001
-0.41259527 0.29745239 2.0150001
-0.39532381 0.29553336 2.0150001
-0.38476908 0.29457381 2.0150001
-0.3734467 0.29514953 2.0150001
-0.36525878 0.29617304 2.0150001
-0.55716348 0.30256987 2.0150001
-0.4624905 0.3051286 2.0150001
-0.45289528 0.30608812 2.0150001
-0.44330004 0.3089667 2.0150001
-0.43562382 0.3089667 2.0150001
-0.42410955 0.3089667 2.0150001
-0.41413051 0.30589619 2.0150001
-0.40875718 0.30512863 2.0150001
-0.39532381 0.30129048 2.0150001
-0.38189051 0.30129048 2.0150001
-0.37357467 0.30512863 2.0150003
-0.36461908 0.30704767 2.0150001
-0.35886192 0.3051286 2.0150001
-0.43562385 0.31280479 2.0150001
-0.42334196 0.31434005 2.0150001
-0.4145143 0.31472385 2.0150001
-0.40568671 0.31510767 2.0150001
-0.39724287 0.31664288 2.0150001
-0.47400481 0.32815716 2.0150001
-0.46345001 0.32431906 2.0150001
-0.45769286 0.32527858 2.0150001
-0.44330004 0.32815716 2.0150001
-0.43370479 0.32527861 2.0150001
-0.42410952 0.32431906 2.0150001
-0.41643339 0.32431909 2.0150001
-0.40108097 0.32431906 2.0150001
-0.39724287 0.32431906 2.0150001
-0.48360002 0.3377524 2.0150001
-0.47400475 0.33583334 2.0150001
-0.46402574 0.33506572 2.0150001
-0.45536265 0.33473673 2.0150003
-0.4452191 0.33199525 2.0150001
-0.43562382 0.33199525 2.0150001
-0.42356125 0.33473673 2.0150003
-0.4145143 0.33583337 2.0150003
-0.40363973 0.33711275 2.0150003
-0.39724287 0.33391428 2.0150001
-0.47304529 0.34446907 2.0150001
-0.46440953 0.34542862 2.0150001
-0.45481431 0.34542865 2.0150003
-0.4452191 0.34734765 2.0150001
-0.43466431 0.34638813 2.0150001
-0.42334196 0.34581241 2.0150001
-0.4145143 0.34542859 2.0150001
-0.40491909 0.34542859 2.0150003
-0.39724287 0.34350955 2.0150001
-0.36653811 0.34542859 2.0150001
-0.47016668 0.35310477 2.0150001
-0.46402574 0.35425624 2.0150001
-0.45481434 0.35348859 2.0150001
-0.4452191 0.35118574 2.0150001
-0.43617216 0.35392725 2.0150003
-0.42410952 0.35454407 2.0150001
-0.4145143 0.35502386 2.0150003
-0.40108097 0.35118574 2.0150001
-0.36270002 0.35502383 2.0150001
-0.35886192 0.35502383 2.0150001
-0.42794764 0.36270002 2.0150001
-0.41387463 0.3639794 2.0150001
-0.40491909 0.36557859 2.0150001
-0.4145143 0.37421435 2.0150003
-0.40601572 0.37421432 2.0150003
-0.42155084 0.38700795 2.0150001
-0.41413051 0.38649622 2.0150001
-0.40601569 0.38572863 2.0150003
-0.39532381 0.3857286 2.0150001
-0.3857286 0.3857286 2.0150001
-0.37517387 0.38668811 2.0150001
-0.36525878 0.38444924 2.0150001
-0.35886192 0.3857286 2.0150001
-0.41259527 0.39340478 2.0150001
-0.40415144 0.39494005 2.0150001
-0.39340478 0.39340478 2.0150001
-0.37229526 0.39724287 2.0150001
-0.36461908 0.39724287 2.0150001
-0.37229526 0.40491912 2.0150003
-0.36653811 0.40683812 2.0150001
-0.50771528 0.21814382 2.0270002
-0.43049622 0.21814382 2.0270002
-0.51543719 0.22200477 2.0270002
-0.50514138 0.22586572 2.0270002
-0.49690461 0.2281823 2.0270002
-0.43049622 0.22972669 2.0270002
-0.42470479 0.22972669 2.0270002
-0.41505241 0.22972669 2.0270002
-0.40733051 0.22972669 2.0270002
-0.39960861 0.22972669 2.0270002
-0.56176859 0.23744859 2.0270002
-0.55481887 0.23513202 2.0270002
-0.54246384 0.23358764 2.0270002
-0.53281146 0.23744859 2.0270002
-0.52508956 0.23358764 2.0270002
-0.51929814 0.23744859 2.0270002
-0.4961324 0.23455288 2.0270002
-0.48454958 0.2374486 2.0270002
-0.47489718 0.23551811 2.0270002
-0.46910575 0.23551811 2.0270002
-0.43049622 0.23358764 2.0270002
-0.42470479 0.23358764 2.0270002
-0.41119146 0.23551811 2.0270002
-0.39381716 0.23744859 2.0270002
-0.58493435 0.24903145 2.0270002
-0.57592547 0.24388352 2.0270002
-0.56611216 0.24468787 2.0270002
-0.52315909 0.24903144 2.0270002
-0.51736766 0.24710096 2.0270002
-0.4806886 0.24130954 2.0270002
-0.47393194 0.24420525 2.0270002
-0.46579638 0.24572207 2.0270004
-0.45623595 0.24774447 2.0270002
-0.44207907 0.24903144 2.0270002
-0.42470479 0.24903144 2.0270002
-0.41408718 0.24613573 2.0270002
-0.40475655 0.24388352 2.0270002
-0.39519611 0.24406737 2.0270004
-0.38513002 0.2480662 2.0270002
-0.36292955 0.24517049 2.0270002
-0.59265625 0.2528924 2.0270002
-0.58416218 0.25443679 2.0270002
-0.57528192 0.25482288 2.0270002
-0.56820357 0.25417942 2.0270002
-0.4652448 0.25482288 2.0270002
-0.44594002 0.25289243 2.0270002
-0.43435717 0.25289243 2.0270002
-0.42663527 0.2528924 2.0270002
-0.41698289 0.2528924 2.0270002
-0.38223431 0.25482288 2.0270002
-0.36357304 0.25417942 2.0270002
-0.58589959 0.26157954 2.0270002
-0.39188668 0.26061431 2.0270002
-0.38223431 0.26061431 2.0270002
-0.37547764 0.26544049 2.0270002
-0.36775574 0.26447526 2.0270002
-0.37258193 0.27219716 2.0270002
-0.36872098 0.27605811 2.0270002
-0.36872098 0.28571048 2.0270002
-0.36357304 0.29536289 2.0270002
-0.37258193 0.30308479 2.0270002
-0.3667905 0.30308479 2.0270002
-0.41312194 0.32432002 2.0270002
-0.40733051 0.32432002 2.0270002
-0.4121567 0.33300716 2.0270002
-0.40733051 0.33204192 2.0270002
-0.44207907 0.3667905 2.0270002
-0.43435717 0.36486003 2.0270002
-0.42509088 0.36563224 2.0270002
-0.41891336 0.36872098 2.0270002
-0.44207907 0.37258193 2.0270002
-0.43242669 0.3745124 2.0270002
-0.42470479 0.3745124 2.0270002
-0.43049622 0.38223431 2.0270002
-0.42470479 0.38223431 2.0270002
-0.41891336 0.38416478 2.0270002
-0.39317366 0.39832163 2.0270002
-0.38416478 0.39767814 2.0270004
-0.3745124 0.39381716 2.0270002
-0.36486003 0.39381716 2.0270004
-0.35713813 0.39381716 2.0270002
-0.39381716 0.40540004 2.0270002
-0.38416478 0.40540004 2.0270004
-0.39188668 0.41119146 2.0270002
-0.38416478 0.41119146 2.0270002
-0.46411526 0.20390001 2.039
-0.43304479 0.20778382 2.039
-0.51538157 0.21710496 2.039
-0.50489527 0.21943526 2.039
-0.4738248 0.21943526 2.039
-0.46411526 0.21943526 2.039
-0.45440573 0.21943526 2.039
-0.44391948 0.21788172 2.039
-0.43498671 0.21555145 2.039
-0.4262481 0.2184643 2.039
-0.41492033 0.21814065 2.039
-0.40715274 0.21814066 2.039
-0.39576024 0.21555145 2.039
-0.56121051 0.22720288 2.039
-0.55732667 0.22720288 2.039
-0.52366704 0.22590828 2.039
-0.51848859 0.22720288 2.039
-0.50489527 0.22331907 2.039
-0.49518573 0.22590828 2.039
-0.48353431 0.22720288 2.039
-0.47498995 0.22564936 2.039
-0.464892 0.22564936 2.039
-0.45634764 0.22720288 2.039
-0.44210702 0.22461367 2.039
-0.43498671 0.22526097 2.039
-0.42605397 0.22564936 2.039
-0.41556764 0.22720288 2.039
-0.40682906 0.22623193 2.039
-0.39614862 0.22526097 2.039
-0.58062959 0.2388543 2.039
-0.57480383 0.23497051 2.039
-0.56664783 0.23419373 2.039
-0.55538476 0.23108669 2.039
-0.54567528 0.23302859 2.039
-0.53596574 0.2349705 2.039
-0.52366704 0.23238128 2.039
-0.51848859 0.23302859 2.039
-0.49130192 0.23302859 2.039
-0.4854762 0.23302859 2.039
-0.47576672 0.2310867 2.039
-0.4641152 0.2349705 2.0389998
-0.45634764 0.2349705 2.039
-0.44421074 0.23545596 2.0389998
-0.43595767 0.23594144 2.039
-0.42430621 0.23788336 2.039
-0.41750956 0.2349705 2.039
-0.40585813 0.23608017 2.039
-0.39032289 0.2388543 2.039
-0.38449717 0.2388543 2.039
-0.46411526 0.24403273 2.039
-0.45440573 0.24468002 2.039
-0.44469619 0.24468003 2.039
-0.43498671 0.24468002 2.039
-0.42527717 0.24468003 2.039
-0.41750956 0.24468002 2.039
-0.40974194 0.24273811 2.039
-0.39032289 0.24273811 2.039
-0.38449717 0.24468002 2.039
-0.37478766 0.24468003 2.039
-0.36702001 0.24468002 2.039
-0.5942229 0.25827336 2.039
-0.45246384 0.25050575 2.039
-0.44469622 0.25050575 2.039
-0.43498671 0.25050575 2.039
-0.37478763 0.25438955 2.0389998
-0.59616482 0.26215717 2.039
-0.37478766 0.26409906 2.039
-0.36702001 0.26992479 2.039
-0.36702001 0.28546003 2.039
-0.44081241 0.36702001 2.039
-0.44081244 0.37478766 2.039
-0.4369286 0.38449717 2.039
-0.43304479 0.3942067 2.039
-0.42916098 0.39614862 2.039
-0.47368336 0.20803002 2.0510001
-0.46424228 0.20770447 2.0510001
-0.45610338 0.20803002 2.0510001
-0.44496939 0.20588136 2.0510004
-0.4361515 0.20510001 2.0510004
-0.4258267 0.20705335 2.0510001
-0.41606006 0.2090067 2.0510001
-0.4082467 0.20900668 2.0510001
-0.52544677 0.2155178 2.0510001
-0.51763338 0.21291335 2.0510001
-0.48247337 0.21682002 2.0510001
-0.47466004 0.2148667 2.0510004
-0.46489334 0.21486668 2.0510001
-0.45415002 0.21584335 2.0510001
-0.44536003 0.21291335 2.0510001
-0.43559337 0.21291335 2.0510001
-0.42582673 0.21486668 2.0510001
-0.41703671 0.21389002 2.0510001
-0.40512139 0.21525736 2.0510004
-0.5736289 0.22723781 2.0510001
-0.56549007 0.22561002 2.0510001
-0.55539787 0.22723781 2.0510001
-0.54107338 0.22854002 2.0510001
-0.5348227 0.22541468 2.0510004
-0.52805114 0.22202891 2.0510001
-0.49321669 0.22561002 2.0510001
-0.48442674 0.22268002 2.0510001
-0.46294004 0.22463335 2.0510001
-0.45434538 0.22619604 2.0510004
-0.44731337 0.22854002 2.0510001
-0.42387336 0.22463335 2.0510001
-0.41801336 0.22463335 2.0510001
-0.40694448 0.22333114 2.0510001
-0.56842005 0.23244669 2.0510001
-0.54107338 0.23244669 2.0510001
-0.53521335 0.23244669 2.0510001
-0.45382449 0.23374891 2.0510001
-0.4551267 0.24026002 2.0510001
-0.38090003 0.24026002 2.0510001
-0.37504002 0.24026002 2.0510001
-0.48333144 0.20630002 2.0630002
-0.47743717 0.20630002 2.0630002
-0.42242384 0.20630002 2.0630002
-0.41849431 0.20630002 2.0630002
-0.49315527 0.21219429 2.0630002
-0.48765394 0.21337317 2.0630002
-0.46171907 0.21415906 2.0630002
-0.45778954 0.21415906 2.0630002
-0.54227436 0.22398287 2.0630002
-0.49512005 0.22201811 2.0630002
-0.5002172 0.21946287 2.0760002
-0.49626288 0.21946287 2.0760002
