# .PCD v0.7 - Point Cloud Data file format
VERSION 0.7
FIELDS x y z
SIZE 4 4 4
TYPE F F F
COUNT 1 1 1
WIDTH 172
HEIGHT 1
VIEWPOINT 0 0 0 1 0 0 0
POINTS 172
DATA ascii
-0.41123229 -0.14746709 0.67785722
-0.40817529 -0.14872001 0.67600006
-0.41010669 -0.092064768 0.67600006
-0.40696764 -0.09179239 0.67400002
-0.41047257 -0.083534569 0.67842859
-0.40896082 -0.083654866 0.67880005
-0.411906 -0.075400904 0.67861116
-0.4090386 -0.078188099 0.67850006
-0.41164428 -0.066200413 0.6767143
-0.41157261 -0.05394043 0.67700005
-0.40700892 -0.05502646 0.67799997
-0.41188338 -0.044715341 0.67836851
-0.40869337 -0.042680003 0.67900002
-0.41163185 -0.023327673 0.67827785
-0.40714198 -0.021117061 0.67874998
-0.41178787 -0.016690874 0.67841667
-0.40680212 -0.017293274 0.6788125
-0.41129777 -0.0036879596 0.67735726
-0.4088566 -0.0014219048 0.67820007
-0.41168004 0.0022580954 0.67700005
-0.40828905 0.0013785035 0.67542869
-0.41668099 -0.16142286 0.68900001
-0.41054669 -0.154145 0.68725002
-0.4079718 -0.15348826 0.68794745
-0.41244006 -0.14465915 0.68113345
-0.40619218 -0.14482141 0.68526667
-0.41099244 -0.13438287 0.68500006
-0.40737212 -0.13606493 0.68648773
-0.41011909 -0.12861334 0.68900001
-0.40749431 -0.12795715 0.68900001
-0.40582407 -0.11149275 0.68900013
-0.41317901 -0.10193254 0.68238473
-0.40440777 -0.10586795 0.68799996
-0.39884824 -0.10679676 0.68880004
-0.41382131 -0.094336592 0.68274993
-0.40380684 -0.094335616 0.68823081
-0.41311806 -0.086042374 0.68219054
-0.40583545 -0.085231394 0.68607801
-0.41187191 -0.073473074 0.68163645
-0.40584093 -0.074775726 0.68437827
-0.41174051 -0.066493534 0.68180001
-0.40667471 -0.065198869 0.68549985
-0.41148371 -0.052140009 0.68071431
-0.40473416 -0.054553498 0.68412983
-0.41138539 -0.047149125 0.68085724
-0.40503782 -0.045011654 0.68393314
-0.39962003 -0.042652383 0.68900001
-0.41285411 -0.034890797 0.68244731
-0.40649602 -0.035112254 0.68493092
-0.4117083 -0.02721395 0.68278581
-0.4049615 -0.025122561 0.68564373
-0.41236719 -0.012219366 0.68133342
-0.40482479 -0.014553195 0.68543541
-0.39962003 -0.017717144 0.68900001
-0.41177264 -0.0071119787 0.68396169
-0.40553722 -0.0051461416 0.68637705
-0.41234607 0.0061326986 0.68207395
-0.40611777 0.0051428298 0.68654037
-0.39962003 0.0045933337 0.68900001
-0.41312838 0.015076921 0.68300009
-0.40794206 0.014986374 0.68569231
-0.41371447 -0.16399235 0.69120616
-0.40511459 -0.16426112 0.6932466
-0.39903909 -0.16571334 0.69600004
-0.41484374 -0.15796998 0.69190913
-0.40341896 -0.15516865 0.69340014
-0.39899012 -0.15542136 0.69800001
-0.40173373 -0.14515439 0.6948207
-0.39952189 -0.1449181 0.69800001
-0.41256574 -0.13115048 0.69200003
-0.40309319 -0.13483933 0.6921699
-0.39933077 -0.1339702 0.69576478
-0.41172072 -0.12558787 0.69225001
-0.40464634 -0.12505837 0.69098181
-0.39774477 -0.1243793 0.69414306
-0.41118002 -0.11814001 0.69300002
-0.4045105 -0.11582155 0.69078594
-0.3976106 -0.1147752 0.69463474
-0.40144941 -0.10230795 0.69083345
-0.39756593 -0.10482386 0.69593352
-0.40287304 -0.09539903 0.69143343
-0.39655769 -0.094997674 0.6955241
-0.40198624 -0.083738714 0.69235718
-0.39799964 -0.08535888 0.69565791
-0.40220827 -0.076471515 0.69166678
-0.39697185 -0.074468754 0.69514841
-0.4023082 -0.064486086 0.69307518
-0.39660478 -0.065142885 0.69613731
-0.40138987 -0.055644915 0.6938799
-0.39782032 -0.055275556 0.69614828
-0.40155223 -0.044065978 0.69303846
-0.39792153 -0.045292515 0.69583797
-0.40328261 -0.035750713 0.69390005
-0.39805973 -0.034479689 0.69657576
-0.40146166 -0.025014658 0.69356519
-0.39660648 -0.025294412 0.69588697
-0.40141341 -0.015138795 0.69506675
-0.39700377 -0.015543533 0.69787097
-0.40123755 -0.0053824186 0.69284618
-0.397901 -0.0053397967 0.69650012
-0.40149486 0.0061311373 0.69408351
-0.39818084 0.0051260213 0.69732147
-0.40339738 0.015216885 0.69355959
-0.39848202 0.01447778 0.6972667
-0.40169686 0.022041703 0.69535726
-0.39835683 0.023058627 0.69622231
-0.40082875 -0.16325241 0.70128578
-0.39707223 -0.16254552 0.70340925
-0.40066668 -0.15311113 0.70000005
-0.3970677 -0.15470643 0.70300031
-0.3960022 -0.14454181 0.70417678
-0.38916901 -0.14248736 0.70714289
-0.39550525 -0.1348176 0.70337152
-0.38850832 -0.13545656 0.70492315
-0.39362776 -0.12473432 0.70261115
-0.38954669 -0.1213562 0.70400006
-0.39318275 -0.11484849 0.70280421
-0.3884244 -0.11401546 0.70466667
-0.3931075 -0.10517166 0.70265323
-0.38788918 -0.1058602 0.7044
-0.3916316 -0.094663858 0.70300007
-0.38779762 -0.094680116 0.70668012
-0.39362851 -0.08499065 0.70288718
-0.38657722 -0.085569389 0.70529038
-0.39286777 -0.075380489 0.70406264
-0.38784003 -0.077431045 0.70699996
-0.39218196 -0.0649525 0.70307153
-0.38902467 -0.062001076 0.70762503
-0.39393923 -0.054504395 0.70227849
-0.38727084 -0.054523736 0.70587182
-0.39323005 -0.044852834 0.70251852
-0.38619488 -0.046872191 0.70645833
-0.39341658 -0.035031959 0.70338356
-0.38942525 -0.033876278 0.70754546
-0.39280996 -0.024720807 0.70484799
-0.38872835 -0.025561688 0.70776933
-0.39279902 -0.014616638 0.70400012
-0.38906288 -0.015508573 0.708
-0.39358506 -0.0046213767 0.70422244
-0.38946146 -0.0047171433 0.70749998
-0.39371648 0.004804255 0.70380026
-0.38986003 0.0026933334 0.70700002
-0.39492652 0.015053391 0.70442271
-0.40027431 0.025478097 0.70400006
-0.39588827 0.023819668 0.70624512
-0.39519274 -0.15496664 0.71017653
-0.39241591 -0.14808573 0.71000004
-0.39112794 -0.10461635 0.7100001
-0.39134526 -0.072521433 0.71000004
-0.38740465 -0.072258286 0.71040004
-0.39080647 -0.066966191 0.71025002
-0.38737944 -0.065580539 0.71096313
-0.38520321 -0.058377784 0.71000004
-0.39065224 -0.043164957 0.71040004
-0.38667268 -0.042509526 0.71176213
-0.39111286 -0.039246671 0.7105
-0.38675553 -0.034961972 0.71342307
-0.38690057 -0.025322372 0.71260619
-0.39057338 -0.014553572 0.71075004
-0.38661894 -0.014975844 0.71190912
-0.39016193 -0.0038317465 0.71000004
-0.38692608 -0.004742885 0.71151441
-0.390331 0.0043952386 0.71000004
-0.38693741 0.0047236276 0.71290487
-0.39079735 0.015267672 0.71061116
-0.38785338 0.015345546 0.71447504
-0.39122075 0.024154333 0.71300006
-0.38723567 0.022431433 0.71659994
-0.38742861 -0.027428573 0.72000003
-0.38674289 0.0089142863 0.72000003
-0.38785082 0.012531503 0.72176933
-0.39085716 0.026057145 0.72000003
