# .PCD v0.7 - Point Cloud Data file format
VERSION 0.7
FIELDS x y z
SIZE 4 4 4
TYPE F F F
COUNT 1 1 1
WIDTH 88
HEIGHT 1
VIEWPOINT 0 0 0 1 0 0 0
POINTS 88
DATA ascii
0.74970007 0.57547784 1.715
0.74704361 0.57638454 1.7229998
0.75565857 0.57597435 1.723
0.76501209 0.57466161 1.7229999
0.77617061 0.57488036 1.723
0.74827433 0.58253813 1.723
0.75483811 0.58417904 1.723
0.76304293 0.58253813 1.723
0.76632482 0.62520289 1.723
0.75383246 0.56908578 1.7320001
0.76702863 0.56908578 1.7320001
0.77032769 0.56908578 1.7320001
0.75548196 0.57238477 1.7320001
0.76372957 0.57436424 1.7320002
0.77362674 0.57568383 1.7320002
0.78399521 0.57474124 1.7320004
0.75383246 0.58888006 1.7320001
0.76372957 0.58640575 1.7320001
0.77409804 0.58463848 1.7320004
0.78187436 0.58558106 1.7320002
0.75630665 0.59465337 1.7320001
0.76125532 0.59547812 1.7320001
0.77692574 0.59217906 1.7320001
0.7802248 0.59217906 1.7320001
0.76043051 0.60207623 1.7320001
0.76372957 0.61197335 1.7320001
0.764382 0.56541049 1.7410001
0.77338302 0.56588429 1.7410002
0.75443339 0.57370102 1.7410001
0.764382 0.57204288 1.7410001
0.77764672 0.57204288 1.7410001
0.78096288 0.57204288 1.7410001
0.75774956 0.59857243 1.7410001
0.76769817 0.59359813 1.7410001
0.77499384 0.59392977 1.7410001
0.78759527 0.59691429 1.7410001
0.7909115 0.59691429 1.7410001
0.76769817 0.60520482 1.7410001
0.8033334 0.5583334 1.7500001
0.78421265 0.56464082 1.7572001
0.76223338 0.57125622 1.7590001
0.78880256 0.57362098 1.7560003
0.79358369 0.57334518 1.7572001
0.78833336 0.60166669 1.7500001
0.73919243 0.55565715 1.7680001
0.7526629 0.56239241 1.7680001
0.79728389 0.56660193 1.7680001
0.80721837 0.56340265 1.768
0.81328005 0.56744385 1.7680001
0.75939816 0.57417911 1.7680001
0.76276577 0.57754672 1.7680001
0.79644197 0.57081145 1.7680001
0.8073867 0.57586288 1.7680001
0.81328005 0.57249528 1.7680001
0.80721837 0.58226132 1.768
0.7395705 0.54663908 1.7770001
0.74972481 0.54663908 1.7770001
0.7564944 0.54663908 1.7770002
0.76326388 0.54325432 1.7770001
0.7384423 0.55115211 1.7770002
0.74634004 0.5520547 1.7770001
0.75480199 0.55002385 1.7770001
0.74972481 0.56017816 1.7770001
0.79598325 0.56469119 1.7770002
0.80162448 0.56469119 1.7770002
0.80726576 0.57371724 1.7770002
0.81149673 0.57456338 1.7770001
0.75692385 0.54600573 1.7860001
0.76202673 0.54600573 1.7860001
0.73651242 0.55280954 1.7860001
0.74331623 0.55961335 1.7860001
0.74331623 0.56301528 1.7860001
0.76415718 0.54533815 1.7950001
0.77099526 0.54533815 1.7950001
0.76627052 0.54463625 1.8040001
0.77554822 0.54326183 1.8040001
0.78173339 0.54120004 1.8040001
0.78952193 0.53383434 1.8140001
0.79297721 0.53383434 1.8140001
0.77501005 0.54212683 1.8140001
0.78261149 0.54074478 1.8140001
0.79297721 0.54074478 1.8140001
0.78518867 0.5367772 1.8240001
0.79040003 0.53504002 1.8240001
0.77824008 0.54025149 1.8240001
0.78518867 0.54025149 1.8240001
0.79040003 0.54025149 1.8240001
0.79604578 0.53244287 1.8330001
