# .PCD v0.7 - Point Cloud Data file format
VERSION 0.7
FIELDS x y z
SIZE 4 4 4
TYPE F F F
COUNT 1 1 1
WIDTH 415
HEIGHT 1
VIEWPOINT 0 0 0 1 0 0 0
POINTS 415
DATA ascii
-0.49321908 0.15693334 2.1400001
-0.48506668 0.15489525 2.1400001
-0.51359999 0.16508572 2.1400001
-0.50748575 0.16508573 2.1400001
-0.49253973 0.16236827 2.1400001
-0.4871048 0.16100954 2.1400001
-0.5515781 0.16608858 2.1530001
-0.50441718 0.16403811 2.1530001
-0.49416479 0.16608858 2.1530001
-0.48391241 0.16403811 2.1530001
-0.5146696 0.17155652 2.1530004
-0.50441718 0.17224 2.1530001
-0.49416479 0.17224 2.1530001
-0.4859629 0.17018953 2.1530001
-0.49826574 0.18249239 2.1530001
-0.51672 0.21427478 2.1530001
-0.50441718 0.21119906 2.1530001
-0.49826574 0.21119906 2.1530001
-0.55929244 0.16716859 2.1670001
-0.55516481 0.17129621 2.1670001
-0.53039908 0.17129621 2.1670001
-0.52351975 0.17542383 2.1670003
-0.51664037 0.17817557 2.1670003
-0.50563335 0.17955145 2.1670003
-0.49531433 0.17955144 2.1670001
-0.4891229 0.17748763 2.1670001
-0.52214384 0.18574287 2.1670001
-0.51595241 0.18574287 2.1670001
-0.50645888 0.18615563 2.1670001
-0.49531433 0.18574287 2.1670001
-0.4891229 0.18367906 2.1670001
-0.52214384 0.1919343 2.1670001
-0.51801622 0.1919343 2.1670001
-0.54484576 0.20225334 2.1670001
-0.53504264 0.20483312 2.1670001
-0.52214384 0.20638096 2.1670001
-0.50356954 0.20844477 2.1670001
-0.49737814 0.20844477 2.1670001
-0.53039908 0.2125724 2.1670001
-0.51664037 0.21532415 2.1670003
-0.49737814 0.2125724 2.1670001
-0.57121432 0.16824858 2.181
-0.56706005 0.16824858 2.181
-0.55252004 0.16824858 2.181
-0.57121432 0.17448002 2.181
-0.56498289 0.17448002 2.181
-0.5545972 0.17448002 2.181
-0.54421151 0.17448002 2.181
-0.53590286 0.17448002 2.181
-0.52967149 0.17655715 2.181
-0.48674387 0.17517239 2.1810002
-0.56498289 0.18902001 2.181
-0.55875146 0.18486571 2.181
-0.54421151 0.18486571 2.181
-0.53590292 0.18486571 2.181
-0.52967155 0.18486574 2.1810002
-0.4922829 0.18902001 2.181
-0.4881286 0.18486571 2.1810002
-0.57121432 0.19732858 2.181
-0.56498289 0.19732858 2.181
-0.55875146 0.19525144 2.181
-0.54421151 0.19525144 2.181
-0.53590286 0.19525144 2.181
-0.52655578 0.19629 2.181
-0.51513147 0.19525144 2.181
-0.50474578 0.19483602 2.181
-0.49643716 0.1931743 2.181
-0.56429052 0.20286766 2.1810002
-0.5545972 0.20356002 2.181
-0.53382576 0.20148288 2.181
-0.52551717 0.2050437 2.181
-0.51513147 0.20563719 2.181
-0.50474572 0.20563716 2.1810002
-0.52967149 0.21394573 2.181
-0.49103811 0.15671429 2.194
-0.48685908 0.15671429 2.194
-0.57879812 0.16925144 2.194
-0.49103811 0.16089335 2.194
-0.48685908 0.1650724 2.194
-0.57879812 0.17343049 2.194
-0.55372387 0.17760953 2.194
-0.54118669 0.17760953 2.194
-0.48407304 0.17482351 2.194
-0.47850099 0.17760953 2.194
-0.57252955 0.18387809 2.194
-0.56486797 0.1845746 2.194
-0.55581337 0.18387809 2.194
-0.48546609 0.18318161 2.194
-0.57601207 0.19362924 2.1940002
-0.56626099 0.19432573 2.194
-0.55581337 0.19432573 2.1940002
-0.50775433 0.19850478 2.194
-0.4943814 0.19683316 2.194
-0.48581433 0.19328098 2.194
-0.4743219 0.19484812 2.194
-0.46387431 0.19223621 2.194
-0.51193339 0.20268382 2.194
-0.50566483 0.20268382 2.194
-0.49605298 0.20435543 2.194
-0.6205886 0.21940002 2.194
-0.61640954 0.21940002 2.194
-0.6205886 0.22357906 2.194
-0.61640954 0.22357906 2.194
-0.59090292 0.16612573 2.2080002
-0.58459431 0.16612573 2.2080002
-0.48365718 0.16402286 2.2080002
-0.47524574 0.16402286 2.2080002
-0.46893719 0.16612573 2.2080002
-0.59090292 0.17033143 2.2080002
-0.58529532 0.17453717 2.2080002
-0.48295626 0.17173335 2.2080002
-0.47524577 0.17453715 2.2080002
-0.46893719 0.1724343 2.2080002
-0.59230483 0.18575239 2.2080002
-0.58459431 0.18505144 2.2080002
-0.48295626 0.18575239 2.2080002
-0.47524574 0.18505144 2.2080002
-0.46753526 0.18575239 2.2080002
-0.45632002 0.18715429 2.2080002
-0.59370673 0.19486478 2.2080002
-0.58669722 0.19556575 2.2080002
-0.48576003 0.19766858 2.2080002
-0.4773486 0.19136001 2.2080002
-0.46052575 0.19346288 2.2080002
-0.45632002 0.19346288 2.2080002
-0.62244576 0.20818287 2.2080002
-0.58249146 0.20608002 2.2080002
-0.57828575 0.20608002 2.2080002
-0.56566858 0.20608002 2.2080002
-0.63296002 0.21449144 2.2080002
-0.62370747 0.21491201 2.2080002
-0.6140343 0.21449144 2.2080002
-0.60772574 0.21449144 2.2080002
-0.63296002 0.22080001 2.2080002
-0.62875432 0.22080001 2.2080002
-0.61613721 0.22080001 2.2080002
-0.59280002 0.17995715 2.223
-0.47212288 0.17995715 2.223
-0.6245572 0.18630858 2.223
-0.61185431 0.18630858 2.223
-0.6055029 0.18630859 2.223
-0.59915149 0.18419144 2.223
-0.46506572 0.18560287 2.223
-0.6245572 0.19477716 2.223
-0.61185431 0.19477716 2.223
-0.60620868 0.19407146 2.223
-0.63514292 0.20748001 2.223
-0.6245572 0.20536287 2.223
-0.61397147 0.20536286 2.223
-0.60338575 0.20112859 2.223
-0.59491724 0.20536287 2.223
-0.64149433 0.21594858 2.223
-0.63302577 0.21383144 2.223
-0.61357713 0.17256859 2.237
-0.60292482 0.17682953 2.237
-0.59866387 0.17682953 2.237
-0.63417184 0.18677175 2.237
-0.62422955 0.18748191 2.237
-0.61854833 0.18535143 2.237
-0.60505533 0.18109049 2.237
-0.47083527 0.18109049 2.237
-0.46444383 0.18322097 2.237
-0.45592195 0.18748191 2.237
-0.44953051 0.18961239 2.237
-0.64340389 0.1981343 2.237
-0.63488197 0.19600382 2.237
-0.62422955 0.19600382 2.237
-0.61996859 0.19600382 2.237
-0.45592195 0.19387335 2.237
-0.44953051 0.19387335 2.237
-0.64411402 0.20381556 2.237
-0.63559216 0.20381556 2.237
-0.62422955 0.20452572 2.237
-0.61144668 0.20452572 2.237
-0.60718578 0.2066562 2.237
-0.64340389 0.21091716 2.237
-0.61144668 0.21304762 2.237
-0.60505533 0.21304764 2.237
-0.59866387 0.21304762 2.237
-0.62412578 0.17801525 2.2520001
-0.6144743 0.17694286 2.2520001
-0.60696769 0.17372572 2.2520001
-0.6727404 0.18373463 2.2520003
-0.66559118 0.18373463 2.2520003
-0.65629721 0.18444954 2.2520001
-0.64771813 0.18659429 2.2520001
-0.62412578 0.18230477 2.2520001
-0.6155467 0.18230477 2.2520001
-0.46326861 0.18230477 2.2520001
-0.45468956 0.18444952 2.2520001
-0.44825527 0.18659429 2.2520001
-0.6741702 0.19803303 2.2520003
-0.65586823 0.19517335 2.2520001
-0.64643127 0.19259964 2.2520001
-0.44825527 0.19088382 2.2520001
-0.68632388 0.20589715 2.2520001
-0.67702997 0.20661208 2.2520003
-0.65415245 0.20589715 2.2520001
-0.68560898 0.2137613 2.2520003
-0.67560005 0.21233144 2.2520001
-0.65415245 0.2144762 2.2520001
-0.65415245 0.22091049 2.2520001
-0.67548388 0.17912191 2.2660003
-0.66469336 0.17912191 2.266
-0.65606099 0.17912191 2.266
-0.64958674 0.17912191 2.266
-0.4726229 0.17912191 2.266
-0.46830669 0.17912191 2.266
-0.73159432 0.1877543 2.266
-0.72512007 0.1877543 2.266
-0.71648765 0.1877543 2.266
-0.69274861 0.1877543 2.266
-0.68627435 0.1877543 2.266
-0.67980003 0.1877543 2.266
-0.66685146 0.1877543 2.266
-0.65390289 0.18343811 2.266
-0.64958674 0.18343811 2.266
-0.63232195 0.18343811 2.266
-0.45320004 0.18343811 2.266
-0.44528705 0.18631558 2.2660003
-0.74022669 0.19638668 2.266
-0.73375243 0.19422859 2.266
-0.72512007 0.19422859 2.266
-0.71519279 0.19466022 2.266
-0.70281976 0.19494796 2.2660003
-0.69490671 0.19422859 2.266
-0.68627441 0.19422859 2.266
-0.67462063 0.19379698 2.266
-0.66541278 0.19494796 2.2660003
-0.45104194 0.19638668 2.266
-0.44456765 0.19422859 2.266
-0.73332077 0.20415583 2.266
-0.72512007 0.20501906 2.266
-0.71432954 0.20501906 2.266
-0.70353913 0.20501906 2.266
-0.69598579 0.20394003 2.266
-0.68555498 0.20214161 2.2660003
-0.67289418 0.20588231 2.266
-0.66512501 0.20588231 2.266
-0.45104194 0.20070288 2.266
-0.44456765 0.20070288 2.266
-0.72512007 0.21365145 2.266
-0.7143296 0.21365146 2.2660003
-0.70353913 0.21580954 2.266
-0.69562614 0.21652889 2.2660003
-0.68411624 0.21580954 2.266
-0.6744048 0.21688858 2.266
-0.66469336 0.21580952 2.266
-0.69490671 0.22228383 2.266
-0.67764199 0.22228383 2.266
-0.66253531 0.22228383 2.266
-0.48009622 0.17379048 2.2810001
-0.47357908 0.17379048 2.2810001
-0.46706194 0.17379048 2.2810001
-0.71254098 0.18899715 2.2810001
-0.70385146 0.18899715 2.2810001
-0.48009622 0.18030763 2.2810001
-0.46488956 0.18030763 2.2810001
-0.44533813 0.18465239 2.2810001
-0.71254098 0.19334191 2.2810001
-0.746575 0.20347971 2.2810001
-0.74512672 0.21072099 2.2810001
-0.7364372 0.21506573 2.2810001
-0.6799553 0.21506573 2.2810001
-0.46377528 0.17719716 2.2970002
-0.46158764 0.18157239 2.2970002
-0.45721242 0.18157239 2.2970002
-0.4440867 0.18594763 2.2970002
-0.43971145 0.18594763 2.2970002
-0.75910383 0.19688573 2.2970002
-0.44408673 0.19469813 2.2970004
-0.43971145 0.19469813 2.2970004
-0.75764549 0.20636541 2.2970004
-0.76347911 0.21219906 2.2970002
-0.75472862 0.21438667 2.2970002
-0.74597812 0.2165743 2.2970002
-0.46460193 0.17615239 2.312
-0.4557943 0.18275811 2.312
-0.77286863 0.20918097 2.312
-0.7684648 0.20697907 2.312
-0.78167623 0.21358478 2.312
-0.77433658 0.21505272 2.312
-0.76626289 0.21798858 2.312
-0.7596572 0.21798858 2.312
-0.81250292 0.23340192 2.312
-0.80589718 0.23340191 2.312
-0.79576844 0.2338423 2.312
-0.81250292 0.24000764 2.312
-0.80589718 0.24000764 2.312
-0.79488772 0.24220954 2.3120003
-0.46540004 0.17507906 2.3270001
-0.45875147 0.17951144 2.3270001
-0.45431909 0.18394382 2.3270001
-0.44102192 0.1883762 2.3270001
-0.44102192 0.19280858 2.3270001
-0.77788293 0.20610572 2.3270001
-0.80226099 0.21940286 2.3270001
-0.79339623 0.21718667 2.3270001
-0.78453147 0.21497048 2.3270001
-0.82220674 0.22826764 2.3270001
-0.81555814 0.22605145 2.3270001
-0.80447721 0.22605145 2.3270001
-0.79339623 0.22605145 2.3270001
-0.78453147 0.22605145 2.3270001
-0.77640551 0.22531271 2.3270001
-0.76458585 0.22383527 2.3270001
-0.75350475 0.22383526 2.3270001
-0.82442296 0.23491621 2.3270001
-0.79265755 0.23417747 2.3270001
-0.78674769 0.23491621 2.3270001
-0.82442296 0.24156478 2.3270001
-0.79118007 0.24378097 2.3270001
-0.43289715 0.17628287 2.3430002
-0.45744288 0.18074572 2.3430002
-0.43289715 0.18074572 2.3430002
-0.79215717 0.20752287 2.3430002
-0.78769433 0.20752287 2.3430002
-0.82339722 0.21644859 2.3430002
-0.8133558 0.21533288 2.3430002
-0.80405819 0.21347335 2.3430002
-0.79662007 0.21198572 2.3430002
-0.83381051 0.22834955 2.3430002
-0.8263725 0.22239906 2.3430002
-0.8167029 0.22091144 2.3430002
-0.7787686 0.22983716 2.3430002
-0.83678579 0.23653144 2.3430002
-0.78620672 0.23578763 2.3430002
-0.79215717 0.24545716 2.3430002
-0.46506003 0.17748667 2.3590002
-0.45158002 0.18198001 2.3590002
-0.86047339 0.20444667 2.3590002
-0.85373342 0.20669335 2.3590002
-0.80206007 0.20894001 2.3590002
-0.85373342 0.21343334 2.3590002
-0.83576006 0.21792668 2.3590002
-0.82902008 0.21343334 2.3590002
-0.85448229 0.22391781 2.3590002
-0.84474671 0.22466668 2.3590002
-0.83800673 0.22242002 2.3590002
-0.84699339 0.23365335 2.3590002
-0.7840867 0.23590001 2.3590002
-0.77959341 0.23140669 2.3590002
-0.78858006 0.24039336 2.3590002
-0.46614861 0.17650287 2.3760002
-0.45709717 0.17876573 2.3760002
-0.4457829 0.17876573 2.3760002
-0.45785147 0.18630859 2.3760002
-0.8530972 0.20592001 2.3760002
-0.86554289 0.21610287 2.3760002
-0.85422862 0.21610287 2.3760002
-0.84744 0.21497144 2.3760002
-0.8338629 0.21270859 2.3760002
-0.8244344 0.21195433 2.3760002
-0.86667436 0.22628573 2.3760002
-0.85762292 0.22854859 2.3760002
-0.85762292 0.23307431 2.3760002
-0.78068578 0.23307431 2.3760002
-0.77616006 0.23307431 2.3760002
-0.79652572 0.24665144 2.3760002
-0.46245337 0.16402286 2.3920002
-0.45789719 0.16402286 2.3920002
-0.46397209 0.17389461 2.3920002
-0.45334098 0.17996953 2.3920002
-0.45334098 0.18452573 2.3920002
-0.4487848 0.18452573 2.3920002
-0.85656387 0.20502859 2.3920002
-0.84517336 0.20730668 2.3920002
-0.83150482 0.20730668 2.3920002
-0.82694864 0.20730668 2.3920002
-0.84745151 0.21186288 2.3920002
-0.79049909 0.23920001 2.3920002
-0.79505527 0.2437562 2.3920002
-0.80416769 0.25514668 2.3920002
-0.79961151 0.25514668 2.3920002
-0.47262287 0.17207144 2.4090002
-0.46115145 0.17666002 2.4090002
-0.45350385 0.19195525 2.4090002
-0.86035722 0.20419145 2.4090002
-0.85576862 0.20419145 2.4090002
-0.78235149 0.23631145 2.4090002
-0.79152864 0.24090001 2.4090002
-0.80070579 0.25007716 2.4090002
-0.47595811 0.16866477 2.4260001
-0.46440575 0.17328572 2.4260001
-0.45608804 0.17605831 2.4260004
-0.78325146 0.23797907 2.4260001
-0.80173528 0.24722096 2.4260001
-0.79480386 0.24491048 2.4260001
-0.80327559 0.25492257 2.4260001
-0.79557407 0.25492257 2.4260001
-0.8040458 0.26108384 2.4260001
-0.79480386 0.26108384 2.4260001
-0.77245343 0.23732002 2.4430001
-0.7631467 0.23732002 2.4430001
-0.7561667 0.23964669 2.4430001
-0.79494447 0.24740224 2.4430003
-0.76082003 0.24430002 2.4430001
-0.75384009 0.24662668 2.4430001
-0.79494447 0.2551578 2.4430003
-0.78641337 0.25593334 2.4430001
-0.77943337 0.25593334 2.4430001
-0.75384003 0.25360668 2.4430001
-0.79339337 0.26291335 2.4430001
-0.78874004 0.26291335 2.4430001
-0.78720009 0.23662859 2.46
-0.79422861 0.24600002 2.46
-0.78602862 0.24365717 2.46
-0.79422861 0.25068572 2.46
-0.78017145 0.25302857 2.46
-0.77314293 0.25302857 2.46
-0.76611435 0.25302857 2.46
-0.79060006 0.24780002 2.4780002
-0.77644002 0.24544002 2.4780002
-0.79296005 0.25252002 2.4780002
-0.78683436 0.24960002 2.4960001
