# .PCD v0.7 - Point Cloud Data file format
VERSION 0.7
FIELDS x y z rgb
SIZE 4 4 4 4
TYPE F F F F
COUNT 1 1 1 1
WIDTH 674
HEIGHT 1
VIEWPOINT 0 0 0 1 0 0 0
POINTS 674
DATA ascii
-0.025266668 -0.067137145 0.75800002 5.0733198e-39
-0.022379048 -0.06641525 0.75800002 5.4381465e-39
-0.017806988 -0.066174611 0.75800002 4.516916e-39
-0.012272382 -0.065693341 0.75800008 4.9767718e-39
-0.0069023138 -0.06623783 0.75714284 4.1452146e-39
-0.0021600001 -0.065520003 0.75600004 5.4338066e-39
0.0021631748 -0.065577783 0.75666666 5.1636783e-39
0.0072190482 -0.065693341 0.75800002 5.1626372e-39
0.010828572 -0.065693341 0.75800002 5.0707975e-39
-0.025266668 -0.06424953 0.75800002 3.7800853e-39
-0.022198573 -0.062986195 0.75799996 3.6864295e-39
-0.017325716 -0.06280572 0.75800002 4.7009205e-39
-0.012268784 -0.062787727 0.75777775 5.8040283e-39
-0.0071955561 -0.062599368 0.7555002 5.0707961e-39
-0.0021576723 -0.062566571 0.75511122 5.4377863e-39
0.0021590476 -0.062613018 0.75566673 5.1640819e-39
0.0071994453 -0.062633261 0.75591677 5.2533895e-39
0.012250794 -0.062696509 0.75666672 4.4261259e-39
0.015737524 -0.062516958 0.75800002 3.6849623e-39
-0.020935239 -0.059918098 0.75800002 3.1310613e-39
-0.016784286 -0.059015721 0.75799996 3.1307054e-39
-0.012132641 -0.057906847 0.75745457 3.6813792e-39
-0.0071944054 -0.057551313 0.75537509 3.5920436e-39
-0.0021578574 -0.057542153 0.75525016 3.4094516e-39
0.0021578574 -0.057542153 0.7552501 3.1332263e-39
0.0072020241 -0.057608571 0.75612509 2.7640584e-39
0.01196781 -0.057962861 0.75700003 3.2228716e-39
0.015641272 -0.059436828 0.75800008 3.223589e-39
-0.0062514297 -0.053132705 0.7573334 3.1306899e-39
-0.002522381 -0.053674765 0.75650001 2.2134126e-39
0.0019570072 -0.05305035 0.7571429 3.0395817e-39
0.0067355558 -0.053637784 0.75766671 2.8555366e-39
0.010828572 -0.054142863 0.75800002 3.4068943e-39
-0.032336667 -0.070850007 0.76300001 5.623244e-39
-0.027605001 -0.071190238 0.76275003 4.6087557e-39
-0.022526667 -0.07048668 0.76300001 2.3028042e-39
-0.017440002 -0.070486672 0.76300001 6.6332397e-39
-0.012353335 -0.07048668 0.76300001 1.1355672e-38
-0.0070209531 -0.070940323 0.7626667 1.5694181e-38
-0.0025433335 -0.07085 0.76300001 1.4592508e-38
0.0018893335 -0.071068004 0.76300001 1.5768792e-38
0.0077384128 -0.070847951 0.76166677 6.1635833e-39
0.010900001 -0.070486672 0.76300001 2.7566063e-39
-0.032518335 -0.067761667 0.76300001 4.0548253e-39
-0.027743032 -0.067411944 0.76109099 5.0722422e-39
-0.022486035 -0.068912707 0.76166672 4.5165531e-39
-0.016919367 -0.068400003 0.76133341 1.5692623e-39
-0.01231889 -0.068113506 0.76083338 1.2908607e-39
-0.0076849535 -0.068580963 0.76120001 5.6015225e-40
-0.0021728575 -0.068083346 0.76050007 1.3859066e-39
0.002173651 -0.068098105 0.76066679 1.3830353e-39
0.0072428579 -0.068083338 0.76050013 2.584447e-39
0.012506429 -0.067607626 0.76125014 5.3455865e-39
0.016863283 -0.067208901 0.7624445 5.1626372e-39
-0.03124667 -0.064673334 0.76300001 3.6841832e-39
-0.027560342 -0.06236919 0.76150012 3.4994795e-39
-0.023413654 -0.060585082 0.76033342 3.3140274e-39
0.01850393 -0.062944405 0.76187503 3.6853057e-39
0.021073334 -0.064673334 0.76300001 3.776079e-39
-0.025433335 -0.058860004 0.76300001 3.4983865e-39
-0.022320358 -0.057521313 0.76212502 3.4973005e-39
-0.017923215 -0.056665592 0.76037508 3.223589e-39
-0.013752382 -0.055733338 0.76000005 3.4062034e-39
0.013761429 -0.056493811 0.76050007 3.681333e-39
0.015944764 -0.057980955 0.76100004 3.5898604e-39
-0.021073334 -0.054500002 0.76300001 3.953964e-39
-0.017183175 -0.053483497 0.76233339 2.4863995e-39
-0.012181238 -0.052636672 0.76130003 2.4860534e-39
-0.0077892863 -0.051802859 0.76075011 3.2210905e-39
-0.0019915476 -0.051234167 0.76037508 2.3952759e-39
0.0028952383 -0.05139048 0.76000005 3.1285291e-39
0.0076448685 -0.051259048 0.76044452 2.4845989e-39
0.012044381 -0.053252764 0.76179999 2.5789441e-39
-0.0065142862 -0.049942862 0.76000005 2.4853065e-39
0.0021714289 -0.049942862 0.76000011 2.481715e-39
0.0065142862 -0.049942862 0.76000005 3.3125364e-39
-0.041383144 -0.077208869 0.76770008 4.7956175e-39
-0.037270799 -0.077465564 0.76733339 6.2686008e-39
-0.032885719 -0.077465564 0.76733345 3.9651744e-39
-0.027746033 -0.076668575 0.76666677 7.7592853e-39
-0.022842385 -0.076567866 0.76750004 2.0382448e-38
-0.017545357 -0.076031789 0.76762503 2.341769e-38
-0.012426192 -0.076019533 0.76750004 2.341769e-38
-0.0071366304 -0.077039056 0.76700008 2.1022366e-38
-0.002192487 -0.076745085 0.76744449 1.3469299e-38
0.0019851704 -0.076368026 0.76785725 1.3571194e-38
0.0068266671 -0.075824767 0.76800007 1.991573e-38
0.012800001 -0.075702861 0.76800001 1.3748302e-38
0.017554287 -0.07606858 0.76800007 4.8842538e-39
0.022674289 -0.07606858 0.76800007 5.3470186e-39
0.026087623 -0.075824767 0.76800001 5.3509801e-39
-0.04124327 -0.072566807 0.76742864 4.3249241e-39
-0.037201591 -0.072212815 0.76588899 4.7909736e-39
-0.033077147 -0.073002867 0.76500005 5.9920125e-39
-0.027685715 -0.073585719 0.76500005 3.2247661e-39
-0.022585716 -0.072857156 0.76500005 4.5267546e-39
-0.017496191 -0.07290525 0.76550001 1.5044856e-38
-0.012401905 -0.072953343 0.76600003 2.2865601e-38
-0.0075326986 -0.073132068 0.76533341 2.323366e-38
-0.0018946668 -0.073041342 0.76540011 2.0003586e-38
0.0025538099 -0.073317625 0.76600003 1.7335728e-38
0.0068085724 -0.073196195 0.76600003 1.6055405e-38
0.012582024 -0.072394893 0.76587498 4.3329242e-39
0.017526748 -0.072294846 0.76675004 4.9789676e-39
0.022657888 -0.072359689 0.76744449 5.5310554e-39
0.027501717 -0.072265148 0.76800007 4.9771571e-39
-0.036038097 -0.067551248 0.76600009 3.5945422e-39
-0.034287624 -0.0656562 0.76600003 3.3190301e-39
0.019185716 -0.068728581 0.76500005 5.2555643e-39
0.022757143 -0.067338966 0.76627284 4.5161846e-39
0.027173493 -0.067627467 0.7676667 3.684612e-39
-0.032475241 -0.06257572 0.76625007 2.8562442e-39
-0.02987143 -0.060471434 0.76500005 3.9596995e-39
0.019722858 -0.060629528 0.76700002 3.5916541e-39
0.022642752 -0.062080637 0.76688892 3.0410153e-39
0.025965717 -0.062537149 0.76800001 2.0261627e-39
-0.03145143 -0.05851429 0.76800001 3.2178311e-39
-0.02791602 -0.057485722 0.7658183 2.7626025e-39
-0.024042858 -0.056100003 0.76500005 2.6693362e-39
0.018096404 -0.057366669 0.76677781 2.9452169e-39
0.022674289 -0.059245717 0.76800001 2.7604697e-39
0.027574718 -0.057609528 0.76745462 1.1525872e-38
0.031410478 -0.056246672 0.76700002 1.5121145e-38
-0.026444001 -0.053908385 0.76700002 5.8025121e-39
-0.02262448 -0.052544292 0.76630002 5.3390312e-39
-0.017805308 -0.050914697 0.76528579 4.0479519e-39
-0.013114287 -0.050271433 0.76500005 4.7790766e-39
-0.0094714295 -0.050271433 0.76500005 2.7561719e-39
0.012419049 -0.051499054 0.76700008 4.5086133e-39
0.016070478 -0.054785717 0.76700002 9.2341505e-40
0.027909273 -0.052749906 0.76713341 1.4111326e-38
0.032151431 -0.052612145 0.76725006 1.1980359e-38
-0.016091429 -0.049005717 0.76800001 9.8551583e-39
-0.012434287 -0.049005717 0.76800001 7.0832008e-39
-0.0068651438 -0.047613144 0.76680011 7.3737965e-39
-0.0021904763 -0.04745841 0.76666671 7.5599996e-39
0.0021898416 -0.048168257 0.76633334 5.2515173e-39
0.0062100003 -0.048576191 0.76700008 6.1774491e-39
0.029949525 -0.048941907 0.76700002 1.4350543e-38
-0.0021942859 -0.044617146 0.76800001 1.4202479e-38
-0.04122667 -0.086134292 0.77300006 4.4276057e-39
-0.037545718 -0.0861343 0.77300012 5.2566209e-39
-0.032392383 -0.086134292 0.77300006 6.3532588e-39
-0.027239051 -0.0861343 0.77300012 3.678522e-39
-0.04169881 -0.082845479 0.77150005 5.8133904e-39
-0.037464764 -0.083011433 0.77133334 5.6253894e-39
-0.032322541 -0.083011433 0.77133334 7.6587505e-39
-0.027199686 -0.083070591 0.77188885 1.2543231e-38
-0.022791749 -0.083082758 0.77199996 1.0964821e-38
-0.017587189 -0.08218547 0.77236378 1.2623601e-38
-0.012716057 -0.082077697 0.77242863 1.3254591e-38
-0.0069093346 -0.08291506 0.7718001 7.2759522e-39
-0.0022041274 -0.08231207 0.77166671 4.1651187e-39
0.0022076194 -0.081927627 0.77266669 4.8980888e-39
0.0071129105 -0.081180006 0.77255565 5.9995879e-39
0.012718641 -0.081251979 0.77257144 1.5946953e-38
0.017727189 -0.081545547 0.77263641 1.0048996e-38
0.021703335 -0.081297144 0.77250004 4.2341943e-39
0.033405527 -0.080792196 0.77260011 1.0424939e-38
-0.043266669 -0.0792 0.77000004 8.9328755e-39
-0.030066669 -0.079933338 0.77000004 1.0912942e-38
-0.027133336 -0.079933338 0.7700001 2.0476084e-38
-0.022366667 -0.079566672 0.77000004 2.2866677e-38
-0.01808889 -0.078955561 0.7700001 2.2129479e-38
-0.012173335 -0.079053335 0.77000004 2.148231e-38
-0.0080666672 -0.079444453 0.7700001 1.6053818e-38
-0.0022000005 -0.079933338 0.7700001 7.5727626e-39
0.0022000002 -0.0792 0.77000004 1.5408227e-38
0.0078263506 -0.078011751 0.77033341 1.6498707e-38
0.012185524 -0.077961527 0.77080005 1.6322606e-38
0.017600002 -0.078466669 0.77000004 3.2258409e-39
0.022733336 -0.078466669 0.7700001 4.9789508e-39
0.027500002 -0.077000007 0.77000004 5.5342882e-39
0.032273181 -0.077016994 0.77016675 8.2115277e-39
0.028600002 -0.074066669 0.77000004 5.7237003e-39
0.032266669 -0.072783336 0.77000004 5.7222864e-39
-0.040438097 -0.069847621 0.77200001 5.602331e-39
-0.037971117 -0.068346992 0.77166671 2.5811035e-39
0.028600002 -0.065266669 0.77000004 1.3804513e-39
0.031681906 -0.067297496 0.77036363 7.7469482e-39
-0.035933334 -0.063800007 0.77000004 1.1088643e-39
-0.034466669 -0.061600003 0.77000004 3.0334833e-39
0.028050477 -0.062119812 0.77100003 5.3412397e-39
0.031217963 -0.062751025 0.7725715 1.1804621e-38
-0.032904971 -0.057234075 0.7715556 9.4888743e-39
0.019092381 -0.055071432 0.77100003 6.5296024e-40
0.022553064 -0.056958236 0.77100009 4.9749669e-39
0.030183811 -0.059631433 0.77300006 1.2908808e-38
-0.030900478 -0.053707145 0.77250004 1.4016201e-38
-0.027436826 -0.052177783 0.77166671 1.3458662e-38
-0.024200002 -0.050600003 0.77000004 1.2721101e-38
0.013933334 -0.051333338 0.77000004 4.9846597e-39
0.016905954 -0.052551672 0.77175003 7.7454755e-39
-0.022389118 -0.048035655 0.7725715 1.4658709e-38
-0.017907621 -0.047409337 0.77060002 1.4564317e-38
-0.012472065 -0.046953335 0.77033341 1.3363924e-38
-0.0095333336 -0.046933338 0.77000004 1.1891343e-38
0.0022000002 -0.046200003 0.7700001 1.5759982e-38
0.0076680281 -0.047369801 0.77200007 1.3180672e-38
0.012143573 -0.048940718 0.77275002 1.364416e-38
-0.021349525 -0.044907622 0.77300006 1.4274871e-38
-0.017459482 -0.043547969 0.77263653 1.3090328e-38
-0.012376972 -0.042883985 0.77272731 1.4289203e-38
-0.0070370757 -0.042848095 0.77192861 1.4011569e-38
-0.0022040696 -0.042416021 0.77154553 1.3458758e-38
0.0020715154 -0.042832036 0.77181828 1.4011548e-38
0.0056419051 -0.044397466 0.77266669 1.3461647e-38
-0.0066257147 -0.038650006 0.77300006 1.8071434e-38
-0.0022085716 -0.039018102 0.77300012 1.7244509e-38
0.00073619053 -0.039018098 0.77300006 1.7796611e-38
-0.042180002 -0.09102001 0.77700007 5.9027203e-39
-0.037788574 -0.091879055 0.77800006 6.084941e-39
-0.032632619 -0.091966912 0.77875006 6.7324586e-39
-0.027450478 -0.091254294 0.77900004 1.4470429e-38
-0.024482859 -0.091254294 0.77900004 1.8713617e-38
-0.0076663494 -0.091748893 0.77900004 1.6694299e-38
-0.045140002 -0.087320007 0.77700001 1.6040554e-38
-0.042344905 -0.088386267 0.7761429 6.8228676e-39
-0.037691429 -0.088686675 0.77600002 5.625402e-39
-0.032518096 -0.088686675 0.77600002 6.4537319e-39
-0.027355878 -0.088724457 0.77633333 7.561939e-39
-0.022761431 -0.087720245 0.77725005 5.9132077e-39
-0.017304193 -0.086832196 0.77660006 1.0329676e-38
-0.012601588 -0.088212401 0.77833337 1.3471767e-38
-0.0074023819 -0.088079534 0.77716672 1.6782173e-38
-0.0024078572 -0.087989293 0.77800012 1.9088818e-38
0.0019285715 -0.087351821 0.77860004 1.7432942e-38
0.0084500955 -0.08641848 0.77820003 1.7598982e-38
0.012600954 -0.087470487 0.77833337 1.3449699e-38
0.017222382 -0.087960958 0.77775002 1.281299e-38
0.022337826 -0.08649648 0.77814287 7.005454e-39
0.027408196 -0.08578115 0.77780002 5.9905986e-39
0.03259353 -0.086670294 0.77780002 7.1959759e-39
-0.045023814 -0.084142864 0.77500004 1.5487022e-38
-0.043547623 -0.084880956 0.77500004 9.8574032e-39
-0.016976193 -0.084880963 0.77500004 1.0350551e-40
-0.01254762 -0.084880963 0.77500004 3.8690789e-39
-0.0095952386 -0.084142864 0.77500004 6.7191631e-39
-0.002214286 -0.084880963 0.77500004 1.3006848e-38
0.0025833335 -0.084511906 0.77500004 1.5867432e-38
0.00782381 -0.083995238 0.77500004 1.4114654e-38
0.012252382 -0.084290482 0.77500004 2.1208879e-38
0.017566668 -0.084585719 0.77500004 1.9912762e-38
0.023383496 -0.082702547 0.7753334 5.1565079e-39
0.02734085 -0.082023814 0.77588892 5.2533965e-39
0.032116905 -0.082878105 0.77525008 7.6555009e-39
0.036166668 -0.084142864 0.77500004 1.5218729e-38
0.028047621 -0.078976199 0.77500004 5.6211042e-39
-0.040595241 -0.068642862 0.77500004 6.1662527e-39
-0.038850956 -0.066969052 0.77700007 2.4849604e-39
-0.040804766 -0.063061908 0.77900004 1.3922625e-38
-0.038057711 -0.062191244 0.77740014 9.8584108e-39
-0.036612764 -0.057956006 0.77820003 1.3917169e-38
-0.034041908 -0.055500004 0.77700007 1.5212192e-38
0.023619048 -0.055357147 0.77500004 1.2630038e-38
-0.032376904 -0.052354999 0.77700001 1.3827552e-38
-0.028785717 -0.050928574 0.77500004 1.4296114e-38
0.019190477 -0.05166667 0.77500004 1.3463398e-38
0.022756429 -0.052724529 0.77700007 1.2080481e-38
-0.030789051 -0.048594762 0.77900004 1.3638427e-38
-0.027375083 -0.047347784 0.77683342 1.4566883e-38
-0.024003811 -0.046160005 0.77550006 1.3733178e-38
0.0091031753 -0.045515876 0.77500004 1.392616e-38
0.012752858 -0.046389051 0.77625 1.3918983e-38
0.016275479 -0.047342144 0.77675003 1.3546261e-38
-0.026708573 -0.043772385 0.77900004 2.0560651e-38
-0.022763336 -0.042377625 0.77724999 1.8071051e-38
-0.018167431 -0.040911432 0.77540004 1.9728019e-38
-0.014023811 -0.040595241 0.77500004 1.7794058e-38
-0.0095952386 -0.041333336 0.77500004 1.5296159e-38
0.0036904765 -0.040595241 0.77500004 1.5579932e-38
0.0075943731 -0.041995764 0.77609092 1.4099464e-38
0.012013144 -0.042859625 0.77860004 1.327621e-38
0.015580001 -0.043772385 0.77900004 1.5768678e-38
-0.020773334 -0.039320953 0.77900004 1.9737813e-38
-0.016835954 -0.037923571 0.77700001 1.0154969e-38
-0.012562435 -0.037684765 0.77588892 8.4907505e-39
-0.0077561908 -0.037113093 0.77550006 1.5404652e-38
-0.002214286 -0.036904767 0.77500004 2.0194447e-38
0.0024019051 -0.03749381 0.77575004 1.9549442e-38
0.0071114288 -0.038064767 0.77759999 1.9553057e-38
-0.016321907 -0.034869526 0.77900004 1.3737631e-38
-0.012612383 -0.034869529 0.77900004 1.4287158e-38
-0.0069636195 -0.034222286 0.77780002 1.383735e-38
-0.0022200001 -0.034780003 0.77700007 1.7616624e-38
0.0022231748 -0.034809846 0.77766669 1.7892474e-38
0.0051933336 -0.034869526 0.77900004 1.8534964e-38
-0.042359766 -0.09759596 0.78375 9.0312425e-39
-0.037301593 -0.097731441 0.78333342 5.441731e-39
-0.032284901 -0.097281374 0.78314286 1.078549e-38
-0.027626667 -0.097066671 0.78400004 1.2886575e-38
-0.023146668 -0.096320003 0.78400004 1.8176206e-38
-0.012693333 -0.096320003 0.7840001 1.7234563e-38
-0.0075430698 -0.097233228 0.78333336 1.8803564e-38
-0.0025386668 -0.096917339 0.78400004 1.7799531e-38
0.0037333337 -0.096320003 0.78400004 1.7981425e-38
0.0074666673 -0.096320003 0.78400004 1.6051812e-38
0.012693334 -0.097066671 0.78400004 1.0507408e-38
0.016800001 -0.096693337 0.78400004 8.6631536e-39
0.020160001 -0.096320003 0.78400004 5.989528e-39
-0.042397149 -0.093720965 0.78100002 6.6370554e-39
-0.037885718 -0.094342873 0.78000009 6.2693309e-39
-0.032685716 -0.094342865 0.78000003 7.4714726e-39
-0.027543176 -0.093800962 0.7816667 1.1525922e-38
-0.022003975 -0.093111597 0.78316677 1.9272515e-38
-0.017144129 -0.092182443 0.78266668 1.6127114e-38
-0.012654604 -0.093044452 0.78155553 1.844061e-38
-0.0073536509 -0.093294404 0.78088892 2.019659e-38
-0.0022359788 -0.093202762 0.78288889 2.0470319e-38
0.0023866668 -0.092941351 0.78319997 1.9550531e-38
0.007305779 -0.092595674 0.78279996 1.7797271e-38
0.012656932 -0.093069218 0.78177786 9.0287061e-39
0.017134817 -0.093123816 0.78222221 6.8192606e-39
0.022376671 -0.092489377 0.78316677 5.7147193e-39
0.027413571 -0.091566913 0.78324997 5.7150767e-39
0.031858236 -0.092166819 0.78314292 5.4442617e-39
-0.022285715 -0.089885719 0.78000003 1.3853881e-38
-0.017085716 -0.088895246 0.78000009 1.7246698e-38
-0.00074285717 -0.089885719 0.78000003 2.0382724e-38
0.0022285718 -0.089390479 0.78000009 1.8533526e-38
0.0069333343 -0.088152394 0.78000009 1.9821361e-38
0.012628573 -0.089885727 0.78000009 1.0051542e-38
0.015600001 -0.089885719 0.78000003 7.7246143e-39
0.022137146 -0.088994287 0.78000003 6.5408759e-39
0.027520001 -0.088141918 0.78100002 5.3481074e-39
0.031942859 -0.089390479 0.78000009 5.0729695e-39
-0.042720474 -0.06771715 0.78350002 1.2165092e-38
-0.042588919 -0.062492304 0.78200012 1.5304085e-38
-0.041387621 -0.057791434 0.78299999 1.6683764e-38
-0.038817529 -0.056960769 0.78080004 1.373928e-38
-0.037623093 -0.052893575 0.78225005 1.6226711e-38
-0.034914289 -0.052000001 0.78000003 1.3541886e-38
0.024608573 -0.050707623 0.78300005 1.3462999e-38
0.026066668 -0.051388577 0.78200006 1.4737627e-38
-0.035063498 -0.0484908 0.78333342 1.9638741e-38
-0.032562859 -0.047073815 0.78150004 1.8903271e-38
0.018583335 -0.047571909 0.78049999 1.3453017e-38
0.021741908 -0.047951743 0.78266668 1.4475796e-38
-0.030967142 -0.042905241 0.78350008 2.0747635e-38
-0.027729254 -0.041963819 0.78085721 2.0931666e-38
-0.024514288 -0.040857144 0.78000003 2.0472835e-38
0.013371429 -0.0416 0.78000003 1.8261577e-38
0.017300718 -0.042225003 0.78125006 1.9274311e-38
0.020160001 -0.044053335 0.78400004 1.9457258e-38
-0.030613335 -0.039573334 0.78400004 1.5224937e-38
-0.027106032 -0.038544133 0.78333342 1.6235856e-38
-0.022410406 -0.037079126 0.78230786 1.5402846e-38
-0.018595239 -0.035701908 0.78100002 1.1590224e-38
0.0091701597 -0.035934605 0.78066671 1.5769128e-38
0.012656192 -0.037219688 0.7816667 1.6140757e-38
0.016971193 -0.03822929 0.78325003 1.5214856e-38
0.020160001 -0.038080003 0.78400004 8.3934527e-39
-0.016780002 -0.033183813 0.78299999 1.1166954e-38
-0.01265016 -0.032740321 0.78133339 9.511396e-39
-0.0074476199 -0.032171432 0.78200006 8.4838911e-39
-0.0022340743 -0.03201355 0.78177786 1.1060359e-38
0.0022340743 -0.032013547 0.7817778 8.848359e-39
0.0068641277 -0.033162117 0.78155565 8.386697e-39
0.011946667 -0.033600003 0.78400004 7.9216187e-39
-0.0067200004 -0.029120004 0.7840001 4.0465758e-39
-0.0022400001 -0.029120004 0.7840001 5.9852414e-39
0.0014933334 -0.029120002 0.78400004 6.2492166e-39
-0.041276194 -0.10581715 0.78800005 1.4477973e-38
-0.037546672 -0.10588429 0.78850007 6.8214018e-39
-0.03306286 -0.10595144 0.78900003 4.3364905e-39
-0.0075142863 -0.10595144 0.78900003 1.6776348e-38
-0.046161912 -0.10305335 0.78600001 1.5673591e-38
-0.042668574 -0.10255431 0.78600007 1.3554177e-38
-0.037452225 -0.1026205 0.7865001 4.9778844e-39
-0.032215875 -0.10264255 0.78666675 9.400004e-39
-0.027736509 -0.10270096 0.7871111 1.289374e-38
-0.023254076 -0.10277323 0.78766662 1.1141654e-38
-0.017658573 -0.10219429 0.78900003 1.6132457e-38
-0.012771906 -0.10217287 0.78883338 1.7883748e-38
-0.0075053177 -0.10282692 0.78808343 1.8803961e-38
-0.0022531219 -0.10290265 0.78866673 1.9439607e-38
0.0016531431 -0.10234457 0.78900003 1.7964467e-38
0.0079651428 -0.10279544 0.78900003 1.0405863e-38
0.01276709 -0.10288837 0.78855562 6.6352351e-39
0.017089525 -0.10272573 0.78875005 6.0831417e-39
0.022037622 -0.10192239 0.78883338 5.2562803e-39
0.02705143 -0.10144287 0.78900003 5.257009e-39
-0.044165716 -0.099560007 0.78600001 1.3643537e-38
-0.031440001 -0.099560007 0.78600001 1.4738367e-38
-0.027697146 -0.099560007 0.78600001 1.3436855e-38
-0.022320287 -0.098425254 0.7865001 1.7150922e-38
-0.017360866 -0.097564518 0.78636378 1.890698e-38
-0.012737146 -0.098895893 0.78666675 1.7521854e-38
-0.0072361911 -0.099560007 0.78600001 1.8795021e-38
-0.0018719049 -0.099249057 0.78650004 1.8728986e-38
0.0020623812 -0.098407865 0.78725004 1.8900443e-38
0.0074952384 -0.098938107 0.78700006 1.7323004e-38
0.01273524 -0.099644452 0.78666675 9.0243775e-39
0.01754286 -0.099113159 0.78720009 8.2922061e-39
0.022887476 -0.097833417 0.78692323 5.7150935e-39
0.02776254 -0.09754318 0.78783339 5.5325043e-39
0.031817965 -0.096528992 0.78742862 6.6435308e-39
0.029194288 -0.093571432 0.78600001 6.1746115e-39
-0.04358286 -0.071385719 0.78900003 1.0043875e-38
-0.050345719 -0.066125721 0.78900003 1.5397028e-38
-0.047149047 -0.067118771 0.78830004 1.5583938e-38
-0.047180638 -0.062157154 0.78633332 1.5859813e-38
-0.046861194 -0.058855955 0.78725004 1.6137856e-38
-0.043444287 -0.057675719 0.78650004 1.8904766e-38
-0.041876961 -0.053582858 0.78800005 1.9552686e-38
-0.038950954 -0.050934765 0.78650004 2.0379922e-38
0.027697146 -0.050154291 0.78600001 1.7427129e-38
-0.0377381 -0.047232915 0.78722221 1.9184278e-38
0.024203813 -0.046161912 0.78600001 1.9094952e-38
0.027775662 -0.04729376 0.78822231 1.3917261e-38
-0.035891432 -0.043099433 0.78840011 1.484786e-38
-0.033086862 -0.042369146 0.78600001 1.7895341e-38
0.021932144 -0.042548575 0.78725004 1.8166875e-38
0.028554287 -0.044334289 0.78900003 1.0121761e-38
-0.035317145 -0.039825715 0.78900003 1.0590937e-38
-0.032063574 -0.037874531 0.78750002 1.095871e-38
-0.028208574 -0.036195874 0.78633344 9.5779955e-39
-0.024702858 -0.03518286 0.78600001 5.0787793e-39
0.017603334 -0.035579525 0.78650004 4.2374635e-39
0.02102286 -0.037788894 0.78833342 9.856327e-39
-0.027034763 -0.033792861 0.78850007 9.4881583e-39
-0.022305284 -0.032398097 0.78781825 8.097406e-39
-0.017516574 -0.031290289 0.78600001 8.0160914e-39
-0.012725716 -0.03069143 0.78600001 5.6133774e-39
-0.0097314296 -0.03069143 0.78600001 5.4472073e-39
0.0085453345 -0.031329334 0.78700006 4.0494849e-39
0.012760572 -0.032277528 0.78820008 6.4443446e-39
0.017255558 -0.033757146 0.78766674 6.8188164e-39
0.020288574 -0.033814289 0.78900003 1.0229042e-38
-0.021040002 -0.029305717 0.78900003 1.41019e-38
-0.017087264 -0.027977023 0.78862506 1.0133261e-38
-0.012750477 -0.027751114 0.78755563 7.3627262e-39
-0.0077422229 -0.027220739 0.78666675 8.7488388e-39
-0.0022485717 -0.026981905 0.78700006 1.096835e-38
0.0024636739 -0.0273181 0.78742862 1.0691371e-38
0.0073053697 -0.02791957 0.78845459 1.077897e-38
0.011271429 -0.029305717 0.78900003 1.2259848e-38
-0.0071895253 -0.024144085 0.78871435 1.3266482e-38
-0.0026300002 -0.024421431 0.78900003 1.3826783e-38
0.0022533336 -0.02478667 0.78866673 1.2817038e-38
0.0060114292 -0.024797145 0.78900003 1.4563282e-38
-0.032139625 -0.1115122 0.79220003 6.6392036e-39
-0.028950796 -0.1115235 0.7930001 4.9774794e-39
0.018125717 -0.11102001 0.79300004 4.1603865e-39
0.020391431 -0.11102001 0.79300004 3.9857174e-39
-0.03721467 -0.10802801 0.79100001 7.8377356e-39
-0.032189257 -0.10819662 0.79128569 4.5165615e-39
-0.028106192 -0.10770953 0.79225004 6.817097e-39
-0.022115557 -0.10681303 0.79166669 8.6603062e-39
-0.017348573 -0.10710953 0.79200006 9.9517246e-39
-0.013121716 -0.10693163 0.79180002 1.0962638e-38
-0.0070916191 -0.10728743 0.79220003 1.5013474e-38
-0.0026390478 -0.10666477 0.79150003 1.1690792e-38
0.0015104762 -0.10648858 0.79300004 9.1140634e-39
0.0090628583 -0.10648858 0.79300004 6.176059e-39
0.013436002 -0.10734115 0.79260004 5.348106e-39
0.017366033 -0.10796922 0.79277784 5.1629973e-39
0.021699766 -0.1077431 0.79250002 4.4287057e-39
-0.020340001 -0.10320668 0.79100007 1.3454822e-38
-0.017025335 -0.10380935 0.79100001 1.464904e-38
-0.012806668 -0.10471334 0.79100007 1.4639685e-38
0.0030133335 -0.10396001 0.79100001 1.1409976e-38
0.0052733338 -0.10396001 0.79100001 7.7340171e-39
0.018833335 -0.10471334 0.79100001 5.8058402e-39
0.023102224 -0.10421111 0.79100001 5.0704626e-39
0.028118778 -0.10375062 0.79185718 6.2772916e-39
0.031640001 -0.10094666 0.79100001 1.1349783e-38
-0.050537147 -0.070903815 0.79200006 1.6411896e-38
-0.047738336 -0.07189215 0.79250002 1.5766871e-38
-0.050473336 -0.068553336 0.79100001 1.6233241e-38
-0.048213337 -0.05800667 0.79100001 9.5995895e-39
-0.043241337 -0.051076002 0.79100001 1.5491778e-38
-0.042379238 -0.048109908 0.79180002 1.1435489e-38
-0.03992667 -0.045953337 0.79100001 1.3550602e-38
-0.040027622 -0.04455905 0.79300004 1.004895e-38
-0.038091905 -0.042616665 0.792 1.078328e-38
0.024901908 -0.043011114 0.79233336 1.4561167e-38
0.027677143 -0.042540006 0.7915715 1.1146661e-38
-0.036205716 -0.038467623 0.792 8.1981888e-39
-0.033426352 -0.035938732 0.79166669 9.3037656e-39
0.023006191 -0.037714288 0.79200006 9.4792726e-39
-0.027586097 -0.032107621 0.79140007 1.1704174e-38
-0.024860002 -0.030886669 0.79100001 1.1803138e-38
0.013560001 -0.030886669 0.79100001 9.4982476e-39
0.016982857 -0.032077145 0.79250002 1.0779979e-38
0.021146668 -0.033230476 0.79300004 1.1798915e-38
-0.026433336 -0.029454287 0.79300004 1.2827422e-38
-0.022309799 -0.027913064 0.79214293 1.3185781e-38
-0.018833335 -0.026366668 0.79100001 1.5853283e-38
0.0097933337 -0.026366668 0.79100001 1.2076533e-38
0.012820546 -0.02790245 0.79185718 1.1528079e-38
0.015860001 -0.028699048 0.79300004 1.2818735e-38
0.024860002 -0.029380001 0.79100001 9.0397806e-39
0.027120002 -0.029380001 0.79100001 1.0063674e-38
-0.01705162 -0.024293525 0.79220003 1.5386197e-38
-0.012630477 -0.02356286 0.79175001 1.4288892e-38
-0.0075428574 -0.021496193 0.79200006 1.336114e-38
-0.0020740477 -0.021684526 0.79200006 1.3455502e-38
0.0022628573 -0.02262762 0.79200006 1.2715454e-38
0.0072213612 -0.023386534 0.79214293 1.4284209e-38
-0.020520002 -0.11628 0.79800004 5.4305528e-39
-0.019000001 -0.11628 0.79800004 4.5993881e-39
-0.005826667 -0.11678667 0.79800004 7.1005419e-39
-0.0025840004 -0.116888 0.79800004 7.100895e-39
0.0022800001 -0.11628 0.79800004 6.6406217e-39
0.0076000001 -0.11628 0.79800004 6.3551043e-39
0.012160001 -0.11628 0.79800004 8.5785754e-39
-0.025896465 -0.11236694 0.79642856 4.6995108e-39
-0.022169717 -0.11282306 0.79720002 4.6087627e-39
-0.017469049 -0.11241048 0.79750001 7.0954944e-39
-0.013103929 -0.11147822 0.79762501 8.5702419e-39
-0.0071741799 -0.11250202 0.79755551 6.8199879e-39
-0.0021387015 -0.11255967 0.79709089 6.2704141e-39
0.0022791275 -0.11242199 0.79758334 6.9132611e-39
0.0074887075 -0.11244043 0.79771441 5.7143746e-39
0.012893334 -0.11301948 0.79644448 3.9669624e-39
0.016278572 -0.11281429 0.79500002 6.2747665e-39
-0.041747622 -0.10854381 0.79700005 1.6227133e-38
-0.026500002 -0.10978572 0.79500002 5.8065647e-39
-0.022714287 -0.10902858 0.79500002 6.9111298e-39
-0.011357144 -0.10827143 0.79500002 1.2164753e-38
-0.007571429 -0.10940714 0.79500002 1.1229524e-38
-0.0022714287 -0.1087762 0.79500002 5.4291529e-39
0.0026523811 -0.10796095 0.79550004 6.7256273e-39
0.0074676201 -0.10813294 0.79557151 6.2689651e-39
0.012114286 -0.10902858 0.79500002 5.2562649e-39
0.024985716 -0.10675715 0.79500002 5.6286684e-39
0.026500002 -0.10675715 0.79500002 7.3800659e-39
-0.04321143 -0.047000956 0.796 6.1846182e-39
-0.041424956 -0.043548767 0.79660004 8.4751176e-39
-0.038614288 -0.040128574 0.79500002 8.3783061e-39
0.024985716 -0.040128574 0.79500002 9.9383632e-39
0.028014287 -0.040128574 0.79500002 1.0691781e-38
-0.037700638 -0.036687624 0.79700011 7.1811488e-39
0.02347143 -0.035585716 0.79500002 1.2162276e-38
0.027091431 -0.03772508 0.79755557 1.1615562e-38
-0.035720002 -0.033440001 0.79800004 5.9840909e-39
-0.032644231 -0.032642119 0.79711115 9.3999493e-39
-0.029602859 -0.031880002 0.79700005 1.2074364e-38
0.01817143 -0.031042859 0.79500002 1.2452182e-38
0.022495717 -0.032098576 0.79616678 1.161737e-38
0.026579406 -0.033033691 0.79737496 1.1065258e-38
-0.031920001 -0.029640002 0.79800004 1.0053994e-38
-0.027253335 -0.027421163 0.79733336 1.1796362e-38
-0.023500001 -0.026152857 0.796 1.1978669e-38
0.013909842 -0.025542861 0.79666674 1.235495e-38
0.017644644 -0.027509168 0.796875 1.2259541e-38
0.021493495 -0.028572224 0.79650009 1.1522629e-38
-0.025840001 -0.023560002 0.79800004 1.0132796e-38
-0.021640478 -0.022777382 0.79724997 1.1335051e-38
-0.01766558 -0.021565445 0.79657149 1.0145877e-38
-0.013274286 -0.020860003 0.79649997 1.3545619e-38
-0.0098428577 -0.020442858 0.79500002 1.8245654e-38
0.0022714287 -0.020442858 0.79500002 1.4009399e-38
0.0080890488 -0.021483652 0.79616678 1.4465727e-38
0.01240381 -0.023286035 0.79733342 1.3364053e-38
-0.016720001 -0.019000001 0.79800004 1.1868718e-38
-0.012920002 -0.019000001 0.79800004 1.4750596e-38
-0.0072605447 -0.018311432 0.79642862 1.6406075e-38
-0.0022752383 -0.018208573 0.79666674 1.0880204e-38
0.0022771431 -0.018976193 0.79700011 1.1430488e-38
0.006076667 -0.018988095 0.79750001 1.0587079e-38
-0.0091885719 -0.12021715 0.80400002 9.5801297e-39
-0.016761906 -0.11657143 0.80000001 4.1477608e-39
-0.012777143 -0.11652858 0.801 4.8864216e-39
-0.0088263955 -0.11691567 0.80085725 7.5586418e-39
0.0068571432 -0.11504763 0.80000001 5.5285512e-39
-0.011428572 -0.11352382 0.80000001 8.2011161e-39
-0.009142858 -0.11352382 0.80000001 7.8334294e-39
-0.043428574 -0.10819048 0.80000001 1.5948744e-38
-0.045177147 -0.045177147 0.80400002 1.1606821e-38
-0.045177147 -0.043645717 0.80400002 1.1700482e-38
-0.042315811 -0.041703239 0.80200005 8.4690514e-39
-0.040814288 -0.037762858 0.801 9.9469896e-39
0.028190479 -0.035809524 0.80000007 1.309033e-38
0.031238098 -0.035809524 0.80000001 1.2173437e-38
-0.040582858 -0.033691429 0.80400002 1.2253297e-38
-0.037837557 -0.032601636 0.80142862 7.8236273e-39
-0.036663815 -0.029023811 0.80200005 1.3358898e-38
-0.032825612 -0.027224762 0.80155557 1.3825719e-38
-0.028970955 -0.025920479 0.80049998 1.2622878e-38
0.018331431 -0.025205716 0.80200005 1.3069113e-38
0.022530477 -0.026731431 0.80200005 1.3267505e-38
0.025937144 -0.027461907 0.801 1.4841628e-38
-0.027600212 -0.021993015 0.80244446 1.3167361e-38
-0.022857144 -0.020571429 0.80000001 8.4776651e-39
0.0099047627 -0.020571429 0.80000001 1.3358997e-38
0.012984763 -0.021132065 0.80200005 1.0782206e-38
0.017208572 -0.023324762 0.80299997 1.4373132e-38
-0.026002858 -0.01911905 0.80300003 1.6213336e-38
-0.022138627 -0.01755619 0.80155563 1.5482005e-38
-0.017780138 -0.017123811 0.8017143 1.594548e-38
-0.012979366 -0.016795874 0.80166674 1.5671385e-38
-0.0080910493 -0.016329525 0.80120003 1.7236946e-38
-0.0022882542 -0.016026668 0.80133337 1.0290019e-38
0.0022914286 -0.016801907 0.80200005 9.8394498e-39
0.0077572805 -0.017804628 0.80285716 9.3924426e-39
0.011485715 -0.019142859 0.80400002 1.1404545e-38
-0.021440001 -0.014548573 0.80400002 1.5946667e-38
-0.0064446265 -0.013215785 0.80285716 1.6228253e-38
-0.0025131975 -0.013444899 0.80342859 1.2071211e-38
0.002297143 -0.014548573 0.80400008 1.2807988e-38
-0.046626985 -0.041757777 0.80700004 1.3638443e-38
-0.043754287 -0.040683813 0.80600005 9.9456108e-39
-0.046940953 -0.038476195 0.80800003 1.3362957e-38
-0.043183621 -0.037342858 0.80680001 1.1332793e-38
-0.040683813 -0.031472381 0.80600005 1.2887507e-38
-0.037669338 -0.027520765 0.80720007 1.5671007e-38
-0.034542859 -0.02533143 0.80600005 1.5955572e-38
0.023028573 -0.02533143 0.80600005 1.6227864e-38
0.026099049 -0.02533143 0.80600005 1.6052489e-38
-0.032835647 -0.022731157 0.80714297 1.6037334e-38
-0.029937144 -0.020725716 0.80600005 1.4750945e-38
0.014584763 -0.020725716 0.80600005 7.293198e-39
0.017980574 -0.021360382 0.80680007 1.622678e-38
0.020777144 -0.023855239 0.80800003 1.8062035e-38
-0.03001143 -0.019238096 0.80800003 1.6130314e-38
-0.026900638 -0.017420636 0.8070001 1.760288e-38
0.008450794 -0.016133336 0.80666673 1.2262638e-38
0.013071746 -0.01794032 0.80733341 1.2349171e-38
0.016929526 -0.019238096 0.80800003 1.5586853e-38
-0.026163811 -0.014620953 0.80800003 1.5398163e-38
-0.022436189 -0.01183162 0.80680007 1.1707816e-38
-0.017875001 -0.013260716 0.80725008 1.5952017e-38
-0.012764382 -0.012917145 0.80740005 1.6595569e-38
-0.0090662865 -0.012446095 0.80680007 1.5124085e-38
-0.0012800002 -0.011010795 0.80666673 1.3734688e-38
0.0023057146 -0.012296191 0.8070001 1.3004619e-38
0.0064053973 -0.013577461 0.8070001 1.3831126e-38
0.01000381 -0.014620953 0.80800003 1.5855808e-38
-0.0061485721 -0.0092219049 0.80700004 9.2992899e-39
-0.0026133338 -0.0090704765 0.80720007 9.1202782e-39
-0.046285719 -0.036257144 0.81000006 1.2258399e-38
-0.042603813 -0.03253334 0.81333339 1.2623188e-38
-0.042017907 -0.027753526 0.81400007 1.4383203e-38
-0.038860954 -0.025992384 0.81066674 1.5853238e-38
-0.037453067 -0.022647075 0.81200004 1.3821364e-38
-0.033985715 -0.020854287 0.81100005 1.4102686e-38
0.022613097 -0.022225 0.81175005 1.761042e-38
0.025954762 -0.022855716 0.81350005 1.4103412e-38
-0.036436193 -0.019380953 0.81400001 1.3547716e-38
-0.032241695 -0.017795557 0.81244451 1.5305186e-38
-0.028542859 -0.0162 0.81000006 1.54057e-38
0.013903811 -0.01622 0.81100005 1.2362551e-38
0.017988844 -0.017325444 0.81114298 1.4662034e-38
0.022038916 -0.018051974 0.81400007 1.3365093e-38
0.025582859 -0.019380953 0.81400001 1.0043434e-38
-0.030726355 -0.014200637 0.81333339 9.8620275e-39
-0.027025478 -0.012353573 0.81074995 1.0504213e-38
-0.017367143 -0.010420476 0.81050003 1.4844994e-38
-0.012342858 -0.010028572 0.81000006 1.4294319e-38
0.0023142858 -0.010028573 0.81000012 1.0962708e-38
0.0074704769 -0.011074286 0.81133342 9.949596e-39
0.012381091 -0.012377825 0.81242871 1.0042136e-38
0.017830476 -0.013954287 0.81400007 8.5709257e-39
0.02093143 -0.014729525 0.81400001 8.5752474e-39
-0.022011429 -0.0081085721 0.81099999 1.0042071e-38
-0.0069514289 -0.0066930163 0.81100005 9.4860283e-39
0.0021254763 -0.0071488102 0.81175005 9.2155609e-39
0.0066609527 -0.0078990478 0.8132 9.3988647e-39
0.010853333 -0.0085276198 0.81400001 9.6772229e-39
-0.047463812 -0.035014287 0.81700003 1.1802118e-38
-0.046105713 -0.032755237 0.81500006 1.1706672e-38
-0.044242859 -0.031823814 0.81500006 1.317386e-38
-0.045795243 -0.02716667 0.81500006 1.0324069e-38
-0.043466669 -0.026390478 0.81500006 1.1156048e-38
-0.042558506 -0.023000412 0.81671435 9.8638184e-39
-0.039634287 -0.021759048 0.81600004 1.1800629e-38
-0.037211623 -0.01790419 0.8174001 1.2533157e-38
-0.034928575 -0.017852383 0.81500006 1.6588683e-38
0.024061907 -0.017852383 0.81500006 6.6431006e-39
0.025614288 -0.017852383 0.81500006 8.2028383e-39
0.01474762 -0.010090477 0.81500006 8.7588287e-39
0.016817462 -0.011125397 0.81500006 8.6630443e-39
