# .PCD v0.7 - Point Cloud Data file format
VERSION 0.7
FIELDS x y z
SIZE 4 4 4
TYPE F F F
COUNT 1 1 1
WIDTH 691
HEIGHT 1
VIEWPOINT 0 0 0 1 0 0 0
POINTS 691
DATA ascii
0.24320002 -0.19076002 0.79800004
0.24730112 -0.19130902 0.79757142
0.25264573 -0.19162861 0.79800004
0.25753209 -0.19144034 0.79766673
0.26220003 -0.19152002 0.79800004
0.26782402 -0.19197604 0.79799998
0.27233335 -0.19253336 0.79800004
0.24335204 -0.18802401 0.79800004
0.24721074 -0.18749726 0.79769999
0.25238264 -0.18775143 0.79754543
0.25731716 -0.1874848 0.79699999
0.26198161 -0.18756318 0.7973333
0.26632571 -0.18793717 0.79800004
0.24396002 -0.18468001 0.79800004
0.24700002 -0.18468003 0.79800004
0.2527 -0.18373001 0.79799998
0.25717905 -0.18310216 0.79775
0.26220003 -0.18392001 0.79800004
0.27378383 -0.20113239 0.80300003
0.27795431 -0.20138288 0.80400002
0.28254858 -0.20138288 0.80400002
0.23303239 -0.19576764 0.80400008
0.23726207 -0.19613224 0.80400002
0.24258049 -0.19704905 0.80350006
0.24787317 -0.19680117 0.8028
0.25256357 -0.19731297 0.80257148
0.25767115 -0.19743453 0.80177784
0.26268423 -0.19751164 0.80319995
0.26724836 -0.19700262 0.80175
0.27210137 -0.19778402 0.80120009
0.27711049 -0.19771834 0.80155563
0.28263181 -0.19796477 0.80380005
0.28626782 -0.19722614 0.80400002
0.23354289 -0.19219431 0.80400008
0.23684826 -0.19225746 0.80266678
0.24189441 -0.19309312 0.80066669
0.24701002 -0.19440714 0.80050004
0.25219053 -0.19428572 0.80000007
0.25752383 -0.19428572 0.80000001
0.26285717 -0.19428572 0.80000007
0.26666668 -0.19428572 0.80000001
0.27352384 -0.19123811 0.80000001
0.27689487 -0.19252913 0.80044448
0.28255078 -0.19230376 0.80200011
0.2864286 -0.19248001 0.80200005
0.23774011 -0.18813673 0.80266672
0.24145944 -0.18730935 0.80080003
0.26817259 -0.18614972 0.80039996
0.27256766 -0.18781589 0.80166668
0.27755317 -0.18844649 0.80240005
0.28214642 -0.18776928 0.80285722
0.24281003 -0.18335049 0.80299997
0.247472 -0.1825482 0.80200005
0.25185689 -0.18182914 0.8017143
0.25777781 -0.18133335 0.80000007
0.26225954 -0.18144619 0.80049998
0.26675895 -0.18267839 0.80257148
0.27029717 -0.18453716 0.80400002
0.25389999 -0.17971906 0.80300003
0.25795239 -0.17883621 0.80133337
0.26242223 -0.17928319 0.8033334
0.27856764 -0.2062324 0.80800003
0.28241527 -0.2062324 0.80800003
0.28758943 -0.20670885 0.80771434
0.29089591 -0.20785716 0.80733341
0.22777906 -0.20161524 0.80800003
0.23232406 -0.20155311 0.80775005
0.23766439 -0.20136189 0.80760002
0.24286763 -0.20111017 0.80700004
0.24758163 -0.20144951 0.80733341
0.25228003 -0.20204765 0.80733341
0.25753525 -0.2015703 0.80720007
0.26285049 -0.20136666 0.80700004
0.26746196 -0.20136669 0.8070001
0.2721867 -0.20298731 0.80733341
0.27741754 -0.20341907 0.80600005
0.28237417 -0.20276111 0.80600011
0.28808212 -0.20270191 0.80620015
0.29158562 -0.20298043 0.80600011
0.22903335 -0.19752383 0.80700004
0.23179269 -0.19800654 0.8062858
0.2371943 -0.19881336 0.80600011
0.24231176 -0.19881336 0.80600011
0.24717335 -0.19881335 0.80600005
0.28939241 -0.19881335 0.80600005
0.23117302 -0.19233006 0.80690914
0.23324192 -0.1875764 0.80720007
0.23669715 -0.18662325 0.8064
0.27756763 -0.18581399 0.80733341
0.28190225 -0.18648128 0.80800003
0.23788466 -0.18365555 0.80685729
0.24233431 -0.18203764 0.80650014
0.24794099 -0.18039051 0.80600011
0.25177908 -0.18039049 0.80600005
0.2678991 -0.18090224 0.80600011
0.27244252 -0.1830796 0.80733341
0.24393906 -0.17852953 0.80800003
0.24720156 -0.17782515 0.80760002
0.25210944 -0.17778309 0.80733341
0.25697222 -0.17802212 0.8064
0.26252574 -0.17808764 0.80600005
0.26702479 -0.17929906 0.80800003
0.24547811 -0.17468192 0.80800003
0.23102096 -0.21008953 0.81400001
0.24885145 -0.21008953 0.81400001
0.25195241 -0.21008953 0.81400001
0.25582859 -0.21008953 0.81400001
0.2643562 -0.21008953 0.81400001
0.26745716 -0.21008953 0.81400001
0.27210861 -0.21008953 0.81400001
0.27753526 -0.21047714 0.81400001
0.28334954 -0.21202762 0.81400001
0.28749755 -0.21272309 0.81280005
0.29077238 -0.2126686 0.81200004
0.22734587 -0.20699213 0.8131429
0.23241226 -0.20743865 0.81228578
0.23752955 -0.20720115 0.81240004
0.24235146 -0.20750956 0.81300008
0.2472374 -0.20706262 0.81125009
0.2526724 -0.20708385 0.81133336
0.25794351 -0.20759432 0.81333339
0.26258987 -0.20759432 0.81333339
0.26714697 -0.20707078 0.81171435
0.27235159 -0.20721906 0.81142867
0.27739939 -0.20759937 0.81133336
0.28268954 -0.20931524 0.81099999
0.28697145 -0.20905715 0.81000006
0.22350407 -0.20221931 0.8127501
0.22672829 -0.20305209 0.81066674
0.23220003 -0.2044286 0.81000012
0.23787203 -0.20422097 0.81040013
0.2426143 -0.20404285 0.81000006
0.2476286 -0.2044286 0.81000012
0.25225717 -0.20442858 0.81000006
0.25709844 -0.20459685 0.81066674
0.26260763 -0.20468096 0.81100005
0.26768574 -0.2044286 0.81000012
0.27077144 -0.20442858 0.81000006
0.22404383 -0.19768572 0.81400001
0.22696428 -0.19736837 0.81123096
0.22777213 -0.19287275 0.81272733
0.22869526 -0.18993334 0.81400001
0.23122542 -0.18766162 0.81200004
0.28080001 -0.18591429 0.81000006
0.23374288 -0.18437144 0.81000006
0.23748724 -0.18279012 0.81120008
0.24153653 -0.18070096 0.81200004
0.27365908 -0.18063049 0.81400001
0.27752575 -0.18362629 0.81080002
0.2809729 -0.18371287 0.81050003
0.24344859 -0.17736952 0.81150001
0.24840002 -0.1751143 0.81000006
0.25225717 -0.17562859 0.81000012
0.25753117 -0.17651893 0.81342864
0.26125526 -0.17752953 0.81400001
0.2679044 -0.17824039 0.81160003
0.27114606 -0.17930096 0.81266677
0.23903176 -0.17236128 0.81400001
0.24420002 -0.17442858 0.81400001
0.24885145 -0.17442858 0.81400001
0.25234002 -0.17404096 0.81400001
0.22230001 -0.21762002 0.81900007
0.22635603 -0.21699603 0.81900007
0.23244001 -0.21606001 0.81900007
0.23946002 -0.21606001 0.81900007
0.24102001 -0.21606001 0.81900007
0.25194001 -0.21606001 0.81900012
0.25896001 -0.21606001 0.81900007
0.26130003 -0.21606001 0.81900007
0.27222002 -0.21606001 0.81900012
0.27750909 -0.21592811 0.81850004
0.28270543 -0.2160524 0.81700009
0.28754002 -0.21759999 0.81600004
0.22266816 -0.21261014 0.81827289
0.22755754 -0.2124739 0.81660002
0.23271064 -0.21271716 0.81642872
0.23762956 -0.21226704 0.81700009
0.24257176 -0.21247989 0.81722236
0.2475543 -0.21283714 0.8174001
0.25288096 -0.21319811 0.81700003
0.25768018 -0.21279146 0.81671435
0.26220804 -0.21216193 0.8160001
0.26771662 -0.21308641 0.81614286
0.27277717 -0.21293812 0.8160001
0.27732608 -0.21285081 0.81566668
0.28175718 -0.2134524 0.81500006
0.22248684 -0.20770936 0.8168335
0.22587144 -0.20879525 0.81500006
0.23829049 -0.20879525 0.81500006
0.22121429 -0.20258574 0.81500006
0.22241214 -0.19776151 0.81614292
0.22450255 -0.19342826 0.81566668
0.22664765 -0.19094287 0.81500006
0.2288321 -0.18840414 0.81633341
0.23130478 -0.18706192 0.81500006
0.23817316 -0.1817842 0.81780005
0.24043144 -0.1812962 0.81700003
0.27718133 -0.18159048 0.8160001
0.23478001 -0.17550001 0.81900007
0.23776403 -0.17715544 0.81800002
0.24120522 -0.17712581 0.81611109
0.26343906 -0.17681621 0.81500006
0.26711842 -0.17678414 0.81533337
0.27281475 -0.1769525 0.81611109
0.27656192 -0.17801002 0.81800002
0.23712002 -0.17394002 0.81900007
0.24246764 -0.17407906 0.81600004
0.25267336 -0.1728562 0.81633341
0.25712955 -0.17245369 0.81566668
0.26229429 -0.17260505 0.81585735
0.26809353 -0.17246589 0.81633329
0.27266699 -0.17216825 0.81800002
0.27534002 -0.17394002 0.81900007
0.25786418 -0.16827397 0.81800002
0.26294959 -0.16794448 0.81766677
0.26716238 -0.16792479 0.81725001
0.27066001 -0.16770001 0.81900007
0.28373906 -0.2296562 0.82300001
0.22495335 -0.2218181 0.82300001
0.22755906 -0.22207524 0.82249999
0.23279142 -0.22103429 0.82300001
0.23749432 -0.22025049 0.82300007
0.24219716 -0.22025049 0.82300007
0.24690002 -0.22025049 0.82300007
0.25317049 -0.22025049 0.82300007
0.25865716 -0.22025049 0.82300001
0.26257622 -0.22025049 0.82300007
0.26767099 -0.22064239 0.82300001
0.27198192 -0.22103429 0.82300007
0.27720731 -0.22181809 0.82300007
0.28295529 -0.22260192 0.82300007
0.28769127 -0.22222953 0.8222
0.29008669 -0.22127905 0.82100004
0.22310351 -0.21789083 0.82100004
0.2283162 -0.21893334 0.82100004
0.23183477 -0.2185424 0.82100004
0.23722993 -0.21752591 0.82100004
0.24300924 -0.21771877 0.82133335
0.24767105 -0.21731944 0.82139999
0.25192526 -0.21828431 0.8215
0.25718385 -0.21773849 0.82180005
0.26248953 -0.21789336 0.82150006
0.26757336 -0.2175024 0.82150006
0.27288482 -0.21815145 0.82100004
0.27757621 -0.21893334 0.82100004
0.28258041 -0.21908973 0.82100004
0.28539526 -0.21971525 0.82100004
0.22311431 -0.19571334 0.82200003
0.22468001 -0.19414763 0.82200003
0.22702762 -0.19180001 0.82200003
0.23364668 -0.18665621 0.82233334
0.23613524 -0.18531144 0.82100004
0.23285322 -0.18205406 0.82242858
0.23632702 -0.18233304 0.82166672
0.28256291 -0.18237349 0.82185721
0.28574288 -0.18318763 0.82200003
0.2327743 -0.17795856 0.82225001
0.23535335 -0.1782743 0.82100004
0.27852809 -0.17681763 0.8215
0.28200048 -0.17859954 0.82250005
0.2296562 -0.17322192 0.82300001
0.23315799 -0.17316124 0.82271439
0.23717324 -0.1719434 0.82188892
0.24004477 -0.17201906 0.82100004
0.25344205 -0.1713101 0.82242858
0.25568289 -0.17123716 0.82100004
0.27806029 -0.17287825 0.82242858
0.24004477 -0.16967334 0.82100004
0.25395429 -0.16695145 0.82300007
0.25656861 -0.16713399 0.82133341
0.2611562 -0.16654572 0.82100004
0.2689324 -0.16615842 0.82166672
0.27265581 -0.1680402 0.8222
0.27511716 -0.16851906 0.82300001
0.24768382 -0.1638162 0.82300001
0.25317049 -0.16318916 0.82300007
0.25783381 -0.16347001 0.82225001
0.26204446 -0.16426636 0.82133341
0.26617146 -0.16439906 0.82200003
0.25896382 -0.23606764 0.82900006
0.26291144 -0.23606764 0.82900012
0.23264638 -0.23238319 0.82900012
0.26317462 -0.23317271 0.82900012
0.26729023 -0.23257072 0.82850009
0.27238572 -0.23212002 0.82900012
0.27680707 -0.23196211 0.82900012
0.28117749 -0.23077241 0.82700008
0.22825001 -0.22667859 0.82500005
0.23234847 -0.22762193 0.82700008
0.2375197 -0.22805092 0.82855558
0.24218644 -0.22797503 0.82900006
0.24751574 -0.22698811 0.82900006
0.25146335 -0.22540906 0.82900006
0.25738478 -0.22580384 0.82900006
0.26291144 -0.22817241 0.82900006
0.26750463 -0.22805092 0.82855558
0.27295399 -0.2279892 0.82833338
0.27810299 -0.22768392 0.82722229
0.2822226 -0.22719418 0.8254444
0.28719252 -0.2269053 0.82566673
0.22864287 -0.22392859 0.82500005
0.23271288 -0.22367144 0.82550007
0.23786819 -0.22348778 0.82585722
0.24308002 -0.2234143 0.82600009
0.24754575 -0.22331069 0.82620013
0.25197941 -0.22255209 0.82766676
0.2571682 -0.22279754 0.82779998
0.26245376 -0.2233403 0.82614297
0.26746577 -0.2236762 0.82600009
0.27264285 -0.2239286 0.82500005
0.27657145 -0.22392859 0.82500005
0.28050002 -0.22392859 0.82500005
0.28678572 -0.22392859 0.82500005
0.22342686 -0.19283603 0.8278001
0.22690193 -0.19139925 0.82840008
0.22343525 -0.18869621 0.82900006
0.22759819 -0.1872607 0.82900017
0.23154573 -0.18688978 0.82625008
0.22823963 -0.18247935 0.82842863
0.23113953 -0.18239477 0.82550007
0.28678572 -0.18150002 0.82500005
0.228398 -0.17809401 0.82900012
0.23117773 -0.17672859 0.82620001
0.28302813 -0.1761062 0.82550007
0.28657007 -0.17802295 0.82588893
0.22975144 -0.17369525 0.82900006
0.23259373 -0.17195831 0.82900012
0.23657049 -0.17112002 0.82800007
0.25145051 -0.17157494 0.82766676
0.27881718 -0.17091334 0.82700002
0.28286621 -0.17243502 0.82675004
0.28612667 -0.1727781 0.82650006
0.23290955 -0.16911602 0.82900012
0.23768562 -0.16751991 0.82863647
0.24163036 -0.16697295 0.82642865
0.24790129 -0.16605368 0.8263334
0.25146925 -0.16756067 0.82600009
0.27413368 -0.16657875 0.8263334
0.27728698 -0.16686682 0.82814294
0.28146526 -0.16895811 0.82900006
0.28596553 -0.16753696 0.82900012
0.23869938 -0.1629051 0.82900012
0.24275295 -0.16269729 0.82757151
0.24753268 -0.16236123 0.82585722
0.2522575 -0.16231558 0.82600015
0.25779143 -0.16096953 0.82650006
0.26294976 -0.16155642 0.82850003
0.26770493 -0.16200972 0.82820004
0.27234975 -0.16231801 0.82845467
0.27554384 -0.16343144 0.82900006
0.24404173 -0.1585404 0.82820004
0.24761049 -0.15771241 0.82800001
0.25209951 -0.15762348 0.82790917
0.25705653 -0.15804979 0.82863653
0.26291144 -0.15829954 0.82900006
0.26606953 -0.1586943 0.82900006
0.25264764 -0.15395716 0.82900006
0.25501621 -0.15395716 0.82900006
0.23771429 -0.23533717 0.83200002
0.24276002 -0.23562002 0.83300006
0.24752003 -0.23562002 0.83300006
0.25466001 -0.23641336 0.83300006
0.25684997 -0.23649186 0.83128577
0.26038003 -0.2350543 0.83100003
0.23776777 -0.23279306 0.83100003
0.24319471 -0.23234083 0.83100003
0.24791588 -0.23207588 0.83166665
0.25297147 -0.23156099 0.83266675
0.25748861 -0.23213747 0.83188897
0.26169908 -0.2324162 0.83100003
0.24692573 -0.22872287 0.83100003
0.25278232 -0.22808972 0.83100003
0.25721431 -0.22872287 0.83100003
0.26038003 -0.22872287 0.83100003
0.22239144 -0.1907343 0.83100003
0.2234467 -0.18756859 0.83100003
0.22555716 -0.18598573 0.83100003
0.22451335 -0.18246669 0.83300006
0.22661546 -0.18259221 0.83140004
0.22688001 -0.17778286 0.83150005
0.25214916 -0.17712173 0.83100003
0.23030573 -0.17094858 0.83100003
0.24930002 -0.17253144 0.83100003
0.25220191 -0.1735867 0.83100003
0.23260161 -0.16712543 0.83166671
0.23558192 -0.1659362 0.83100003
0.2793743 -0.16540858 0.83100003
0.28273791 -0.16699146 0.83099997
0.28623337 -0.16751906 0.83100003
0.23363668 -0.16303 0.83300006
0.23687588 -0.16193409 0.83122224
0.24138573 -0.16066001 0.83100003
0.27779147 -0.16224287 0.83100003
0.28256565 -0.16228224 0.83211118
0.28616416 -0.16250192 0.83233345
0.23860097 -0.15933239 0.83233345
0.24222954 -0.15714982 0.83157146
0.25800574 -0.15591145 0.83100003
0.26196289 -0.15630716 0.83100003
0.26781946 -0.15717773 0.83099997
0.27311552 -0.15753599 0.83122218
0.27724212 -0.1580383 0.83220005
0.2842778 -0.15893112 0.83300006
0.28639334 -0.15787335 0.83300006
0.24302447 -0.15417114 0.83300006
0.24735664 -0.15302296 0.83172733
0.25223961 -0.15229349 0.83100003
0.25764525 -0.15268525 0.83175004
0.26224267 -0.15290785 0.83188897
0.26691428 -0.1531724 0.83225012
0.27211338 -0.15470001 0.83300006
0.24910668 -0.14994001 0.83300006
0.25287017 -0.14902668 0.83233345
0.2567324 -0.14976001 0.83200002
0.26418 -0.14994001 0.83300006
0.25315082 -0.2367159 0.83500004
0.25288573 -0.23459525 0.83500004
0.25527143 -0.23459525 0.83500004
0.22399716 -0.182547 0.83700007
0.2245324 -0.17978573 0.83900005
0.22699779 -0.17687875 0.83533335
0.22834542 -0.17325684 0.83833349
0.2305578 -0.17311907 0.83766669
0.22919001 -0.16769858 0.83850002
0.23090446 -0.16739875 0.83700007
0.22932668 -0.16300572 0.83900005
0.23214401 -0.16235016 0.83700007
0.28264573 -0.16162476 0.83600003
0.23389621 -0.15821812 0.83820003
0.23757342 -0.15733841 0.83730775
0.24124573 -0.15605238 0.83600003
0.27820158 -0.15597302 0.83700007
0.28303862 -0.15797406 0.83775008
0.2861743 -0.15624002 0.83700001
0.23731717 -0.1542162 0.83900011
0.24267609 -0.15259272 0.83788896
0.24625874 -0.15083018 0.83500004
0.26163334 -0.15030001 0.83500004
0.26799527 -0.15083018 0.83500004
0.2723746 -0.15207633 0.83728582
0.27649888 -0.15318382 0.8386001
0.2830227 -0.15293774 0.83900005
0.2442162 -0.14924382 0.83800006
0.24754471 -0.14745325 0.83772743
0.25238085 -0.14696506 0.83671433
0.25775287 -0.1473138 0.83724999
0.26251549 -0.14759296 0.83680004
0.26740804 -0.14767227 0.83814293
0.27087715 -0.14942192 0.83900005
0.24690573 -0.14462763 0.83900011
0.2529785 -0.14430802 0.83900005
0.2580924 -0.14462763 0.83900011
0.26128858 -0.14462763 0.83900005
0.22399716 -0.17823429 0.84300005
0.22578001 -0.17768478 0.8416667
0.22827144 -0.17060287 0.84100002
0.22827145 -0.16739908 0.84100002
0.22880763 -0.16229048 0.84150004
0.23147525 -0.16099145 0.84100002
0.22934383 -0.15877715 0.84200001
0.23211601 -0.15746725 0.84100002
0.28273621 -0.15618573 0.84100002
0.28594002 -0.15618573 0.84100002
0.23344541 -0.15482891 0.84233344
0.23763052 -0.15236096 0.84200001
0.24097097 -0.15115857 0.84200007
0.2784645 -0.15191399 0.84100002
0.2817193 -0.15189478 0.84275001
0.28594002 -0.15458383 0.84100002
0.24325001 -0.14799404 0.84224999
0.26943907 -0.14594573 0.84200001
0.27280778 -0.1479177 0.84214288
0.27693954 -0.14819476 0.84224999
0.24805088 -0.14286458 0.84180003
0.25260001 -0.1427381 0.84200001
0.25767145 -0.1425442 0.84180003
0.26222289 -0.14327271 0.84200001
0.26677737 -0.14421582 0.84219998
0.22128764 -0.18009906 0.84800005
0.22258306 -0.17835639 0.84740013
0.22710231 -0.17609735 0.84740013
0.22801779 -0.1730997 0.84800005
0.2272867 -0.16784424 0.84671438
0.2275867 -0.16242364 0.84680003
0.2285524 -0.15773335 0.84500003
0.23070161 -0.15603939 0.84600008
0.23245065 -0.15317479 0.8465001
0.23607241 -0.1514743 0.84600008
0.23783429 -0.14826787 0.8472501
0.24183923 -0.14682113 0.84549999
0.27361906 -0.14566192 0.84500003
0.27683812 -0.14566192 0.84500003
0.2822673 -0.14744382 0.84600013
0.28508955 -0.14617905 0.84800005
0.24388936 -0.14316933 0.84740013
0.24681686 -0.14207304 0.84600008
0.25189051 -0.14083335 0.84500003
0.25752383 -0.14083335 0.84500003
0.26379311 -0.14136073 0.84575003
0.26812953 -0.14214095 0.84800005
0.27189171 -0.14280246 0.84714293
0.27620572 -0.14456382 0.84800005
0.24955431 -0.1397181 0.84800005
0.25301555 -0.13856438 0.84800011
0.25782913 -0.13888465 0.84714293
0.26281673 -0.13866335 0.84650004
0.26732194 -0.13917969 0.84800005
0.21908572 -0.17689145 0.85200006
0.22260801 -0.17656307 0.85120004
0.22585715 -0.17566667 0.85000002
0.22286525 -0.1735443 0.85250008
0.22630286 -0.17202288 0.8506667
0.2236667 -0.16673335 0.85400003
0.22599405 -0.16726261 0.85314292
0.22366668 -0.16348001 0.85400003
0.22659965 -0.16292572 0.85280007
0.22808737 -0.15828057 0.8522858
0.23017335 -0.15534668 0.85400003
0.2321578 -0.15179589 0.85233343
0.23378192 -0.14773557 0.85233343
0.23666069 -0.14630532 0.85142869
0.23342668 -0.14396001 0.85400003
0.23770547 -0.14274062 0.85290921
0.24206479 -0.14235048 0.85120004
0.24709716 -0.14015746 0.8506667
0.27280957 -0.14058731 0.85000008
0.27746648 -0.14248168 0.85125005
0.28242481 -0.14350796 0.85133338
0.28566796 -0.14350794 0.85133338
0.23993334 -0.13908 0.85400003
0.24372891 -0.13799557 0.85400003
0.24787217 -0.13734519 0.85333341
0.25186861 -0.13652927 0.85114294
0.25773048 -0.13615906 0.85100007
0.26266289 -0.13628496 0.85280007
0.26756716 -0.1369262 0.85200006
0.27219379 -0.13731484 0.85314298
0.27653337 -0.13826667 0.85400003
0.24969335 -0.13420001 0.85400003
0.25327203 -0.13354933 0.85400003
0.25782669 -0.13338667 0.85400003
0.26189336 -0.13420001 0.85400003
0.21929906 -0.1752762 0.85600007
0.21946988 -0.17214923 0.85666674
0.22201651 -0.17147176 0.85600007
0.21964066 -0.16738288 0.85733336
0.22209017 -0.16738287 0.85733336
0.22416954 -0.16261145 0.85800004
0.22608477 -0.16160478 0.85700005
0.22771621 -0.15711716 0.85699999
0.22894098 -0.15262668 0.85700005
0.2307124 -0.15244953 0.85600013
0.22961716 -0.14953715 0.85800004
0.23170732 -0.14767238 0.85666674
0.23332079 -0.14254059 0.85720009
0.23641905 -0.1410362 0.85600007
0.2796267 -0.1410362 0.85600007
0.28288764 -0.1410362 0.85600013
0.28614858 -0.1410362 0.85600007
0.23452002 -0.13973144 0.85800004
0.23770371 -0.1383796 0.85685718
0.24179964 -0.13679697 0.85600007
0.27473524 -0.13614477 0.85600007
0.27799624 -0.13723175 0.85600013
0.28191432 -0.13918668 0.85800004
0.28518286 -0.13973144 0.85800004
0.23942287 -0.13482858 0.85800004
0.24275382 -0.13332002 0.85749996
0.24727324 -0.13302054 0.85688889
0.25158247 -0.13190554 0.85600007
0.25680003 -0.13125335 0.85600013
0.2628561 -0.13241796 0.85600007
0.26801145 -0.13278212 0.85640001
0.27225336 -0.13327125 0.85640001
0.2761943 -0.13482858 0.85800004
0.24432573 -0.12992573 0.85800004
0.2475943 -0.12992573 0.85800004
0.25237867 -0.12921144 0.85760003
0.25710005 -0.12895717 0.85700005
0.26199716 -0.12895717 0.85700005
0.26611623 -0.12938097 0.85800004
0.22282365 -0.16281374 0.86080009
0.22412002 -0.15762287 0.86200005
0.22639078 -0.15721798 0.86171436
0.22784801 -0.15239049 0.86120003
0.22886859 -0.14847621 0.86133337
0.23033082 -0.14672191 0.86066675
0.23187619 -0.14273398 0.86133337
0.23397145 -0.13874096 0.86200005
0.2367837 -0.13649416 0.86114293
0.27994478 -0.13545716 0.86200005
0.28290018 -0.13709906 0.86200011
0.2865124 -0.13874096 0.86200005
0.23875764 -0.13332714 0.86150002
0.24162708 -0.13106631 0.86120003
0.2694667 -0.13022858 0.86000001
0.27295431 -0.13087557 0.86066675
0.27761254 -0.13210435 0.86155558
0.28158668 -0.13299429 0.86200005
0.24368049 -0.12840429 0.86150002
0.2476964 -0.12712839 0.86120003
0.25263485 -0.1266098 0.86085725
0.25747907 -0.12627906 0.86100006
0.26239908 -0.12627907 0.86100006
0.26748085 -0.12688544 0.86114293
0.27140689 -0.12757602 0.86200011
0.27501908 -0.12888953 0.86200005
0.24874859 -0.12396382 0.86200005
0.2520324 -0.12279103 0.86200011
0.25662971 -0.12330706 0.86200011
0.26188385 -0.12396382 0.86200011
0.26680955 -0.12396382 0.86200011
0.2520324 -0.11903811 0.86200005
0.21995716 -0.15734763 0.86500007
0.22314924 -0.15691844 0.86566681
0.22358955 -0.15319335 0.8681429
0.22609659 -0.15221544 0.86580008
0.22761981 -0.14780328 0.86700004
0.22885288 -0.14416954 0.86750001
0.23147717 -0.14152858 0.86650008
0.23279487 -0.13786249 0.86680013
0.28421432 -0.13757619 0.86500007
0.28751528 -0.13755462 0.86833334
0.23389125 -0.13372247 0.86780006
0.23718549 -0.13220572 0.8662501
0.28322574 -0.13197431 0.86500007
0.28718382 -0.13490191 0.86900002
0.2384454 -0.1290089 0.86833346
0.24199645 -0.12718239 0.86575007
0.27377939 -0.12659208 0.86500013
0.27791002 -0.12752096 0.86525011
0.28248897 -0.12843259 0.86780006
0.24295989 -0.12390137 0.86814296
0.24736956 -0.12253048 0.86580008
0.25290954 -0.12110001 0.86500007
0.2582643 -0.12151191 0.86500007
0.26282448 -0.12178795 0.86600012
0.26691121 -0.12172968 0.86614299
0.2727282 -0.12275163 0.86620009
0.27765858 -0.12306001 0.86575013
0.28174287 -0.12439524 0.86500007
0.24815652 -0.11954445 0.86566675
0.25290954 -0.11945239 0.86500007
0.25770068 -0.11908605 0.86633343
0.26092571 -0.11972858 0.86700004
0.26753145 -0.11972858 0.86700004
0.27214348 -0.11926889 0.86766672
0.22148287 -0.15595049 0.87100005
0.22397146 -0.15014382 0.87100005
0.22378039 -0.14802496 0.87220001
0.22607908 -0.14583081 0.87166679
0.22865683 -0.14201145 0.8720001
0.2292105 -0.13785906 0.87200004
0.23106001 -0.13586891 0.87166679
0.28950384 -0.13687144 0.87100005
0.23208669 -0.1319101 0.87220013
0.23308764 -0.12764953 0.87175012
0.23759934 -0.12668017 0.87100017
0.23806801 -0.12310421 0.87220001
0.24257703 -0.12158491 0.87185729
0.24636859 -0.12028096 0.87100005
0.24194573 -0.11889429 0.87300003
0.24636859 -0.11862192 0.87100005
0.26212955 -0.11862192 0.87100005
0.26723656 -0.1188035 0.87233341
0.27104574 -0.11723144 0.87300003
0.22356606 -0.14672223 0.87700003
0.22680974 -0.14236097 0.87620002
0.22781086 -0.13768858 0.87620002
0.22913304 -0.13391589 0.87700003
0.23998669 -0.12124763 0.87800002
0.24083334 -0.12083334 0.87500006
0.24291287 -0.11937096 0.87650001
0.24646549 -0.11821882 0.87725002
0.26340002 -0.11790287 0.87800002
0.26699463 -0.11832415 0.87700003
0.27008954 -0.11790287 0.87800002
0.22344002 -0.14532001 0.88200003
0.22344002 -0.14196002 0.88200009
0.22561845 -0.14342287 0.88066673
0.22377144 -0.13744763 0.88000005
0.22611812 -0.13795049 0.88000005
0.22757527 -0.13335748 0.88066673
0.2304762 -0.13158096 0.88000005
0.2304762 -0.12990478 0.88000005
0.24108002 -0.12012001 0.88200003
0.23994288 -0.11702477 0.88400006
0.24269761 -0.1167289 0.88177788
0.24780002 -0.11592001 0.88200009
0.25116003 -0.11592001 0.88200003
0.26719359 -0.11637121 0.88225007
