# .PCD v0.7 - Point Cloud Data file format
VERSION 0.7
FIELDS x y z
SIZE 4 4 4
TYPE F F F
COUNT 1 1 1
WIDTH 735
HEIGHT 1
VIEWPOINT 0 0 0 1 0 0 0
POINTS 735
DATA ascii
-0.017683811 -0.12609714 0.80733341
-0.012307858 -0.12616262 0.80775005
-0.0079517467 -0.12645844 0.80800003
-0.017683176 -0.12379112 0.80733341
-0.011884868 -0.1226963 0.80800003
-0.0072335242 -0.1226621 0.80800003
-0.0026933334 -0.1223543 0.80800003
0.0023085715 -0.12235429 0.80800003
-0.036436193 -0.13566667 0.81400001
-0.032017782 -0.1360724 0.81333339
-0.027100004 -0.13627526 0.81300008
-0.023495875 -0.1360724 0.81333339
-0.036436193 -0.13256572 0.81400001
-0.032494288 -0.1322943 0.81233352
-0.027066667 -0.13224001 0.81200016
-0.022432381 -0.13227662 0.81222236
-0.01780127 -0.13234985 0.81266677
-0.012779286 -0.1318631 0.81325006
-0.0069771437 -0.13101524 0.81400001
-0.0031009526 -0.13101524 0.81400001
-0.036436193 -0.12791429 0.81400001
-0.032521591 -0.12775716 0.81300014
-0.027052276 -0.12752934 0.81155568
-0.022377992 -0.12732108 0.81022221
-0.017742857 -0.12882859 0.81000012
-0.012350001 -0.12890811 0.81050003
-0.0064358739 -0.12770128 0.81100005
-0.0023174605 -0.12746201 0.81111115
0.0023200002 -0.12760255 0.81200016
0.0069621434 -0.1274474 0.81225014
0.012083048 -0.12747924 0.81320012
0.01705524 -0.12791429 0.81400001
-0.030621909 -0.12365048 0.81400001
-0.027250394 -0.12258788 0.81327283
-0.02239725 -0.12279134 0.81088895
-0.017742857 -0.12188573 0.81000006
-0.013628572 -0.12162858 0.81000012
-0.0065571433 -0.12227143 0.81000006
-0.0020057147 -0.12265716 0.81000006
0.0023142858 -0.12265715 0.81000006
0.0070919492 -0.12223135 0.81090921
0.012132065 -0.12298223 0.81300014
-0.025561906 -0.11851303 0.81333339
-0.022299621 -0.11815449 0.81300014
-0.017800637 -0.11764096 0.81266677
-0.012385581 -0.11800055 0.81285727
-0.0069603468 -0.11775482 0.81200004
-0.0023201592 -0.11756778 0.81216681
0.0021660954 -0.1180663 0.81240004
0.0065861912 -0.11892524 0.81349999
0.010586667 -0.11902986 0.81333339
-0.016280001 -0.11396001 0.81400001
-0.014729525 -0.11396001 0.81400001
-0.0054266672 -0.11396001 0.81400001
-0.0031009526 -0.11396001 0.81400001
-0.036972001 -0.14149201 0.81900007
-0.031551909 -0.14139763 0.81800002
-0.027672384 -0.14148381 0.81850004
-0.024180003 -0.14118001 0.81900007
-0.042120002 -0.13962001 0.81900007
-0.037976194 -0.1381436 0.8174445
-0.032755241 -0.13831715 0.81500006
-0.027187621 -0.13905175 0.81566668
-0.022055238 -0.13829969 0.81733346
-0.017896192 -0.1377254 0.81700009
-0.012395759 -0.13776633 0.81809109
-0.0070165079 -0.13722447 0.81866682
-0.0023374606 -0.13716888 0.81833339
0.0020280003 -0.13712402 0.81900007
0.0070200004 -0.13650003 0.81900012
0.011700001 -0.13650003 0.81900012
-0.041340001 -0.13338003 0.81900012
-0.039043676 -0.1327011 0.81757152
-0.011642858 -0.13389288 0.81500006
-0.0069907936 -0.13361461 0.81566679
-0.0021084356 -0.13326627 0.81557155
0.0023315346 -0.13287504 0.81588894
0.007002857 -0.13305683 0.81700003
0.012444446 -0.13300192 0.81666678
0.01770762 -0.1329024 0.81725007
0.022620002 -0.13104001 0.81900007
0.025740001 -0.13026001 0.81900007
0.033540003 -0.13494001 0.81900007
0.035100002 -0.13416001 0.81900007
-0.037609212 -0.12890445 0.81700009
0.0069857147 -0.12962382 0.81500006
0.013971429 -0.12962382 0.81500006
0.01825238 -0.12776144 0.81550002
0.022056511 -0.1281781 0.8173334
0.025740001 -0.1287 0.81900007
-0.035531752 -0.12267589 0.81700009
-0.032926857 -0.12254228 0.81540006
0.01423016 -0.12082699 0.81500006
0.017590858 -0.12265505 0.81720012
-0.031571429 -0.11887715 0.81850004
-0.027469844 -0.11739461 0.81633341
-0.023285717 -0.11565239 0.81500006
-0.012419049 -0.11565239 0.81500006
-0.0069857147 -0.11565239 0.81500006
0.0031047622 -0.11565239 0.81500006
0.0069857142 -0.11642858 0.81500006
0.012527727 -0.11722361 0.81633335
0.016380001 -0.11934001 0.81900007
-0.025740001 -0.11388001 0.81900007
-0.022374563 -0.11342627 0.81814295
-0.018062858 -0.11245573 0.81575
-0.012221386 -0.1125303 0.81590921
-0.0071866671 -0.11245573 0.81575006
-0.0023336511 -0.11247049 0.81633341
0.0023314287 -0.11346191 0.8160001
0.0070114285 -0.11374001 0.81800008
0.01063397 -0.11386128 0.81700009
-0.017940002 -0.10998001 0.81900012
-0.012480002 -0.10998001 0.81900007
-0.042325716 -0.14735621 0.82300001
-0.037622862 -0.1465724 0.82300001
-0.032920003 -0.14578858 0.82300001
-0.026649527 -0.14500476 0.82300001
-0.022730477 -0.14500478 0.82300007
-0.01802762 -0.14500478 0.82300007
-0.042222869 -0.14308858 0.82100004
-0.037866533 -0.14398217 0.82100004
-0.032449052 -0.14387049 0.82100004
-0.027366668 -0.14360985 0.82100004
-0.022373525 -0.14253278 0.82140011
-0.017983811 -0.14230669 0.82100004
-0.012525238 -0.14248049 0.82200003
-0.0070485724 -0.14253843 0.82233334
-0.0026638096 -0.14242762 0.82260001
0.0027433333 -0.14147763 0.82300001
0.0070542861 -0.14108573 0.82300007
0.012070668 -0.14061545 0.82300007
0.023514286 -0.14030191 0.82300001
0.02782524 -0.14069381 0.82300001
0.032122545 -0.14207335 0.82266665
0.035228573 -0.14248097 0.82200003
-0.042421144 -0.13727868 0.82180005
-0.013292382 -0.13996096 0.82100004
-0.0070371432 -0.13996097 0.82100004
-0.0023457145 -0.13996097 0.82100004
0.0023457145 -0.1394397 0.82100004
0.0070371432 -0.13839716 0.82100004
0.012979621 -0.1380844 0.82100004
0.018232791 -0.13747224 0.8221429
0.022712065 -0.13705683 0.82233334
0.02741852 -0.13709345 0.82255554
0.032058097 -0.13761525 0.82100004
0.035185717 -0.13839716 0.82100004
0.023066191 -0.13331477 0.82100004
0.027378416 -0.13297747 0.82133335
0.032110162 -0.13235526 0.82233334
-0.039388258 -0.12807652 0.82166672
0.021919049 -0.12604001 0.82200003
-0.036749527 -0.12432287 0.82100004
0.019547621 -0.12432287 0.82100004
0.021540955 -0.12337429 0.82249999
-0.031352386 -0.11757144 0.82300001
-0.028930478 -0.11650382 0.82100004
0.014874287 -0.11586192 0.82200003
0.017784899 -0.11800695 0.8221429
0.021162858 -0.11992286 0.82300001
-0.027595956 -0.11292595 0.82200003
-0.023010857 -0.11098154 0.82180005
-0.0070371432 -0.11024859 0.82100004
-0.001954762 -0.11063953 0.82100004
0.0023482542 -0.11112002 0.82166672
0.0070520639 -0.11125556 0.82266676
0.012685524 -0.11354115 0.8222
-0.021162858 -0.10816573 0.82300001
-0.017816192 -0.10747907 0.82225001
-0.012463119 -0.10747665 0.82263637
-0.0073155556 -0.10790446 0.82300007
-0.0031352383 -0.10894953 0.82300001
-0.013324763 -0.10424668 0.82300001
-0.045002859 -0.15316764 0.82900006
-0.041693337 -0.15104097 0.82600009
-0.037033018 -0.1512848 0.82733339
-0.032331433 -0.15140669 0.82800007
-0.027566668 -0.15122288 0.82700008
-0.022858731 -0.15134542 0.8276667
-0.017358096 -0.15149762 0.82850003
-0.013421905 -0.15158859 0.82900006
-0.040071432 -0.14850001 0.82500005
-0.036928575 -0.14850001 0.82500005
-0.03193048 -0.14801542 0.82580006
-0.027533336 -0.14789429 0.82600009
-0.022813335 -0.14789429 0.82600009
-0.018100001 -0.14795366 0.8263334
-0.012605715 -0.14734539 0.82733333
-0.0068985717 -0.14722286 0.82775003
-0.0023633335 -0.14717881 0.82749999
0.0023657146 -0.14667524 0.82800007
0.0067023812 -0.14628048 0.82800007
0.012623334 -0.14597382 0.82850003
0.017707894 -0.14696424 0.82900012
0.022877146 -0.14673397 0.82833338
0.027994765 -0.14628048 0.82800007
0.031877145 -0.1460162 0.82650006
-0.00078571436 -0.14378573 0.82500005
0.002357143 -0.14378574 0.82500005
0.0070815883 -0.14401811 0.8263334
0.012925581 -0.14331144 0.82614297
0.0180909 -0.14236879 0.82588887
0.022568574 -0.14271307 0.82528579
0.027185714 -0.14315717 0.82499999
0.03064286 -0.14378573 0.82500005
0.028618097 -0.13100605 0.82700008
0.03079143 -0.13027143 0.82900006
-0.040265717 -0.12632382 0.82900006
-0.03868667 -0.12632382 0.82900006
0.024416192 -0.12680668 0.82700002
0.026432384 -0.12782429 0.82850003
-0.047108259 -0.1234289 0.82900012
-0.037296828 -0.12212953 0.82733339
0.023494668 -0.12251487 0.8278001
-0.036303811 -0.11759113 0.82866669
-0.03275175 -0.11659431 0.8253333
0.018891906 -0.11649667 0.82650006
0.02169905 -0.11796191 0.82850003
-0.035528574 -0.11369143 0.82900006
-0.03229408 -0.11262868 0.82700002
-0.028320953 -0.11092001 0.82600003
0.01291796 -0.11153593 0.82557148
0.018143097 -0.1129962 0.82825005
0.021317145 -0.11448096 0.82900006
-0.031423051 -0.10848059 0.82900012
-0.027583972 -0.10717891 0.82749999
-0.023251569 -0.1074924 0.82557142
-0.019642858 -0.10607143 0.82500005
-0.013357144 -0.10607143 0.82500005
-0.0065476201 -0.10659525 0.82500005
-0.0021353746 -0.10734138 0.82614291
0.002363896 -0.107375 0.82736373
0.007098889 -0.10726494 0.82816666
0.011244049 -0.10790121 0.82850003
0.015790477 -0.10974382 0.82900006
-0.026580637 -0.10237493 0.82900012
-0.022869211 -0.10251271 0.82800007
-0.018097304 -0.10228558 0.82616663
-0.012480138 -0.10197975 0.82642859
-0.0070890482 -0.10240842 0.8271668
-0.002364127 -0.10247113 0.8276667
0.0023678571 -0.10260645 0.82875001
0.005526667 -0.10342763 0.82900006
-0.02250143 -0.098295718 0.82900006
-0.017091746 -0.097558416 0.82833344
-0.013421905 -0.095532387 0.82900006
-0.04204667 -0.16104668 0.83300006
-0.045165718 -0.15689239 0.83200002
-0.041835714 -0.15762812 0.83275008
-0.037800007 -0.15728192 0.83266675
-0.032526668 -0.15628669 0.83300006
-0.027766671 -0.15628669 0.83300006
-0.023006668 -0.15628669 0.83300006
-0.017453333 -0.15628667 0.83300006
-0.013486668 -0.15628667 0.83300006
-0.041945718 -0.15432858 0.83100003
-0.03719715 -0.15432858 0.83100003
-0.032448575 -0.15432858 0.83100003
-0.027700003 -0.15432858 0.83100003
-0.02295143 -0.15432858 0.83100003
-0.017411429 -0.15432858 0.83100003
-0.011559811 -0.15250269 0.83140004
-0.00752381 -0.15165049 0.83150005
-0.0023742858 -0.15116286 0.83100003
0.0023742858 -0.15116286 0.83100003
0.0071400004 -0.15152667 0.83300006
0.012693334 -0.15152667 0.83300006
0.017453335 -0.15152667 0.83300006
0.022969842 -0.15128414 0.83166671
0.027745716 -0.15140541 0.83233345
0.032526672 -0.15152667 0.83300006
-0.0087057147 -0.14958002 0.83100003
-0.0023742858 -0.14958002 0.83100003
0.0023742858 -0.14958003 0.83100003
0.0074428576 -0.14901887 0.83140004
0.011875557 -0.14884859 0.83133334
0.017411429 -0.14958002 0.83100003
0.02295143 -0.14958003 0.83100003
0.027409334 -0.14909087 0.83179998
0.032812003 -0.14916287 0.83220005
0.033240005 -0.13058573 0.83100003
-0.048277151 -0.12583715 0.83100003
-0.04204667 -0.12693334 0.83300006
0.02849143 -0.12742001 0.83100003
0.032492388 -0.12758994 0.83211118
-0.048277147 -0.12267144 0.83100003
-0.040956512 -0.12392478 0.83233345
-0.038780004 -0.12108858 0.83100003
0.024534287 -0.12108858 0.83100003
0.027544765 -0.12305429 0.83225006
-0.040460002 -0.11741334 0.83300006
-0.038803339 -0.11720048 0.83150005
0.02378159 -0.11731938 0.83233345
0.026180001 -0.11979334 0.83300006
-0.036978096 -0.11251714 0.83200002
-0.034031432 -0.11000858 0.83100003
0.018730476 -0.1105362 0.83100003
0.021790953 -0.1113281 0.83200008
-0.03303016 -0.10648604 0.83233345
0.013058573 -0.10644715 0.83100003
0.017120384 -0.10731335 0.83220005
-0.030940002 -0.10392667 0.83300006
-0.028030669 -0.10214343 0.83140004
0.0023742858 -0.10051143 0.83100003
0.007325476 -0.1019569 0.83149999
0.011430886 -0.10242464 0.83185726
0.015073334 -0.10392667 0.83300006
-0.026180001 -0.098373339 0.83300006
-0.023279812 -0.096442096 0.83140004
-0.01820286 -0.095762871 0.83100003
-0.011673572 -0.097543575 0.83099997
-0.007122857 -0.097345717 0.83099997
-0.0023742858 -0.097345717 0.83099997
0.002375979 -0.097396933 0.83144438
0.0060777785 -0.098558418 0.83233345
-0.022213336 -0.094406672 0.83300006
-0.017107621 -0.093694292 0.83271438
-0.011894604 -0.09357556 0.83266675
-0.0071400008 -0.094406679 0.83300006
-0.0023800002 -0.093613341 0.83300012
0.0013222223 -0.093877785 0.83300006
-0.042327624 -0.16755641 0.83540004
-0.037931431 -0.16570383 0.83850002
-0.034359049 -0.16540287 0.83900005
-0.041935377 -0.1630796 0.83528578
-0.037419688 -0.16242319 0.83599997
-0.032721907 -0.16281238 0.838
-0.027908811 -0.16166954 0.83724993
-0.023136191 -0.16274795 0.83766675
-0.017551113 -0.16195017 0.83766675
-0.013040319 -0.16101366 0.83833337
-0.045328576 -0.15984286 0.83500004
-0.043738097 -0.15984286 0.83500004
-0.036315873 -0.15931271 0.83500004
-0.032604769 -0.15904763 0.83500004
-0.027833335 -0.15825239 0.83500004
-0.023061907 -0.15904763 0.83500004
-0.017495241 -0.15825239 0.83500004
-0.011500002 -0.15726547 0.83700007
-0.0071879365 -0.15655145 0.8386668
-0.0019976192 -0.15621382 0.83900005
0.0026229934 -0.15679662 0.83814293
0.0069612251 -0.15690275 0.83871436
0.012205307 -0.15684968 0.83842868
0.017562285 -0.1569442 0.83820009
0.02315397 -0.1572886 0.83833343
0.0281849 -0.15690275 0.83871442
0.031524289 -0.15682715 0.83800006
-0.0063857147 -0.15403239 0.83800006
-0.0023946033 -0.15397114 0.83766669
0.0023857146 -0.15348098 0.83500004
0.0071698418 -0.15372604 0.83633339
0.011552381 -0.15335906 0.83650005
0.017537143 -0.15384859 0.83700001
0.023117146 -0.15384859 0.83700007
0.027900001 -0.15384859 0.83700007
0.031885717 -0.15384859 0.83700001
-0.046548575 -0.12810858 0.8355
-0.043440953 -0.12777506 0.83540004
-0.045473337 -0.12205874 0.83766669
-0.042410955 -0.12165429 0.83625001
0.028940637 -0.12080413 0.83633339
0.032676671 -0.1227332 0.83683336
-0.042705171 -0.11695226 0.83700001
0.024652382 -0.11530953 0.83500004
0.027709527 -0.11741334 0.83724999
0.032955788 -0.11779498 0.83814293
-0.042065177 -0.11296722 0.83785719
-0.038467623 -0.11115652 0.83566666
0.024062669 -0.11266154 0.83660001
0.027492112 -0.11236069 0.83842874
-0.03748773 -0.10767058 0.83744454
0.019109525 -0.10589334 0.83600003
0.022939049 -0.10790858 0.83774996
0.026368573 -0.10946953 0.83900005
-0.035957146 -0.1038762 0.83900005
-0.032873336 -0.10260002 0.83675003
-0.029423811 -0.10099524 0.83500004
0.013535239 -0.10191143 0.83600003
0.017772209 -0.10277483 0.83772731
0.022373334 -0.10467525 0.83900005
-0.03169556 -0.099348262 0.83900011
-0.028473813 -0.097362384 0.83625001
0.0078531979 -0.097069532 0.83642858
0.011652573 -0.097684763 0.838
0.015714604 -0.099348262 0.83900011
-0.027087145 -0.094006196 0.83650005
-0.023117144 -0.092200316 0.83700007
-0.017794393 -0.091090478 0.83655554
-0.011942859 -0.090764776 0.83599997
-0.0071628573 -0.091524124 0.83566666
-0.0023898415 -0.090836518 0.8366667
0.0027446563 -0.091821276 0.83677781
0.0068280427 -0.092831649 0.83788896
0.01038762 -0.093488574 0.83900005
-0.016445143 -0.087970488 0.83820003
-0.011752791 -0.087522589 0.83871436
-0.0075909528 -0.088294774 0.83900005
-0.0019976192 -0.088294774 0.83900005
0.0015980953 -0.088694289 0.83900005
-0.037378099 -0.16860135 0.84219998
-0.032549143 -0.16691755 0.84180003
-0.028073335 -0.16667603 0.8422001
-0.022952193 -0.16643374 0.84259999
-0.016860001 -0.16619144 0.84300011
-0.013648572 -0.16619144 0.84300005
-0.028033335 -0.16419525 0.84100002
-0.011489207 -0.16325748 0.8416667
-0.0072171437 -0.16198574 0.84200001
-0.0027266669 -0.16186345 0.84219998
0.0027266669 -0.16186345 0.84219998
0.0066853967 -0.16231716 0.84233344
0.012231905 -0.16263525 0.84225005
0.016639763 -0.1625874 0.84200001
0.022188678 -0.16227461 0.84211117
0.028100004 -0.16217716 0.84300005
-0.0072085722 -0.15938954 0.84100002
-0.0027232382 -0.15874879 0.84100002
0.0016019049 -0.15938954 0.84100002
0.0080095241 -0.15938954 0.84100002
0.011213334 -0.15938954 0.84100002
0.017620953 -0.15938954 0.84100002
0.027232382 -0.15938954 0.84100002
-0.048057146 -0.12174477 0.84100002
-0.047319904 -0.11789514 0.84211111
0.029635239 -0.1161381 0.84100002
0.032038096 -0.1161381 0.84100002
-0.050460003 -0.1145362 0.84100002
-0.047281172 -0.11299399 0.84144449
-0.043251432 -0.11133239 0.84100002
0.029635239 -0.11373524 0.84100002
-0.047349211 -0.10914509 0.84266675
-0.042331051 -0.10790952 0.84180003
0.024859048 -0.10585049 0.84200001
0.027264763 -0.1082562 0.84200001
-0.037683129 -0.10296885 0.84185719
-0.034440953 -0.10011905 0.84100002
0.018421905 -0.10011905 0.84100002
0.022445716 -0.1023362 0.8416667
-0.032873608 -0.097014025 0.84185719
0.013616191 -0.096114293 0.84100002
0.016831974 -0.096980557 0.84157151
-0.03131143 -0.09393429 0.84300005
-0.027665241 -0.092218101 0.84200001
-0.024829526 -0.090507627 0.84100002
0.0080095241 -0.090507627 0.84100002
0.012029207 -0.092486046 0.84200001
0.015254287 -0.09393429 0.84300005
-0.026494287 -0.089117147 0.84300005
-0.022242686 -0.087580867 0.8422727
-0.017220477 -0.086102389 0.84100002
-0.012829524 -0.085803822 0.84200001
-0.0072180955 -0.086604774 0.84200001
-0.002726286 -0.086424202 0.84180003
0.0026355102 -0.086963147 0.84214294
0.007023334 -0.087685719 0.84275001
-0.016057145 -0.084300004 0.84300005
-0.013648572 -0.083497152 0.84300005
-0.032304764 -0.17525335 0.84800005
-0.02745905 -0.17525335 0.84800005
-0.037823811 -0.17221907 0.84500015
-0.033053812 -0.17252621 0.84650004
-0.027791703 -0.17285892 0.84757155
-0.022995001 -0.1710631 0.84725004
-0.016960002 -0.17040762 0.84800005
-0.012114286 -0.17040762 0.84800005
0.0088838097 -0.17040762 0.84800005
0.012114286 -0.17137678 0.84800005
0.015883176 -0.17094605 0.84800005
-0.032995239 -0.16980478 0.84500003
-0.028166667 -0.16940238 0.84500003
-0.022533335 -0.16859762 0.84500003
-0.016900003 -0.16819525 0.84500003
-0.011765525 -0.16779029 0.84619999
-0.0072685718 -0.16798477 0.84800005
-0.0024228573 -0.16717717 0.84800005
0.0027430477 -0.16770497 0.84740013
0.0072557144 -0.16768907 0.8465001
0.01207143 -0.16773541 0.84500015
0.016614096 -0.16758668 0.84680003
0.021781906 -0.16698001 0.84700006
0.026586667 -0.16678289 0.84600008
-0.0072428579 -0.16497621 0.84500003
-0.002011905 -0.1645738 0.84500003
0.002011905 -0.16457382 0.84500003
0.0083158743 -0.16443969 0.84500003
0.010461905 -0.16497619 0.84500003
0.018509526 -0.16497619 0.84500003
0.023338098 -0.16497621 0.84500003
0.028166667 -0.16497621 0.84500003
0.032190479 -0.11508096 0.84500003
0.029776193 -0.11025239 0.84500003
0.03282262 -0.11175857 0.84575009
-0.04646223 -0.10662159 0.84600008
-0.043457143 -0.10542382 0.84500003
0.028772702 -0.10674922 0.84700006
0.032304764 -0.10822096 0.84800005
-0.04232572 -0.10359477 0.84650004
-0.038896829 -0.10113176 0.84500003
0.023740478 -0.10099763 0.84500003
0.027031668 -0.10287929 0.84725004
-0.037376828 -0.098144136 0.84700006
-0.034604765 -0.095766671 0.84500003
0.018509526 -0.095766671 0.84500003
0.021554561 -0.098083824 0.84714293
0.025036192 -0.099337146 0.84800005
-0.036342859 -0.094491437 0.84800005
-0.032719053 -0.092999816 0.84619999
-0.029239684 -0.091474608 0.84500003
0.012900477 -0.09109953 0.84650004
0.017260192 -0.093389727 0.84680003
-0.031497143 -0.089645721 0.84800005
-0.028238915 -0.0879407 0.84714293
-0.024947621 -0.086109526 0.84500003
-0.0056333337 -0.086109526 0.84500003
0.0088523813 -0.086109526 0.84500003
0.01156254 -0.08846318 0.84700006
-0.025036192 -0.084800005 0.84800005
-0.021384049 -0.084321193 0.84725004
-0.017147893 -0.082513064 0.84585726
-0.011622994 -0.082743004 0.84585726
-0.0072514298 -0.082986675 0.84600002
-0.0024171432 -0.082986683 0.84600002
0.0021884358 -0.0835177 0.84671444
0.006936382 -0.084033914 0.84680003
-0.016152382 -0.079954289 0.84800005
-0.013729525 -0.079954289 0.84800005
-0.0072685718 -0.079954289 0.84800005
-0.0040380955 -0.079954289 0.84800005
-0.025154287 -0.17770287 0.85200006
-0.021925081 -0.17703049 0.8526668
-0.017040001 -0.17689145 0.85200012
-0.012180319 -0.1770305 0.85266674
-0.0073165083 -0.17723779 0.85366672
-0.0024400004 -0.1773067 0.85400003
0.0027095242 -0.17750892 0.85366672
0.0070699328 -0.17724028 0.85200006
0.010536191 -0.17668477 0.85100007
-0.021603812 -0.17310476 0.8506667
-0.017020002 -0.17344287 0.85100007
-0.012157144 -0.17344287 0.85100007
-0.0072986246 -0.17274582 0.85155559
-0.0024385187 -0.17310561 0.85333341
0.0024349208 -0.17296953 0.8526668
0.0070914291 -0.17283525 0.85100001
0.01052381 -0.17404763 0.85000002
-0.0024285717 -0.1691905 0.85000008
0.00081142865 -0.16958858 0.85200006
0.018619049 -0.16919048 0.85000002
0.021874286 -0.16932319 0.8506667
0.025095239 -0.16919048 0.85000002
0.032380953 -0.10604762 0.85000002
-0.046305716 -0.10398382 0.85300004
-0.043566033 -0.10173811 0.85233343
0.028873019 -0.10280953 0.85000008
0.031694606 -0.10348254 0.85333341
-0.042422861 -0.097832859 0.85250002
-0.039126989 -0.09687303 0.85000008
0.022666669 -0.09633334 0.85000002
0.025696509 -0.097641915 0.85200012
-0.041480001 -0.093533337 0.85400003
-0.038156193 -0.092544764 0.8524
-0.03442524 -0.091529056 0.85049999
0.017041273 -0.090879373 0.85200012
0.021670479 -0.093745038 0.85171437
-0.036600001 -0.087840006 0.85400003
-0.032981645 -0.086987197 0.85218197
-0.028355559 -0.085606359 0.8506667
0.012713017 -0.086280644 0.852
0.015983494 -0.088041916 0.85333341
-0.031069338 -0.082797341 0.85400003
-0.026792385 -0.08199577 0.85244453
-0.022079762 -0.081630722 0.85075003
-0.018619049 -0.080142863 0.85000002
-0.011333333 -0.080142863 0.85000002
-0.0016190477 -0.080142863 0.85000002
0.0027592385 -0.080942109 0.85160011
0.0073114294 -0.081778735 0.85300004
0.011115557 -0.083231121 0.85400003
-0.026502861 -0.07820572 0.85360003
-0.021937566 -0.077184983 0.85311121
-0.017031536 -0.077044666 0.85155565
-0.012173757 -0.077104561 0.85222232
-0.0073028579 -0.077083185 0.85200006
-0.0026388096 -0.077355005 0.85275006
0.0020328574 -0.078440487 0.85350001
-0.017080002 -0.074013337 0.85400003
-0.013826667 -0.074013337 0.85400003
-0.0069328574 -0.18068144 0.85650003
-0.0028580953 -0.18078667 0.85700005
0.0016304763 -0.18016763 0.85600007
0.0024457145 -0.17853716 0.85600007
-0.047446862 -0.10157868 0.85600007
0.027751431 -0.10039143 0.85700005
0.031830478 -0.10120668 0.85700005
-0.047339048 -0.097941913 0.85700005
-0.044294607 -0.095926359 0.85600013
0.026946034 -0.097165726 0.85733336
0.031868573 -0.098874293 0.85800004
-0.042922672 -0.092534862 0.85680008
-0.039946668 -0.090491436 0.85600007
0.022348573 -0.09118592 0.85640001
0.025835559 -0.093280636 0.85666674
-0.041129526 -0.087979063 0.85800004
-0.038334098 -0.087270491 0.85640001
0.017462859 -0.086985141 0.85680008
0.020957461 -0.088454604 0.85733336
-0.035654604 -0.083555564 0.85733336
-0.03262905 -0.081570961 0.85650003
0.0089676194 -0.080708578 0.85600007
0.012777462 -0.081826985 0.85633337
0.016058413 -0.083555564 0.85733336
-0.030755561 -0.078656517 0.85733336
-0.027327146 -0.076269053 0.85650003
-0.00081523816 -0.075817145 0.85600007
0.0027718097 -0.076469332 0.85600007
0.0068810894 -0.077783406 0.85714293
0.011930287 -0.078609146 0.85799998
-0.02533143 -0.074360006 0.85800004
-0.021574968 -0.072885446 0.85714293
-0.017140001 -0.07182382 0.85700005
-0.012242857 -0.072912075 0.85700005
-0.0075804088 -0.073118381 0.85714293
-0.0027209527 -0.07318382 0.85700005
0.0024507937 -0.074302226 0.85733336
0.0057200002 -0.074360006 0.85800004
-0.015525715 -0.069457151 0.85800004
-0.01389143 -0.069457151 0.85800004
-0.0057333335 -0.18428573 0.86000001
-0.0040952382 -0.18428573 0.86000001
-0.048323818 -0.095828578 0.86000001
0.028120637 -0.096374616 0.86000001
0.031942859 -0.096647635 0.86000007
-0.04690405 -0.092374057 0.86025006
-0.043409526 -0.090914294 0.86000001
0.027382096 -0.092310101 0.86080009
0.030874288 -0.093716197 0.86066675
-0.050078098 -0.089483812 0.86200005
-0.046383813 -0.08907333 0.86200005
-0.042230479 -0.087329529 0.86100006
0.018838096 -0.086000003 0.86000001
0.022474287 -0.087432764 0.86120003
0.025449526 -0.089483812 0.86200005
-0.040226668 -0.08373715 0.86200005
-0.037447304 -0.082272708 0.86100006
0.017544383 -0.082472384 0.86080009
0.021344762 -0.0845581 0.86200005
-0.035848256 -0.079085089 0.86200011
-0.03250191 -0.077293016 0.86033338
0.0090095242 -0.076990485 0.86000001
0.012703334 -0.076625243 0.8605001
0.016133334 -0.079023503 0.86133337
-0.030922543 -0.074159376 0.86200011
-0.0272731 -0.072795011 0.86125004
-0.023752382 -0.072076194 0.86000001
-0.011466667 -0.071257144 0.86000001
-0.0065523814 -0.071257144 0.86000001
-0.0019111112 -0.071803182 0.86000001
0.0024596828 -0.072131433 0.86066669
0.0073800008 -0.073252395 0.86100006
0.012306033 -0.074648902 0.86133337
-0.025449526 -0.069780961 0.86200005
-0.021941669 -0.068284057 0.86124998
-0.017419763 -0.067834049 0.86075008
-0.012300001 -0.068332389 0.86100006
-0.0073850802 -0.068933025 0.86166668
-0.0028733336 -0.069370486 0.86200005
0.0024628574 -0.069780961 0.86200011
-0.016145399 -0.064307943 0.86200011
-0.013956191 -0.064034291 0.86200005
0.033776194 -0.10132858 0.86500007
0.035423812 -0.10132858 0.86500007
0.028833335 -0.091442861 0.86500007
0.031304762 -0.091442861 0.86500007
-0.047259524 -0.08646667 0.86675012
-0.043712385 -0.085774288 0.86600006
0.023890479 -0.086500004 0.86500007
0.027369784 -0.087207198 0.86609095
0.030838668 -0.087897338 0.86580008
-0.04551905 -0.083589531 0.86900002
-0.041868575 -0.082633026 0.86766672
0.018969525 -0.080825716 0.86600006
0.022464955 -0.082092203 0.86720008
0.028074287 -0.08339715 0.86700004
0.03055143 -0.08339715 0.86700004
-0.037145447 -0.077236339 0.86671436
0.017623812 -0.076819688 0.86733341
0.022759525 -0.078210004 0.86900002
-0.03558762 -0.073658101 0.86900002
-0.032391194 -0.072207145 0.86650008
-0.028009526 -0.070023812 0.86500007
0.0077438103 -0.070682861 0.86500007
0.01217 -0.071980484 0.8662501
0.015688572 -0.074312389 0.86700004
-0.031449527 -0.068692386 0.86900002
-0.02691905 -0.067872956 0.8670001
-0.022682384 -0.065568097 0.86600006
-0.01894762 -0.065080956 0.86500007
-0.011539524 -0.065942384 0.86550003
-0.0074165086 -0.065929852 0.86533344
-0.0022688096 -0.066635951 0.86650008
0.002477143 -0.066880323 0.8670001
0.0074314289 -0.067706674 0.8670001
0.011586668 -0.068692386 0.86900002
-0.020690478 -0.063726671 0.86900002
-0.017320001 -0.062680952 0.86600006
-0.012384763 -0.062754288 0.86700004
-0.0078571439 -0.063276194 0.86849999
-0.0041380953 -0.063726671 0.86900002
-0.046479527 -0.082169056 0.87150002
-0.043411754 -0.081016831 0.87100005
0.027137281 -0.081648849 0.87100017
0.030692384 -0.082122862 0.87100005
-0.042032193 -0.078248195 0.87220001
-0.039032385 -0.076402858 0.87200004
0.019079048 -0.077145718 0.87100005
0.022065336 -0.076150291 0.87100011
0.026575239 -0.078063816 0.87200004
-0.036540955 -0.072250478 0.87200004
-0.034010477 -0.070509531 0.87100005
0.014101906 -0.070509531 0.87100005
0.017442858 -0.07226219 0.87214297
0.022116004 -0.073332004 0.87300009
-0.032425717 -0.068177149 0.87300003
-0.027414924 -0.066185713 0.87233341
0.0066447621 -0.065607622 0.87200004
0.01247143 -0.068177149 0.87300003
-0.047662862 -0.081110485 0.87800002
-0.045990478 -0.079438098 0.87800002
-0.042645715 -0.076929525 0.87800002
-0.039300956 -0.074420959 0.87800002
0.019166667 -0.07083334 0.87500006
0.01588762 -0.069403812 0.87800002
0.026940953 -0.076613337 0.88400006
