# .PCD v0.7 - Point Cloud Data file format
VERSION 0.7
FIELDS x y z
SIZE 4 4 4
TYPE F F F
COUNT 1 1 1
WIDTH 287
HEIGHT 1
VIEWPOINT 0 0 0 1 0 0 0
POINTS 287
DATA ascii
0.018246667 -0.15152667 0.83300006
0.027745716 -0.15140542 0.83233345
0.019833334 -0.14756 0.83300006
0.021790953 -0.14817619 0.83200002
0.017495239 -0.15030001 0.83500004
0.023857145 -0.15030001 0.83500004
0.027833335 -0.15030001 0.83500004
0.032970477 -0.15115373 0.83619994
0.037496831 -0.15078001 0.83766669
0.0035933335 -0.14733523 0.83850002
0.0063873022 -0.14770511 0.83833337
0.013009207 -0.14629114 0.83633339
0.017038478 -0.14713468 0.83599997
0.023611113 -0.14670509 0.83566666
0.027862962 -0.1472744 0.83588886
0.032683287 -0.14746974 0.83700001
0.037276875 -0.14807796 0.83785719
0.040751431 -0.14942192 0.83900005
0.012754287 -0.14428286 0.83700001
0.01756762 -0.14334287 0.83850008
0.023172382 -0.14462763 0.83900011
0.027956193 -0.14377111 0.8386668
0.032551907 -0.1431862 0.83875012
0.035957146 -0.14462763 0.83900005
0.04245048 -0.15138 0.84100002
0.047350477 -0.1514124 0.84266675
0.0020071429 -0.14571859 0.84300005
0.010437144 -0.14531715 0.84300005
0.038514763 -0.14603287 0.84250009
0.042292658 -0.14819741 0.84242857
0.0040142857 -0.14371143 0.84300005
0.006577333 -0.14389467 0.84219998
0.012032487 -0.14199249 0.84233338
0.016194476 -0.14126115 0.84180003
0.022430634 -0.14179637 0.84116668
0.028045079 -0.14102319 0.84133339
0.033260003 -0.14065048 0.84150004
0.03707486 -0.14267983 0.84260005
0.012845716 -0.13809143 0.84300005
0.016458573 -0.13849287 0.84300005
0.023604002 -0.13825202 0.84300005
0.028099999 -0.13809144 0.84300005
0.032581147 -0.13818611 0.84260005
0.036128573 -0.13889429 0.84300005
0.049090479 -0.15049049 0.84500003
0.051687624 -0.15264001 0.84800005
-0.001609524 -0.14646667 0.84500003
0.043457143 -0.14646669 0.84500003
0.047519054 -0.14738636 0.84566677
0.052033748 -0.14779431 0.84800011
-0.0013460319 -0.14402542 0.84800005
0.0024175514 -0.14273185 0.84671432
0.0075111119 -0.14190638 0.84500015
0.038628574 -0.1416381 0.84500003
0.042669844 -0.14249843 0.8453334
0.047649525 -0.14294858 0.84800005
0.050880004 -0.14375621 0.84800005
0.0040380955 -0.13891047 0.84800005
0.0072473022 -0.13772224 0.84566671
0.011427619 -0.13697049 0.84500009
0.017221907 -0.13664858 0.84500009
0.021728577 -0.13692451 0.84500015
0.02816667 -0.13600478 0.84500003
0.033397622 -0.13640715 0.84500003
0.038059287 -0.13753383 0.84575009
0.042770796 -0.13799302 0.84733343
0.0465727 -0.13917969 0.84800005
0.0080761909 -0.13406476 0.84800005
0.012106191 -0.13398525 0.84750009
0.016950002 -0.13398525 0.84750009
0.022665612 -0.13358413 0.84666669
0.027623452 -0.13328013 0.84687501
0.033112388 -0.13406476 0.84800005
0.037554286 -0.13446857 0.84800005
0.042803813 -0.13487239 0.84800005
0.056933336 -0.15534668 0.85400003
0.054323178 -0.15324128 0.85133338
0.056427147 -0.15142144 0.85250002
0.0542381 -0.14814287 0.85000002
0.056666672 -0.14733335 0.85000002
-0.0056888899 -0.14222096 0.85333341
-0.0027940741 -0.14210457 0.85155565
0.0013498415 -0.14069715 0.8506667
0.049380954 -0.14004762 0.85000002
0.052680958 -0.14264239 0.85100001
-0.0056933337 -0.13908 0.85400003
-0.002438307 -0.13730943 0.85311121
0.0022290475 -0.13684858 0.85150009
0.0056666671 -0.13519049 0.85000002
0.042904764 -0.13519049 0.85000002
0.047842726 -0.13703838 0.85142863
0.051240005 -0.13826668 0.85400003
-0.0016266668 -0.13338667 0.85400003
0.0024352381 -0.13312541 0.85233343
0.0073022228 -0.13199113 0.852
0.012154287 -0.13142745 0.85080004
0.017020002 -0.13129622 0.85100001
0.021553144 -0.13110363 0.85080004
0.028466668 -0.13257334 0.85400003
0.032804448 -0.13257334 0.85400003
0.038857147 -0.13357143 0.85000002
0.043005716 -0.13388573 0.85200012
0.046360005 -0.13420001 0.85400003
0.0089466674 -0.12932001 0.85400003
0.012200001 -0.12850669 0.85400003
0.017080002 -0.12850669 0.85400003
0.020875558 -0.12877779 0.85400003
0.058697149 -0.16060191 0.85600007
0.062773339 -0.16141716 0.85600007
0.066034287 -0.16060191 0.85600007
0.058888007 -0.15773982 0.85640001
0.062805511 -0.1574218 0.85644448
0.066686481 -0.15701486 0.85600007
0.05847175 -0.15365653 0.85666674
0.062920004 -0.15444002 0.85800004
0.066188574 -0.15444002 0.85800004
0.056251433 -0.14592762 0.85600007
0.054748576 -0.14136572 0.85800004
0.049729526 -0.13614477 0.85600007
0.052613813 -0.13744715 0.85650003
0.0032638097 -0.13140668 0.85700005
0.005706667 -0.13125335 0.85600007
0.012228572 -0.13125335 0.85600007
0.02690286 -0.13125335 0.85600013
0.031794287 -0.13166097 0.85600007
0.037047621 -0.13202898 0.85680002
0.04246572 -0.13229954 0.85749996
0.047774766 -0.1335243 0.85750002
0.051480003 -0.13482858 0.85800004
0.0073447623 -0.12895811 0.85699999
0.013859048 -0.12636191 0.85600007
0.017120002 -0.12636191 0.85600013
0.022408042 -0.12673862 0.8573333
0.026929367 -0.12729922 0.85683334
0.031349119 -0.12830968 0.8565715
0.036744129 -0.12982479 0.85733336
0.04494286 -0.12992573 0.85800004
0.016809145 -0.12419429 0.85680002
0.059883177 -0.15175748 0.86133337
0.063163817 -0.15257841 0.86133337
0.06634286 -0.15316191 0.86000001
0.058152385 -0.14660953 0.86000001
0.054876193 -0.14169525 0.86000001
0.056514289 -0.14497145 0.86000001
0.054057144 -0.13596192 0.86000001
0.055551112 -0.13655177 0.86200011
0.0032790478 -0.13038 0.86100006
0.041771434 -0.13022858 0.86000001
0.04832381 -0.13186668 0.86000007
0.051367622 -0.13243963 0.86160004
0.0041047623 -0.12888953 0.86200005
0.0065609524 -0.12791905 0.86100006
0.011973715 -0.12614515 0.86120003
0.032644194 -0.12647276 0.86120003
0.036924236 -0.12718116 0.86155558
0.041540194 -0.12823276 0.86200011
0.046423241 -0.12811315 0.86120003
0.013545714 -0.12273239 0.86200005
0.017462587 -0.12177116 0.86142862
0.022148574 -0.12222603 0.86133343
0.027077463 -0.12225799 0.86155564
0.032017149 -0.12314286 0.86200011
0.036532383 -0.12355334 0.86200005
0.017240001 -0.11903811 0.86200011
0.062609524 -0.15075715 0.86500007
0.065080956 -0.15075715 0.86500007
0.058490481 -0.1458143 0.86500007
0.06191355 -0.1477637 0.86677784
0.06601391 -0.14774381 0.86860001
0.057801913 -0.14284858 0.8670001
0.061243813 -0.14317811 0.86900008
0.057993721 -0.13828744 0.86740011
0.062307898 -0.13844886 0.86900008
0.053120952 -0.13183779 0.86700004
0.055800479 -0.13350525 0.86800003
0.0027536512 -0.12780699 0.86766672
0.0074177147 -0.12676021 0.86540002
0.042426191 -0.12645477 0.86500007
0.047369048 -0.12645477 0.86500007
0.050753333 -0.12832478 0.86650002
0.0024828573 -0.12497048 0.86900002
0.0078037032 -0.12294086 0.86766678
0.011373525 -0.12247411 0.86540002
0.032128572 -0.12110001 0.86500013
0.037418861 -0.12181506 0.86540002
0.042262599 -0.12242781 0.8670001
0.045826193 -0.12344144 0.86700004
0.0091038104 -0.11834953 0.86900002
0.012540002 -0.11752339 0.86736381
0.017080138 -0.11674192 0.86585724
0.022286035 -0.1172032 0.86666667
0.027388316 -0.11742433 0.86663646
0.032221433 -0.11731572 0.86750007
0.037018478 -0.11782666 0.86760008
0.040522225 -0.11825746 0.86833334
0.018455558 -0.1143108 0.86766672
0.022345718 -0.11338381 0.86900008
0.025597144 -0.11477429 0.86700004
0.063873336 -0.14516668 0.87100005
0.066361904 -0.14516668 0.87100005
0.063873336 -0.14267811 0.87100005
0.065947145 -0.14226335 0.87100005
0.058896195 -0.13521239 0.87100005
0.061384767 -0.13645667 0.87100005
0.053919051 -0.13023524 0.87100005
0.057787899 -0.1318298 0.87214297
0.060694288 -0.13386001 0.87300003
-0.00083142862 -0.12637715 0.87300003
0.0019355558 -0.12581113 0.87100005
0.048941907 -0.1252581 0.87100005
0.052616507 -0.12711018 0.87233347
0.056260005 -0.12831716 0.87300003
-0.00083142862 -0.12305143 0.87300003
0.0024898415 -0.12206403 0.871889
0.0063596833 -0.12083398 0.87100005
0.047657337 -0.12238306 0.87180007
0.050659053 -0.12290953 0.87200004
0.002494286 -0.11723144 0.87300009
0.0072638094 -0.11685525 0.87175012
0.01078381 -0.11530381 0.87100005
0.038158096 -0.11530381 0.87100005
0.042822454 -0.11684042 0.87185729
0.045728575 -0.11889429 0.87300003
0.0080336519 -0.11275366 0.87266678
0.012458309 -0.11212732 0.8721112
0.01722762 -0.11187334 0.87175012
0.022422861 -0.11128287 0.8720001
0.027406987 -0.11294445 0.8720001
0.03242572 -0.11224287 0.87300009
0.03741429 -0.11224286 0.87300009
0.04240286 -0.11224287 0.87300009
0.045728575 -0.11058 0.87300003
0.014134287 -0.10891715 0.87300003
0.017044287 -0.10850143 0.87300003
0.023002859 -0.10836287 0.87300003
0.025774287 -0.10891715 0.87300003
0.039077144 -0.10891715 0.87300003
0.041571431 -0.10891715 0.87300003
0.062644772 -0.13280287 0.87700003
0.054166671 -0.12583335 0.87500006
0.057629526 -0.12778954 0.87700003
-0.00083333341 -0.12083334 0.87500006
0.048333336 -0.12083334 0.87500006
0.052591432 -0.1231281 0.87650007
-0.00083333341 -0.11916667 0.87500006
0.047547355 -0.11761512 0.87585723
0.0031666667 -0.11283334 0.87500012
0.0066666668 -0.11166667 0.87500006
0.027500002 -0.11083334 0.87500012
0.042500004 -0.11250001 0.87500012
0.045990478 -0.11372191 0.87800002
0.0086196829 -0.10873588 0.87600005
0.012513063 -0.10760369 0.87585723
0.017858479 -0.10664516 0.87620002
0.021968257 -0.10817843 0.87600005
0.027833337 -0.10816667 0.87500012
0.032538097 -0.10845619 0.87600011
0.037243813 -0.10838783 0.8768
0.062953651 -0.13178033 0.88133335
0.058946036 -0.12711112 0.88000005
0.062647618 -0.1284381 0.88000005
0.054119051 -0.12166096 0.88100004
0.057916507 -0.12254572 0.88133335
0.06183302 -0.12310541 0.88133335
0.049000006 -0.11563873 0.88200009
0.052548762 -0.11751793 0.88140011
0.057675816 -0.11787392 0.88280004
0.061320003 -0.11844001 0.88200003
0.0041904766 -0.11146668 0.88000005
0.0058666673 -0.11146668 0.88000005
0.047988575 -0.11365715 0.88400006
0.0083895242 -0.10739905 0.88100004
0.011489525 -0.10563811 0.88266677
0.022332955 -0.1059581 0.88160008
0.027657144 -0.1064381 0.88000005
0.032711748 -0.10651874 0.88066673
0.037002861 -0.10680096 0.88300002
0.014280001 -0.105 0.88200003
0.017640002 -0.105 0.88200009
0.024304764 -0.10476191 0.88000005
0.027679369 -0.10484128 0.88066673
0.031920001 -0.105 0.88200003
0.054909527 -0.11573239 0.88700002
0.056599051 -0.11573239 0.88700002
0.0059266672 -0.11091334 0.88900006
0.049351435 -0.11308541 0.88833332
0.052493334 -0.11430001 0.88900006
