# .PCD v0.7 - Point Cloud Data file format
VERSION 0.7
FIELDS x y z
SIZE 4 4 4
TYPE F F F
COUNT 1 1 1
WIDTH 717
HEIGHT 1
VIEWPOINT 0 0 0 1 0 0 0
POINTS 717
DATA ascii
-0.025266668 -0.066415243 0.75800002
-0.022379048 -0.06641525 0.75800002
-0.017806984 -0.066174611 0.75800002
-0.012272382 -0.065693341 0.75800008
-0.0072190478 -0.065693341 0.75800002
-0.0021631748 -0.065577783 0.75666666
0.0021600001 -0.065520003 0.75600004
0.0072061908 -0.065563336 0.75650001
0.010828572 -0.065693341 0.75800002
-0.025627621 -0.063166678 0.75800002
-0.022360634 -0.062750489 0.75733328
-0.017290954 -0.06268239 0.75650012
-0.012253968 -0.062714927 0.75688887
-0.0072077783 -0.062710322 0.75683343
-0.0021576721 -0.062566563 0.75511116
0.0021571431 -0.062557139 0.75500005
0.0071953181 -0.062591836 0.75541675
0.012255662 -0.062714078 0.75688893
0.015160001 -0.062805727 0.75800008
-0.022018095 -0.059557147 0.75800002
-0.016950477 -0.058301598 0.7573334
-0.012253812 -0.057661742 0.75683343
-0.0072034523 -0.057627503 0.75637507
-0.0021576192 -0.057536043 0.75516677
0.0021578574 -0.057542145 0.7552501
0.0072017261 -0.05760387 0.75606263
0.011649525 -0.058451705 0.75771433
-0.010828572 -0.054142863 0.75800002
-0.0072190482 -0.054142863 0.75800002
-0.0024510478 -0.053479623 0.75680006
0.002163175 -0.054047626 0.75666666
0.0072190482 -0.054142863 0.75800002
-0.032336667 -0.07085 0.76300001
-0.027585953 -0.071144052 0.76225007
-0.022505715 -0.070425086 0.76233339
-0.012353335 -0.070486672 0.76300001
-0.0021800003 -0.07048668 0.76300001
0.0021800003 -0.07048668 0.76300001
0.007697715 -0.070740387 0.76260006
0.010900001 -0.070486672 0.76300001
-0.03249786 -0.067716911 0.76250005
-0.027958004 -0.067503713 0.76050013
-0.022457145 -0.068822227 0.76066673
-0.016934607 -0.068460323 0.76200002
-0.012329049 -0.068173811 0.76150006
-0.0072523812 -0.068173811 0.7615
-0.0021742859 -0.068127632 0.7610001
0.0021734922 -0.068112865 0.76083338
0.0072428575 -0.068083338 0.76050007
0.012510953 -0.067629769 0.76150006
0.016863281 -0.067208894 0.76244444
-0.031610005 -0.063583329 0.76300001
-0.028149288 -0.061972778 0.76108348
0.017903592 -0.062181398 0.76123089
0.021073334 -0.062493335 0.76300001
-0.026442314 -0.057548713 0.76214296
-0.022641905 -0.057055242 0.76075006
-0.018457144 -0.056095243 0.76000005
0.013191049 -0.05696515 0.76100004
0.016277554 -0.057537694 0.76200014
-0.021557778 -0.054015558 0.76300001
-0.01721218 -0.052565925 0.76207143
-0.012451775 -0.051977318 0.7609092
-0.007249048 -0.051467784 0.76116675
-0.0019311112 -0.051171117 0.76033342
0.0021726985 -0.051419895 0.76044452
0.0072501595 -0.051468417 0.76116675
0.011964048 -0.054012619 0.76125002
-0.0029023811 -0.049314767 0.7615
0.0021800003 -0.048686668 0.76300001
0.0050866669 -0.048686668 0.76300001
-0.044617146 -0.082651436 0.76800001
-0.041258506 -0.077398643 0.76771438
-0.037234686 -0.077390403 0.76658338
-0.032882143 -0.076542862 0.76725006
-0.027761549 -0.075982504 0.76712501
-0.022674289 -0.075337157 0.76800001
-0.017554287 -0.075337149 0.76800001
-0.012431588 -0.076052234 0.76783341
-0.0073114294 -0.076044045 0.76775008
-0.0021933336 -0.076767303 0.7676667
0.0020113096 -0.076604888 0.76787508
0.0068266666 -0.075824767 0.76800007
0.012434286 -0.075922288 0.76800007
0.017310476 -0.076312385 0.76800007
0.022381715 -0.075922288 0.76800007
-0.040228575 -0.072411433 0.76800001
-0.037196405 -0.072201699 0.76577783
-0.033077147 -0.073002867 0.76500005
-0.027685715 -0.073585719 0.76500005
-0.022615239 -0.072953343 0.76600003
-0.017513573 -0.072247863 0.76625007
-0.012402382 -0.072406434 0.76599997
-0.0072966674 -0.072239846 0.76616669
-0.0021869843 -0.072921276 0.76566672
0.0021885717 -0.072953343 0.76600003
0.0069888444 -0.073112398 0.76657146
0.012588334 -0.072430484 0.76624995
0.017526748 -0.072294846 0.76675004
0.022661377 -0.072370164 0.76755565
0.027794287 -0.07241144 0.76800007
-0.036201268 -0.067542545 0.76533335
-0.034242861 -0.066300005 0.76500005
0.019202858 -0.068788894 0.76566672
0.02276217 -0.067355417 0.76645452
0.02757776 -0.067586467 0.76778573
0.03145143 -0.068754286 0.76800001
-0.035824448 -0.062143814 0.7676667
-0.033371311 -0.062181316 0.76587498
0.022817502 -0.062242027 0.76662505
0.025907382 -0.062394526 0.76625007
-0.032392226 -0.058206514 0.76716673
-0.029304191 -0.057295054 0.76540005
0.019109143 -0.057325151 0.76580006
0.022470001 -0.057725005 0.76725006
0.026178479 -0.057474863 0.76780003
-0.026546508 -0.053822383 0.76716673
-0.022802025 -0.05216869 0.76612502
-0.018942859 -0.050271433 0.76500005
0.012412519 -0.051834565 0.76657146
0.017037462 -0.054274287 0.76666677
0.02265262 -0.054438338 0.76725
-0.017234832 -0.048360549 0.76771438
-0.012209933 -0.047897555 0.76700008
-0.0071582869 -0.047772378 0.76700008
-0.0020057145 -0.047220003 0.76575011
0.0021900001 -0.046718575 0.7665
0.006864191 -0.048039813 0.76660007
-0.0024862858 -0.044020381 0.76780003
-0.043416195 -0.086833343 0.77266669
-0.037528891 -0.086097151 0.77266669
-0.034600955 -0.086134292 0.77300006
-0.016196191 -0.086134292 0.77300006
-0.01398762 -0.086134292 0.77300006
-0.042372819 -0.08294598 0.77072728
-0.037453547 -0.082987517 0.77111107
-0.032656666 -0.082820863 0.77230012
-0.027512385 -0.080771431 0.77240008
-0.022626787 -0.081494175 0.77262503
-0.017828209 -0.082914069 0.7725386
-0.01268893 -0.082938939 0.77237499
-0.0073561119 -0.081656128 0.77241671
-0.0024175511 -0.082077421 0.77242869
0.0022066669 -0.083118416 0.77233338
0.0073563103 -0.082387388 0.77237505
0.012327381 -0.081875242 0.77275002
0.017900953 -0.082149424 0.77244443
0.022808997 -0.082161166 0.77255559
0.027018644 -0.081266806 0.77271438
0.032089911 -0.08199086 0.77280015
-0.0430732 -0.07828518 0.77028579
-0.032022227 -0.079444453 0.7700001
-0.027133336 -0.078466669 0.7700001
-0.022733334 -0.077733338 0.7700001
-0.0174 -0.078333341 0.77000004
-0.012466668 -0.0792 0.7700001
-0.0073333341 -0.078466669 0.77000004
-0.0014666668 -0.079933338 0.77000004
0.0025666668 -0.079566672 0.77000004
0.007822223 -0.077977791 0.7700001
0.012760001 -0.078466669 0.77000004
0.017600002 -0.0792 0.7700001
0.022733336 -0.078466676 0.77000004
0.027141167 -0.077022649 0.77022225
0.032144446 -0.077611119 0.7700001
-0.041895956 -0.073500238 0.77175003
0.032266669 -0.072600007 0.7700001
-0.040411904 -0.067596674 0.77149999
-0.038428262 -0.067064449 0.77100009
0.028600002 -0.065266669 0.77000004
0.032091115 -0.066631429 0.77166671
-0.040490478 -0.064048573 0.77300006
-0.03786524 -0.062861905 0.77200001
0.027930716 -0.062475003 0.77175003
0.030920001 -0.064048573 0.77300006
-0.036739528 -0.059515718 0.77150005
-0.032813653 -0.056074612 0.7713334
-0.030661589 -0.053227942 0.77266669
-0.027664926 -0.05165508 0.77116674
-0.024200002 -0.050600003 0.77000004
0.013969525 -0.050731432 0.77200001
0.017146353 -0.052177783 0.77166671
0.021266667 -0.053533338 0.77000004
-0.022439525 -0.048924766 0.77250004
-0.018050287 -0.046517339 0.77039999
-0.013200001 -0.046200003 0.77000004
-0.0080666672 -0.046200003 0.77000004
0.0077235717 -0.047437862 0.77225006
0.012515239 -0.049324766 0.77300012
-0.017224861 -0.043576669 0.7729001
-0.012505081 -0.042660959 0.77233338
-0.0073492071 -0.043358415 0.77166677
-0.0017128573 -0.041617308 0.77116674
0.002041905 -0.043201488 0.77177787
0.0051533338 -0.04417143 0.77300006
-0.0022085716 -0.039018098 0.77300006
-0.045081906 -0.091642864 0.77600002
-0.042288579 -0.091254294 0.77900004
-0.037837144 -0.091254294 0.77900004
-0.03239651 -0.091254294 0.77900004
-0.028192382 -0.091254294 0.77900004
-0.021515241 -0.091254294 0.77900004
-0.046500005 -0.086357147 0.77500004
-0.042106986 -0.08864826 0.77566671
-0.037738733 -0.088800639 0.77700007
-0.032380871 -0.088258453 0.77754545
-0.027267242 -0.087878488 0.77800006
-0.022673147 -0.088322878 0.77800006
-0.018244764 -0.087530158 0.77666664
-0.012290477 -0.087514095 0.77740002
-0.0074111908 -0.087461203 0.7782501
-0.0020385715 -0.088017158 0.7782501
0.0017282541 -0.087680638 0.77800006
0.0077261231 -0.087311439 0.77785718
0.012596192 -0.087433338 0.77800006
0.017324764 -0.08795888 0.77740002
0.022661336 -0.088129535 0.77760005
0.027392386 -0.087357782 0.77733338
0.032429907 -0.086921342 0.77740002
0.036353335 -0.086060956 0.77900004
-0.046500005 -0.084880956 0.77500004
-0.031000003 -0.084880956 0.77500004
-0.027309528 -0.083650798 0.77500004
-0.023250001 -0.084511906 0.77500004
-0.01107143 -0.084880956 0.77500004
-0.0073809531 -0.084880956 0.77500004
-0.002214286 -0.084880963 0.77500004
0.01254762 -0.084880963 0.77500004
0.017714286 -0.084880956 0.77500004
0.023619048 -0.084880956 0.77500004
0.027604764 -0.084290482 0.77500004
0.032476194 -0.084880956 0.77500004
-0.045256194 -0.071964763 0.77900004
-0.043030478 -0.071964763 0.77900004
-0.041440003 -0.062900007 0.77700001
-0.039220002 -0.06141746 0.77700007
0.028785717 -0.061261907 0.77500004
0.031000003 -0.061999999 0.77500004
-0.036753338 -0.057965405 0.77700007
-0.034869526 -0.055642862 0.77900004
0.028343176 -0.059395246 0.77633333
0.030806035 -0.059395246 0.77633333
-0.032643404 -0.052290481 0.77642864
0.019203335 -0.051699527 0.7755
0.021954607 -0.051552068 0.77700007
-0.031335719 -0.048022382 0.77875006
-0.027380956 -0.047358416 0.77700007
-0.023080716 -0.046344526 0.77550006
0.0084142862 -0.045614291 0.77500004
0.012551641 -0.046512917 0.7752223
0.016537251 -0.047632914 0.77744448
0.02003143 -0.049707621 0.77900004
-0.026461272 -0.043277781 0.77900004
-0.022974078 -0.042239901 0.77811116
-0.018469526 -0.041368894 0.77566671
-0.0073809531 -0.040595241 0.77500004
-0.0036904765 -0.040595241 0.77500004
0.0027063494 -0.041087307 0.77500004
0.0075886589 -0.041966151 0.77554548
0.012595239 -0.04222741 0.77788895
0.016321907 -0.043772385 0.77900004
-0.021218477 -0.038133908 0.77900004
-0.017316764 -0.037887242 0.77700001
-0.012562435 -0.037684765 0.77588892
-0.0073961909 -0.037722543 0.77666664
-0.0022190479 -0.037529286 0.77649999
0.0022180954 -0.037706349 0.77633333
0.0074047623 -0.037755243 0.77733338
0.012241429 -0.038950004 0.77900004
-0.016321907 -0.034869526 0.77900004
-0.012596192 -0.03408286 0.77800006
-0.0079136509 -0.034374923 0.77900004
-0.0022231748 -0.034809846 0.77766669
0.0025205715 -0.034258097 0.77860004
0.0063028578 -0.034476195 0.77850002
-0.042560004 -0.096320003 0.7840001
-0.037184007 -0.096618675 0.78400004
-0.032106668 -0.096320003 0.7840001
-0.027626667 -0.097066671 0.78400004
-0.022703132 -0.096889801 0.78342861
-0.016800001 -0.096693337 0.78400004
-0.012992001 -0.096917339 0.78400004
-0.0097066676 -0.096320003 0.78400004
-0.0016426668 -0.097514674 0.78400004
0.0022400003 -0.097066671 0.78400004
0.0070160008 -0.096569531 0.78360003
0.012693334 -0.096320003 0.7840001
0.01568 -0.096320003 0.78400004
-0.042397149 -0.093720965 0.78100008
-0.037543405 -0.093912929 0.78171438
-0.032552145 -0.093379289 0.78125012
-0.027303677 -0.093385316 0.78085726
-0.022558732 -0.093459897 0.78088892
-0.017129527 -0.093097784 0.78200012
-0.012667303 -0.09315028 0.78244442
-0.0076645892 -0.093133688 0.7834546
-0.0022355556 -0.093096517 0.78200001
0.0022334394 -0.093043178 0.78155559
0.007447937 -0.09309715 0.78199995
0.012664128 -0.093123816 0.78222227
0.017129526 -0.093097784 0.78200006
0.022357939 -0.09315668 0.78249997
0.027383134 -0.092380144 0.78314292
0.032079365 -0.092757896 0.7833333
-0.017085716 -0.089885727 0.78000009
-0.012628573 -0.089885727 0.78000009
-0.007428572 -0.089885719 0.78000003
-0.003714286 -0.089885719 0.78000003
0.003219048 -0.089390479 0.78000009
0.0069828578 -0.089588575 0.78000003
0.012628573 -0.089885727 0.78000009
0.020057144 -0.089885719 0.78000003
0.026742859 -0.089885719 0.78000003
0.033180952 -0.089142859 0.78000009
-0.046980955 -0.073452383 0.78299999
-0.043518096 -0.071866035 0.78333342
-0.04554667 -0.069440007 0.78400004
-0.043057781 -0.068444453 0.7840001
-0.045920003 -0.0616 0.78400004
-0.042796619 -0.062166352 0.78222221
-0.041413814 -0.057829056 0.78350008
-0.038463812 -0.056825086 0.78166676
-0.041066669 -0.054506671 0.78400004
-0.037685081 -0.052590482 0.78266668
-0.034914289 -0.052000001 0.78000003
0.024514288 -0.051257145 0.78000003
0.027580954 -0.050685715 0.78266668
0.030613335 -0.050773337 0.78400004
-0.035561275 -0.047744766 0.78333342
-0.033100002 -0.046486668 0.78100002
0.018587302 -0.046838738 0.78066671
0.022161216 -0.048181996 0.78272736
0.030613335 -0.048533335 0.78400004
-0.031623676 -0.042694699 0.78257149
-0.027980957 -0.041847624 0.78000009
0.017351296 -0.042041909 0.78228581
0.020160001 -0.044053335 0.78400004
-0.030613335 -0.038826667 0.78400004
-0.027453164 -0.037482597 0.78290915
-0.023624048 -0.036829289 0.78125006
0.012835477 -0.036270719 0.78125006
0.016717553 -0.038222861 0.78257149
0.020160001 -0.039573334 0.78400004
-0.021866668 -0.034038097 0.78266668
-0.017292 -0.032344956 0.78260005
-0.012650794 -0.031252068 0.78133339
-0.007143429 -0.031700768 0.78140002
-0.0022334394 -0.03200487 0.78155565
0.0020234017 -0.031609256 0.78228581
0.007341498 -0.032885447 0.78228581
0.011946667 -0.033600003 0.78400004
-0.012693334 -0.029120004 0.7840001
-0.0082133347 -0.029120004 0.7840001
-0.0014933334 -0.029120002 0.78400004
0.0014933334 -0.029120002 0.78400004
-0.038322859 -0.10595144 0.78900003
-0.01653143 -0.10595144 0.78900003
-0.042026669 -0.10206477 0.78800005
-0.037523974 -0.10281589 0.78800011
-0.032238625 -0.10271568 0.78722233
-0.027736509 -0.10270097 0.78711116
-0.022825144 -0.10256783 0.78840011
-0.017263811 -0.10283039 0.78811115
-0.012765503 -0.10287387 0.78844446
-0.0077138534 -0.10273863 0.78845459
-0.0020639286 -0.10261274 0.78787506
0.0020379596 -0.10240588 0.78814298
0.00751362 -0.1026323 0.78890008
0.012770479 -0.10291716 0.78877783
0.017277991 -0.10291716 0.78877783
0.022089429 -0.10278258 0.78890008
-0.042668574 -0.09881144 0.78600001
-0.037535515 -0.098918386 0.78600001
-0.032188572 -0.09881144 0.78600001
-0.027697146 -0.099560007 0.78600001
-0.022034479 -0.099387243 0.78700006
-0.017516574 -0.098961152 0.78600001
-0.01235143 -0.09918572 0.78600001
-0.0071114292 -0.097938113 0.78600013
-0.0029942859 -0.098437153 0.78600001
0.0022457144 -0.099560007 0.78600001
0.0078242188 -0.099134974 0.78771436
0.012741907 -0.098938107 0.78700006
0.017432144 -0.098407388 0.78725004
0.02249524 -0.098230481 0.78733343
0.027894463 -0.097734809 0.7877273
0.030730478 -0.095940009 0.78700006
0.029194288 -0.093571432 0.78600001
-0.050154287 -0.072611436 0.78600001
-0.047580719 -0.071556434 0.78675002
-0.046898216 -0.067532502 0.78787506
-0.043666672 -0.067620955 0.78600001
-0.047160003 -0.062880002 0.78600001
-0.046066195 -0.058050003 0.78650004
-0.043589339 -0.057369143 0.78640002
-0.045793574 -0.052549291 0.78825003
-0.04291429 -0.052327283 0.78800011
-0.039175242 -0.051152386 0.78600001
-0.04181207 -0.048321273 0.78866673
-0.03865483 -0.047004767 0.78700012
0.023595717 -0.046066195 0.78650004
0.02773672 -0.047225401 0.78711116
0.030769525 -0.045779049 0.78800005
-0.036351975 -0.042998783 0.78814292
-0.033685718 -0.041920003 0.78600001
0.022132859 -0.042950239 0.78775001
0.02780286 -0.044334289 0.78900003
0.030808574 -0.044334289 0.78900003
-0.035317145 -0.039825715 0.78900003
-0.0322356 -0.037481789 0.78712505
-0.029194288 -0.03518286 0.78600001
0.01783905 -0.03612591 0.78700006
0.020780955 -0.038306668 0.78866673
-0.027563572 -0.032436427 0.78750002
-0.022472382 -0.031459525 0.7865001
0.0085428571 -0.031321526 0.78680009
0.012760572 -0.032277528 0.78820008
0.017255558 -0.033757146 0.78766674
-0.021772791 -0.028420683 0.78828585
-0.017227301 -0.02771196 0.78644454
-0.012735875 -0.026970796 0.78666675
-0.0072438098 -0.027228151 0.78688896
-0.002462313 -0.027288983 0.78657156
0.0024623133 -0.027288979 0.78657156
0.0073051956 -0.027919397 0.78845459
0.011271429 -0.029305717 0.78900003
-0.01677159 -0.023779843 0.78850007
-0.013071239 -0.024189716 0.78880006
-0.0086414292 -0.024421431 0.78900003
-0.0015028572 -0.024797145 0.78900003
0.0022539685 -0.02478667 0.78866673
0.0060114292 -0.024797145 0.78900003
-0.020391431 -0.11555143 0.79300004
-0.035496194 -0.11102001 0.79300004
-0.032777335 -0.1116242 0.79300004
-0.028699048 -0.11102001 0.79300004
0.013846032 -0.1115235 0.7930001
0.017025335 -0.11134267 0.79100001
-0.042681333 -0.10693163 0.79179996
-0.037447095 -0.10832053 0.79166669
-0.032411538 -0.10778805 0.79144442
-0.02810619 -0.10770953 0.7922501
-0.022115558 -0.10681304 0.79166669
-0.017736191 -0.10755429 0.79250002
-0.012822858 -0.10710953 0.792
-0.0075366669 -0.10628715 0.79149997
-0.0022631749 -0.10630953 0.79166669
0.0015066668 -0.10622001 0.79100001
0.0086097149 -0.10739487 0.79300004
0.012824234 -0.10787885 0.79211122
0.017331112 -0.10775694 0.79122216
0.022014074 -0.10739186 0.79099995
-0.042976193 -0.10379715 0.79166669
-0.021093335 -0.10471334 0.79100001
-0.0052733338 -0.10471334 0.79100001
-0.0037666669 -0.10471334 0.79100001
0.0030133335 -0.10471334 0.79100001
0.0075333337 -0.10471334 0.79100001
0.024860002 -0.10396001 0.79100001
0.027371114 -0.10270446 0.79100001
-0.052268337 -0.071514055 0.79250002
-0.051104452 -0.066712707 0.7930001
-0.04904921 -0.067160964 0.79233336
-0.049090479 -0.064195246 0.79300004
-0.050600957 -0.055887625 0.79300004
-0.04827524 -0.056570482 0.79200006
-0.047460005 -0.054240003 0.79100001
-0.045953337 -0.048966669 0.79100001
-0.043263052 -0.047181912 0.79139996
-0.040782861 -0.043048576 0.79300004
-0.038820956 -0.042211909 0.79149997
0.024137147 -0.041484766 0.792
0.02759943 -0.042379241 0.79180002
0.030886669 -0.042940002 0.79100001
-0.036063813 -0.037873339 0.79220003
-0.033900004 -0.03616 0.79100001
0.021880573 -0.036969338 0.79220003
-0.031442225 -0.033453654 0.79233336
-0.029380001 -0.030886669 0.79100001
0.013560001 -0.030886669 0.79100001
0.016972858 -0.032057621 0.79200006
0.020391431 -0.033985715 0.79300004
-0.026996765 -0.0282021 0.79180002
-0.023667241 -0.026982669 0.79139996
0.0097933337 -0.026366668 0.79100001
0.012815375 -0.027892385 0.7915715
0.015860001 -0.028699048 0.79300004
-0.021372065 -0.023885082 0.79200006
-0.017713334 -0.021859527 0.79150003
-0.012605308 -0.021438234 0.79185712
-0.0073902863 -0.022320002 0.79180002
-0.0024790477 -0.022954967 0.79214293
0.0022600002 -0.023353335 0.79100007
0.0072178245 -0.023377554 0.79185718
0.011328572 -0.024922859 0.79300004
-0.01208381 -0.018880954 0.79300004
-0.021957144 -0.11584286 0.79500002
-0.018928573 -0.11660001 0.79500002
-0.0022790479 -0.11623144 0.79766673
0.0022796828 -0.11623144 0.79766673
0.0075969053 -0.11624357 0.79775
0.011385715 -0.11613429 0.79700005
-0.035720002 -0.11324001 0.79800004
-0.032178573 -0.11395 0.79500002
-0.027797962 -0.11324695 0.79500002
-0.022790698 -0.11266807 0.79561543
-0.017290002 -0.11269478 0.79630005
-0.013349117 -0.11167974 0.79771435
-0.0072180955 -0.11182366 0.79783338
-0.0022788893 -0.11240986 0.79750001
0.0022789687 -0.11242214 0.79758334
0.007440954 -0.11252896 0.79726666
0.011750001 -0.11295715 0.796
-0.026500002 -0.10978572 0.79500002
-0.023168573 -0.10918001 0.79500002
-0.01817143 -0.10978572 0.79500002
-0.0075747622 -0.10833953 0.79550004
-0.0022746034 -0.10836223 0.79566669
0.0026523811 -0.10796095 0.79550004
0.0068185721 -0.10796095 0.79550004
-0.055456828 -0.067612395 0.79766673
-0.052836508 -0.067752384 0.79633331
-0.051424384 -0.063255243 0.79640001
-0.049214289 -0.062085718 0.79500002
-0.050728574 -0.059057146 0.79500002
-0.049214289 -0.059057146 0.79500002
-0.046330959 -0.047090001 0.79750001
-0.044840004 -0.046360005 0.79800004
-0.042270288 -0.042269524 0.79540008
0.024985716 -0.040128574 0.79500002
0.028438335 -0.04057024 0.79625005
0.031101432 -0.040961429 0.79650003
-0.040254764 -0.037975717 0.79750001
-0.038075816 -0.036860578 0.79640007
0.023500953 -0.036387622 0.796
0.026590751 -0.037877552 0.79771429
0.031160003 -0.038760003 0.79800004
-0.036088813 -0.033049285 0.79775
-0.03312429 -0.032111589 0.79650009
0.018195238 -0.031081907 0.796
0.022005308 -0.032626532 0.79671437
0.027025035 -0.03353633 0.79771435
-0.031653654 -0.029120956 0.79766673
-0.028590478 -0.026818097 0.79700011
0.014403811 -0.025774287 0.796
0.017631643 -0.027247515 0.7972222
0.020880241 -0.028472621 0.79725009
0.025840001 -0.029640002 0.79800004
-0.025832145 -0.022792621 0.79775006
-0.022862723 -0.021994425 0.79642862
-0.01817143 -0.020442858 0.79500002
-0.0060571432 -0.020442858 0.79500002
-0.0022746034 -0.020460002 0.79566669
0.0022726986 -0.021217145 0.79566669
0.0083419057 -0.021338098 0.79614294
0.012735768 -0.022516934 0.79700005
0.01596 -0.023560002 0.79800004
-0.022031432 -0.018992065 0.79766673
-0.017458096 -0.018976193 0.79700011
-0.012901906 -0.017962858 0.79700005
-0.0075895246 -0.018216191 0.79699999
-0.0022774152 -0.017891023 0.79700011
0.0022785717 -0.018228095 0.79750007
0.0070907939 -0.018232064 0.79766673
0.011400001 -0.019000001 0.79800004
-0.0084228581 -0.12021715 0.80400002
-0.035809524 -0.11504763 0.80000001
-0.016761906 -0.11733335 0.80000001
-0.012834115 -0.11772971 0.80127275
-0.0077393204 -0.11750259 0.80114293
-0.0030476192 -0.11809525 0.80000001
-0.012444446 -0.11301588 0.80000007
-0.0099047627 -0.11352382 0.80000001
-0.04604445 -0.044008892 0.80133337
-0.043428577 -0.04266667 0.80000001
-0.04119524 -0.037381906 0.801
0.028495241 -0.036419045 0.80000001
0.031238098 -0.036571428 0.80000001
-0.040582858 -0.032925718 0.80400008
-0.038286481 -0.032489147 0.80080003
0.023619048 -0.031238098 0.80000001
0.025904763 -0.031238098 0.80000001
-0.037159242 -0.029205715 0.8028
-0.033025004 -0.027105 0.80175006
-0.029714288 -0.02514286 0.80000001
0.01909524 -0.025205716 0.80200005
0.022518573 -0.027860478 0.80150002
0.026034288 -0.028331431 0.80400002
-0.031394288 -0.023737144 0.80400002
-0.028263334 -0.021768097 0.80200005
0.014476191 -0.020571429 0.80000001
0.017271621 -0.022466287 0.80240005
-0.02636905 -0.018724287 0.80250001
-0.0221327 -0.016789205 0.80133337
-0.017545715 -0.016781908 0.80100006
-0.013349525 -0.016400954 0.801
-0.0076223817 -0.016010001 0.80049998
-0.0022857145 -0.016000001 0.80000001
0.0022857145 -0.016000001 0.80000007
0.0081422236 -0.016788572 0.80133337
0.012995556 -0.018600635 0.80266666
-0.022205716 -0.014548573 0.80400002
-0.016845714 -0.014548573 0.80400002
-0.012251429 -0.014548573 0.80400002
-0.0073259869 -0.013887076 0.80371433
-0.0022929101 -0.012986667 0.80222219
0.0022946033 -0.013001483 0.80311108
0.0059664766 -0.013308954 0.80319995
-0.002297143 -0.0099542867 0.80400002
0.003809524 -0.003809524 0.80000001
-0.046085238 -0.041476671 0.80650008
-0.043754287 -0.040683813 0.80600005
-0.045401908 -0.039245717 0.80800003
-0.043040954 -0.037660956 0.80700004
-0.050019052 -0.03001143 0.80800003
-0.042323813 -0.034628574 0.80800003
-0.050019052 -0.027702859 0.80800003
-0.048480004 -0.027702859 0.80800003
-0.040683813 -0.029937144 0.80600005
-0.037660003 -0.026642859 0.8070001
-0.034542859 -0.02533143 0.80600005
0.023057144 -0.026130477 0.80700004
0.026131431 -0.026130477 0.80700004
-0.036167622 -0.023855239 0.80800003
-0.033231191 -0.022088811 0.80675006
0.018422857 -0.021493334 0.80600005
-0.031550478 -0.01872508 0.80800003
-0.027668891 -0.01716413 0.8070001
0.013072382 -0.0171727 0.80733341
0.016160002 -0.019238096 0.80800003
-0.026163811 -0.014620953 0.80800003
-0.022114499 -0.012550053 0.80688894
-0.017674286 -0.012037885 0.806889
-0.01292433 -0.011665456 0.80690914
-0.007790749 -0.011302042 0.8065716
0.00844381 -0.013433334 0.80600005
0.011542858 -0.014620953 0.80800003
-0.011542859 -0.0084647629 0.80800003
-0.0069214287 -0.0088433335 0.8075
-0.0019640212 -0.0077710054 0.8071112
0.0023033335 -0.0076804766 0.80650008
0.0053822226 -0.0084565086 0.80733341
0.0023028573 -0.0038380956 0.80600005
-0.047158375 -0.037437014 0.81171441
-0.043971431 -0.036257144 0.81000006
-0.046735242 -0.033306669 0.81333339
-0.043173715 -0.032649525 0.81240004
-0.040986668 -0.027840002 0.81200004
-0.039342858 -0.025457144 0.81000006
-0.037590165 -0.022399049 0.81100005
0.019285716 -0.020828573 0.81000006
0.022240238 -0.022625476 0.81225014
0.026099686 -0.022998732 0.81400001
-0.037165716 -0.018581906 0.81300008
-0.033030719 -0.017189763 0.81124997
0.013903811 -0.01622 0.81100005
0.017981429 -0.017592382 0.81200004
0.02093143 -0.01783048 0.81400001
-0.031378575 -0.014332859 0.81350005
-0.027075002 -0.012375001 0.81225008
-0.023142859 -0.010028572 0.81000006
-0.019285716 -0.010028572 0.81000006
0.0079784133 -0.010551113 0.81066674
0.012171604 -0.012450737 0.8125456
0.01705524 -0.014729525 0.81400001
-0.022096002 -0.0078796204 0.81120008
-0.01775746 -0.007720001 0.81066674
-0.012627513 -0.0064408472 0.81177789
-0.0069577782 -0.0061825402 0.81166685
-0.0038571432 -0.0061714286 0.81000006
0.0074768262 -0.0079911118 0.81200004
0.010853333 -0.0085276198 0.81400001
-0.0023187303 -0.0038666669 0.81200004
0.00077333336 -0.0038666669 0.81200004
-0.050452385 -0.036480956 0.81500006
-0.050493654 -0.033403497 0.81566668
-0.04758466 -0.03238466 0.81611115
-0.044242859 -0.03104762 0.81500006
-0.046463814 -0.028293019 0.81766671
-0.042984765 -0.027188256 0.81566679
-0.041654289 -0.02296667 0.81750005
-0.039585717 -0.021733334 0.81500006
0.024061907 -0.020957144 0.81500006
0.026423812 -0.022539049 0.81600004
-0.041340001 -0.0195 0.81900007
-0.038751435 -0.017274477 0.81700009
0.023285715 -0.018628573 0.81500006
0.025614288 -0.018628573 0.81500006
-0.035814762 -0.013235715 0.8175
-0.03237725 -0.011826773 0.81588894
-0.027942859 -0.010090477 0.81500006
0.01474762 -0.011642857 0.81500006
0.017866351 -0.012946032 0.81566679
0.020957144 -0.01474762 0.81500006
-0.030345716 -0.0085590482 0.81700003
-0.026935428 -0.007939239 0.8174001
-0.022940952 -0.0058314288 0.81650007
-0.017852381 -0.0054333336 0.81500006
0.010866667 -0.0069857147 0.81500006
-0.0163 -0.0038809527 0.81500006
-0.012419049 -0.0038809527 0.81500006
-0.0066138101 -0.0035004765 0.81700003
-0.0038809527 -0.0023285716 0.81500006
-0.046970479 -0.026616193 0.82200003
-0.044568576 -0.025802858 0.82100004
-0.046244767 -0.023514286 0.82300001
-0.044007432 -0.022394096 0.8222
-0.042325716 -0.018811431 0.82300001
-0.036749527 -0.012249842 0.82100004
-0.048834287 -0.025991431 0.82700002
-0.047593813 -0.022418572 0.82600003
-0.046581909 -0.019738097 0.82900006
-0.043249212 -0.018086035 0.82566679
-0.040071432 -0.014928573 0.82500005
0.014177144 -0.010239048 0.82700002
-0.049860004 -0.023742858 0.83100003
-0.051720005 -0.055824764 0.86200005
