# .PCD v0.7 - Point Cloud Data file format
VERSION 0.7
FIELDS x y z
SIZE 4 4 4
TYPE F F F
COUNT 1 1 1
WIDTH 242
HEIGHT 1
VIEWPOINT 0 0 0 1 0 0 0
POINTS 242
DATA ascii
-0.20626669 0.079980955 0.88400006
-0.20121525 0.079980955 0.88400006
-0.19953144 0.079980955 0.88400006
-0.20626669 0.081664771 0.88400006
-0.203144 0.082300581 0.88360006
-0.19953144 0.081664771 0.88400006
-0.21082002 0.078740008 0.88900006
-0.2071235 0.078621916 0.8876667
-0.20174155 0.077956386 0.88780004
-0.19786116 0.077688575 0.88859999
-0.21034573 0.080252387 0.88700002
-0.20696668 0.080252387 0.88700002
-0.20358764 0.080252387 0.88700002
-0.19712414 0.080373019 0.88833332
-0.27501145 0.055342861 0.89400005
-0.2112243 0.072248578 0.89250004
-0.20836478 0.073991433 0.89300007
-0.20230144 0.073950008 0.89250004
-0.21129429 0.076371431 0.89100003
-0.20771183 0.07636001 0.89228576
-0.20280857 0.076088578 0.89100003
-0.19737144 0.076740958 0.89200002
-0.19321358 0.078557864 0.89175004
-0.18986858 0.079182863 0.89400005
-0.19275145 0.0819849 0.89271438
-0.18816572 0.08237572 0.89400005
-0.18476002 0.084291436 0.89400005
-0.27392003 0.055466671 0.89600003
-0.21077335 0.070826672 0.89600003
-0.20731457 0.072113477 0.89685714
-0.20440193 0.070984766 0.89800006
-0.19328383 0.077826671 0.89800006
-0.18688001 0.079360008 0.89600009
-0.18302096 0.079537146 0.89800006
-0.18658668 0.082895242 0.89733338
-0.18302096 0.082102865 0.89800006
-0.19694 0.076540008 0.90300006
-0.19221175 0.077055566 0.90233344
-0.18774574 0.077468008 0.90180004
-0.18233748 0.077857785 0.90166664
-0.17960732 0.078200959 0.90233344
-0.18234526 0.083664291 0.90100002
-0.27440223 0.052690476 0.90700006
-0.27440223 0.056724131 0.90700006
-0.1956524 0.07498572 0.90500003
-0.19252335 0.074245244 0.9065001
-0.18734334 0.074245244 0.90650004
-0.18321399 0.074492067 0.90600008
-0.20148954 0.075234294 0.90800005
-0.19889525 0.075234294 0.90800005
-0.19048096 0.076709531 0.90500003
-0.18530953 0.076709531 0.90500003
-0.18073525 0.075234294 0.90800005
-0.27621874 0.037969213 0.91300005
-0.27346528 0.037824288 0.91300005
-0.27650857 0.040867623 0.91300005
-0.2730197 0.04275196 0.912
-0.26763296 0.043939624 0.91180003
-0.26259619 0.044345718 0.91300005
-0.25998762 0.044345718 0.91300005
-0.27289584 0.04746893 0.91037494
-0.2678 0.047666669 0.90999997
-0.26269555 0.047683492 0.91033334
-0.25825292 0.048274968 0.91214287
-0.27250478 0.053114291 0.90999997
-0.2678 0.052866671 0.90999997
-0.26269552 0.052886669 0.91033334
-0.25796509 0.052983493 0.912
-0.27204192 0.05849503 0.9106667
-0.26702681 0.058028478 0.91210002
-0.26259619 0.05651905 0.91300005
-0.25998762 0.05651905 0.91300005
-0.27272955 0.06224826 0.912
-0.26868287 0.061736196 0.91300005
-0.20259906 0.068692386 0.91300005
-0.19622254 0.068112701 0.91300005
-0.19216478 0.068692386 0.91300005
-0.18694763 0.068692386 0.91300005
-0.20150515 0.072373718 0.91120005
-0.19711359 0.071775235 0.91074997
-0.19213144 0.070985906 0.91120005
-0.18796687 0.071332574 0.91120005
-0.18364541 0.072590165 0.91100001
-0.27159527 0.038052384 0.91500002
-0.26927781 0.03871778 0.91700006
-0.26287335 0.039300002 0.91700006
-0.2710143 0.040957145 0.91500002
-0.26741314 0.041690096 0.91579998
-0.26307207 0.042148892 0.91566676
-0.25193393 0.049060386 0.91660005
-0.24706288 0.048889216 0.91666669
-0.24226268 0.046985336 0.917
-0.2553286 0.053157147 0.91500002
-0.2522662 0.052981906 0.91575003
-0.24715336 0.052400004 0.917
-0.24366002 0.051526669 0.91700006
-0.26230001 0.058385719 0.91500002
-0.25725746 0.057556197 0.91566664
-0.25214383 0.05726571 0.91699994
-0.2473717 0.056548338 0.91699994
-0.2710143 0.063614286 0.91500002
-0.26718003 0.062917143 0.91500008
-0.26255399 0.061932385 0.91588891
-0.25757051 0.061992064 0.91677773
-0.25239336 0.062006671 0.91699994
-0.24820134 0.062006671 0.917
-0.27510002 0.068120003 0.91700006
-0.2725988 0.066935919 0.91614288
-0.26811334 0.067246675 0.91699994
-0.26309171 0.067028344 0.91699994
-0.25850669 0.065500006 0.91700006
-0.25064668 0.067246675 0.91700006
-0.24693502 0.067246668 0.91699994
-0.24278668 0.068993337 0.91700006
-0.20217144 0.067971431 0.91500002
-0.19912159 0.067729846 0.91566664
-0.19258572 0.067100003 0.91500002
-0.18761311 0.06697239 0.91624999
-0.18357468 0.067596003 0.917
-0.27626446 0.073068894 0.917
-0.27248001 0.072486676 0.917
-0.26811337 0.072268337 0.91699994
-0.26374668 0.071613342 0.91700006
-0.25658533 0.072137341 0.917
-0.25214383 0.071987629 0.91699994
-0.24802668 0.071613342 0.91700006
-0.24400002 0.07058572 0.91500002
-0.20130001 0.07058572 0.91500002
-0.1856143 0.07058572 0.91500002
-0.18284224 0.071218103 0.91566664
-0.27684668 0.077726662 0.91699994
-0.25763336 0.075980008 0.91700006
-0.26548573 0.041180953 0.92000002
-0.24226668 0.049504768 0.92000002
-0.23832382 0.04906667 0.92000002
-0.2423543 0.052746672 0.91999996
-0.23741688 0.052244078 0.92085713
-0.24620955 0.058704767 0.92000002
-0.24270476 0.056952391 0.91999996
-0.23840986 0.056973651 0.92033339
-0.24664764 0.062209528 0.92000002
-0.24276297 0.062224552 0.92022228
-0.23884191 0.062344763 0.92199999
-0.21992382 0.063961908 0.92000002
-0.19121811 0.064031437 0.921
-0.18750477 0.063961908 0.92000002
-0.1848762 0.063961908 0.92000002
-0.2777524 0.069219053 0.92000002
-0.2608127 0.068634927 0.92000002
-0.25742477 0.067817152 0.91999996
-0.25371978 0.067466676 0.92000002
-0.2497143 0.067466669 0.92000002
-0.24270476 0.066590481 0.92000002
-0.23871192 0.066699535 0.92150009
-0.20174192 0.066661909 0.921
-0.19714288 0.065714292 0.92000002
-0.19276191 0.065714292 0.92000002
-0.27892065 0.071555562 0.92000002
-0.26723811 0.074476197 0.92000002
-0.2614803 0.072974153 0.92000002
-0.2584762 0.074476197 0.92000002
-0.26241907 0.076666668 0.92000002
-0.23634954 0.048504766 0.92600006
-0.23395716 0.047674291 0.92700005
-0.23521431 0.051976193 0.92500001
-0.23307431 0.05208857 0.92700005
-0.23609526 0.05726191 0.92500013
-0.23228596 0.057575002 0.92650008
-0.23609526 0.062547624 0.92500013
-0.23196799 0.062621914 0.92611122
-0.2268943 0.063565709 0.92700005
-0.22261368 0.063225083 0.92633343
-0.2179089 0.064402223 0.92633343
-0.20040858 0.064448573 0.92700005
-0.19687715 0.064448573 0.92700005
-0.1946905 0.06430953 0.92500007
-0.23634954 0.066142865 0.92600006
-0.23395716 0.066214293 0.92700005
-0.20570573 0.066214293 0.92700005
-0.20394002 0.066214293 0.92700005
-0.22432669 0.04255905 0.93100005
-0.23235239 0.04812381 0.93000007
-0.22790776 0.047506664 0.93114293
-0.22456764 0.04881905 0.93200004
-0.23117144 0.052257147 0.93000007
-0.22779052 0.052294608 0.9306668
-0.22368002 0.052813336 0.93200004
-0.23117144 0.055800002 0.93000007
-0.2276286 0.05757143 0.93000019
-0.22273885 0.057681065 0.93177783
-0.21924192 0.058582861 0.93200004
-0.22762859 0.061114293 0.93000007
-0.22187145 0.061557144 0.93000007
-0.21779288 0.062987149 0.93150008
-0.21247001 0.064317621 0.93150008
-0.20748097 0.064726666 0.93100005
-0.2037143 0.064657144 0.93000007
-0.1997143 0.064796194 0.93200004
-0.21257144 0.066428579 0.93000007
-0.20902859 0.066428579 0.93000007
-0.2213105 0.043726668 0.93700004
-0.21907145 0.042506989 0.93633336
-0.22588414 0.046007942 0.93500012
-0.22209705 0.047272913 0.93655556
-0.21735851 0.047551159 0.93700016
-0.22279716 0.052181911 0.93500006
-0.21758445 0.052612696 0.93633348
-0.21238668 0.05354286 0.93700004
-0.21744929 0.057481192 0.93575001
-0.21288431 0.058180481 0.93624997
-0.20817973 0.058514696 0.93700016
-0.21697938 0.062036514 0.93500012
-0.21246763 0.062155239 0.93500006
-0.2077762 0.06242159 0.93633336
-0.20292744 0.062645152 0.9370001
-0.1972162 0.063359052 0.93700004
-0.19364668 0.063359052 0.93700004
-0.21754287 0.043866668 0.94000006
-0.21575239 0.046552382 0.94000006
-0.21217145 0.047447626 0.94000012
-0.20724002 0.047548573 0.94199997
-0.21145526 0.052102864 0.94000006
-0.20680001 0.052819051 0.94000012
-0.20180912 0.05291852 0.94177777
-0.20608382 0.057474293 0.94000006
-0.20232381 0.058190476 0.94000006
-0.1990903 0.057881147 0.94080001
-0.20142858 0.061771434 0.94000006
-0.19795287 0.061355717 0.94050002
-0.19426668 0.061771434 0.94000006
-0.20250003 0.047700003 0.94500011
-0.19862859 0.047851432 0.94800001
-0.1941143 0.046045717 0.94800007
-0.19788165 0.053171434 0.94628578
-0.1941143 0.052365717 0.94800007
-0.19614401 0.057094861 0.94560015
-0.19370477 0.056758095 0.9460001
-0.19620001 0.060300004 0.94500005
-0.19633335 0.047952384 0.95000005
-0.19361907 0.048857145 0.95000005
-0.19633335 0.051571433 0.95000005
-0.1927143 0.052476194 0.95000005
