# .PCD v0.7 - Point Cloud Data file format
VERSION 0.7
FIELDS x y z
SIZE 4 4 4
TYPE F F F
COUNT 1 1 1
WIDTH 702
HEIGHT 1
VIEWPOINT 0 0 0 1 0 0 0
POINTS 702
DATA ascii
0.018777145 0.20185493 0.54766673
0.021385716 0.20081113 0.54766673
0.033357084 0.19723493 0.56306666
0.035988573 0.19928001 0.56400001
0.033960003 0.1956743 0.56600004
0.036742225 0.19649494 0.5673334
0.038599845 0.19571382 0.57083338
0.040976193 0.19613874 0.57366663
0.042942453 0.19696423 0.57700002
0.048968576 0.1919343 0.59100002
0.051997356 0.19242184 0.59250003
0.04867683 0.19902287 0.59200007
0.052304219 0.19806261 0.59321052
0.048968572 0.20093811 0.59100002
0.051740408 0.20164803 0.59142864
0.055722862 0.20094001 0.59100002
0.05496667 0.19266668 0.59500003
0.056194291 0.19128764 0.59600002
0.053833336 0.19606668 0.59500003
0.052700002 0.20003335 0.59500003
0.057870552 0.18788944 0.60161549
0.060400005 0.18752763 0.60400003
0.05753373 0.19228487 0.60208338
0.060400005 0.19040382 0.60400003
0.057668809 0.19652955 0.60250002
0.056948576 0.20190859 0.60400003
0.062996514 0.18763636 0.60683328
0.065908737 0.18709572 0.60883337
0.061361771 0.19332995 0.60699999
0.058820479 0.19894953 0.60549998
0.061891109 0.19743176 0.60733336
0.058753144 0.20303886 0.60600001
0.061741192 0.20238899 0.60775
0.059494764 0.20678811 0.60650003
0.060900003 0.20706001 0.60900003
0.063986808 0.19312313 0.61157143
0.066078097 0.19297144 0.61400002
0.064676002 0.19752286 0.61180001
0.066662863 0.19881907 0.61400002
0.064443246 0.20311829 0.61180001
0.067034453 0.20168841 0.61383337
0.062743545 0.2078924 0.61242867
0.061884768 0.21075526 0.61300004
0.068714611 0.18774033 0.61666673
0.070666991 0.18726669 0.61833334
0.068012506 0.19230919 0.61562502
0.070757993 0.19276649 0.61855555
0.067737751 0.19681501 0.61554545
0.071270041 0.19699402 0.61845452
0.06765829 0.20226744 0.61559999
0.070470162 0.20120414 0.61833334
0.066678733 0.20747034 0.61683345
0.063972622 0.21246168 0.61625004
0.0670987 0.21247466 0.61800009
0.070153341 0.21340764 0.61900002
0.067795239 0.21517621 0.61900002
0.073042385 0.18832652 0.62183338
0.073189765 0.19171192 0.62225008
0.070606671 0.20470001 0.62300003
0.069234289 0.20888509 0.62133336
0.070606671 0.20588668 0.62300003
0.070807055 0.21171145 0.62060004
0.068986677 0.21724319 0.62266666
0.070436671 0.21663859 0.62150002
0.067748576 0.22048001 0.62400001
0.077260539 0.1822231 0.62777776
0.074404769 0.18630953 0.625
0.077410676 0.18780142 0.62813348
0.074523814 0.19495431 0.62600005
0.077104524 0.1924596 0.62758338
0.074880958 0.19708668 0.62900001
0.076018579 0.19633192 0.62849998
0.072619051 0.20416668 0.625
0.072401144 0.20778079 0.62620008
0.07687778 0.20627208 0.62900001
0.073035136 0.21219113 0.62800002
0.076079056 0.21026573 0.62900001
0.06904763 0.21964288 0.625
0.069642864 0.22142859 0.625
0.079388097 0.18343668 0.63150001
0.082044944 0.1822266 0.63299996
0.079450481 0.18719049 0.63200003
0.081732176 0.18738143 0.63235718
0.07992667 0.19350669 0.63100004
0.081525475 0.19223216 0.63174999
0.077528022 0.19833268 0.63242859
0.080666989 0.19653748 0.63366669
0.074092865 0.20360526 0.63250005
0.077151716 0.20260516 0.63258821
0.080306672 0.20167239 0.634
0.074034289 0.20524953 0.63200003
0.076718092 0.2077034 0.6321429
0.080180004 0.20678002 0.63300002
0.076320961 0.21293749 0.63100004
0.084061913 0.18324287 0.63500005
0.086575985 0.18252604 0.6376667
0.083792627 0.18694548 0.63525003
0.085900962 0.18655114 0.63666672
0.08266072 0.19837858 0.63700002
0.079223812 0.20017621 0.63500005
0.081617557 0.2020954 0.63614291
0.081295244 0.20566002 0.63700008
0.079442143 0.21225074 0.63675004
0.080750011 0.21249905 0.63750005
0.079598099 0.21631239 0.63800001
0.088476986 0.17776716 0.64216673
0.088066034 0.18365906 0.64066672
0.086755566 0.18793653 0.64000005
0.08770667 0.19074668 0.64400005
0.084988579 0.19810286 0.64200002
0.086121917 0.19850667 0.64133334
0.084537469 0.20329587 0.64166671
0.086652383 0.20300573 0.64300001
0.083518736 0.20757431 0.64166671
0.085662223 0.20751113 0.64400005
0.082542859 0.21155429 0.64200002
0.091368005 0.17744763 0.64560002
0.091848649 0.18246341 0.64725
0.091812864 0.18670477 0.64700001
0.088008568 0.19312058 0.64620006
0.091812387 0.19163486 0.64700001
0.087249525 0.20754857 0.64666671
0.0838781 0.21266669 0.64600003
0.086333811 0.21089953 0.64750004
0.084548578 0.21538287 0.648
0.085782863 0.21785145 0.648
0.09486001 0.17732 0.65100002
0.096395247 0.17662096 0.65300006
0.094168104 0.18214144 0.65050006
0.096047871 0.18277025 0.65275007
0.089900009 0.18910001 0.65100002
0.092453815 0.18924525 0.65150005
0.09586858 0.18738517 0.65280008
0.089590006 0.19251002 0.65100002
0.092247054 0.19181582 0.65180004
0.095151432 0.19154668 0.65300006
0.088175245 0.19808382 0.65200001
0.091307811 0.19764915 0.65219998
0.088796198 0.20242859 0.65200007
0.090763338 0.20266311 0.65275002
0.0887281 0.20724049 0.65149999
0.090590797 0.2073016 0.65300006
0.087990619 0.21275309 0.65128571
0.090176195 0.21206953 0.65300006
0.084340394 0.21735184 0.65020007
0.087722674 0.21688418 0.65140003
0.084940009 0.22010002 0.65100002
0.087000966 0.22122811 0.65250003
0.098344453 0.17743377 0.65677774
0.097925246 0.18239716 0.65700006
0.096690483 0.19088572 0.65500003
0.094060764 0.19774 0.65579998
0.095734291 0.1977281 0.65700001
0.093759999 0.20266974 0.65719998
0.095880009 0.20178668 0.65800005
0.092814922 0.20752732 0.65700006
0.092577152 0.2126139 0.65742862
0.091041908 0.21681096 0.65700001
0.10206047 0.1776612 0.66150004
0.099942863 0.18165715 0.66000003
0.10158382 0.18202955 0.66250002
0.098835252 0.18822891 0.66100001
0.10032143 0.18676192 0.66250002
0.099134289 0.19258572 0.66300005
0.098243579 0.19900453 0.66125005
0.094914295 0.20428573 0.66000003
0.097947307 0.2028144 0.6606667
0.10102858 0.20332003 0.66300005
0.094600007 0.20742857 0.66000003
0.096918449 0.20770228 0.66187501
0.10166001 0.20521429 0.66300005
0.094495244 0.21266668 0.66000003
0.096017145 0.2123467 0.66240007
0.093210667 0.21774402 0.66040003
0.095869288 0.21633455 0.66225004
0.092820004 0.22100002 0.66300005
0.1045 0.17226669 0.66500002
0.10707524 0.17251927 0.66788894
0.10457857 0.17746715 0.66550004
0.10674451 0.17723756 0.6677143
0.10335072 0.1838731 0.66575003
0.10573411 0.18233296 0.66800004
0.1028125 0.18785466 0.66637504
0.10576572 0.18732001 0.66900009
0.10213266 0.19270258 0.66690004
0.10512858 0.19114287 0.66900003
0.09894906 0.19662906 0.66600001
0.10242762 0.19594666 0.6680001
0.10070001 0.20203334 0.66500002
0.09906096 0.20931621 0.66533333
0.10132934 0.20760401 0.66579998
0.098705724 0.21232812 0.66649997
0.10124515 0.21229735 0.66860008
0.097364292 0.21755716 0.66600001
0.093522474 0.22346267 0.66619998
0.09689565 0.2231781 0.66871434
0.093991429 0.2263851 0.66833335
0.10922287 0.17181778 0.67066669
0.11120572 0.17273717 0.67299998
0.10907976 0.17785501 0.67175007
0.11088477 0.17562002 0.67300004
0.10886667 0.1819562 0.67320001
0.10840144 0.18729572 0.6735
0.10705969 0.19258898 0.67133337
0.1030912 0.19820262 0.67025
0.10680087 0.19697326 0.67150003
0.099495247 0.2009162 0.67400002
0.1028491 0.20179819 0.67227274
0.10735969 0.20188667 0.67366666
0.10018096 0.21376193 0.67000002
0.099200003 0.21952002 0.67200005
0.101207 0.21760572 0.67400002
0.0991631 0.2226374 0.67175007
0.10077906 0.22209907 0.67400002
0.097744413 0.2276375 0.671875
0.10077906 0.22530858 0.67400002
0.1125 0.17164285 0.67500001
0.11270365 0.17808366 0.67750007
0.10992858 0.18321429 0.67500001
0.11127937 0.18316446 0.67800003
0.11068477 0.18826954 0.67700005
0.11172794 0.19252647 0.67811108
0.10864286 0.19992858 0.67500001
0.10767858 0.20250002 0.67500001
0.11049858 0.20290525 0.67850006
0.10486334 0.20586716 0.67550004
0.10696553 0.20710668 0.67660004
0.11122668 0.20628668 0.67900002
0.10451175 0.21224256 0.67600006
0.10633787 0.21202788 0.67875004
0.10319889 0.21798302 0.6758334
0.10576016 0.21755065 0.6785
0.10256596 0.22235668 0.67625004
0.10602746 0.22175257 0.67883331
0.10257981 0.22747543 0.67739999
0.10540667 0.22633335 0.67900002
0.10282001 0.23086001 0.67900002
0.11462858 0.16902858 0.68000001
0.11479715 0.17252192 0.68100005
0.11733477 0.17233905 0.68350005
0.11474096 0.1774051 0.68066669
0.11758287 0.17653716 0.68400002
0.11382478 0.18192384 0.68099999
0.11587001 0.18226573 0.68350005
0.1133206 0.18718988 0.68187505
0.11649776 0.18820494 0.68336368
0.11383334 0.19232605 0.68300009
0.11562413 0.19285272 0.6833334
0.11226032 0.20396572 0.68133336
0.10976953 0.20979621 0.68200004
0.1117181 0.20849715 0.68200004
0.10856628 0.21295758 0.68142861
0.11230295 0.21245326 0.68358344
0.1083924 0.21775548 0.68150002
0.11213282 0.21710427 0.68361539
0.1083463 0.22278173 0.68040001
0.11139201 0.22083735 0.68080008
0.10780156 0.22777964 0.68187499
0.10389483 0.2331403 0.68242854
0.1069025 0.23190327 0.68360007
0.10270858 0.23603432 0.68400002
0.11964715 0.1686824 0.68650007
0.12073906 0.16798478 0.68900001
0.11923334 0.17280667 0.68600005
0.12254357 0.17274214 0.68900007
0.11828782 0.17815068 0.68620002
0.12270763 0.17585905 0.68900007
0.11820826 0.18298097 0.68700004
0.12008286 0.18176478 0.68900001
0.1186762 0.18627703 0.68628585
0.11346223 0.19883113 0.68600005
0.11662414 0.19640891 0.68666673
0.11433334 0.20318668 0.68600005
0.11433334 0.20645335 0.68600005
0.1108962 0.22901049 0.68900001
0.10126667 0.23454668 0.68600005
0.10828795 0.23378952 0.68633342
0.11068159 0.23249811 0.68766671
0.10083191 0.23636763 0.68750006
0.10877048 0.23654097 0.68800002
0.12323343 0.16704191 0.69127274
0.12624191 0.16722095 0.69400001
0.12376191 0.1706381 0.69000006
0.1255143 0.17085716 0.69000006
0.12190515 0.17897829 0.6904
0.12310815 0.18249713 0.69288892
0.1222762 0.18572763 0.69400001
0.11631429 0.19911428 0.69000006
0.11368572 0.20240001 0.69000006
0.11694743 0.20267963 0.69139993
0.11755102 0.20748056 0.69285721
0.11682001 0.21054001 0.69300002
0.11302286 0.22868954 0.69400001
0.11566667 0.22538477 0.69400001
0.11264064 0.23275875 0.69300002
0.10974286 0.2359143 0.69000006
0.11105715 0.23657145 0.69000006
0.12787016 0.16762383 0.69566673
0.12642382 0.17010954 0.69500005
0.1237762 0.18467145 0.69500005
0.1251 0.18467145 0.69500005
0.12346858 0.18719429 0.69700003
0.12763429 0.18580097 0.69800001
0.11980477 0.20188098 0.69499999
0.12291125 0.20263581 0.69760001
0.11980477 0.20717621 0.69499999
0.122605 0.20733143 0.69775003
0.12564 0.20807049 0.69800001
0.11741001 0.21359192 0.6965
0.11450953 0.22835715 0.69499999
0.11633334 0.22867811 0.69800001
0.11459191 0.23315668 0.69550002
0.11695092 0.23299354 0.69663644
0.12098667 0.23466097 0.69800001
0.11450953 0.23630002 0.69500005
0.11752271 0.23725797 0.69716668
0.13090782 0.16700725 0.70200002
0.12894239 0.17237002 0.70150006
0.13049524 0.17198795 0.7026667
0.12466668 0.18866669 0.70000005
0.1276062 0.18840335 0.7015
0.12408859 0.19213811 0.70050001
0.12685566 0.19233729 0.70157146
0.12362573 0.19646668 0.70166677
0.12577954 0.19737193 0.70250005
0.12351878 0.20223199 0.70214283
0.12520096 0.20085716 0.70300001
0.12417715 0.2062943 0.70100003
0.11933334 0.21266668 0.70000005
0.12242372 0.21240678 0.70090008
0.12520096 0.21223906 0.70300001
0.11872318 0.21810447 0.70033336
0.1222324 0.21708128 0.70133334
0.1188643 0.22237098 0.70116669
0.12235549 0.22161241 0.70300001
0.11836205 0.22763281 0.70328575
0.12093429 0.22813383 0.70350003
0.11923715 0.23193125 0.70100003
0.12141715 0.23252535 0.70279998
0.13332064 0.16294572 0.70700002
0.13330458 0.167468 0.7062
0.13620573 0.16789715 0.708
0.13316399 0.17284273 0.70616668
0.13598096 0.17419048 0.708
0.12950444 0.17663781 0.70700002
0.13206714 0.17586431 0.70749998
0.13013715 0.19082287 0.708
0.12354286 0.1994143 0.70500004
0.12726001 0.19998002 0.70700002
0.12726001 0.20132668 0.70700002
0.12421429 0.21418573 0.70500004
0.12555715 0.21418573 0.70500004
0.12555715 0.21620002 0.70500004
0.12287144 0.22403336 0.7050001
0.12591334 0.22354668 0.70700002
0.12297222 0.22790211 0.70627266
0.12618266 0.22799067 0.70700002
0.12409849 0.23323981 0.70739996
0.12423525 0.23611335 0.70766664
0.13739622 0.16243747 0.71066672
0.13456191 0.16972382 0.71000004
0.13718896 0.16649792 0.71240002
0.13456191 0.17107621 0.71000004
0.1373387 0.17209539 0.71212506
0.14152287 0.17402573 0.71100003
0.13308926 0.17858396 0.71142858
0.13649096 0.17829828 0.7118333
0.1293343 0.18486001 0.71100003
0.13241486 0.18306993 0.71300012
0.13561262 0.18251646 0.71375
0.1293343 0.18756859 0.71100003
0.13289101 0.1873637 0.71242863
0.13519366 0.18727748 0.71333337
0.13264064 0.19330256 0.71300006
0.13600001 0.19312002 0.71400005
0.13396001 0.19584002 0.71400005
0.13532001 0.19652002 0.71400005
0.1292454 0.20394064 0.71300006
0.13124001 0.20400001 0.71400005
0.12772143 0.23361954 0.7105
0.12738943 0.23756701 0.71022224
0.12577143 0.24004763 0.71000004
0.13979049 0.16433907 0.71600002
0.14154857 0.16411334 0.71800005
0.13979049 0.16570286 0.71600002
0.1412892 0.16731016 0.71900004
0.1403762 0.17256001 0.71900004
0.13160762 0.1847962 0.71600002
0.13842668 0.18070477 0.71600002
0.13160762 0.18752383 0.71600002
0.13301739 0.1978212 0.71625
0.13721439 0.19782816 0.71600002
0.1330277 0.20187376 0.71691674
0.13674214 0.20229644 0.71700001
0.13260387 0.2077779 0.71664286
0.1367144 0.20753537 0.7165556
0.13265905 0.21198191 0.71799999
0.13657144 0.21168573 0.71700001
0.13215859 0.21811955 0.71750003
0.12873524 0.22323239 0.71900004
0.13226695 0.22213268 0.71810001
0.12907764 0.2266562 0.71900004
0.13284382 0.2266562 0.71900004
0.12924001 0.23112668 0.71800005
0.13197461 0.23112732 0.71800011
0.14528859 0.15906002 0.72300005
0.14391144 0.16456859 0.72300005
0.14302541 0.16846542 0.72200006
0.14698465 0.16815418 0.72287506
0.14298899 0.17227322 0.72066677
0.14583087 0.17166974 0.72160006
0.14302477 0.17534287 0.72200006
0.14508763 0.17534287 0.72200006
0.13978001 0.18384859 0.72300005
0.13782857 0.18582858 0.72000003
0.13302857 0.21462859 0.72000003
0.13577142 0.21462859 0.72000003
0.13302857 0.21600002 0.72000003
0.13577142 0.21737145 0.72000003
0.1296 0.22834288 0.72000003
0.13165715 0.22834285 0.72000003
0.14430954 0.16226192 0.72500008
0.14681493 0.162947 0.72600001
0.15190889 0.16439526 0.72833329
0.14713968 0.16579048 0.72533339
0.15126991 0.16621849 0.72659999
0.1426324 0.18417144 0.727
0.14510572 0.18329144 0.72900003
0.13878572 0.18711907 0.72500002
0.1421033 0.18710089 0.72590905
0.14580001 0.18676287 0.72900003
0.14968096 0.15942763 0.73100001
0.1520679 0.15783635 0.73100001
0.14916496 0.16197829 0.73119998
0.15255192 0.16266453 0.73225009
0.14550382 0.18588287 0.73100001
0.15420954 0.15771429 0.73600006
0.15582287 0.15652478 0.73700005
0.15964286 0.15538572 0.74500006
0.15316191 0.17667049 0.74800003
0.14746286 0.1987543 0.74800003
0.14723572 0.20207074 0.7477501
0.16357143 0.15214287 0.75000006
0.16614571 0.15238345 0.75260007
0.16331293 0.15778477 0.75257146
0.16566001 0.15633714 0.75300002
0.15992287 0.16279143 0.75300002
0.16261216 0.16297072 0.75300002
0.15992287 0.16566001 0.75300002
0.16135715 0.16566001 0.75300002
0.15357144 0.17928572 0.75000006
0.15592287 0.17737906 0.75099999
0.15357144 0.18214287 0.75000006
0.15582173 0.18214744 0.75120002
0.15387858 0.18608716 0.75150001
0.15623382 0.18561667 0.75250006
0.14857143 0.19750001 0.75000006
0.15132572 0.19850922 0.75066668
0.14857143 0.20357144 0.75000006
0.15183303 0.20196573 0.75200003
0.14907366 0.20631938 0.75133342
0.15121669 0.20639953 0.75250006
0.14773144 0.21442573 0.75300002
0.14773144 0.21586001 0.75300002
0.16861668 0.15351668 0.75500005
0.17250864 0.15255125 0.75607145
0.17687239 0.15317932 0.7571429
0.16804464 0.1577668 0.75542867
0.17233418 0.15791218 0.75711107
0.17722763 0.15773621 0.75799996
0.16322382 0.160827 0.75500005
0.16763119 0.16259471 0.75541669
0.17216477 0.16250268 0.75699997
0.17686667 0.16098477 0.75800008
0.16296515 0.16800441 0.75580007
0.16798255 0.1679834 0.75700003
0.17249012 0.16772668 0.75779998
0.17590414 0.16820383 0.75800008
0.1584 0.17496002 0.75600004
0.16185603 0.172368 0.75600004
0.16704877 0.17195772 0.75800002
0.17302097 0.17186743 0.75760001
0.17662604 0.17229462 0.75799996
0.19130477 0.17109144 0.75800002
0.15897968 0.17768256 0.75533342
0.16231696 0.17773946 0.7568
0.16593497 0.17789797 0.75799996
0.17397906 0.17614478 0.75800002
0.15855001 0.18263811 0.75500005
0.16219176 0.18237461 0.75688887
0.1660381 0.18119811 0.75800002
0.18697335 0.18336383 0.75800002
0.15459524 0.18910953 0.75500005
0.15788682 0.18771403 0.75600004
0.16170669 0.18625145 0.75800002
0.18854842 0.18749835 0.75799996
0.1546635 0.19207112 0.75533342
0.15689942 0.19205372 0.75639999
0.15354477 0.19686584 0.75533342
0.15624002 0.19728002 0.75600004
0.15433811 0.20290573 0.75550008
0.15651557 0.2026781 0.75733334
0.15277953 0.20866208 0.75550008
0.15578707 0.20689793 0.75800002
0.20141144 0.20863049 0.75800002
0.15224916 0.21231258 0.75620002
0.15520954 0.21368381 0.75800002
0.1978019 0.21296191 0.75799996
0.20262633 0.21233402 0.75763631
0.20632038 0.21296191 0.75800002
0.14842921 0.21844763 0.75533342
0.15145609 0.21700752 0.75637501
0.19708002 0.21584953 0.75800002
0.20319076 0.21700573 0.75771427
0.2066966 0.21700573 0.75771427
0.21055557 0.21633081 0.75800008
0.19934885 0.22244981 0.75799996
0.20285526 0.22162478 0.75799996
0.2070062 0.22144431 0.75799996
0.19957335 0.22814479 0.75760001
0.20141144 0.22812192 0.75800002
0.19939011 0.23230895 0.75800002
0.20242739 0.23309787 0.75774997
0.22220016 0.24792969 0.75749999
0.2274 0.24905716 0.75800002
0.23028764 0.24833526 0.75800002
0.21742374 0.25183347 0.75622225
0.22268654 0.25169036 0.75600004
0.2271086 0.25143677 0.75771427
0.23028764 0.25050098 0.75800002
0.18119366 0.15947936 0.76000005
0.17733334 0.16358097 0.76000005
0.18254055 0.16298246 0.76058346
0.18675335 0.16495335 0.76300001
0.1744381 0.16720001 0.76000005
0.17751428 0.16738096 0.76000011
0.18258072 0.16736501 0.76075006
0.18731238 0.16797651 0.76133341
0.16430478 0.1737143 0.76000005
0.16792382 0.1737143 0.76000005
0.17154287 0.1737143 0.76000005
0.17805715 0.17262858 0.76000005
0.18255085 0.17240833 0.760625
0.18769264 0.17247422 0.76091671
0.19141112 0.17354889 0.76033336
0.16828573 0.17697144 0.76000005
0.17183238 0.1774781 0.76000011
0.17743684 0.17743769 0.76044452
0.18264002 0.17756669 0.7610001
0.18763112 0.17748889 0.76066673
0.19235183 0.17771165 0.7610001
0.19677864 0.1779 0.76242864
0.16758966 0.18315393 0.7601251
0.17245112 0.18259545 0.76081246
0.17756669 0.18264002 0.7610001
0.18260989 0.18260968 0.76087499
0.18759057 0.1822302 0.76050007
0.19267537 0.18262382 0.76113331
0.16347945 0.18809544 0.76020002
0.16732265 0.18760413 0.76055568
0.17249334 0.18771337 0.7610001
0.17754054 0.18768592 0.76088893
0.18247986 0.18754858 0.76033336
0.18601906 0.18746668 0.76000005
0.15967238 0.19296762 0.76000005
0.16300063 0.19270223 0.76066667
0.16736382 0.19245318 0.7614001
0.17266059 0.19228491 0.76100004
0.17769846 0.19258903 0.7610001
0.18251918 0.19266038 0.76050007
0.1592381 0.19760001 0.76000005
0.16304785 0.19783133 0.76088899
0.16795248 0.1978046 0.76281828
0.17222004 0.19765334 0.76300001
0.15880382 0.20223241 0.76000005
0.16281776 0.20267887 0.76227278
0.16786 0.20274001 0.76300001
0.206956 0.20231526 0.7614001
0.21127398 0.20401494 0.76233339
0.15820453 0.20816405 0.76025003
0.16266809 0.20696427 0.76250011
0.20302001 0.20736304 0.76009101
0.20752963 0.20739628 0.76118189
0.21218666 0.2071 0.76300001
0.21648288 0.20850572 0.7615
0.15792923 0.21226256 0.76066667
0.19215907 0.21275082 0.76011121
0.19739319 0.212283 0.76000011
0.20158097 0.2120762 0.76000005
0.20843212 0.2123622 0.76028579
0.21245143 0.2123448 0.7617144
0.21684249 0.21234402 0.76200008
0.1876007 0.2174961 0.76054555
0.1924343 0.21757539 0.76042861
0.19760001 0.2182803 0.76000011
0.20107432 0.21815619 0.76000005
0.20918097 0.2185905 0.76000005
0.21281703 0.21798928 0.76042861
0.21742566 0.21752962 0.76135719
0.18239336 0.22236003 0.76300001
0.18713009 0.22267294 0.76158351
0.19255424 0.22223409 0.76008344
0.1971864 0.22220954 0.76000011
0.20918097 0.22365716 0.76000005
0.21213865 0.2222743 0.76022232
0.17948668 0.22744668 0.76300001
0.18305929 0.22737214 0.76275003
0.18756653 0.22752579 0.76176924
0.19259596 0.22735097 0.76025009
0.19731048 0.22727618 0.76000011
0.20368004 0.22698669 0.76000011
0.20773338 0.22727621 0.76000017
0.18348336 0.23144336 0.76300001
0.18731461 0.23232983 0.76233339
0.19276534 0.23262312 0.76091671
0.19726041 0.23263755 0.76028579
0.2041143 0.23161906 0.76000005
0.18862192 0.23782764 0.76300001
0.19296503 0.23761871 0.76113331
0.23035336 0.23762001 0.76300001
0.18903716 0.24281049 0.76300001
0.22711544 0.24263179 0.7614001
0.23196816 0.24375629 0.76300001
0.22293335 0.24537145 0.76000005
0.22747803 0.24722935 0.76045471
0.23266594 0.2473415 0.76211113
0.13987906 0.25439143 0.76100004
0.14307958 0.25193885 0.76088899
0.14632761 0.25162572 0.76250005
0.1383089 0.25893557 0.76300001
0.14286269 0.25709468 0.76300001
0.14606 0.25506002 0.76300001
0.14412223 0.26184225 0.76300001
0.18870001 0.1661143 0.76500005
0.17777145 0.2222143 0.76500005
0.17244884 0.22698909 0.76636374
0.17805789 0.2272183 0.76600003
0.18141429 0.22804287 0.76500005
0.16740675 0.23246853 0.76758337
0.17249043 0.23242469 0.76743752
0.17795961 0.23251715 0.76671439
0.18199715 0.23270574 0.76500005
0.23040001 0.23478858 0.76800001
0.16237716 0.23673908 0.76800007
0.16749716 0.23729634 0.76800007
0.17276344 0.23742171 0.76800007
0.17773716 0.23771429 0.76800007
0.18267773 0.23748249 0.76725006
0.18659525 0.23688827 0.76533341
0.23115717 0.23844795 0.76566672
0.15262657 0.24269134 0.76677781
0.15667202 0.24151774 0.76800001
0.16822858 0.24210286 0.76800001
0.17188573 0.24064001 0.76800001
0.17846859 0.24210288 0.76800007
0.1828599 0.24249783 0.76740003
0.18681787 0.24240716 0.76550001
0.23168573 0.24115716 0.76500005
0.14935715 0.24917144 0.76500005
0.15281697 0.24733944 0.76700008
0.15608685 0.24736917 0.76800001
0.16896001 0.24722287 0.76800001
0.17042287 0.24868573 0.76800001
0.17846857 0.24722289 0.76800007
0.14893048 0.25337085 0.76580006
0.15264344 0.25250366 0.76760012
0.15579429 0.25088 0.76800001
0.17773716 0.25088 0.76800001
0.14837405 0.25787288 0.7665
0.15221347 0.25772858 0.76785713
0.14243715 0.26081964 0.76540005
0.14744915 0.26201716 0.76719999
0.15140572 0.26185143 0.76800001
0.22953334 0.23393334 0.77000004
0.15766668 0.23980002 0.77000004
0.16236001 0.23921335 0.77000004
0.16695555 0.23980002 0.77000004
0.17233334 0.23980002 0.77000004
0.15840001 0.24346668 0.77000004
0.16206668 0.24273334 0.77000004
0.16690667 0.24273333 0.77000004
0.17233334 0.24291667 0.77000004
0.176 0.24273336 0.77000004
0.15854669 0.24684003 0.77000004
0.16206668 0.24713336 0.77000004
0.167 0.24726668 0.77000004
0.17251669 0.24695003 0.77000004
0.17600001 0.24713336 0.77000004
0.15792149 0.25249377 0.77044445
0.16244107 0.25211602 0.77177787
0.16752525 0.25202471 0.77150005
0.17267105 0.25233239 0.77020001
0.15473334 0.25740004 0.77000004
0.15818343 0.25770822 0.77179998
0.16122572 0.2569305 0.77300006
0.16858763 0.25545812 0.77300006
0.15180001 0.26253337 0.77000004
0.15526922 0.26270732 0.77266669
0.16607144 0.25464287 0.77500004
0.16354084 0.25759527 0.77500004
0.1579524 0.26276192 0.77500004
0.16206454 0.26192382 0.77525002
