# .PCD v0.7 - Point Cloud Data file format
VERSION 0.7
FIELDS x y z
SIZE 4 4 4
TYPE F F F
COUNT 1 1 1
WIDTH 1572
HEIGHT 1
VIEWPOINT 0 0 0 1 0 0 0
POINTS 1572
DATA ascii
0.44800669 0.037254293 1.0030001
0.45278287 0.037254289 1.0030001
0.45725372 0.03723016 1.0023334
0.46236479 0.037180003 1.0009999
0.46761909 0.037142858 1
0.47285339 0.03718191 1.001
0.47730127 0.037155878 1.0003333
0.48301813 0.037155878 1.0003333
0.4878729 0.036723811 1.0015
0.49162924 0.037254289 1.0030001
0.2904762 0.044761907 1
0.36476192 0.044761907 1
0.3676191 0.044761907 1
0.37428573 0.044761907 1
0.43248406 0.043224525 1.0030001
0.43730801 0.043367814 1.003
0.44259369 0.043622542 1.0030001
0.44800669 0.042985711 1.0030001
0.45278287 0.042985719 1.0030001
0.45755911 0.042985711 1.0030001
0.46233526 0.042985711 1.0030001
0.46711144 0.042985715 1.0030001
0.47268575 0.042970791 1.0026668
0.47797623 0.043191668 1.0022501
0.48294109 0.042712789 1.0030001
0.48698044 0.042603623 1.003
0.49003717 0.04203048 1.003
0.28756365 0.047896955 1.0017999
0.29238096 0.047619049 1
0.29746032 0.04793651 1
0.35809529 0.04857143 1
0.36285713 0.047619049 1
0.3676191 0.047619052 1
0.37238097 0.047619049 1
0.42699146 0.047761906 1.0030001
0.43144926 0.047443494 1.003
0.43654385 0.04776191 1.003
0.44896191 0.04776191 1.003
0.45310128 0.047443494 1.003
0.45755908 0.047761906 1.0030001
0.46233529 0.047761906 1.003
0.46711147 0.047761906 1.0030001
0.4728429 0.047761906 1.0030001
0.47761905 0.04776191 1.003
0.48239526 0.047761906 1.0030001
0.28255945 0.052156001 1.003
0.2875267 0.050627623 1.003
0.29230288 0.050627623 1.003
0.32761908 0.053333338 1
0.33238101 0.052380953 1
0.33714285 0.052380953 1
0.34190482 0.052619047 1
0.34738097 0.052619047 1
0.35238099 0.054285716 1
0.3571429 0.052380957 1
0.36285713 0.052380953 1
0.36761907 0.052380953 1
0.42699146 0.050627623 1.003
0.4327229 0.052538097 1.0030001
0.43654385 0.050627623 1.003
0.45373812 0.052538097 1.003
0.45755911 0.052538097 1.0030001
0.46233526 0.052538097 1.0030001
0.46711153 0.052538097 1.0030001
0.4728429 0.052538097 1.0030001
0.47761905 0.052538097 1.0030001
0.48144004 0.052538097 1.0030001
0.32244968 0.057303816 1.0004286
0.32786408 0.057186432 1.0007501
0.33239776 0.057022102 1.0012001
0.33737946 0.057471622 1.0024
0.34293047 0.057314288 1.0030001
0.34770668 0.057314292 1.003
0.35230717 0.057286192 1.0025001
0.35761681 0.05708953 1.0024
0.36244622 0.057230007 1.0015
0.44896191 0.056359053 1.003
0.45182765 0.058269527 1.003
0.45755908 0.056359053 1.003
0.46233529 0.056359053 1.003
0.4671115 0.057123244 1.003
0.4728429 0.057314292 1.0030001
0.47730064 0.05699588 1.003
0.48112163 0.05699588 1.003
0.31713906 0.06113524 1.003
0.32210308 0.061863434 1.0024002
0.32788551 0.062329292 1.0030001
0.33242285 0.062090483 1.0030001
0.33719903 0.062090483 1.0030001
0.34269169 0.061851673 1.0030001
0.35343814 0.060180005 1.003
0.35773671 0.061612859 1.003
0.36203527 0.062090483 1.0030001
0.41218525 0.062568098 1.003
0.44323051 0.062090483 1.0030001
0.44832507 0.06272731 1.0030001
0.45278287 0.063045718 1.003
0.48144001 0.064000957 1.003
0.31299973 0.066548258 1.003
0.32287049 0.067821912 1.0030001
0.32764667 0.066675626 1.003
0.33337811 0.065911435 1.003
0.33624381 0.065911435 1.003
0.35821429 0.067821912 1.003
0.41170764 0.065911435 1.003
0.44291207 0.06814032 1.0030001
0.44800666 0.067821905 1.0030001
0.45246446 0.067185082 1.003
0.48172459 0.066635057 1.0024
0.44227526 0.0725981 1.0030001
0.44800666 0.0725981 1.0030001
0.49824002 -0.096960008 1.008
0.49728003 -0.092160009 1.008
0.48864004 -0.085440002 1.008
0.49206072 -0.087286256 1.0071428
0.49725145 -0.088336386 1.006
0.48416004 -0.082240008 1.008
0.48815402 -0.082478411 1.007
0.47232002 -0.075840004 1.008
0.47731394 -0.076577909 1.0076001
0.48202795 -0.077623285 1.0062222
0.48709717 -0.078403816 1.0064
0.46828803 -0.071232006 1.008
0.47248289 -0.072296195 1.0076667
0.47674519 -0.073036194 1.0064
0.46272004 -0.066240005 1.008
0.46705493 -0.067133658 1.007
0.47234097 -0.068344131 1.006
0.42252004 -0.060360003 1.006
0.45840797 -0.061740007 1.0076667
0.46272004 -0.062400002 1.008
0.46710646 -0.062344559 1.0071111
0.47090384 -0.062276196 1.006
0.41741017 -0.05780508 1.006
0.45216 -0.058560003 1.008
0.45509526 -0.058443815 1.006
0.46351051 -0.057723813 1.0067999
0.4665924 -0.058443815 1.006
0.287424 -0.0017280001 1.008
0.29184002 -0.00096000009 1.008
0.28269207 0.0031974607 1.0073333
0.28665909 0.00095873023 1.0066667
0.29030287 0.0009580953 1.006
0.30240002 0.0048000002 1.008
0.28072193 0.0076647624 1.006
0.27874145 0.012952858 1.0075001
0.27716383 0.017262857 1.007
0.27433464 0.022036193 1.006
0.27688953 0.02012 1.006
0.27271289 0.028278572 1.0065
0.49916765 0.029700954 1.006
0.49916765 0.033533335 1.006
0.49688038 0.037779432 1.0067999
0.43784955 0.041198097 1.006
0.4429594 0.041836828 1.006
0.49341908 0.042156193 1.006
0.49728003 0.042240001 1.008
0.43401718 0.04886286 1.006
0.43784952 0.047904763 1.006
0.44264004 0.047904763 1.006
0.44647241 0.047904763 1.006
0.45317909 0.04886286 1.006
0.48882023 0.04732991 1.006
0.49327716 0.047025084 1.0076667
0.49632004 0.045120005 1.008
0.27688953 0.054611433 1.006
0.2845543 0.054611433 1.006
0.28784877 0.053121906 1.0067999
0.4273105 0.053653337 1.006
0.43018478 0.053653337 1.006
0.43899927 0.05307848 1.006
0.44264004 0.052695245 1.006
0.44743049 0.052695245 1.006
0.45222101 0.052695241 1.006
0.48671243 0.052695245 1.006
0.49152005 0.052800003 1.008
0.27346334 0.057091907 1.0074999
0.27760309 0.057747047 1.0072
0.28181952 0.057514764 1.0065
0.4226594 0.057505082 1.0063334
0.4273105 0.057485715 1.006
0.43210098 0.057485718 1.006
0.43784952 0.057485715 1.006
0.44264004 0.057485718 1.006
0.44704729 0.05767734 1.006
0.45222098 0.057485718 1.006
0.45653242 0.057964765 1.006
0.46276006 0.058443815 1.006
0.4685086 0.058443815 1.006
0.48192194 0.058443815 1.006
0.4867124 0.057485718 1.006
0.49152005 0.057600003 1.008
0.31138098 0.064192384 1.006
0.31808764 0.064192384 1.006
0.34833607 0.062549934 1.006
0.35238743 0.062659435 1.006
0.35641146 0.063234292 1.006
0.41786826 0.062296834 1.0063334
0.42240003 0.062400002 1.008
0.42710546 0.062386673 1.0077777
0.43229106 0.062304132 1.0064445
0.43784955 0.062276199 1.006
0.44168195 0.062276196 1.006
0.44743049 0.061318099 1.006
0.45222098 0.060360003 1.006
0.45755893 0.062002454 1.006
0.46276003 0.062276199 1.006
0.46755052 0.062276196 1.006
0.472341 0.062276199 1.006
0.47713146 0.062276196 1.006
0.48164818 0.061728712 1.006
0.48671243 0.062276196 1.006
0.49209604 0.061632007 1.008
0.3077881 0.068264291 1.006
0.31186002 0.068503812 1.006
0.31736907 0.068264291 1.006
0.32096192 0.068024769 1.006
0.32798797 0.069302224 1.006
0.33277845 0.0686635 1.006
0.33724955 0.068982862 1.006
0.34204003 0.068024769 1.006
0.34733987 0.068317823 1.0062858
0.35220906 0.067851909 1.007
0.35641146 0.068024769 1.006
0.41293907 0.068264291 1.006
0.41753793 0.067641534 1.006
0.42259458 0.068314053 1.00675
0.42755625 0.067474291 1.0073334
0.43229106 0.0680544 1.0064445
0.43784952 0.068024769 1.006
0.44232067 0.067386039 1.006
0.44743049 0.068024769 1.006
0.45222098 0.068024769 1.006
0.4572852 0.068024769 1.006
0.4625608 0.066902101 1.0064
0.46753225 0.067339435 1.0072
0.47233257 0.066929147 1.0067999
0.47696921 0.067727946 1.0063334
0.48000574 0.067066669 1.006
0.422304 0.072652198 1.0064
0.43238735 0.072864138 1.0066667
0.43784952 0.072815247 1.006
0.45317909 0.072815239 1.006
0.45740142 0.072465308 1.0068572
0.46272004 0.071040004 1.008
0.46752003 0.070080005 1.008
0.47136003 0.070080005 1.008
0.47616005 0.070080005 1.008
0.49647862 -0.097562149 1.0117501
0.49202001 -0.092434287 1.011
0.49587145 -0.092434287 1.011
0.48286504 -0.08751072 1.0125002
0.48699835 -0.087933064 1.0114287
0.49073622 -0.088903815 1.011
0.48200631 -0.082998291 1.011
0.47725621 -0.079275243 1.011
0.48046574 -0.079917148 1.011
0.46671063 -0.072764501 1.011
0.46185052 -0.067720957 1.011
0.46506003 -0.068362862 1.011
0.45697203 -0.063741148 1.011
0.37744004 -0.027922859 1.011
0.3803286 -0.027922859 1.011
0.31965145 -0.010622858 1.0140001
0.28488573 -0.0077257147 1.0140001
0.28735718 -0.0077157151 1.0125
0.29068002 -0.0067600003 1.0140001
0.27909145 -0.0019314287 1.0140001
0.28258032 -0.0028939685 1.0126667
0.28741288 -0.0043328577 1.011
0.29238763 -0.0035304765 1.011
0.27798811 0.002894762 1.0135001
0.28067288 0.0024071431 1.011
0.30278718 0.0028928574 1.0125
0.27688479 0.007718096 1.013
0.28019145 0.0077028573 1.011
0.27640465 0.012290359 1.0121251
0.27559909 0.017044762 1.013
0.2744143 0.022145716 1.011
0.27522859 0.020280002 1.0140001
0.49895263 0.047565147 1.011
0.49779722 0.052957147 1.011
0.2712048 0.058092386 1.011
0.49779722 0.057771433 1.011
0.26341555 0.062167354 1.0131428
0.26748696 0.062915511 1.0118572
0.27248859 0.062585719 1.011
0.27730286 0.062585719 1.011
0.49816647 0.061187863 1.0117501
0.26364002 0.06663429 1.0140001
0.47468859 0.070288576 1.011
0.34797907 0.09238667 1.0140001
0.35231099 0.092663348 1.0135
0.35248575 0.095605724 1.0140001
0.40776861 -0.053271431 1.0170001
0.37774289 -0.030025717 1.0170001
0.38161716 -0.030025717 1.0170001
0.37290004 -0.02615143 1.0170001
0.37096289 -0.024214288 1.0170001
0.28766572 -0.010654286 1.0170001
0.31866002 -0.010654286 1.0170001
0.28314576 -0.0074257143 1.0170001
0.27313715 -0.001937143 1.0170001
0.27765718 -0.0029057146 1.0170001
0.27313718 0.0029057143 1.0170001
0.27604288 0.0029057143 1.0170001
0.27410573 0.0077485717 1.0170001
0.26103002 0.063441433 1.0170001
0.3128486 0.088140003 1.0170001
0.3021943 0.090077147 1.0170001
0.30703717 0.090077139 1.0170001
0.31381717 0.090077147 1.0170001
0.31769145 0.090077147 1.0170001
0.32253432 0.090077139 1.0170001
0.32737717 0.091045722 1.0170001
0.33222002 0.091045722 1.0170001
0.33996859 0.09201429 1.0170001
0.34287432 0.09201429 1.0170001
0.34674859 0.092982858 1.0170001
0.34868574 0.095888577 1.0170001
0.37552145 -0.030158574 1.0215001
0.36925432 -0.026305716 1.023
0.37188631 -0.027410859 1.0206001
0.36676574 -0.023348574 1.0215001
0.27767146 -0.010717143 1.023
0.28296098 -0.010696191 1.021
0.28644001 -0.012665715 1.023
0.27491429 -0.0077714291 1.0200001
0.27823716 -0.0077842856 1.0215
0.28166571 -0.0081038103 1.021
0.27491429 -0.0048571434 1.0200001
0.27685717 -0.0048571434 1.0200001
0.27491429 0.012628571 1.0200001
0.27491429 0.017485715 1.0200001
0.27491429 0.022342859 1.0200001
0.27962002 0.086711437 1.023
0.28254288 0.086711437 1.023
0.28768933 0.087135002 1.0222501
0.29268572 0.087515235 1.021
0.29725718 0.088400006 1.0200001
0.29326001 0.090608574 1.023
0.29686478 0.090520002 1.022
0.30285573 0.092837624 1.0224999
0.30809546 0.093228005 1.0218
0.31276384 0.093117155 1.0220001
0.31796762 0.093349539 1.021
0.3225143 0.093257144 1.0200001
0.32698292 0.093451425 1.0200001
0.3325524 0.093580961 1.0200001
0.33708572 0.093257152 1.0200001
0.34291431 0.094228588 1.0200001
0.34680003 0.094228581 1.0200001
0.30787432 0.097428583 1.023
0.31274572 0.097428583 1.0229999
0.31761718 0.097428575 1.023
0.32233 0.097381435 1.0225
0.32769147 0.097239047 1.021
0.33271718 0.097287148 1.0215001
0.33710289 0.097428575 1.023
0.34162763 0.096914291 1.021
0.34680003 0.096171431 1.0200001
0.30819908 0.10100096 1.023
0.31079715 0.10035144 1.023
0.31794193 0.10100096 1.023
0.32233098 0.10127572 1.0225
0.32785195 0.10117667 1.0215001
0.33320576 0.10035144 1.023
0.33710289 0.10035144 1.023
0.34002572 0.10035144 1.023
0.40681717 -0.057000007 1.026
0.36642858 -0.024428573 1.026
0.28434858 -0.016611429 1.026
0.28728002 -0.016611429 1.026
0.29021144 -0.016611429 1.026
0.27848575 -0.013680001 1.026
0.28239432 -0.013680001 1.026
0.28728002 -0.014657144 1.026
0.29086289 -0.013354287 1.026
0.27457717 0.018565716 1.026
0.2550343 0.063514292 1.026
0.27750862 0.087942861 1.026
0.28239429 0.088920005 1.026
0.28728002 0.088920005 1.026
0.28434858 0.090874292 1.026
0.28728002 0.090874292 1.026
0.29151431 0.091525726 1.026
0.29851717 0.093317151 1.026
0.30193716 0.094782867 1.026
0.30291432 0.09771429 1.026
0.30584574 0.09771429 1.026
0.2960743 0.1045543 1.026
0.30291432 0.10162286 1.026
0.30740917 0.10299087 1.026
0.37178099 -0.030409526 1.0300001
0.37679908 -0.032465715 1.033
0.36499336 -0.026562858 1.033
0.36767691 -0.027527383 1.03225
0.2828413 -0.021253971 1.0300001
0.28727847 -0.022569407 1.0303751
0.29153559 -0.021971747 1.033
0.36302572 -0.02459524 1.033
0.2825143 -0.017657144 1.0300001
0.28741905 -0.018638097 1.0300001
0.29293558 -0.018002223 1.031
0.29330477 -0.014714287 1.0300001
0.29612669 -0.012789525 1.033
0.27604908 0.01277381 1.0315001
0.27564764 0.016676191 1.0300001
0.27211812 0.088906199 1.0315001
0.27564764 0.089266673 1.0300001
0.27349907 0.091494292 1.033
0.27760956 0.091228575 1.0300001
0.2825143 0.091228575 1.0300001
0.28797522 0.093371429 1.0320001
0.29134288 0.093190484 1.0300001
0.29526669 0.093190484 1.0300001
0.2882562 0.095429532 1.033
0.29241413 0.096161149 1.0324
0.29741475 0.097011909 1.0315001
0.30078891 0.098518424 1.0310001
0.2986424 0.10314857 1.0315001
0.30132669 0.10305886 1.0306001
0.30507621 0.10496191 1.0300001
0.29219145 0.10526762 1.033
0.29612669 0.10526763 1.033
0.2548067 0.16429619 1.033
0.26366097 0.16429619 1.033
0.25283909 0.19282667 1.033
0.25775811 0.19282669 1.033
0.26255003 0.19273287 1.0325
0.26759622 0.19381049 1.033
0.24841192 0.19725382 1.033
0.25275683 0.19768128 1.0326667
0.25775811 0.19774573 1.033
0.26267716 0.19774574 1.033
0.26759622 0.19774573 1.033
0.27120352 0.19708985 1.033
0.25333098 0.20217286 1.033
0.25775811 0.20168096 1.033
0.26267716 0.20168096 1.033
0.27841812 0.20561621 1.033
0.28038573 0.20561621 1.033
0.25677431 0.21742192 1.033
0.2638762 0.22365716 1.0300001
0.26759622 0.22332478 1.033
0.2638762 0.22660002 1.0300001
0.26746622 0.22714907 1.0325
0.37502953 -0.036612384 1.039
0.37243813 -0.033427048 1.0383999
0.37692595 -0.034158669 1.0366
0.29812789 -0.027192619 1.03825
0.36605334 -0.028613335 1.036
0.29304001 -0.024666669 1.036
0.29737079 -0.022722542 1.0373334
0.36164147 -0.024702383 1.0375
0.29840621 -0.017785715 1.0375
0.29887938 -0.013509207 1.038
0.26747119 0.091464534 1.03825
0.27133334 0.09176001 1.036
0.27706668 0.094004765 1.039
0.28146955 0.093823813 1.0370001
0.28514668 0.093733341 1.036
0.28303772 0.097511619 1.0384001
0.28697658 0.097962745 1.036375
0.29172444 0.098995566 1.036
0.29501334 0.099653341 1.036
0.28873166 0.10283548 1.03825
0.29205334 0.10261334 1.036
0.296 0.10261334 1.036
0.28909335 0.10557334 1.036
0.24243335 0.15931335 1.039
0.24738097 0.15931335 1.039
0.25232857 0.15931335 1.039
0.25727621 0.15931335 1.039
0.26172906 0.15881859 1.039
0.26717144 0.15931335 1.039
0.272416 0.15870358 1.03825
0.27745408 0.15847358 1.0367501
0.28185314 0.15685834 1.0375
0.28749019 0.15708001 1.0373334
0.23847525 0.16327144 1.039
0.24251445 0.16257048 1.0381429
0.24773304 0.16285175 1.0363334
0.25258669 0.16280001 1.0360001
0.25752002 0.1628 1.0360001
0.31763718 0.1781143 1.039
0.32258478 0.1781143 1.039
0.27232003 0.18746668 1.036
0.27693382 0.18692906 1.0385
0.28102478 0.18702002 1.039
0.26778135 0.19121602 1.036
0.27232003 0.19240002 1.0360001
0.27680424 0.19276071 1.0364287
0.28201431 0.19295715 1.039
0.28597239 0.1949362 1.039
0.2733067 0.19634669 1.036
0.27725336 0.19733335 1.0360001
0.2823917 0.19747549 1.0367501
0.28755563 0.19810267 1.039
0.29190955 0.19889429 1.039
0.25258669 0.20424001 1.036
0.25850669 0.20424001 1.036
0.26245335 0.20424001 1.036
0.26778135 0.20345068 1.036
0.27232003 0.20226668 1.0360001
0.27725336 0.20226665 1.0360001
0.28218669 0.20226668 1.0360001
0.28730544 0.20239554 1.0366668
0.29275858 0.20275384 1.0385
0.29745087 0.20403981 1.039
0.25357336 0.20720002 1.036
0.25751999 0.20720001 1.0360001
0.26245335 0.20720001 1.036
0.26738667 0.20720001 1.0360001
0.27232003 0.20720002 1.036
0.27685869 0.20739734 1.036
0.28251556 0.2075289 1.036
0.28712001 0.20720001 1.0360001
0.29205334 0.20720001 1.036
0.2978467 0.20780002 1.039
0.25719115 0.21147557 1.0360001
0.2624712 0.21299501 1.039
0.2674841 0.21237795 1.0385715
0.27236646 0.21299499 1.039
0.27725333 0.21213335 1.0360001
0.28218669 0.21213336 1.0360001
0.28711998 0.21213335 1.0360001
0.29275858 0.2126462 1.0385
0.25883558 0.21673779 1.036
0.26321334 0.21769525 1.039
0.26717144 0.21769525 1.039
0.27211908 0.21769524 1.039
0.27686596 0.21753882 1.03825
0.28201431 0.21769524 1.039
0.28795144 0.21769525 1.039
0.26283336 0.22133192 1.0375
0.26738667 0.22101335 1.0360001
0.27232003 0.22200002 1.0360001
0.27626669 0.22200002 1.0360001
0.28201431 0.22264287 1.039
0.2733067 0.22792001 1.036
0.30069146 -0.012900953 1.0420001
0.26496574 0.090306669 1.0420001
0.26794288 0.094276197 1.0420001
0.27290475 0.094276197 1.0420001
0.2781975 0.096922547 1.0420001
0.28084382 0.097253338 1.0420001
0.28382099 0.10122287 1.0420001
0.28679812 0.10221525 1.0420001
0.2828286 0.15381905 1.0420001
0.28779048 0.15381905 1.0420001
0.23916383 0.15977335 1.0420001
0.24214098 0.15778857 1.0420001
0.24710287 0.15778857 1.0420001
0.25206476 0.15778857 1.0420001
0.2570267 0.15778857 1.0420001
0.26298097 0.15712698 1.0420001
0.39662161 0.16308129 1.0420001
0.3870286 0.16771239 1.0419999
0.39223859 0.16796048 1.0419999
0.39695239 0.16572763 1.0420001
0.38166973 0.17247581 1.0420001
0.38603622 0.17168191 1.0420001
0.28878286 0.18359049 1.0420001
0.29275241 0.1829289 1.0420001
0.29771429 0.18160573 1.0420001
0.30168384 0.18160573 1.0420001
0.3086305 0.18160573 1.0420001
0.31260005 0.18160574 1.0420001
0.31756192 0.18160573 1.0420001
0.32252383 0.18160574 1.0420001
0.28481334 0.18756001 1.0420001
0.28759199 0.18716307 1.0420001
0.29176003 0.18557525 1.0420001
0.28481334 0.19152954 1.0420001
0.28679812 0.1935143 1.0420001
0.28878286 0.19549906 1.0420001
0.29225621 0.19748382 1.0420001
0.29672194 0.19946858 1.0420001
0.29771429 0.20145334 1.0420001
0.30069146 0.20244572 1.0420001
0.30366859 0.20740764 1.0420001
0.28878286 0.22328573 1.0420001
0.30752861 -0.030852383 1.0450001
0.31240383 -0.030940954 1.0480001
0.30354765 -0.027866669 1.0450001
0.30697334 -0.027905241 1.0465001
0.31040764 -0.02794667 1.0480001
0.30354765 -0.022890478 1.0450001
0.30741337 -0.022956192 1.0480002
0.31040764 -0.022956192 1.0480001
0.30354765 -0.017914288 1.0450001
0.30741337 -0.017965715 1.0480001
0.31040764 -0.017965715 1.0480001
0.30354765 -0.012938096 1.0450001
0.28046477 0.0079847621 1.0480001
0.2727221 0.014164383 1.0474001
0.26449525 0.01896381 1.0480001
0.26449525 0.090826675 1.0480001
0.26572859 0.092557147 1.0450001
0.27369049 0.094547622 1.0450001
0.26349717 0.096815243 1.0480001
0.26822954 0.096722864 1.0470001
0.27308667 0.097674765 1.0465001
0.27634445 0.097865082 1.0450001
0.28165239 0.10051905 1.0450001
0.24253716 0.15470478 1.0480001
0.24752763 0.15470478 1.0480001
0.42119622 0.15470478 1.0480001
0.22457144 0.15869716 1.0480001
0.22789843 0.15803176 1.0480001
0.23787124 0.15771696 1.0468
0.2420724 0.15640192 1.0460001
0.2478143 0.15625238 1.0450001
0.25279051 0.15625238 1.0450001
0.41201672 0.15762335 1.0475001
0.41720384 0.15769906 1.0480001
0.42086351 0.15736637 1.0480001
0.39842701 0.16089684 1.0450001
0.40207624 0.16222383 1.0450001
0.40680358 0.16197501 1.0450001
0.41244656 0.16284247 1.047143
0.41740346 0.1622903 1.0480001
0.42019811 0.16169144 1.0480001
0.39809525 0.16819525 1.0450001
0.40236551 0.16732071 1.0457501
0.40722287 0.16768 1.0480001
0.41088256 0.16734731 1.0480001
0.38751814 0.17366986 1.0460001
0.39168862 0.17342144 1.0465001
0.3976686 0.17142811 1.0465001
0.40223241 0.17167239 1.0480001
0.40722287 0.17067429 1.0480001
0.29757622 0.18411906 1.0450001
0.3025524 0.18411906 1.0450001
0.30730706 0.18342857 1.0456002
0.31295192 0.18438335 1.0465001
0.31778479 0.18429525 1.0460001
0.32291859 0.18438335 1.0465001
0.32743338 0.18411906 1.0450001
0.29260004 0.18810001 1.0450001
0.29700667 0.18737477 1.0465001
0.30213335 0.18746382 1.0470001
0.30741334 0.18764192 1.0480001
0.31190479 0.18714288 1.0480001
0.31739432 0.18664382 1.0480001
0.32238474 0.18664382 1.0480001
0.32737523 0.18664382 1.0480001
0.33136761 0.18664382 1.0480001
0.28911668 0.19208097 1.0450001
0.29316097 0.19244857 1.0470001
0.29743239 0.19263239 1.0480002
0.30192384 0.19113524 1.0480001
0.29359525 0.19606192 1.0450001
0.29734901 0.19736877 1.0456002
0.30282211 0.19742325 1.0480001
0.29956669 0.20004287 1.0450001
0.30326787 0.2016793 1.0457501
0.30641526 0.20460954 1.0480001
0.30747241 0.20780432 1.0465001
0.30641526 0.26848763 1.0480001
0.30641526 0.27048382 1.0480001
0.31660193 -0.031059049 1.052
0.31359622 -0.027051428 1.052
0.31359622 -0.022041906 1.052
0.2725181 0.012022858 1.052
0.2675086 0.016030477 1.052
0.26550478 0.093177147 1.052
0.26650667 0.095180959 1.052
0.42280382 0.15228954 1.052
0.4274126 0.15248992 1.052
0.43182099 0.15329143 1.052
0.42380574 0.15930286 1.052
0.42781338 0.15729904 1.052
0.43182099 0.15729906 1.052
0.4358286 0.15830097 1.052
0.42380574 0.16230857 1.052
0.42781338 0.16130668 1.052
0.43182099 0.16130668 1.052
0.4358286 0.16130668 1.052
0.41378668 0.16932191 1.052
0.41779432 0.16681716 1.052
0.42180192 0.1653143 1.052
0.40777525 0.17332953 1.052
0.41245082 0.17199366 1.052
0.39775622 0.17533334 1.052
0.40276575 0.17533335 1.052
0.31359622 0.18936001 1.052
0.31760383 0.18936001 1.052
0.32261336 0.18936001 1.052
0.32762289 0.18936001 1.052
0.33263242 0.18936001 1.052
0.33764192 0.18835811 1.052
0.30357715 0.19336763 1.052
0.30798554 0.19256611 1.052
0.31226036 0.19203176 1.052
0.30257526 0.19537143 1.052
0.30758476 0.19657372 1.052
0.30758479 0.20238477 1.052
0.30958858 0.20539048 1.052
0.3115924 0.20939811 1.052
0.31359622 0.21140192 1.052
0.31560001 0.21340573 1.052
0.32227939 0.25815749 1.052
0.31760383 0.26249906 1.052
0.32261336 0.26249906 1.052
0.32628703 0.26283303 1.052
0.31760383 0.26750863 1.052
0.32241297 0.26710784 1.052
0.32642061 0.26710781 1.052
0.31259429 0.2725181 1.052
0.31760383 0.2715162 1.052
0.30758479 0.27752766 1.052
0.3115924 0.27652574 1.052
0.30758479 0.28153527 1.052
0.31795764 -0.027167147 1.0565001
0.27911049 0.0030228572 1.0580001
0.28112572 0.0030228572 1.0580001
0.27306479 0.009068572 1.0580001
0.27664465 0.0070419051 1.0562857
0.2803286 0.0050238101 1.0550001
0.26865286 0.012072857 1.0565001
0.27120697 0.011732698 1.0560001
0.26563287 0.016100477 1.0565001
0.23768526 0.077550955 1.0575
0.24013811 0.077366672 1.0550001
0.26273811 0.087578095 1.057
0.26500383 0.092700958 1.0580001
0.2629886 0.095723815 1.0580001
0.26500383 0.095723815 1.0580001
0.43162042 0.14803487 1.0574001
0.43279305 0.15119113 1.0560001
0.43689337 0.15200478 1.0570002
0.44234475 0.15315811 1.0580001
0.44758445 0.15255353 1.0580001
0.45040575 0.1531581 1.0580001
0.43707147 0.15746056 1.0550002
0.44264919 0.15761259 1.0568001
0.4473829 0.15618096 1.0580001
0.42802858 0.1637762 1.0550001
0.43204767 0.1637762 1.0550001
0.43687835 0.16288787 1.0557501
0.44192669 0.16207334 1.057
0.41798097 0.16980477 1.0550001
0.42200002 0.16880001 1.0550001
0.42649177 0.16677175 1.057
0.43126097 0.16625716 1.0580001
0.4149667 0.17382382 1.0550001
0.41804132 0.17264891 1.0560001
0.42118478 0.17331049 1.0580001
0.40127814 0.17801143 1.0560001
0.40750575 0.17709097 1.0565001
0.41195241 0.17583334 1.0550001
0.40304765 0.18036382 1.0580001
0.3144905 0.19391906 1.0550001
0.31750476 0.19291431 1.0550001
0.32212669 0.19271335 1.0550001
0.32750669 0.19344611 1.0568001
0.33255142 0.19293393 1.0562
0.33776289 0.19355527 1.0574
0.34210479 0.19319001 1.0565001
0.31248099 0.19760318 1.0550002
0.31818122 0.19735405 1.05725
0.32210225 0.19715746 1.0580001
0.3274762 0.19648571 1.0580001
0.33251432 0.19648573 1.0580001
0.3375524 0.19648573 1.0580001
0.31221029 0.20270362 1.0568001
0.31344703 0.20818096 1.0560001
0.31538478 0.20857716 1.0580001
0.3184416 0.21307653 1.057
0.3214305 0.21462287 1.0580001
0.33217844 0.25828636 1.0580001
0.32788733 0.26090318 1.0550001
0.33212477 0.26243526 1.0574001
0.33233982 0.26711813 1.0568001
0.31750476 0.27430001 1.0550001
0.32293051 0.27269238 1.0550001
0.32755241 0.2722905 1.0550001
0.33103669 0.27167287 1.0565001
0.3144905 0.27731431 1.0550001
0.31795764 0.27770859 1.0565001
0.32243812 0.27810287 1.0580001
0.3274762 0.27575177 1.0580001
0.3315067 0.27508003 1.0580001
0.30745715 0.28434762 1.0550001
0.31248099 0.28233811 1.0550001
0.31740004 0.28213334 1.0580001
0.3214305 0.28112572 1.0580001
0.30846193 0.28736192 1.0550001
0.31169838 0.2875655 1.0557501
0.31619087 0.28717145 1.0580001
0.31298336 0.2928881 1.0550001
0.31691411 0.29240587 1.0575
0.31382066 0.29707462 1.0550001
0.31788689 0.29697412 1.0556002
0.32051906 0.29841432 1.0550001
0.32234192 -0.031324763 1.0610001
0.27866668 -0.0010133334 1.064
0.28170669 -0.0010133334 1.064
0.27461335 0.0030400001 1.064
0.27778879 0.001821143 1.0622
0.27253827 0.007083334 1.0625001
0.27586001 0.0050523812 1.0610001
0.26448002 0.013173334 1.064
0.26714289 0.012141429 1.0625
0.23408002 0.077013344 1.064
0.23544097 0.077806674 1.0610001
0.2590462 0.086011909 1.0625
0.26195812 0.088667937 1.062
0.26224026 0.092138231 1.0631429
0.25232002 0.13882668 1.064
0.45336533 0.13801602 1.064
0.45802671 0.13781334 1.064
0.46174225 0.13815112 1.064
0.46664006 0.13832001 1.064
0.24237783 0.14340068 1.0635716
0.24757513 0.14287941 1.0621251
0.25249091 0.14235865 1.0622858
0.44801909 0.14293049 1.0625
0.45280764 0.14235865 1.0622857
0.45753732 0.14287934 1.0618572
0.46228272 0.14247468 1.064
0.46714666 0.14287999 1.064
0.47221336 0.14288001 1.064
0.47687468 0.14409599 1.064
0.43794042 0.14732744 1.0610001
0.4425886 0.14752953 1.0610001
0.44764099 0.14752953 1.061
0.45269337 0.14752953 1.0610001
0.45774576 0.14752953 1.061
0.46309337 0.14794669 1.064
0.46714672 0.14794667 1.064
0.47221336 0.14794669 1.064
0.47687468 0.14774401 1.064
0.48234671 0.14693335 1.064
0.4425886 0.15056096 1.0610001
0.44663051 0.15056096 1.0610001
0.45319861 0.15207668 1.0610001
0.4577457 0.15258192 1.061
0.46178761 0.15258192 1.0610001
0.46714672 0.15200001 1.064
0.47221336 0.15200001 1.064
0.47687468 0.15179734 1.064
0.44865146 0.15864477 1.0610001
0.45301411 0.15774643 1.0617501
0.45785815 0.15761164 1.0622001
0.46309337 0.15706667 1.064
0.46674138 0.15585068 1.064
0.47221336 0.15504001 1.064
0.44764099 0.16066572 1.0610001
0.45194671 0.16112001 1.064
0.42945242 0.16874954 1.0610001
0.43248385 0.16874954 1.0610001
0.43714431 0.16696429 1.0625
0.44080004 0.16720001 1.064
0.42338955 0.17481239 1.0610001
0.42672312 0.1719031 1.0617501
0.43269336 0.17125334 1.064
0.4122743 0.1788543 1.0610001
0.41690338 0.17809668 1.0625
0.4215467 0.17733334 1.064
0.19502191 0.18087526 1.0610001
0.41242671 0.18206222 1.064
0.32436287 0.19906382 1.0610001
0.32739431 0.19906382 1.0610001
0.33244669 0.19906382 1.0610001
0.33783591 0.19839017 1.0610001
0.34295565 0.19825545 1.0610001
0.34793147 0.1972305 1.0620002
0.31728953 0.20209526 1.0610001
0.32155931 0.20223883 1.0617501
0.32730666 0.20266668 1.064
0.33190477 0.20238239 1.0625
0.33703467 0.20246401 1.064
0.34149337 0.20165335 1.064
0.31767163 0.20685942 1.0616001
0.32224002 0.20773338 1.064
0.32701713 0.2071543 1.064
0.33237335 0.20570669 1.064
0.31830001 0.21118954 1.0610001
0.3219721 0.21206224 1.062
0.32595557 0.21313781 1.064
0.32436287 0.21523145 1.0610001
0.32767463 0.21698636 1.0630001
0.34211147 0.25784785 1.0634
0.33749908 0.26272383 1.0610001
0.34193677 0.26226443 1.0616001
0.34716803 0.26366934 1.064
0.33749905 0.26777622 1.061
0.34153259 0.26752347 1.0616001
0.34554669 0.26650667 1.064
0.33446765 0.27282858 1.0610001
0.3382155 0.27340788 1.0632501
0.34250671 0.27258667 1.064
0.32705748 0.27922827 1.0610001
0.33143622 0.27889144 1.0610001
0.33744001 0.27765337 1.064
0.32284716 0.28343859 1.0610001
0.32785717 0.28333479 1.0625
0.33213976 0.28353405 1.0632501
0.33541337 0.28170669 1.064
0.31830001 0.28798574 1.0610001
0.32155931 0.28717884 1.0617501
0.32690135 0.28758401 1.064
0.33946669 0.28778669 1.064
0.32178718 0.29193383 1.0625
0.27869716 -0.0020342858 1.0680001
0.28276575 -0.0030514288 1.0680001
0.27564573 0.0010171429 1.0680001
0.26954287 0.0091542862 1.0680001
0.27157715 0.0071200007 1.0680001
0.26344001 0.013222858 1.0680001
0.26547429 0.011188572 1.0680001
0.23292573 0.077302858 1.0680001
0.25835431 0.087474287 1.0680001
0.26140574 0.094594292 1.0680001
0.2532686 0.13731429 1.0680001
0.4633086 0.13578859 1.0680001
0.46788573 0.13629715 1.0680001
0.47229338 0.1379924 1.0680001
0.47704005 0.13934858 1.0680001
0.48246479 0.13867049 1.0680001
0.47805718 0.14138287 1.0680001
0.48212576 0.14240001 1.0680001
0.49128002 0.14341715 1.0680001
0.48246479 0.14816383 1.0680001
0.48721144 0.14680763 1.068
0.49128002 0.14545144 1.0680001
0.32243431 0.15358858 1.0680001
0.31836572 0.15562287 1.0680001
0.32040003 0.15562287 1.0680001
0.46381718 0.15969144 1.0680001
0.44856003 0.16376001 1.0680001
0.45364577 0.16376001 1.0680001
0.45771432 0.16172573 1.0680001
0.46178287 0.16172573 1.0680001
0.43838859 0.16986287 1.0680001
0.43330288 0.17393143 1.0680001
0.42720002 0.17698288 1.0680001
0.4312686 0.17596573 1.0680001
0.34277716 0.2034286 1.0680001
0.33362287 0.2085143 1.0680001
0.33769143 0.20648001 1.0680001
0.32853717 0.21156573 1.0680001
0.33057144 0.21258287 1.0680001
0.3315886 0.21766859 1.0680001
0.3366743 0.22072001 1.0680001
0.3478629 0.26140574 1.0680001
0.3509143 0.26344001 1.0680001
0.3478629 0.26852572 1.0680001
0.34684575 0.27157715 1.0680001
0.34277716 0.27869716 1.0680001
0.33870858 0.28276575 1.0680001
0.34237033 0.28296918 1.0680001
0.33301258 0.28907201 1.0680001
0.33769146 0.2868343 1.0680001
0.34209907 0.28649527 1.0680001
0.32752001 0.29293716 1.0680001
0.32446858 0.29598859 1.0680001
0.27885002 -0.0061300006 1.0725
0.28280255 -0.0071479362 1.072
0.2776162 -0.0023838098 1.0730001
0.27438003 0.0020400002 1.0710001
0.23192802 0.072541721 1.0727999
0.45824003 0.084897146 1.074
0.46233147 0.084897146 1.074
0.46642289 0.084897146 1.074
0.25469145 0.086942866 1.074
0.25740144 0.087844297 1.0725
0.4490343 0.08898858 1.074
0.45108002 0.08898858 1.074
0.45824003 0.087965727 1.074
0.46744573 0.086942866 1.074
0.25878286 0.092057154 1.074
0.26010001 0.091800004 1.0710001
0.45926288 0.091034293 1.074
0.26236287 0.096660003 1.074
0.38766289 0.10944572 1.074
0.38357145 0.11251429 1.074
0.38766289 0.11251429 1.074
0.48278862 0.12990287 1.074
0.48790288 0.12990287 1.074
0.49199432 0.12990287 1.074
0.2335524 0.13331239 1.074
0.23696192 0.13331239 1.074
0.24139431 0.1339943 1.074
0.42244002 0.13331239 1.074
0.42755431 0.1339943 1.074
0.47818571 0.13348286 1.074
0.48313087 0.13310115 1.0734
0.48831207 0.13276687 1.074
0.4930172 0.13297144 1.074
0.49710858 0.13297144 1.074
0.47226003 0.13566001 1.0710001
0.4780286 0.13687 1.0725
0.48205203 0.13647601 1.0710001
0.48756003 0.13770001 1.0710001
0.49266005 0.13769999 1.0710001
0.49813145 0.13706286 1.074
0.48756003 0.1428 1.0710001
0.49215004 0.14229001 1.0710001
0.31744218 0.15157501 1.07175
0.32224804 0.15100801 1.0727999
0.32640004 0.15198001 1.0710001
0.45186004 0.16422001 1.0710001
0.45798004 0.16422001 1.0710001
0.46104002 0.16422001 1.0710001
0.44751811 0.16777717 1.072
0.4521029 0.16672572 1.074
0.45517147 0.16672572 1.074
0.43758002 0.17442001 1.0710001
0.4427886 0.17160144 1.0725
0.42942002 0.17850001 1.0710001
0.4326686 0.17900001 1.074
0.34884 0.20298001 1.0710001
0.35292 0.20298001 1.0710001
0.35700002 0.20298001 1.0710001
0.33864003 0.20910001 1.0710001
0.34330803 0.20770231 1.0722001
0.34737319 0.20711601 1.0734
0.3524766 0.20641258 1.074
0.35800004 0.2055943 1.074
0.36209145 0.2055943 1.074
0.33354002 0.21216002 1.0710001
0.33683646 0.2123093 1.07175
0.34129336 0.21241336 1.074
0.33354002 0.21624002 1.0710001
0.33707288 0.2175643 1.0725
0.34061146 0.21786858 1.074
0.33966002 0.22134002 1.0710001
0.34368002 0.22298287 1.074
0.36662123 0.25293797 1.074
0.37129718 0.25469145 1.074
0.36209145 0.25776002 1.074
0.3666943 0.25724858 1.074
0.35800004 0.26185143 1.074
0.36106861 0.26185143 1.074
0.33298716 0.29315001 1.0725
0.33809143 0.29213002 1.0725
0.34061146 0.29356003 1.074
0.32742003 0.29784 1.0710001
0.3324286 0.29714 1.074
0.33754289 0.29662859 1.074
0.34061146 0.29662859 1.074
0.27822667 -0.011293334 1.0780001
0.27822667 -0.0071866671 1.0780001
0.28028002 -0.0092400005 1.0780001
0.27617335 -0.0020533334 1.0780001
0.27343556 0.0023955556 1.0780001
0.25974667 0.013346667 1.0780001
0.22894669 0.072893336 1.0780001
0.23100002 0.071866669 1.0780001
0.46610671 0.083160006 1.0780001
0.25358668 0.088293336 1.0780001
0.25769335 0.089320004 1.0780001
0.45481336 0.088293336 1.0780001
0.45686671 0.088293336 1.0780001
0.4630267 0.088293336 1.0780001
0.46672267 0.088498667 1.0780001
0.47226667 0.087266676 1.0780001
0.47671556 0.087951116 1.0780001
0.25769335 0.092400007 1.0780001
0.44865337 0.092400007 1.0780001
0.45276001 0.092400007 1.0780001
0.45789337 0.092399999 1.0780001
0.46234226 0.092742227 1.0780001
0.46713337 0.092400007 1.0780001
0.4722667 0.092400007 1.0780001
0.25974667 0.09548001 1.0780001
0.44352001 0.099586673 1.0780001
0.44865337 0.097533345 1.0780001
0.45276001 0.097533345 1.0780001
0.45789337 0.097533345 1.0780001
0.4614867 0.09702 1.0780001
0.46713337 0.095480002 1.0780001
0.38664269 0.102872 1.0780001
0.38212535 0.10821067 1.0780001
0.38679668 0.10754334 1.0780001
0.39218673 0.10780001 1.0780001
0.49280003 0.12320001 1.0780001
0.49793339 0.12422667 1.0780001
0.23202668 0.12833335 1.0780001
0.23716001 0.12833335 1.0780001
0.24126668 0.12833335 1.0780001
0.48766673 0.12730667 1.0780001
0.49280003 0.12730667 1.0780001
0.49793339 0.12730668 1.0780001
0.22484002 0.13449334 1.0780001
0.22843336 0.13295335 1.0780001
0.23182134 0.13202934 1.0780001
0.23767334 0.13090001 1.0780001
0.24229336 0.13141334 1.0780001
0.42401335 0.13141334 1.0780001
0.42709336 0.13141334 1.0780001
0.43252006 0.13185334 1.0780001
0.43736002 0.13141334 1.0780001
0.49793339 0.13038668 1.0780001
0.31724003 0.14681335 1.0780001
0.3213467 0.14681335 1.0780001
0.4537867 0.16940001 1.0780001
0.45789337 0.16837335 1.0780001
0.15502667 0.17145334 1.0780001
0.4445467 0.17350668 1.0780001
0.44865337 0.17145334 1.0780001
0.45686671 0.17145334 1.0780001
0.44660002 0.17556001 1.0780001
0.35728002 0.20841335 1.0780001
0.36036003 0.20841335 1.0780001
0.36652002 0.20636001 1.0780001
0.34393334 0.21457335 1.0780001
0.34701335 0.21354669 1.0780001
0.35163337 0.21098001 1.0780001
0.34393334 0.21765333 1.0780001
0.34667113 0.2173111 1.0780001
0.34393334 0.22073334 1.0780001
0.34667113 0.22210222 1.0780001
0.37781334 0.25358668 1.0780001
0.36138669 0.26590669 1.0780001
0.33572003 0.29876003 1.0780001
0.27900097 -0.0072066672 1.0810001
0.27488288 -0.0020590478 1.0810001
0.27282384 0.0010295239 1.0810001
0.25841048 0.012354286 1.0810001
0.26046953 0.011324762 1.0810001
0.22752477 0.072066672 1.0810001
0.22752477 0.077214293 1.0810001
0.47769907 0.083391435 1.0810001
0.47872859 0.085450485 1.0810001
0.38813052 0.09986382 1.0810001
0.39121908 0.09986382 1.0810001
0.43857718 0.098834299 1.0810001
0.44269526 0.09780477 1.0810001
0.37989432 0.10398191 1.0810001
0.38332605 0.10329556 1.0810001
0.39266041 0.10274649 1.0810001
0.39636669 0.10398191 1.0810001
0.37886477 0.10707048 1.0810001
0.38195336 0.10604096 1.0810001
0.23782001 0.12457239 1.0810001
0.24193811 0.12457239 1.0810001
0.25635144 0.12457239 1.0810001
0.49767184 0.12127791 1.0810001
0.22855431 0.12869048 1.0810001
0.23267239 0.12663144 1.0810001
0.23782001 0.12663144 1.0810001
0.24331081 0.12731779 1.0810001
0.24708574 0.12766096 1.0810001
0.25223336 0.12766096 1.0810002
0.33665431 0.14104477 1.0810001
0.31194574 0.14516287 1.0810001
0.31812286 0.14516287 1.0810001
0.46225622 0.16849874 1.0810001
0.44990194 0.17398953 1.0810001
0.4529905 0.17193049 1.0810001
0.45607907 0.17193049 1.0810001
0.36342192 0.20899335 1.0810001
0.36754003 0.20796382 1.0810001
0.37268764 0.2069343 1.0810001
0.3531267 0.21311145 1.0810001
0.35724482 0.21173875 1.0810001
0.34900859 0.21928859 1.0810001
0.35106763 0.21620002 1.0810001
0.34900859 0.22134763 1.0810001
0.35106763 0.22340669 1.0810001
0.35209715 0.22546573 1.0810001
0.26837334 -0.0031085717 1.0880001
0.2722657 -0.0020704763 1.087
0.26800194 0.0025861906 1.0865
0.22661287 0.072434768 1.0865
0.48360002 0.083700009 1.085
0.48773336 0.083700009 1.085
0.49335241 0.083777152 1.0860001
0.48463336 0.085766673 1.085
0.4887667 0.086800009 1.085
0.44743335 0.094033338 1.085
0.23780574 0.11864382 1.0880001
0.2414324 0.11812572 1.0880001
0.22830732 0.12261588 1.0880001
0.23247011 0.12234173 1.0868
0.23730727 0.12186038 1.0862001
0.24196787 0.12201691 1.0857501
0.24742095 0.12215716 1.087
0.22750326 0.12689525 1.0868
0.23198335 0.12555002 1.085
0.24490002 0.12503335 1.085
0.24800003 0.12503335 1.085
0.30774859 0.13988572 1.0880001
0.30793336 0.1426 1.085
0.31172225 0.14225556 1.085
0.31775001 0.14208335 1.085
0.3213667 0.14156668 1.085
0.45776668 0.17463334 1.085
0.46293336 0.17153335 1.085
0.46564147 0.17177191 1.0865
0.36890003 0.20976669 1.085
0.38286051 0.20695382 1.0865
0.3585667 0.21390001 1.085
0.36295074 0.21301454 1.0857501
0.36784765 0.21310985 1.0880001
0.37406477 0.21034668 1.0880001
0.37717336 0.21034668 1.0880001
0.35443336 0.21700001 1.085
0.35802907 0.21730001 1.0865
0.3616305 0.21656382 1.0880001
0.35339999 0.22165003 1.085
0.35783112 0.22278099 1.0880002
0.35802907 0.22661287 1.0865
0.36216667 0.2276462 1.0865
0.22547334 0.067538105 1.0910001
0.22547334 0.072733343 1.0910001
0.22339526 0.11949048 1.0910001
0.22796705 0.11865924 1.0910001
0.23274671 0.11741239 1.0910001
0.23690286 0.11637335 1.0910001
0.24417621 0.11845143 1.0910001
0.24729335 0.11845143 1.0910001
0.2504105 0.11949048 1.0910001
0.21300478 0.12364668 1.0910001
0.21768048 0.12312716 1.0910001
0.2223562 0.12260763 1.0910001
0.22616605 0.12226129 1.0910001
0.31171429 0.1371543 1.0910001
0.38548669 0.20884858 1.0910001
0.37301812 0.21196574 1.0910001
0.37717429 0.21300478 1.0910001
0.38236955 0.21092668 1.0910001
0.38756478 0.2109267 1.0910001
0.36401305 0.21854635 1.0910001
0.36782289 0.21716097 1.0910001
0.37094003 0.21508287 1.0910001
0.36304328 0.22256403 1.0910001
0.36366671 0.22547334 1.0910001
0.36782289 0.22651239 1.0910001
0.37094003 0.22755145 1.0910001
0.2659286 -0.005214286 1.095
0.2242143 0.067785718 1.095
0.25620002 0.095160007 1.098
0.21437144 0.11816572 1.098
0.2176581 0.11875334 1.097
0.22183201 0.11874171 1.0956001
0.22765574 0.11695858 1.0965
0.23047145 0.11575715 1.095
0.38272861 0.21378572 1.095
0.3876048 0.21417619 1.097
0.39107147 0.21378572 1.095
0.37334287 0.2169143 1.095
0.37681338 0.21676572 1.0960001
0.3681286 0.22317144 1.095
0.37176716 0.2224329 1.0965
0.37541145 0.22064573 1.098
0.37334287 0.22734287 1.095
0.37541145 0.22692001 1.098
0.37438574 0.23047145 1.095
0.37751052 0.2320724 1.0960001
0.22354859 0.067169532 1.102
0.25608385 0.092358097 1.102
0.2550343 0.096556202 1.102
0.37887812 0.21935049 1.102
0.38202667 0.21830097 1.102
0.38517526 0.21725145 1.102
0.39672002 0.2151524 1.102
0.3778286 0.22249907 1.102
0.37817845 0.22774668 1.102
0.38097715 0.22984573 1.102
0.38237652 0.23264445 1.102
0.38517526 0.23404382 1.102
0.25783336 -0.001052381 1.105
0.25362381 0.002104762 1.105
0.2574124 0.0023152381 1.105
0.22161621 0.067081593 1.1063334
0.25362381 0.089452386 1.105
0.2557286 0.089452386 1.105
0.25322571 0.093073338 1.1063334
0.2557286 0.091557153 1.105
0.24941429 0.095766671 1.105
0.25353175 0.096701913 1.1076669
0.38411906 0.21994764 1.105
0.38832858 0.21784288 1.105
0.39148575 0.21784288 1.105
0.40727144 0.2157381 1.105
0.37990955 0.22415715 1.105
0.38270575 0.22351049 1.1070001
0.38726985 0.22285621 1.1090001
0.39184669 0.22074382 1.1090001
0.37990955 0.22626191 1.105
0.38270575 0.22772384 1.1070001
0.38656574 0.22813717 1.1090001
0.38411906 0.23047145 1.105
0.38776782 0.23232213 1.1058
0.39268404 0.23754802 1.1066
0.21942002 0.064660005 1.113
0.21942002 0.066780001 1.113
0.22154002 0.068900004 1.113
0.25334001 0.092220008 1.113
0.24486002 0.098580003 1.113
0.24804002 0.098580003 1.113
0.25228 0.098580003 1.113
0.39856005 0.21942002 1.113
0.40280002 0.21942002 1.113
0.40598002 0.21942002 1.113
0.42082003 0.21730001 1.113
0.39220002 0.22366002 1.113
0.39538002 0.22154002 1.113
0.39114001 0.22684002 1.113
0.39220002 0.23214002 1.113
0.39750004 0.23708667 1.113
0.40280002 0.23850001 1.113
0.21788573 0.062708579 1.1160001
0.22001144 0.069085717 1.1160001
0.23382859 0.09140572 1.1160001
0.39750862 0.22320002 1.1160001
0.40176004 0.22213715 1.1160001
0.39432001 0.22745144 1.1160001
0.39644575 0.22745144 1.1160001
0.39432001 0.23170286 1.1160001
0.39697719 0.23329714 1.1160001
0.40176004 0.23701715 1.1160001
0.4070743 0.23914288 1.1160001
0.2149743 0.062032387 1.123
0.21711335 0.062032387 1.123
0.2149743 0.065240957 1.123
0.21773469 0.067734674 1.1218001
0.22887811 0.090909533 1.123
0.23146668 0.090666674 1.12
0.12941238 0.14438573 1.123
0.13244382 0.14312334 1.1215
0.12299524 0.14866382 1.123
0.11443906 0.15294191 1.123
0.1176724 0.15312229 1.1212
0.11331858 0.15714906 1.1225001
0.10802191 0.16363715 1.123
0.43413335 0.21440001 1.12
0.43792051 0.21468715 1.1215
0.42666668 0.21866669 1.12
0.43200004 0.21653335 1.12
0.43529621 0.21711335 1.123
0.40801382 0.22323191 1.1215
0.4106667 0.22080001 1.12
0.4160448 0.22139144 1.123
0.40142575 0.22740382 1.1209999
0.40534955 0.22566953 1.123
0.40133598 0.23268834 1.1207501
0.40534955 0.2331562 1.123
0.40320003 0.23573335 1.12
0.40783873 0.23757844 1.1220001
0.41228622 0.24352716 1.1215
0.21574001 0.059033338 1.1270001
0.22862001 0.093380004 1.1270001
0.23184001 0.093380004 1.1270001
0.28228667 0.11413112 1.1270001
0.28801113 0.11270001 1.1270001
0.12772667 0.14418446 1.1270001
0.11914001 0.14919335 1.1270001
0.12200222 0.14776224 1.1270001
0.11341557 0.15205556 1.1270001
0.11699334 0.15134001 1.1270001
0.10769112 0.15921113 1.1270001
0.11055335 0.15778001 1.1270001
0.10697556 0.1627889 1.1270001
0.46046004 0.20178668 1.1270001
0.43899336 0.21788669 1.1270001
0.44114003 0.21788669 1.1270001
0.44543335 0.21788669 1.1270001
0.41323337 0.22432669 1.1270001
0.41752666 0.22346802 1.1270001
0.42826003 0.22218001 1.1270001
0.43255338 0.2207489 1.1270001
0.4368467 0.22003335 1.1270001
0.40822446 0.22790445 1.1270001
0.41108671 0.22647335 1.1270001
0.40679336 0.23076668 1.1270001
0.40894002 0.23506002 1.1270001
0.41323337 0.24150002 1.1270001
0.41538003 0.25008669 1.1270001
0.21650572 0.057088576 1.131
0.22512287 0.089402862 1.131
0.28260002 0.10836001 1.1340001
0.28728002 0.10800001 1.1340001
0.29209787 0.107785 1.1317501
0.27898002 0.11094572 1.131
0.28257051 0.11166382 1.131
0.28652 0.11202287 1.131
0.13762 0.13268776 1.1327143
0.12744001 0.13932002 1.1340001
0.13234966 0.13720107 1.132125
0.11988001 0.14364001 1.1340001
0.12312001 0.14364001 1.1340001
0.12727144 0.14237002 1.1325001
0.13033429 0.14110573 1.131
0.10368001 0.14796001 1.1340001
0.10800001 0.14796001 1.1340001
0.11217096 0.14776239 1.1325001
0.11721643 0.14739573 1.1317501
0.12279429 0.14541429 1.131
0.097200006 0.15336001 1.1340001
0.10260001 0.15228 1.1339999
0.10785667 0.15207668 1.1325001
0.11094572 0.1529543 1.131
0.092880011 0.15768 1.1340001
0.097200006 0.15768 1.1340001
0.10241715 0.15740192 1.1320001
0.10735524 0.15690382 1.131
0.087480009 0.16308001 1.1340001
0.092880011 0.162 1.1340001
0.097028583 0.16279048 1.1320001
0.10232858 0.16264857 1.131
0.09396001 0.16524 1.1340001
0.46764004 0.19332001 1.1340001
0.47304004 0.19116001 1.1340001
0.47700003 0.19260001 1.1340001
0.46764007 0.19794859 1.1339999
0.46656004 0.20304 1.1340001
0.46209431 0.2057343 1.131
0.46548003 0.20628001 1.1340001
0.44486004 0.21866001 1.131
0.42444003 0.22356002 1.1340001
0.42711288 0.22326431 1.1325001
0.43408859 0.22296859 1.131
0.43790144 0.22326431 1.1325001
0.44221431 0.22218716 1.1325001
0.4468236 0.2223336 1.13325
0.45036003 0.22356002 1.1340001
0.41398191 0.22871335 1.131
0.41757241 0.22799526 1.131
0.42279857 0.22650144 1.1325001
0.42768002 0.22572002 1.1340001
0.43092003 0.22572002 1.1340001
0.41201574 0.23297144 1.1325001
0.41652003 0.23292001 1.1340001
0.42012003 0.23004001 1.1340001
0.41254574 0.23697144 1.131
0.41580003 0.23760003 1.1340001
0.41470003 0.24020287 1.131
0.41759145 0.24278383 1.133
0.42012003 0.24300002 1.1340001
0.41900861 0.24882002 1.131
0.421848 0.247752 1.1340001
0.41900861 0.2509743 1.131
0.42336002 0.25164002 1.1340001
0.42660004 0.25164002 1.1340001
0.21567811 0.055274289 1.138
0.21567811 0.061777148 1.138
0.28504193 0.10729715 1.138
0.13872764 0.12897334 1.138
0.14197905 0.12680572 1.138
0.13258605 0.13258605 1.138
0.1354762 0.13114096 1.138
0.12355429 0.13981144 1.138
0.12825079 0.13692127 1.138
0.11705144 0.14414668 1.138
0.12247048 0.14197905 1.138
0.098626673 0.14739811 1.138
0.10151684 0.14703684 1.138
0.10729715 0.14631429 1.138
0.089956194 0.15498477 1.138
0.093424395 0.15325068 1.138
0.097542867 0.15064953 1.138
0.083453342 0.15932001 1.138
0.087788574 0.15823621 1.138
0.087788574 0.16148762 1.138
0.47254097 0.19400191 1.138
0.47579241 0.19400191 1.138
0.48121148 0.1918343 1.138
0.46712193 0.19616954 1.138
0.47290227 0.19761461 1.138
0.47723746 0.19689208 1.138
0.48012766 0.19616954 1.138
0.47145718 0.20267239 1.138
0.42593718 0.22868383 1.138
0.43244004 0.22760001 1.138
0.43894288 0.2265162 1.138
0.44219431 0.2265162 1.138
0.44544575 0.2265162 1.138
0.42268574 0.23193526 1.138
0.41943431 0.23735432 1.138
0.42702097 0.2481924 1.138
0.42810479 0.25036001 1.138
0.13377716 0.12942667 1.1420001
0.13704 0.12833905 1.1420001
0.14139049 0.12616381 1.1420001
0.12942667 0.13377716 1.1420001
0.13160191 0.13160191 1.1420001
0.12217588 0.13740255 1.1420001
0.12580128 0.13667746 1.1420001
0.10332382 0.14465335 1.1420001
0.1082181 0.14410955 1.1420001
0.11332991 0.14291315 1.1420001
0.11746287 0.14139049 1.1420001
0.12072572 0.14030287 1.1420001
0.094622865 0.14900382 1.1420001
0.0967981 0.1479162 1.1420001
0.088097148 0.1533543 1.1420001
0.091360003 0.15226668 1.1420001
0.082659051 0.15770477 1.1420001
0.087009534 0.15552953 1.1420001
0.4774648 0.1990343 1.1420001
0.47692099 0.20175333 1.1420001
0.42960957 0.22948763 1.1420001
0.43396002 0.22948763 1.1420001
0.4383105 0.2273124 1.1420001
0.44374859 0.22948763 1.1420001
0.44846162 0.22876255 1.1420001
0.45136192 0.22840002 1.1420001
0.42634672 0.23275049 1.1420001
0.44809908 0.23166287 1.1420001
0.42308384 0.23710096 1.1420001
0.42525908 0.23601335 1.1420001
0.42308384 0.24145144 1.1420001
0.42525908 0.24362668 1.1420001
0.42634672 0.24688955 1.1420001
0.14952572 0.11787429 1.146
0.13861144 0.12333144 1.146
0.14188573 0.12333144 1.146
0.1335181 0.12769715 1.146
0.1371562 0.12624191 1.146
0.14079429 0.1255143 1.146
0.12224001 0.13424572 1.146
0.1272606 0.13293602 1.146
0.11285372 0.1377383 1.146
0.11787429 0.13752002 1.146
0.12114858 0.13642858 1.146
0.099320009 0.14297715 1.146
0.10295811 0.14224954 1.146
0.10696001 0.14188571 1.146
0.11132572 0.14079429 1.146
0.092771433 0.14843428 1.146
0.098228574 0.14516 1.146
0.10150287 0.14516 1.146
0.084040008 0.15389144 1.146
0.086950481 0.15243621 1.146
0.090588577 0.15170859 1.146
0.08294858 0.1560743 1.146
0.45512575 0.22810858 1.146
0.42893144 0.23465715 1.146
0.43220574 0.2324743 1.146
0.43875432 0.23029144 1.146
0.44202861 0.23029144 1.146
0.44639432 0.2324743 1.146
0.45294288 0.2324743 1.146
0.42784002 0.23793143 1.146
0.42784002 0.24229717 1.146
0.42893144 0.24557145 1.146
0.43184194 0.24775432 1.146
0.21357144 0.052571431 1.1500001
0.21412858 0.056002859 1.153
0.21685717 0.056952387 1.1500001
0.14824286 0.11310381 1.153
0.1525019 0.11190763 1.1520001
0.14269002 0.11744428 1.1524999
0.14682527 0.11724048 1.1505001
0.15114287 0.11500001 1.1500001
0.13275239 0.12397715 1.152
0.13787495 0.12251303 1.152
0.14238095 0.12157144 1.1500001
0.12298667 0.12847716 1.153
0.12774509 0.12774509 1.153
0.13160001 0.12721191 1.1515
0.10857001 0.13379191 1.1515
0.11204991 0.13309906 1.1512001
0.11729237 0.13263714 1.1509999
0.12266668 0.13142858 1.1500001
0.12704763 0.13033335 1.1500001
0.13033335 0.13033335 1.1500001
0.10327886 0.13748458 1.1512001
0.10716973 0.13741316 1.1506001
0.11061905 0.13690478 1.1500001
0.097087815 0.14223562 1.1506001
0.10185715 0.14128572 1.1500001
0.09179493 0.14665018 1.152
0.095285721 0.14566667 1.1500001
0.43809527 0.23328573 1.1500001
