# .PCD v0.7 - Point Cloud Data file format
VERSION 0.7
FIELDS x y z
SIZE 4 4 4
TYPE F F F
COUNT 1 1 1
WIDTH 348
HEIGHT 1
VIEWPOINT 0 0 0 1 0 0 0
POINTS 348
DATA ascii
-0.10336 -0.042160004 0.71400005
-0.10336 -0.037400004 0.71400005
-0.10676001 -0.033048008 0.71400011
-0.10268001 -0.032640006 0.71400017
-0.099960007 -0.033320002 0.71400005
-0.1066089 -0.026973333 0.71400011
-0.10298224 -0.026671112 0.71400011
-0.099506676 -0.025613336 0.71400005
-0.10628208 -0.021981746 0.71383333
-0.10263208 -0.022430159 0.71366674
-0.098582514 -0.022096312 0.71387506
-0.093840003 -0.021080002 0.71400005
-0.11764 -0.017272003 0.71400011
-0.11288001 -0.017000003 0.71400011
-0.10723518 -0.017775174 0.71392864
-0.10259659 -0.017665001 0.71341681
-0.097850606 -0.017667381 0.71350008
-0.093840003 -0.017680002 0.71400011
-0.12036001 -0.01156 0.71400005
-0.11764 -0.01224 0.71400017
-0.11288 -0.012240003 0.71400005
-0.10742144 -0.012238214 0.713875
-0.10263271 -0.012234285 0.71366686
-0.097885244 -0.012235239 0.71375006
-0.093840003 -0.01224 0.71400011
-0.12036001 -0.0074800006 0.71400005
-0.11764 -0.0074800006 0.71400011
-0.11277541 -0.0074731749 0.71333343
-0.10728953 -0.0074695242 0.71300012
-0.1025362 -0.0074695242 0.71300006
-0.097885169 -0.0074776993 0.71375012
-0.093840003 -0.0074800006 0.71400005
-0.12036001 -0.00068000006 0.71400005
-0.11764 -0.0027200002 0.71400017
-0.11277209 -0.0027172023 0.71331263
-0.1072512 -0.0027147618 0.7127502
-0.1025362 -0.0027161904 0.71300012
-0.097833939 -0.0027183332 0.71337509
-0.12036001 0.0027200002 0.71400005
-0.11764 0.0027200002 0.71400017
-0.11282155 0.0027188095 0.71362507
-0.10728954 0.0027161902 0.71300018
-0.12036001 0.0061200005 0.71400005
-0.11736801 0.0066640005 0.71400005
-0.11286708 0.0074789692 0.71391678
-0.11273365 0.012103047 0.71393335
-0.10584287 -0.04575143 0.71700001
-0.11709429 -0.040400956 0.71900004
-0.11283006 -0.041711748 0.71800005
-0.10763461 -0.042153716 0.71619999
-0.10201295 -0.041868955 0.71600002
-0.097292766 -0.041482285 0.71640003
-0.09344922 -0.042200744 0.71855557
-0.11640954 -0.037661906 0.71900004
-0.11276022 -0.037586033 0.71755558
-0.10775373 -0.037509125 0.71608335
-0.10092191 -0.037504762 0.71600002
-0.097512394 -0.037504762 0.71600002
-0.093724139 -0.037626989 0.7183333
-0.11618128 -0.03332508 0.71900004
-0.11275158 -0.032799687 0.71749997
-0.10887747 -0.032049526 0.71600002
-0.10024001 -0.030685715 0.71600002
-0.097416043 -0.032611355 0.71684611
-0.093884289 -0.033689525 0.71825004
-0.11682038 -0.025884002 0.71900004
-0.11280366 -0.027346188 0.71783334
-0.10883444 -0.02757347 0.71614283
-0.10133106 -0.028776383 0.71600002
-0.097109057 -0.027649185 0.71807146
-0.094180636 -0.025769209 0.71833342
-0.12086572 -0.021168573 0.71700001
-0.11745144 -0.022535557 0.71700001
-0.11261906 -0.022524448 0.7166667
-0.10890303 -0.022963017 0.71616668
-0.096830487 -0.023184763 0.71600002
-0.092848368 -0.022700002 0.71744448
-0.088334292 -0.021227621 0.71900004
-0.12154953 -0.017753333 0.71700001
-0.11660572 -0.019093335 0.71600002
-0.11251429 -0.01841143 0.71600002
-0.10910477 -0.017047619 0.71600002
-0.091470726 -0.017748334 0.71675003
-0.088313498 -0.01780016 0.71883327
-0.12203742 -0.01219279 0.71700001
-0.091422744 -0.012280834 0.71637505
-0.088251121 -0.012314286 0.7183333
-0.12531143 -0.0061628576 0.71900004
-0.12308667 -0.007521905 0.71799999
-0.091375239 -0.0075009526 0.71600002
-0.08748477 -0.0075188894 0.71766669
-0.12576795 -0.0022825401 0.71900004
-0.12229412 -0.0029161042 0.71663642
-0.091375247 -0.0047733337 0.71600002
-0.1259962 0.0027390481 0.71899998
-0.12287167 0.0027300003 0.71675003
-0.12531143 0.0068476195 0.71900004
-0.12253167 0.0076907147 0.71775001
-0.11831048 0.0085238107 0.71600002
-0.12219734 0.012042096 0.7184
-0.11777254 0.01243319 0.71607691
-0.12120286 0.017803811 0.71900004
-0.1174318 0.017752023 0.71687496
-0.11271372 0.018149523 0.71640003
-0.12120286 0.021227621 0.71900004
-0.1173682 0.021501524 0.71900004
-0.11223848 0.022585334 0.71859998
-0.12085429 -0.041200001 0.72100008
-0.11702857 -0.0416 0.72000003
-0.091000579 -0.042136572 0.72060001
-0.089485727 -0.043542858 0.72000003
-0.1214636 -0.037331536 0.72144449
-0.11862858 -0.037714288 0.72000003
-0.090576746 -0.03738898 0.72128582
-0.088825718 -0.03718286 0.72300005
-0.12065318 -0.032966509 0.72116679
-0.11817142 -0.032457147 0.72000003
-0.091512956 -0.032291047 0.72140008
-0.12050877 -0.027070288 0.72140008
-0.11745308 -0.028506124 0.71999997
-0.091762252 -0.027676394 0.72135723
-0.088003948 -0.02684422 0.72271436
-0.084694289 -0.025477145 0.72300005
-0.1258343 -0.021316191 0.72200006
-0.12280838 -0.022417527 0.72200006
-0.091200009 -0.024000002 0.72000003
-0.087569319 -0.023092702 0.72022235
-0.08463572 -0.022019524 0.72250009
-0.1270216 -0.017359367 0.72266674
-0.1241143 -0.017828573 0.72000003
-0.085714288 -0.017828573 0.72000003
-0.083947144 -0.017890478 0.72250009
-0.13014001 -0.012394287 0.72300005
-0.12722549 -0.012379445 0.72208339
-0.1241143 -0.013028572 0.72000003
-0.085714288 -0.012342858 0.72000003
-0.083015457 -0.012223079 0.72223085
-0.13059907 -0.0066561908 0.72300005
-0.12722847 -0.0077267857 0.72112513
-0.082231767 -0.0076807798 0.72118187
-0.079185717 -0.0068857148 0.72300005
-0.1310278 -0.0032131749 0.7228334
-0.12831858 -0.0027438095 0.72050011
-0.13102779 0.0032131746 0.7228334
-0.12886508 0.0022892065 0.72100002
-0.13014001 0.0068857148 0.72300005
-0.12747742 0.0077530616 0.72128582
-0.12673259 0.012146984 0.72188896
-0.1241143 0.013714286 0.72000003
-0.12600859 0.017902859 0.72300005
-0.12355787 0.01784786 0.72075009
-0.12600859 0.022722861 0.72300005
-0.12250306 0.02293467 0.72100008
-0.11753144 0.023451431 0.72000003
-0.11451429 0.024000002 0.72000003
-0.12223797 0.027363176 0.72186673
-0.11725716 0.027428573 0.72000009
-0.1209842 0.03206991 0.7226001
-0.11754709 0.032308575 0.7217778
-0.11743792 0.036897719 0.72280008
-0.087770484 -0.041466668 0.7256667
-0.087089129 -0.037324999 0.72574997
-0.12221429 -0.03107143 0.72500002
-0.087242082 -0.032347009 0.72545445
-0.08366286 -0.031805716 0.72600001
-0.1232732 -0.027537687 0.72542858
-0.08688572 -0.028593907 0.72520006
-0.08492858 -0.028309526 0.72500002
-0.12704763 -0.021404764 0.72500002
-0.12451588 -0.023706349 0.72500008
-0.082194529 -0.021066429 0.72525007
-0.13102096 -0.016348572 0.72533339
-0.12911905 -0.018642858 0.72500002
-0.081531912 -0.017273812 0.72549993
-0.078144342 -0.01701545 0.72755563
-0.13249905 -0.012135238 0.72514284
-0.080785722 -0.013119048 0.72500008
-0.077795245 -0.012554559 0.72657138
-0.13314973 -0.0079044458 0.72522217
-0.077324875 -0.0076169316 0.7271111
-0.13638073 -0.002776905 0.72875005
-0.13393334 -0.0030598643 0.72542858
-0.076781906 -0.0027669845 0.72633332
-0.073692769 -0.0018047619 0.72860003
-0.13339977 0.0027654765 0.72574997
-0.13238028 0.0077987765 0.72557145
-0.13538572 0.013191429 0.72900003
-0.13232231 0.012470081 0.72741669
-0.12911905 0.013119048 0.72500008
-0.13538572 0.015968572 0.72900003
-0.13222583 0.017307304 0.72688895
-0.12845826 0.017266192 0.72516674
-0.1322691 0.021992557 0.72781825
-0.12849537 0.022106549 0.72537494
-0.13113001 0.027752383 0.72850001
-0.12785652 0.027644448 0.72566658
-0.1249762 0.029690478 0.72500002
-0.13122001 0.031937145 0.72900003
-0.12774459 0.032662284 0.72660005
-0.1238254 0.032452378 0.72499996
-0.13122001 0.035408575 0.72900003
-0.12729639 0.037261333 0.72719991
-0.12227096 0.037303329 0.72533327
-0.11945239 0.038666669 0.72500002
-0.12655878 0.042120136 0.72842866
-0.12230399 0.042696364 0.7262727
-0.11945239 0.042809527 0.72500002
-0.12594344 0.046794862 0.72900003
-0.12274201 0.04751724 0.72730005
-0.1223262 0.052227385 0.72875005
-0.075884767 -0.010442858 0.73100001
-0.074492387 -0.011139048 0.73100001
-0.075884767 -0.0090504764 0.73100001
-0.073879533 -0.0076674609 0.7318334
-0.13714953 -0.00069619052 0.73100001
-0.073796198 -0.0048733335 0.73100001
-0.13575715 0.010442858 0.73100001
-0.13454857 0.024400001 0.73200005
-0.13612857 0.027922859 0.73300004
-0.13378297 0.027871072 0.73162502
-0.13347857 0.032788415 0.73250008
-0.13176115 0.038062479 0.73199999
-0.13118351 0.042564765 0.73266667
-0.12879525 0.043163814 0.73100001
-0.13106923 0.047027305 0.73333335
-0.12827404 0.047667485 0.73142862
-0.13072191 0.051030479 0.73400003
-0.127598 0.052294072 0.73211122
-0.12427001 0.053954765 0.73100001
-0.12769464 0.057217788 0.73266673
-0.12395032 0.057797309 0.73116666
-0.12722905 0.062304292 0.73299998
-0.12652762 0.067408159 0.73400009
-0.072247148 0.014028097 0.73650002
-0.13528381 0.03434667 0.73600006
-0.13632397 0.037244603 0.73783344
-0.13397287 0.037877623 0.73650002
-0.13639829 0.041524764 0.73900002
-0.13424572 0.042173337 0.73800004
-0.13611677 0.047999814 0.73900002
-0.13383842 0.048283815 0.7383334
-0.13292739 0.052853815 0.73750001
-0.13275193 0.057595398 0.73750013
-0.13583525 0.064046673 0.73900002
-0.1328415 0.062554926 0.73799998
-0.12967619 0.06308572 0.73600006
-0.13196287 0.065864451 0.7383334
-0.129297 0.067804925 0.73650002
-0.13020477 0.073900007 0.73900002
-0.12820847 0.072083935 0.73662502
-0.13020477 0.076715246 0.73900002
-0.12776919 0.077223927 0.73712504
-0.092839047 0.091961682 0.7385
-0.09688627 0.09738981 0.73871434
-0.093254767 0.096070006 0.73900002
-0.10259895 0.10260062 0.73787516
-0.097427361 0.10265565 0.73900002
-0.10317849 0.10754211 0.73899996
-0.10803477 0.11085001 0.73900002
-0.10346001 0.11085001 0.73900002
-0.13695873 0.043460321 0.74000001
-0.13789843 0.046279367 0.74000001
-0.13770886 0.052682389 0.74150002
-0.13738486 0.057353336 0.74144447
-0.1374668 0.062024903 0.74128574
-0.13712461 0.067149691 0.7421667
-0.13363451 0.068266883 0.74066663
-0.13616613 0.071873888 0.74300003
-0.1326146 0.072657146 0.74066669
-0.13515525 0.075715244 0.74300003
-0.1324719 0.077314131 0.74250007
-0.13090953 0.082791433 0.74300003
-0.12897144 0.08175239 0.74000001
-0.13090953 0.085621908 0.74300003
-0.087535478 0.092479765 0.74124998
-0.091795243 0.097785719 0.74000001
-0.088493414 0.097363733 0.74227279
-0.095142864 0.10219048 0.74000001
-0.092447095 0.10232922 0.74100006
-0.089277342 0.10257753 0.74280006
-0.10078096 0.10853334 0.74000001
-0.097223669 0.10775729 0.74100006
-0.092666589 0.10752247 0.74274999
-0.089867622 0.10685048 0.74300003
-0.1066312 0.11315262 0.74024999
-0.1018381 0.1131143 0.74000001
-0.097485006 0.11232278 0.74175
-0.094113342 0.11251143 0.74300003
-0.10762241 0.11752275 0.74246669
-0.10250811 0.11777897 0.74230009
-0.097757287 0.11728147 0.7427333
-0.10708636 0.1214746 0.74300003
-0.10260477 0.12171049 0.74300003
-0.099066675 0.12100287 0.74300003
-0.14119525 0.053214293 0.74500006
-0.1413216 0.05752413 0.74566674
-0.1397762 0.058890481 0.74500006
-0.14119525 0.061728574 0.74500006
-0.1397762 0.060309529 0.74500006
-0.13800238 0.073435716 0.74500006
-0.136444 0.077664196 0.74540007
-0.13410001 0.078757145 0.74500006
-0.13645738 0.082444534 0.74625009
-0.13352549 0.082388334 0.74575001
-0.13597381 0.086852863 0.74750006
-0.13312739 0.087625243 0.74650007
-0.13197049 0.091419533 0.7470001
-0.13179049 0.097596198 0.74799997
-0.085852385 0.097204767 0.74500006
-0.13207546 0.10272534 0.74800003
-0.086914085 0.10238901 0.74600011
-0.084688343 0.10248072 0.74725008
-0.090109527 0.10997619 0.74500006
-0.087451741 0.10736202 0.74655563
-0.084773339 0.10614477 0.74800003
-0.09160921 0.11291525 0.74566674
-0.088295557 0.11179429 0.74766678
-0.095785722 0.11990953 0.74500006
-0.092532977 0.11745913 0.74607694
-0.089047626 0.11896763 0.74800003
-0.10832065 0.12369365 0.74500006
-0.10174572 0.12388287 0.74500006
-0.097206078 0.12315322 0.74637502
-0.092746928 0.12200234 0.74754548
-0.13642858 0.089285724 0.75000006
-0.13689409 0.092457034 0.75255561
-0.13357143 0.092857152 0.75000006
-0.13643618 0.097249113 0.75266671
-0.13328573 0.096714295 0.75000006
-0.13524 0.10232318 0.75133342
-0.13357143 0.10142858 0.75000006
-0.13536 0.10528 0.75200003
-0.13357143 0.10642858 0.75000006
-0.085000008 0.10857144 0.75000006
-0.083100006 0.10763388 0.75128567
-0.1360762 0.11244192 0.75200003
-0.086322181 0.11268028 0.75085723
-0.083407864 0.11204691 0.75175005
-0.08701662 0.11738913 0.75157148
-0.083868571 0.11684319 0.75266671
-0.090714291 0.12357143 0.75000006
-0.088449121 0.12219442 0.75157148
-0.14030716 0.093537629 0.75550008
-0.14033811 0.097157784 0.75566673
-0.1387762 0.09779048 0.75500005
-0.08155179 0.11719893 0.75612503
-0.086164579 0.12327771 0.75520009
-0.083063543 0.12214639 0.75709999
