# .PCD v0.7 - Point Cloud Data file format
VERSION 0.7
FIELDS x y z
SIZE 4 4 4
TYPE F F F
COUNT 1 1 1
WIDTH 1332
HEIGHT 1
VIEWPOINT 0 0 0 1 0 0 0
POINTS 1332
DATA ascii
0.49354765 -0.29820669 1.0910001
0.49770385 -0.29737547 1.0910001
0.49839655 -0.29266509 1.0910001
0.49978194 -0.2878162 1.0910001
0.49978194 -0.28262097 1.0910001
0.49978194 -0.27846479 1.0910001
0.48416576 -0.29698288 1.098
0.4883486 -0.29698288 1.098
0.49195039 -0.29725751 1.0961251
0.4974429 -0.29596287 1.095
0.45174861 -0.29175431 1.098
0.48416576 -0.29175431 1.098
0.4883486 -0.29175431 1.098
0.49208197 -0.29253432 1.097
0.4974429 -0.29179144 1.095
0.44861147 -0.28548002 1.098
0.45174861 -0.28757143 1.098
0.493368 -0.28840798 1.098
0.49772659 -0.28771836 1.0962858
0.45174861 -0.28234285 1.098
0.49462289 -0.28234285 1.098
0.49838364 -0.28273931 1.0965
0.49462289 -0.27920574 1.098
0.49834958 -0.27895147 1.097
0.45286956 -0.29754001 1.102
0.45759243 -0.29806477 1.102
0.46074098 -0.29701525 1.102
0.47963241 -0.29806477 1.102
0.48278099 -0.29806477 1.102
0.48802862 -0.29806477 1.102
0.4439486 -0.29071811 1.102
0.44709715 -0.29281715 1.1020001
0.45150518 -0.29365677 1.102
0.45759246 -0.29281715 1.1020001
0.46126574 -0.29281718 1.102
0.47963241 -0.29281715 1.102
0.48278096 -0.29281715 1.1020001
0.48718899 -0.29281718 1.102
0.49012765 -0.29281718 1.102
0.4439486 -0.28756952 1.102
0.44709718 -0.28756952 1.102
0.45024574 -0.28861907 1.102
0.4575924 -0.28756952 1.102
0.46074098 -0.28652 1.102
0.48313084 -0.28791937 1.102
0.4869791 -0.28756952 1.102
0.49222669 -0.28756952 1.1020001
0.4439486 -0.28232193 1.102
0.44709715 -0.28232193 1.1020001
0.45150518 -0.28148231 1.102
0.4575924 -0.28337145 1.102
0.48299089 -0.28274173 1.102
0.48697904 -0.28232193 1.1020001
0.49222666 -0.28232193 1.1020001
0.4439486 -0.27812383 1.102
0.44709718 -0.27812383 1.102
0.45234481 -0.27759907 1.102
0.48383051 -0.27707431 1.102
0.48697907 -0.27707431 1.102
0.49222669 -0.27707431 1.1020001
0.49747431 -0.27707431 1.102
0.48383051 -0.27182668 1.102
0.48697907 -0.2728762 1.102
0.49222669 -0.27287623 1.1020001
0.49747431 -0.2728762 1.102
0.48383051 -0.26972765 1.102
0.48697904 -0.26762858 1.1020001
0.49180689 -0.26804841 1.102
0.49712446 -0.26832828 1.102
0.48697907 -0.26238096 1.102
0.49222669 -0.26343051 1.102
0.49747431 -0.26343051 1.102
0.48697907 -0.2592324 1.102
0.44465622 -0.29890192 1.1090001
0.44696119 -0.2984252 1.105
0.45252383 -0.29992861 1.105
0.46357384 -0.29835004 1.105
0.46725717 -0.29677144 1.105
0.47251907 -0.29782382 1.105
0.47778103 -0.29782382 1.105
0.44341746 -0.29221305 1.1076667
0.44515717 -0.2936143 1.105
0.46410003 -0.29150954 1.105
0.4669064 -0.29291272 1.105
0.47189054 -0.29229859 1.1060001
0.477781 -0.29256192 1.105
0.44284898 -0.28729355 1.1066
0.46325812 -0.28730002 1.105
0.46620479 -0.28730002 1.105
0.4722167 -0.28739095 1.1060909
0.47778097 -0.28730002 1.105
0.48146433 -0.28730002 1.105
0.44200003 -0.28203812 1.105
0.45883814 -0.28098574 1.105
0.46304765 -0.28203812 1.105
0.46789241 -0.28305906 1.1090001
0.47277927 -0.28265697 1.1066
0.4774932 -0.28203106 1.1058
0.48163971 -0.28168735 1.105
0.4424473 -0.27797875 1.1070001
0.44748706 -0.27633202 1.1066
0.4512324 -0.27622098 1.1070001
0.45820671 -0.27761811 1.105
0.46313956 -0.27725002 1.1090001
0.46683621 -0.27777812 1.1090001
0.47229412 -0.27780056 1.1072223
0.477781 -0.27782857 1.105
0.48199052 -0.27782857 1.105
0.44888097 -0.27355334 1.1090001
0.4525446 -0.27380326 1.1066
0.45693243 -0.27289304 1.1063334
0.46261147 -0.27249718 1.1090001
0.46683621 -0.27249718 1.1090001
0.4723978 -0.2724402 1.1062001
0.47778103 -0.27256668 1.105
0.48199055 -0.27256668 1.105
0.48514766 -0.27467144 1.105
0.45838672 -0.26721621 1.1090001
0.46240482 -0.26724699 1.1076669
0.46704668 -0.2677905 1.1070001
0.47240424 -0.26773268 1.1061429
0.47791567 -0.2668646 1.1058
0.48199052 -0.26730478 1.105
0.48514766 -0.26730478 1.105
0.49251431 -0.26835716 1.105
0.49777621 -0.26751524 1.105
0.4573305 -0.26193526 1.1090001
0.46255019 -0.26270857 1.1063334
0.46725717 -0.26309526 1.105
0.47273847 -0.26305938 1.1063334
0.47768515 -0.26237771 1.1082002
0.48151591 -0.26270857 1.1063334
0.48514766 -0.26309526 1.105
0.49251431 -0.26204288 1.105
0.49777618 -0.26204288 1.105
0.45690805 -0.25792173 1.1090001
0.46288362 -0.25791836 1.1065001
0.46715289 -0.25859097 1.1060001
0.47187394 -0.25802872 1.1084287
0.47739813 -0.25771049 1.1090001
0.48207077 -0.25803405 1.1070001
0.48720264 -0.25736424 1.1055715
0.49251434 -0.25783336 1.105
0.49751315 -0.25809646 1.105
0.45662639 -0.25383779 1.1090001
0.46303558 -0.25298062 1.1083335
0.46704745 -0.25200707 1.1090001
0.47108343 -0.25264177 1.1072859
0.47739813 -0.25242952 1.1090001
0.4826791 -0.25242952 1.1090001
0.48830935 -0.25246501 1.108
0.49251431 -0.25257143 1.105
0.49672383 -0.25257143 1.105
0.46683621 -0.24714859 1.1090001
0.47131506 -0.24738027 1.1065001
0.47739813 -0.24714859 1.1090001
0.4826791 -0.24714859 1.1090001
0.48823947 -0.24760172 1.1082002
0.4923903 -0.24738027 1.1065001
0.49702418 -0.24745749 1.1056668
0.46683621 -0.24398002 1.1090001
0.47169146 -0.24323192 1.108
0.47739813 -0.24292383 1.1090001
0.48338318 -0.24257176 1.1090001
0.48796004 -0.24292383 1.1090001
0.49246114 -0.24295907 1.1082001
0.49788824 -0.24271259 1.1090001
0.47211719 -0.23975526 1.1090001
0.47739813 -0.23975526 1.1090001
0.48901623 -0.23975526 1.1090001
0.49183273 -0.23905112 1.1090001
0.49746573 -0.23975526 1.1090001
0.44626004 -0.29786003 1.113
0.44414002 -0.29362002 1.113
0.44202003 -0.28726 1.113
0.47170004 -0.28514001 1.113
0.44202003 -0.28302002 1.113
0.47170004 -0.28302002 1.113
0.44308001 -0.27772003 1.113
0.47170004 -0.27878001 1.113
0.44785002 -0.27294999 1.113
0.45262003 -0.27136004 1.113
0.45827332 -0.2710067 1.113
0.45403337 -0.26747334 1.113
0.45827332 -0.26676667 1.113
0.45368004 -0.26288003 1.113
0.45389205 -0.25800404 1.113
0.46110004 -0.25652003 1.113
0.45474002 -0.25228 1.113
0.45756671 -0.25192666 1.113
0.46180668 -0.25192666 1.113
0.45756671 -0.24839334 1.113
0.46216005 -0.24910001 1.113
0.46534002 -0.24804002 1.113
0.46852005 -0.24168003 1.113
0.47170004 -0.24168003 1.113
0.47594002 -0.24168003 1.113
0.48283005 -0.24221003 1.113
0.48724666 -0.24203336 1.113
0.46852005 -0.23850001 1.113
0.47276002 -0.23850001 1.113
0.47735336 -0.23779334 1.113
0.48230004 -0.23850001 1.113
0.48760003 -0.23850001 1.113
0.4914867 -0.2370867 1.113
0.49661002 -0.23797002 1.113
0.47170004 -0.23320001 1.113
0.47806004 -0.23214002 1.113
0.48336005 -0.23214002 1.113
0.49290004 -0.23320001 1.113
0.49714005 -0.14098001 1.113
0.44533718 -0.29653716 1.1160001
0.44321147 -0.29334861 1.1160001
0.44321147 -0.28803429 1.1160001
0.44108576 -0.28272003 1.1160001
0.44321147 -0.27740574 1.1160001
0.44533718 -0.27528003 1.1160001
0.44675431 -0.27244574 1.1160001
0.44888005 -0.26819432 1.1160001
0.45242286 -0.26748574 1.1160001
0.4485257 -0.26252577 1.1160001
0.45171431 -0.26252571 1.1160001
0.44888005 -0.25756574 1.1160001
0.45242286 -0.25685716 1.1160001
0.44888005 -0.25260574 1.1160001
0.45277715 -0.25296 1.1160001
0.4495886 -0.24870859 1.1160001
0.45277715 -0.24870859 1.1160001
0.45649719 -0.2471143 1.1160001
0.46234295 -0.24658288 1.1160001
0.46659431 -0.24552001 1.1160001
0.45702863 -0.24233145 1.1160001
0.46234289 -0.24233143 1.1160001
0.46659431 -0.24233145 1.1160001
0.45702863 -0.23808002 1.1160001
0.46234289 -0.23808002 1.1160001
0.46730289 -0.23772573 1.1160001
0.47190863 -0.23701715 1.1160001
0.47616005 -0.23701715 1.1160001
0.48253715 -0.23701715 1.1160001
0.48785147 -0.23701715 1.1160001
0.49848002 -0.23701715 1.1160001
0.45384002 -0.23489144 1.1160001
0.45702863 -0.23276573 1.1160001
0.46234295 -0.2327657 1.1160001
0.46765718 -0.23276572 1.1160001
0.47137719 -0.2322343 1.1160001
0.47616005 -0.23276572 1.1160001
0.4823246 -0.23276572 1.1160001
0.48811716 -0.23276575 1.1160001
0.4926343 -0.2322343 1.1160001
0.4972046 -0.23319086 1.1160001
0.45809147 -0.22745144 1.1160001
0.46234289 -0.22745144 1.1160001
0.46765718 -0.22745144 1.1160001
0.47190863 -0.22745144 1.1160001
0.47722292 -0.22745144 1.1160001
0.48253715 -0.22745144 1.1160001
0.48732007 -0.22798288 1.1160001
0.49210289 -0.2285143 1.1160001
0.46765715 -0.22426288 1.1160001
0.47297147 -0.22320002 1.1160001
0.47722289 -0.22320002 1.1160001
0.48253715 -0.22320001 1.1160001
0.48572576 -0.22320002 1.1160001
0.44355455 -0.29712835 1.12225
0.44693336 -0.29973334 1.12
0.44219005 -0.29265812 1.1215
0.4395743 -0.28663242 1.123
0.44189501 -0.28819358 1.12075
0.4395743 -0.2823543 1.123
0.44106671 -0.28213334 1.12
0.4395743 -0.27914575 1.123
0.44296169 -0.27751979 1.1207501
0.44399434 -0.27271694 1.1212
0.44693336 -0.27200001 1.12
0.4395743 -0.26631144 1.123
0.44330859 -0.2673279 1.1208571
0.4474667 -0.26773334 1.12
0.4395743 -0.26310289 1.123
0.44286335 -0.26251766 1.1205
0.44693336 -0.26240003 1.12
0.43871871 -0.25732744 1.123
0.44283608 -0.25777376 1.1204284
0.44764447 -0.25777781 1.12
0.43850479 -0.25347716 1.123
0.44313985 -0.25392419 1.1212
0.44748747 -0.25255635 1.1205
0.44807714 -0.2480783 1.1218001
0.45226669 -0.24640001 1.12
0.45546669 -0.24640001 1.12
0.44794682 -0.24227132 1.121875
0.45226669 -0.24213336 1.12
0.45546666 -0.24213333 1.12
0.44772956 -0.23722287 1.122
0.45226669 -0.23680001 1.12
0.45546669 -0.23786668 1.12
0.44813052 -0.2331562 1.123
0.45180237 -0.23284431 1.1215
0.45546669 -0.23253335 1.12
0.45291924 -0.22841923 1.1225001
0.45699051 -0.22689524 1.12
0.46293336 -0.22506668 1.12
0.46613336 -0.22506668 1.12
0.47253338 -0.22506668 1.12
0.48960003 -0.22613335 1.12
0.49280006 -0.22613335 1.12
0.49751052 -0.22740097 1.1209999
0.45851788 -0.22284643 1.12225
0.46253961 -0.22177163 1.1206
0.46720004 -0.22186668 1.12
0.4721067 -0.22165334 1.12
0.47786671 -0.22080001 1.12
0.48213339 -0.22080001 1.12
0.48800004 -0.22133335 1.12
0.49312931 -0.22201455 1.12075
0.49732861 -0.22246096 1.123
0.45882574 -0.21818286 1.123
0.46268955 -0.2179886 1.1220001
0.46720004 -0.21760002 1.12
0.47286502 -0.21816249 1.1218001
0.4771179 -0.21774501 1.12075
0.48174995 -0.21750268 1.1206
0.48640001 -0.21760002 1.12
0.49198097 -0.21818288 1.123
0.49518955 -0.21925239 1.123
0.46738195 -0.2149743 1.123
0.47807717 -0.21390477 1.123
0.48226652 -0.21388896 1.1218001
0.48705146 -0.21361762 1.1215
0.49091145 -0.21390477 1.123
0.44185558 -0.29731336 1.1270001
0.44114003 -0.29194668 1.1270001
0.43899336 -0.28228667 1.1270001
0.43899336 -0.27692002 1.1270001
0.44221336 -0.27692002 1.1270001
0.43899336 -0.27155334 1.1270001
0.44221336 -0.27262667 1.1270001
0.43899336 -0.26726002 1.1270001
0.44114003 -0.26940668 1.1270001
0.43792003 -0.26189336 1.1270001
0.4368467 -0.25760001 1.1270001
0.43899336 -0.25223336 1.1270001
0.44221336 -0.25116003 1.1270001
0.44543335 -0.25116003 1.1270001
0.44328669 -0.24794002 1.1270001
0.44686449 -0.2465089 1.1270001
0.44543335 -0.24257335 1.1270001
0.44328669 -0.23935334 1.1270001
0.44597003 -0.23667002 1.1270001
0.44758001 -0.23219781 1.1270001
0.4497267 -0.22754668 1.1270001
0.45258892 -0.2271889 1.1270001
0.45402002 -0.22432669 1.1270001
0.45724005 -0.22325334 1.1270001
0.49910003 -0.22003335 1.1270001
0.4626067 -0.21574001 1.1270001
0.46904671 -0.21574001 1.1270001
0.47334003 -0.21574001 1.1270001
0.47656003 -0.21574001 1.1270001
0.49480671 -0.21574001 1.1270001
0.49766889 -0.21717113 1.1270001
0.46797335 -0.21252002 1.1270001
0.47226667 -0.21252002 1.1270001
0.47834888 -0.21216224 1.1270001
0.48264226 -0.21216224 1.1270001
0.48729336 -0.21144669 1.1270001
0.49266005 -0.21216224 1.1270001
0.47870669 -0.20930001 1.1270001
0.43848002 -0.29808003 1.1340001
0.44055146 -0.29729146 1.131
0.43752468 -0.29231322 1.1336249
0.44055146 -0.29298288 1.131
0.43681955 -0.28690049 1.1325001
0.44055146 -0.28867429 1.131
0.4366267 -0.28246096 1.1320001
0.43669468 -0.27755395 1.132875
0.43308002 -0.27216002 1.1340001
0.43687961 -0.27210736 1.1318572
0.44055146 -0.27467144 1.131
0.43308002 -0.26784003 1.1340001
0.43662667 -0.26736763 1.1320001
0.43308005 -0.26244003 1.1340001
0.4356412 -0.26259318 1.1328001
0.43308002 -0.25812003 1.1340001
0.43646049 -0.25705859 1.1325001
0.43956003 -0.25272 1.1340001
0.44055146 -0.2509743 1.131
0.43956003 -0.24948001 1.1340001
0.44227487 -0.24752745 1.131
0.4470143 -0.24882002 1.131
0.44258252 -0.24270608 1.1313751
0.4430953 -0.23718096 1.1320001
0.4430953 -0.23394668 1.1320001
0.44706574 -0.23135287 1.1325001
0.44769025 -0.22762002 1.1327143
0.45172003 -0.22532193 1.1320001
0.44712001 -0.22248001 1.1340001
0.45191956 -0.22218525 1.1325001
0.45735487 -0.22167602 1.131
0.45211908 -0.21796763 1.133
0.45798719 -0.21767859 1.1315001
0.45306003 -0.21438001 1.1340001
0.45859337 -0.21365143 1.133
0.46305922 -0.21204858 1.1318573
0.46694145 -0.2116586 1.131
0.47178859 -0.21004286 1.131
0.47663572 -0.21165857 1.131
0.48363718 -0.21004286 1.131
0.48686862 -0.21004286 1.131
0.49117717 -0.21004286 1.131
0.49751949 -0.21198916 1.1322
0.46290955 -0.2082562 1.133
0.46757603 -0.20692344 1.1328001
0.47241431 -0.2070843 1.1325001
0.47717428 -0.20681143 1.131
0.48288074 -0.20694786 1.1317501
0.48751432 -0.2070843 1.1325001
0.4916867 -0.20753621 1.133
0.47196004 -0.20412001 1.1340001
0.47801623 -0.20394002 1.133
0.48276004 -0.20340002 1.1340001
0.48708004 -0.20412001 1.1340001
0.48319861 -0.13697857 1.1325001
0.48579147 -0.13679715 1.131
0.43460765 -0.29588002 1.138
0.43677527 -0.29696381 1.138
0.43460765 -0.29262859 1.138
0.43460765 -0.28937715 1.138
0.43460765 -0.28179049 1.138
0.43460765 -0.27745527 1.138
0.43244004 -0.27203619 1.138
0.43244004 -0.26553336 1.138
0.43244004 -0.26336575 1.138
0.43460765 -0.25686288 1.138
0.43807584 -0.25296116 1.138
0.43894288 -0.2481924 1.138
0.44111049 -0.24710858 1.138
0.44544575 -0.23193526 1.138
0.44544575 -0.22760001 1.138
0.44761336 -0.22145844 1.138
0.44905841 -0.2171232 1.138
0.45303243 -0.21351048 1.138
0.45845145 -0.21134287 1.138
0.46061909 -0.21134287 1.138
0.45845145 -0.20917526 1.138
0.46224478 -0.20754954 1.138
0.49746859 -0.20845272 1.138
0.46798897 -0.20310593 1.138
0.47254097 -0.20267239 1.138
0.47651494 -0.20339493 1.138
0.48012766 -0.20267239 1.138
0.49204957 -0.20484002 1.138
0.4461683 -0.10585207 1.138
0.44544575 -0.10296191 1.138
0.43396002 -0.29800764 1.1420001
0.43613526 -0.29909524 1.1420001
0.42960957 -0.29474479 1.1420001
0.43308991 -0.29256955 1.1420001
0.43396002 -0.28821906 1.1420001
0.43613526 -0.28713143 1.1420001
0.43308991 -0.27690786 1.1420001
0.43396002 -0.27081716 1.1420001
0.43287241 -0.26755428 1.1420001
0.43287241 -0.2632038 1.1420001
0.43396005 -0.25776574 1.1420001
0.43613526 -0.2555905 1.1420001
0.43686035 -0.25196508 1.1420001
0.4383105 -0.24797717 1.1420001
0.44048575 -0.24688955 1.1420001
0.44211715 -0.24308288 1.1420001
0.44193593 -0.23746349 1.1420001
0.44483623 -0.23275049 1.1420001
0.44483623 -0.22948763 1.1420001
0.44701147 -0.2218743 1.1420001
0.44918668 -0.21643621 1.1420001
0.45136192 -0.21426097 1.1420001
0.45680004 -0.21208572 1.1420001
0.45734385 -0.20827907 1.1420001
0.4616943 -0.20610382 1.1420001
0.46658862 -0.20556001 1.1420001
0.49921718 -0.20773526 1.1420001
0.46368828 -0.20265968 1.1420001
0.46658862 -0.20229715 1.1420001
0.47202671 -0.20120953 1.1420001
0.4785524 -0.20120953 1.1420001
0.48181528 -0.20120953 1.1420001
0.46803877 -0.19830923 1.1420001
0.47528955 -0.1990343 1.1420001
0.48181528 -0.14030287 1.1420001
0.48399052 -0.13812762 1.1420001
0.48725337 -0.13595238 1.1420001
0.49051622 -0.13595238 1.1420001
0.48616573 -0.13377716 1.1420001
0.45788765 -0.11637525 1.1420001
0.44483623 -0.10549905 1.1420001
0.44701147 -0.10984953 1.1420001
0.44483623 -0.10332382 1.1420001
0.42893144 -0.29686859 1.146
0.43220574 -0.29796001 1.146
0.42893144 -0.29250288 1.146
0.43184194 -0.29286668 1.146
0.42893144 -0.28813717 1.146
0.43220574 -0.28813717 1.146
0.43548003 -0.28704575 1.146
0.42838573 -0.28268003 1.146
0.43220577 -0.28268 1.146
0.43548003 -0.28377146 1.146
0.43111432 -0.27722287 1.146
0.43220574 -0.27285716 1.146
0.43184194 -0.26740003 1.146
0.43329716 -0.26194286 1.146
0.43329716 -0.25757718 1.146
0.43329716 -0.25430286 1.146
0.43548003 -0.25321144 1.146
0.4376629 -0.24775431 1.146
0.43984574 -0.24229717 1.146
0.44202861 -0.24229717 1.146
0.44202861 -0.23684001 1.146
0.44312 -0.23247431 1.146
0.44348383 -0.22738098 1.146
0.44639432 -0.22701716 1.146
0.44421145 -0.22374287 1.146
0.44639432 -0.22265145 1.146
0.44784954 -0.21864955 1.146
0.45076004 -0.21501145 1.146
0.45221528 -0.21210098 1.146
0.45512575 -0.21173716 1.146
0.45294288 -0.20846286 1.146
0.45621717 -0.20737144 1.146
0.45876384 -0.20336954 1.146
0.46240196 -0.20264192 1.146
0.46276575 -0.19973144 1.146
0.46604005 -0.19973144 1.146
0.47368002 -0.19864 1.146
0.47840956 -0.19827621 1.146
0.48241144 -0.19973144 1.146
0.48132002 -0.14079429 1.146
0.48241144 -0.13752002 1.146
0.48568574 -0.13642858 1.146
0.48677719 -0.1331543 1.146
0.49005145 -0.13424572 1.146
0.45730859 -0.11678287 1.146
0.44639432 -0.11023429 1.146
0.44421145 -0.10586858 1.146
0.44639432 -0.10805143 1.146
0.44421145 -0.10259429 1.146
0.4275907 -0.29771221 1.1517999
0.42780653 -0.29229447 1.1512001
0.42496288 -0.28660288 1.153
0.42742077 -0.28714028 1.15075
0.42496288 -0.28440669 1.153
0.42715096 -0.2818419 1.1515
0.42879671 -0.27855194 1.1515
0.43042859 -0.27819049 1.1500001
0.43097621 -0.2721667 1.1500001
0.43042859 -0.26723811 1.1500001
0.43152383 -0.26285717 1.1500001
0.43152383 -0.25738096 1.1500001
0.43318143 -0.25223288 1.1515
0.43427861 -0.24784669 1.1515
0.43700004 -0.24752383 1.1500001
0.437893 -0.24361563 1.1512001
0.43919051 -0.23985715 1.1500001
0.44096309 -0.23747544 1.1512001
0.43814003 -0.2338943 1.153
0.4408586 -0.23249334 1.1515
0.44141063 -0.22705142 1.1517143
0.44338727 -0.22224097 1.1517999
0.44576195 -0.22123811 1.1500001
0.44472861 -0.21742287 1.153
0.44714788 -0.21699786 1.15075
0.45014289 -0.21576191 1.1500001
0.44912097 -0.21303049 1.153
0.45126447 -0.21229494 1.151
0.44912097 -0.20754001 1.153
0.45237932 -0.20730779 1.1517143
0.45452383 -0.2037143 1.1500001
0.45744446 -0.20334922 1.1500001
0.47725716 -0.19638859 1.1520001
0.48300004 -0.1982381 1.1500001
0.47812057 -0.13689634 1.1525714
0.48080957 -0.13800001 1.1500001
0.47327909 -0.13177145 1.153
0.47704908 -0.13160048 1.1515
0.48190477 -0.13252382 1.1500001
0.48573813 -0.13252382 1.1500001
0.47218099 -0.12737906 1.153
0.47684097 -0.12715809 1.151
0.4819048 -0.12814286 1.1500001
0.46859163 -0.12257563 1.1512001
0.47314289 -0.12266668 1.1500001
0.45311812 -0.11666223 1.152
0.4567143 -0.11719048 1.1500001
0.46189716 -0.11958858 1.152
0.46766672 -0.11938096 1.1500001
0.47204766 -0.11938096 1.1500001
0.44472861 -0.11200573 1.153
0.44687971 -0.11217746 1.151
0.43866527 -0.10637668 1.1515
0.44227847 -0.10766552 1.1512001
0.44576195 -0.10842858 1.1500001
0.43374765 -0.10212287 1.153
0.437893 -0.10284077 1.1512001
0.44247621 -0.10295239 1.1500001
0.43373317 -0.0985061 1.1517999
0.43809527 -0.098571435 1.1500001
0.44138098 -0.09966667 1.1500001
0.42643717 -0.29751432 1.1570001
0.42643717 -0.29310668 1.1570001
0.42313147 -0.28759715 1.1570001
0.42643717 -0.28980097 1.1570001
0.42643717 -0.28208762 1.1570001
0.42753908 -0.27768001 1.1570001
0.43084478 -0.2765781 1.1570001
0.42864099 -0.2732724 1.1570001
0.43084478 -0.2732724 1.1570001
0.42864099 -0.26776287 1.1570001
0.43084478 -0.26776287 1.1570001
0.42864099 -0.26225334 1.1570001
0.43084478 -0.26225334 1.1570001
0.43084478 -0.25894764 1.1570001
0.43304861 -0.25013241 1.1570001
0.4352524 -0.24572478 1.1570001
0.43819082 -0.24205177 1.1570001
0.43892542 -0.23837875 1.1570001
0.43892542 -0.23250192 1.1570001
0.43966004 -0.2269924 1.1570001
0.44186383 -0.22258478 1.1570001
0.44333306 -0.21854447 1.1570001
0.44406766 -0.21487144 1.1570001
0.44737339 -0.21266763 1.1570001
0.44847527 -0.20826001 1.1570001
0.45067906 -0.20826001 1.1570001
0.4793286 -0.19503716 1.1570001
0.48373622 -0.19724096 1.1570001
0.47381905 -0.13773811 1.1570001
0.47712478 -0.13884002 1.1570001
0.47161525 -0.13222858 1.1570001
0.47051337 -0.12782097 1.1570001
0.45839241 -0.12120953 1.1570001
0.46280003 -0.12341334 1.1570001
0.46684036 -0.12378064 1.1570001
0.45178097 -0.11680191 1.1570001
0.44296575 -0.11129238 1.1570001
0.43855813 -0.10798667 1.1570001
0.43304861 -0.10137524 1.1570001
0.43745622 -0.10468096 1.1570001
0.43084478 -0.095865719 1.1570001
0.2523362 -0.012120953 1.1570001
0.42348859 -0.29743716 1.161
0.42570004 -0.29743716 1.161
0.42275143 -0.29154003 1.161
0.42570004 -0.29190859 1.161
0.42201433 -0.28711715 1.161
0.42570004 -0.28638002 1.161
0.42348859 -0.28306288 1.161
0.42570004 -0.28306288 1.161
0.4262529 -0.27698144 1.161
0.42680573 -0.27200574 1.161
0.41906574 -0.26647717 1.161
0.42275146 -0.26721433 1.161
0.42680576 -0.26758289 1.161
0.42238289 -0.26316002 1.161
0.42680573 -0.26316002 1.161
0.42348859 -0.25763145 1.161
0.42643717 -0.25910571 1.161
0.43122858 -0.25873715 1.161
0.43675718 -0.24325716 1.161
0.43731004 -0.2377286 1.161
0.4389686 -0.23220001 1.161
0.4389686 -0.22888288 1.161
0.44560289 -0.21340287 1.161
0.48319718 -0.19571145 1.161
0.47214004 -0.13710858 1.161
0.46771717 -0.13268572 1.1610001
0.4621886 -0.12826286 1.161
0.46771717 -0.12826286 1.1610001
0.45371148 -0.12126001 1.161
0.45739719 -0.12273429 1.161
0.46108288 -0.12494572 1.161
0.44707718 -0.11683714 1.161
0.45113146 -0.11720572 1.161
0.44191718 -0.11315143 1.161
0.44560289 -0.11388858 1.161
0.43749431 -0.1072543 1.161
0.4323343 -0.10062001 1.161
0.43086004 -0.097671442 1.161
0.25099716 -0.012162858 1.161
0.27642858 -0.0033171431 1.161
0.41385239 -0.29846191 1.1650001
0.41789716 -0.29786479 1.1670001
0.42161906 -0.29735237 1.1650001
0.41718096 -0.29291433 1.1650001
0.42124924 -0.29328418 1.1650001
0.41718096 -0.28958574 1.1650001
0.42124924 -0.28736666 1.1650001
0.42346826 -0.28144923 1.1650001
0.42383811 -0.27738094 1.1650001
0.42296925 -0.27309969 1.1656667
0.42161906 -0.26961431 1.1650001
0.42383814 -0.2607381 1.1650001
0.42938575 -0.25851905 1.1650001
0.43283844 -0.25733301 1.1663333
0.43308669 -0.25495335 1.169
0.43605557 -0.25272667 1.169
0.43754002 -0.24827334 1.169
0.43754002 -0.24270669 1.169
0.43754002 -0.23936668 1.169
0.43826193 -0.23300001 1.1650001
0.44270003 -0.22523335 1.1650001
0.45712385 -0.12759525 1.1650001
0.46045241 -0.12870477 1.1650001
0.4523159 -0.12241747 1.1650001
0.44713813 -0.11871906 1.1650001
0.45157623 -0.11871906 1.1650001
0.43782878 -0.11273658 1.1674001
0.44048098 -0.11428096 1.1650001
0.43649429 -0.1074002 1.1674001
0.43234384 -0.10225143 1.1670001
0.42900956 -0.097805724 1.1670001
0.42362335 -0.091850005 1.169
0.42764542 -0.093094923 1.1683334
0.4316048 -0.094309531 1.1650001
0.42269555 -0.08721111 1.169
0.42640668 -0.087953337 1.169
0.24382001 -0.010020001 1.169
0.24742383 -0.012204763 1.1650001
0.2425216 -0.0062936507 1.1663333
0.43456861 -0.25359145 1.1730001
0.43680289 -0.25135717 1.1730001
0.43792003 -0.24800573 1.1730001
0.44201621 -0.1761362 1.1730001
0.4502086 -0.17539144 1.1730001
0.43680289 -0.11171429 1.1730001
0.43278116 -0.10746916 1.1730001
0.42339718 -0.10166001 1.1730001
0.4267486 -0.10166001 1.1730001
0.43121716 -0.10277715 1.1730001
0.42339718 -0.098308578 1.1730001
0.4267486 -0.098308578 1.1730001
0.42205659 -0.093169719 1.1730001
0.42116287 -0.087137148 1.1730001
0.43380859 -0.25445622 1.177
0.4360505 -0.25221431 1.177
0.43754509 -0.24773049 1.177
0.43829241 -0.24324669 1.177
0.43829241 -0.17711049 1.177
0.44053432 -0.17711049 1.177
0.44726002 -0.17711048 1.177
0.43829241 -0.17374763 1.177
0.44165528 -0.17262667 1.177
0.44681168 -0.17285085 1.177
0.44202891 -0.16851652 1.177
0.42820382 -0.10761144 1.177
0.43156669 -0.10649049 1.177
0.4221507 -0.10335182 1.177
0.42820382 -0.10424858 1.177
0.43156669 -0.10424858 1.177
0.41811526 -0.097522862 1.177
0.42125392 -0.097971246 1.177
0.41699427 -0.091918103 1.177
0.42035717 -0.091918096 1.177
0.41363147 -0.086313337 1.177
0.4169943 -0.087434292 1.177
0.42035717 -0.087434292 1.177
0.41363147 -0.084071435 1.177
0.41662064 -0.083324134 1.177
0.42147812 -0.084071435 1.177
0.43528289 -0.25307146 1.1810001
0.4375324 -0.24857239 1.1810001
0.45215431 -0.17883715 1.1810001
0.43190861 -0.17208858 1.1810001
0.4375324 -0.17265095 1.1810001
0.4285343 -0.16758953 1.1810001
0.43190861 -0.16758953 1.1810001
0.4375324 -0.16758953 1.1810001
0.4285343 -0.16196573 1.1810001
0.43190861 -0.16196571 1.1810001
0.41616195 -0.096729532 1.1810001
0.40753877 -0.091855563 1.1810001
0.41166288 -0.092230484 1.1810001
0.41503718 -0.092230484 1.1810001
0.40378955 -0.086606674 1.1810001
0.40716386 -0.087731436 1.1810001
0.41166288 -0.087731436 1.1810001
0.41503718 -0.088856198 1.1810001
0.40303969 -0.082857467 1.1810001
0.40716386 -0.083232388 1.1810001
0.41166288 -0.083232388 1.1810001
0.41503718 -0.082107626 1.1810001
0.40266478 -0.077608578 1.1810001
0.40693888 -0.078058489 1.1810001
0.41166288 -0.079858102 1.1810001
0.42772859 -0.16702858 1.1850001
0.42731816 -0.16278858 1.187
0.41256416 -0.1513616 1.189
0.40908352 -0.14666826 1.1876668
0.37821525 -0.12795906 1.189
0.37368572 -0.12229715 1.189
0.37821525 -0.12229715 1.189
0.37255335 -0.11776763 1.189
0.36685368 -0.11273494 1.1876668
0.3997305 -0.088325724 1.189
0.40244764 -0.088177145 1.187
0.40515718 -0.089157149 1.1850001
0.39973053 -0.082663812 1.189
0.40120715 -0.082950003 1.1850001
0.3997305 -0.077001914 1.189
0.40131909 -0.076874286 1.187
0.3997305 -0.072472386 1.189
0.40229687 -0.07276731 1.1876668
0.40515718 -0.07335715 1.1850001
0.42266288 -0.16702001 1.1930001
0.41243717 -0.16247524 1.193
0.41868621 -0.16190714 1.1930001
0.42266288 -0.16247524 1.193
0.42607147 -0.16361144 1.1930001
0.41357335 -0.15679431 1.1930001
0.41811812 -0.15679431 1.1930001
0.4215267 -0.15793049 1.1930001
0.40675622 -0.15224954 1.1930001
0.41092226 -0.15262827 1.1930001
0.40334764 -0.14770478 1.1930001
0.40675622 -0.14770478 1.1930001
0.38516858 -0.13520667 1.1930001
0.39425811 -0.13634285 1.1930001
0.39728796 -0.13899398 1.1930001
0.38744095 -0.1317981 1.193
0.37835145 -0.12611715 1.1930001
0.38213876 -0.12687461 1.1930001
0.36926192 -0.11702763 1.1930001
0.39425811 -0.085214294 1.1930001
0.39766669 -0.087486677 1.193
0.39425811 -0.081805721 1.1930001
0.39766669 -0.081805721 1.1930001
0.39312193 -0.077260956 1.1930001
0.39766669 -0.077260956 1.1930001
0.38857716 -0.071580008 1.1930001
0.39312193 -0.072716199 1.1930001
0.39766669 -0.072716191 1.1930001
0.38789544 -0.067944191 1.1930001
0.39312193 -0.068171434 1.1930001
0.39766669 -0.069307625 1.1930001
0.40107527 -0.069307625 1.1930001
0.38744095 -0.062490482 1.193
0.39198574 -0.064762861 1.1930001
0.46854004 -0.21090001 1.197
0.47082004 -0.21090001 1.197
0.46854004 -0.20862001 1.197
0.47234002 -0.20786001 1.197
0.47811604 -0.20725203 1.197
0.41838002 -0.16530001 1.197
0.40926003 -0.16074002 1.197
0.41838002 -0.16302001 1.197
0.40926003 -0.15732001 1.197
0.41154003 -0.15732001 1.197
0.40356004 -0.15276001 1.197
0.39786002 -0.14706001 1.197
0.40166 -0.14782001 1.197
0.39254001 -0.14098002 1.197
0.39672002 -0.14307001 1.197
0.40090001 -0.14402001 1.197
0.38874003 -0.13680001 1.197
0.39216003 -0.13680001 1.197
0.39558002 -0.087780006 1.197
0.38874003 -0.082080007 1.197
0.39216003 -0.082080007 1.197
0.38798001 -0.077140003 1.197
0.39102003 -0.077520005 1.197
0.38342002 -0.072580002 1.197
0.38722003 -0.073340006 1.197
0.39102003 -0.074100003 1.197
0.37962002 -0.067260005 1.197
0.38304001 -0.068400003 1.197
0.38646004 -0.069540001 1.197
0.37278003 -0.060420003 1.197
0.37766576 -0.062048577 1.1969999
0.38304004 -0.062700003 1.197
0.36822003 -0.055860005 1.197
0.37164003 -0.057000004 1.197
0.37734005 -0.057000007 1.197
0.38304001 -0.057000004 1.197
0.38646004 -0.058140002 1.197
0.37164003 -0.052440003 1.197
0.37734005 -0.052440006 1.197
0.37164003 -0.047880005 1.197
0.37582001 -0.048260003 1.197
0.37278003 -0.044460002 1.197
0.46820766 -0.21178097 1.202
0.46820766 -0.20949145 1.202
0.47164193 -0.20720191 1.202
0.47164193 -0.20319524 1.202
0.38807431 -0.082422867 1.202
0.38654795 -0.078225404 1.202
0.3823505 -0.073264763 1.202
0.37433717 -0.065251432 1.202
0.37800041 -0.067083046 1.202
0.38120574 -0.069830477 1.202
0.37281081 -0.062198732 1.202
0.36861336 -0.057238102 1.202
0.36899495 -0.052277464 1.202
0.36899495 -0.04846159 1.202
0.36975813 -0.044645716 1.202
0.37281081 -0.043119367 1.202
0.46976575 -0.20674288 1.2060001
0.3870686 -0.082697153 1.2060001
0.38477147 -0.078102857 1.2060001
0.37788004 -0.071211427 1.2060001
0.38094285 -0.073891431 1.2060001
0.37328574 -0.065468572 1.2060001
0.37558287 -0.06776572 1.2060001
0.37098861 -0.062022861 1.2060001
0.36754286 -0.057428576 1.2060001
0.36869144 -0.053982861 1.2060001
0.36869144 -0.047091432 1.2060001
0.36409718 -0.040200002 1.2060001
0.36777258 -0.042497147 1.2060001
0.37175432 -0.040965717 1.2060001
0.36409718 -0.037902858 1.2060001
0.26646858 -0.012634287 1.2060001
0.46901909 -0.21088573 1.21
0.46863812 -0.20777144 1.2120001
0.46863812 -0.2031543 1.2120001
0.39065716 -0.087580957 1.21
0.38206667 -0.083110482 1.2120001
0.38570225 -0.083448261 1.2113334
0.37744889 -0.078492068 1.2120001
0.3825905 -0.078361914 1.21
0.3728129 -0.072370961 1.2110001
0.37740481 -0.073176198 1.21
0.36304384 -0.067059055 1.2140001
0.36787468 -0.06674096 1.2124002
0.3725248 -0.067470483 1.2110001
0.35841906 -0.062434293 1.2140001
0.36304381 -0.062434293 1.2140001
0.3680121 -0.062297147 1.2113334
0.35957527 -0.058965717 1.2140001
0.36304381 -0.057809524 1.2140001
0.36647558 -0.058067936 1.2113334
0.36304384 -0.053184763 1.2140001
0.36645719 -0.053009529 1.21
0.35957527 -0.047403812 1.2140001
0.36281258 -0.047866289 1.2140001
0.36645719 -0.048400003 1.21
0.35957527 -0.041622862 1.2140001
0.36255509 -0.042231999 1.2116001
0.36607304 -0.043406352 1.21
0.35957527 -0.038154289 1.2140001
0.36184764 -0.038028575 1.21
0.36876196 -0.038028575 1.21
0.37221909 -0.038028575 1.21
0.23362859 -0.016868955 1.2132001
0.26823622 -0.017342858 1.2140001
0.27170479 -0.016186668 1.2140001
0.22932382 -0.012676191 1.21
0.47250766 -0.21709812 1.2190001
0.47250766 -0.2147762 1.2190001
0.46786383 -0.20548858 1.2190001
0.35641241 -0.061530482 1.2190001
0.35292953 -0.059208576 1.2190001
0.35757336 -0.058047622 1.2190001
0.36105621 -0.056886669 1.2190001
0.35176858 -0.054564767 1.2190001
0.35873431 -0.053403813 1.2190001
0.36105621 -0.053403813 1.2190001
0.34248099 -0.048760001 1.219
0.35176858 -0.048760004 1.2190001
0.35815382 -0.048179526 1.2190001
0.35873431 -0.041794289 1.2190001
0.35409051 -0.03715048 1.2190001
0.35873431 -0.038311429 1.2190001
0.26585811 -0.017414287 1.2190001
0.27282384 -0.019736191 1.2190001
0.47172859 -0.21664573 1.223
0.46939906 -0.21082191 1.223
0.47172859 -0.21315144 1.223
0.46939906 -0.2084924 1.223
0.35136986 -0.057849843 1.223
0.35525241 -0.057073336 1.223
0.34733203 -0.05288019 1.223
0.35117573 -0.052414287 1.223
0.35618418 -0.052880198 1.223
0.33816925 -0.046978731 1.223
0.34244001 -0.045425717 1.223
0.34748733 -0.046202224 1.223
0.35136986 -0.046202224 1.223
0.35641718 -0.046590477 1.223
0.34244001 -0.041931428 1.223
0.34709907 -0.041931428 1.223
0.35175812 -0.041931432 1.223
0.35641718 -0.041931428 1.223
0.34244001 -0.037272383 1.223
0.34709907 -0.037272386 1.223
0.35175812 -0.037272386 1.223
0.35758191 -0.038437147 1.223
0.34244004 -0.032613337 1.223
0.34826383 -0.033778097 1.223
0.32962763 -0.019800954 1.223
0.47210288 -0.22086002 1.2270001
0.45223716 -0.21618573 1.2270001
0.47093433 -0.2173543 1.2270001
0.46781811 -0.21229048 1.2270001
0.47093433 -0.21384859 1.2270001
0.46742859 -0.20800574 1.2270001
0.3365486 -0.045574289 1.2270001
0.33304289 -0.042068575 1.2270001
0.33654863 -0.042068575 1.2270001
0.3400543 -0.042068575 1.2270001
0.33304289 -0.037394289 1.2270001
0.3365486 -0.037394289 1.2270001
0.3400543 -0.037394289 1.2270001
0.33304289 -0.032720003 1.2270001
0.3365486 -0.032720003 1.2270001
0.3400543 -0.032720003 1.2270001
0.34706575 -0.032720003 1.2270001
0.35174003 -0.033888575 1.2270001
0.33304289 -0.028045716 1.2270001
0.33615908 -0.02843524 1.2270001
0.33226383 -0.022981906 1.2270001
0.33070573 -0.017528573 1.2270001
0.46816003 -0.22645335 1.2320001
0.45642671 -0.22176002 1.2320001
0.46698672 -0.22293335 1.2320001
0.4705067 -0.22293335 1.2320001
0.45760006 -0.21706668 1.2320001
0.4634667 -0.21706668 1.2320001
0.46698672 -0.21824001 1.2320001
0.4705067 -0.21824002 1.2320001
0.45799115 -0.21237333 1.2320001
0.46288002 -0.21296002 1.2320001
0.46640006 -0.21296 1.2320001
0.4634667 -0.20650668 1.2320001
0.46581337 -0.20768002 1.2320001
0.33440003 -0.045760002 1.2320001
0.33205336 -0.041066669 1.2320001
0.3297067 -0.036373336 1.2320001
0.33205336 -0.037546672 1.2320001
0.32892445 -0.032462224 1.2320001
0.33205336 -0.032853335 1.2320001
0.32853335 -0.028160002 1.2320001
0.33205336 -0.028160002 1.2320001
0.32853335 -0.023466669 1.2320001
0.33205336 -0.024640001 1.2320001
0.32266667 -0.019946668 1.2320001
0.32736003 -0.018773334 1.2320002
0.46379429 -0.22718859 1.2360001
0.46732575 -0.22718859 1.2360001
0.4579086 -0.22012573 1.2360001
0.46261719 -0.22248 1.2360001
0.46261716 -0.21777144 1.2360001
0.4618324 -0.21149333 1.2360001
0.4579086 -0.20835429 1.2360001
0.46144003 -0.20717716 1.2360001
0.33313146 -0.045908574 1.2360001
0.3319543 -0.042377144 1.2360001
0.32842287 -0.036491431 1.2360001
0.33077717 -0.038845718 1.2360001
0.32371432 -0.031782858 1.2360001
0.32685333 -0.033352382 1.2360001
0.32253718 -0.02825143 1.2360001
0.32606858 -0.02825143 1.2360001
0.32230172 -0.022836575 1.2360001
0.32606858 -0.023542859 1.2360001
0.32253718 -0.017657144 1.2360001
0.33420953 -0.051961906 1.24
0.33420953 -0.048419051 1.24
0.32830477 -0.037790477 1.24
0.32358098 -0.033066668 1.24
0.3342562 -0.055907622 1.2490001
0.3342562 -0.052339051 1.2490001
0.3342562 -0.047580957 1.2490001
0.33200002 -0.042685717 1.245
0.32830858 -0.038064763 1.2490001
0.32474002 -0.034496192 1.2490001
0.32184476 -0.028504763 1.247
0.32132858 -0.023714287 1.245
0.29143336 -0.017842859 1.2490001
0.3355943 -0.058520004 1.2540001
0.33320573 -0.052548572 1.2540001
0.33320573 -0.047771432 1.2540001
0.33320573 -0.044188574 1.2540001
0.32126287 -0.027468575 1.2540001
0.33813143 -0.061151434 1.2590001
0.33453432 -0.05755429 1.2590001
0.32973811 -0.05155905 1.2590001
0.33213621 -0.052758098 1.2590001
0.32973811 -0.049160957 1.2590001
0.33213621 -0.047961909 1.2590001
0.33213621 -0.043165717 1.2590001
0.32853907 -0.038369525 1.2590001
0.32494193 -0.033573337 1.2590001
0.33198857 -0.05653429 1.263
0.32838002 -0.051722862 1.263
0.33078572 -0.054128576 1.263
0.32717717 -0.048114292 1.263
0.33078572 -0.046911433 1.263
0.3275781 -0.042901903 1.263
0.33078572 -0.043302856 1.263
0.32677624 -0.038892381 1.263
0.35383239 -0.076080002 1.268
0.3465867 -0.06883429 1.268
0.33692575 -0.061588574 1.268
0.32847241 -0.056758098 1.268
0.33330289 -0.059173338 1.268
0.32364193 -0.051927622 1.268
0.32806987 -0.053537782 1.268
0.31760383 -0.049512383 1.268
0.32364193 -0.048304766 1.268
0.32364193 -0.043474287 1.268
0.32726479 -0.044681907 1.268
0.32484955 -0.038643815 1.268
0.35494858 -0.081165716 1.2720001
0.35494858 -0.078742862 1.2720001
0.34687242 -0.072281905 1.2720001
0.35252574 -0.073897146 1.2720001
0.34525716 -0.067840002 1.2720001
0.34041145 -0.064205721 1.2720001
0.3258743 -0.054514289 1.2720001
0.31860572 -0.047245719 1.2720001
0.32102859 -0.048457146 1.2720001
0.31779811 -0.04401524 1.2720001
0.32102859 -0.04361143 1.2720001
0.32224002 -0.038765717 1.2720001
0.35634384 -0.086349532 1.2770001
0.35269529 -0.081484765 1.2770001
0.35634384 -0.083917148 1.2770001
0.34418193 -0.076620005 1.2770001
0.34783047 -0.077836201 1.2770001
0.35269529 -0.077836201 1.2770001
0.34337112 -0.07256604 1.2770001
0.3466143 -0.074187621 1.2770001
0.35147908 -0.074187621 1.2770001
0.34296572 -0.068106666 1.2770001
0.33445239 -0.062025718 1.2770001
0.33810097 -0.063241914 1.2770001
0.33202001 -0.059593339 1.2770001
0.31499335 -0.047431432 1.2770001
0.31742573 -0.047431432 1.2770001
0.31499335 -0.04378286 1.2770001
0.3182365 -0.040945079 1.2770001
0.35285527 -0.086687624 1.2820001
0.35651812 -0.087908581 1.2820001
0.34797144 -0.081803814 1.2820001
0.35122731 -0.083431751 1.2820001
0.35529718 -0.084245719 1.2820001
0.34308764 -0.078140959 1.2820001
0.34552956 -0.079361908 1.2820001
0.34186667 -0.073257148 1.2820001
0.34064573 -0.068373337 1.2820001
0.33820382 -0.064710483 1.2820001
0.31378478 -0.05005905 1.2820001
0.31744766 -0.05005905 1.2820001
0.31378478 -0.046396192 1.2820001
0.35178003 -0.087025717 1.2870001
0.35668287 -0.089477152 1.2870001
0.34769431 -0.08375714 1.2870001
0.34197432 -0.077220008 1.2870001
0.33952287 -0.072317146 1.2870001
0.34197432 -0.074768573 1.2870001
0.33870575 -0.068231434 1.2870001
0.33216858 -0.060060006 1.2870001
0.33707145 -0.064962864 1.2870001
0.32971716 -0.057608575 1.2870001
0.31255716 -0.050254289 1.2870001
0.35287336 -0.089755245 1.291
0.3553324 -0.089755245 1.291
0.34180763 -0.077460006 1.291
0.33811906 -0.070082858 1.291
0.33566001 -0.062705718 1.291
0.35917717 -0.092571437 1.296
0.34930289 -0.087634288 1.296
0.34436575 -0.082697146 1.296
0.34189716 -0.077760004 1.296
0.36304098 -0.095406674 1.3010001
0.36551908 -0.095406674 1.3010001
0.35312858 -0.090450481 1.3010001
0.3580848 -0.092928581 1.3010001
0.3481724 -0.087972388 1.3010001
0.34321621 -0.080538101 1.3010001
0.29365429 -0.028498096 1.3010001
0.29613239 -0.028498096 1.3010001
0.36194861 -0.095773339 1.3060001
0.36692384 -0.098260961 1.3060001
0.34951049 -0.090798102 1.3060001
0.35199812 -0.090798102 1.3060001
0.35697335 -0.093285717 1.3060001
0.34702289 -0.087066673 1.3060001
0.34204763 -0.073384769 1.3060001
0.28980765 -0.033582859 1.3060001
0.29312444 -0.032753654 1.3060001
0.29727051 -0.033582859 1.3060001
0.3683286 -0.10113429 1.3110001
0.35834002 -0.096140005 1.3110001
0.36083716 -0.096140005 1.3110001
0.36583146 -0.098637149 1.3110001
0.34835145 -0.091145717 1.3110001
0.35584289 -0.093642861 1.3110001
0.29341429 -0.037457146 1.3110001
0.35845336 -0.097760007 1.3160001
0.36346668 -0.099013343 1.3160001
0.35344002 -0.094000004 1.3160001
0.34717336 -0.086480007 1.3160001
0.34717336 -0.083973341 1.3160001
0.34383115 -0.077288888 1.3160001
0.29453334 -0.041360002 1.3160001
0.2920267 -0.037600003 1.3160001
0.36358956 -0.1069381 1.3210001
0.36862192 -0.1081962 1.3210001
0.37113813 -0.1081962 1.3210001
0.35855716 -0.10190572 1.3210001
0.36233145 -0.10316382 1.3210001
0.36736384 -0.10316382 1.3210001
0.37113813 -0.10442191 1.3210001
0.3786867 -0.10442191 1.3210001
0.35352477 -0.096873343 1.3210001
0.35729909 -0.098131433 1.3210001
0.34849241 -0.09184096 1.3210001
0.35100859 -0.094357148 1.3210001
0.34723431 -0.088066667 1.3210001
0.34346002 -0.081776194 1.3210001
0.3459762 -0.083034292 1.3210001
0.37001717 -0.11870858 1.3260001
0.36496574 -0.11365715 1.3260001
0.36749145 -0.1123943 1.3260001
0.37085906 -0.1132362 1.3260001
0.3599143 -0.10734286 1.3260001
0.36328194 -0.10902667 1.3260001
0.36749145 -0.10860572 1.3260001
0.35486287 -0.10229144 1.3260001
0.3582305 -0.10397524 1.3260001
0.34981146 -0.097240008 1.3260001
0.35360003 -0.098502859 1.3260001
0.35738859 -0.099765718 1.3260001
0.34854859 -0.093451433 1.3260001
0.34349716 -0.088400006 1.3260001
0.34728575 -0.089662865 1.3260001
0.29929715 -0.044200003 1.3260001
0.29172003 -0.03662286 1.3260001
0.26646286 -0.029045716 1.3260001
0.36296162 -0.11619842 1.3310001
0.3680321 -0.1170435 1.3310001
0.35873622 -0.11028286 1.3310001
0.36211649 -0.11197302 1.3310001
0.35746861 -0.10648001 1.3310001
0.35366574 -0.10014191 1.3310001
0.34775019 -0.09591651 1.3310001
0.34183463 -0.091691114 1.3310001
0.34606004 -0.092536196 1.3310001
0.30676383 -0.049437147 1.3310001
0.29535526 -0.04183143 1.3310001
0.29282001 -0.039296195 1.3310001
0.27084795 -0.033380639 1.3310001
0.35753906 -0.11196953 1.3360001
0.36008382 -0.11324191 1.3360001
0.35414603 -0.10645588 1.3360001
0.35753906 -0.10815239 1.3360001
0.3486324 -0.1005181 1.3360001
0.3532978 -0.1022146 1.3360001
0.33972573 -0.096700959 1.3360001
0.34354287 -0.096700959 1.3360001
0.34736001 -0.097973339 1.3360001
0.32360891 -0.058105398 1.3360001
0.31300575 -0.052167624 1.3360001
0.31809527 -0.052167624 1.3360001
0.32318479 -0.054712385 1.3360001
0.29900953 -0.047078099 1.3360001
0.30282667 -0.048350479 1.3360001
0.29773715 -0.044533335 1.3360001
0.27695492 -0.037747305 1.3360001
0.29137525 -0.038171433 1.3360001
0.27737907 -0.034354288 1.3360001
0.29264763 -0.034354288 1.3360001
0.3565886 -0.11247239 1.342
0.34764194 -0.10736001 1.342
0.35232827 -0.10778604 1.342
0.34210351 -0.10267366 1.342
0.34721589 -0.10267366 1.342
0.35147622 -0.10352572 1.342
0.33784321 -0.096709214 1.342
0.31696764 -0.06646096 1.342
0.32208002 -0.06646096 1.342
0.32591429 -0.067739055 1.342
0.30802098 -0.060070481 1.342
0.31185526 -0.061348572 1.342
0.31696764 -0.061348572 1.342
0.32208002 -0.061348572 1.342
0.31185526 -0.057514291 1.342
0.31696764 -0.057514291 1.342
0.32080191 -0.057514291 1.342
0.30716893 -0.053253967 1.342
0.31142923 -0.054106038 1.342
0.31696764 -0.054958098 1.342
0.32080191 -0.054958098 1.342
0.29694414 -0.048141588 1.342
0.3016305 -0.049845718 1.342
0.27351239 -0.042177144 1.342
0.29140574 -0.042177144 1.342
0.29524001 -0.043455243 1.342
0.27990288 -0.039620955 1.342
0.28245908 -0.03834286 1.342
0.28586733 -0.037916828 1.342
0.29012764 -0.03834286 1.342
0.28245908 -0.034508575 1.342
0.28629336 -0.034508575 1.342
0.29012764 -0.034508575 1.342
0.30275428 -0.06670858 1.3470001
0.30788571 -0.06670858 1.3470001
0.29249144 -0.061577149 1.3470001
0.29762286 -0.061577145 1.3470001
0.30275428 -0.061577149 1.3470001
0.30745807 -0.062004764 1.3470001
0.28736001 -0.056445718 1.3470001
0.29249144 -0.056445718 1.3470001
0.29762286 -0.056445718 1.3470001
0.30275431 -0.056445718 1.3470001
0.30745807 -0.056873336 1.3470001
0.28736001 -0.051314291 1.3470001
0.29249144 -0.051314291 1.3470001
0.29719523 -0.051741909 1.3470001
0.30275428 -0.052597146 1.3470001
0.28736001 -0.047465716 1.3470001
0.29249144 -0.047465716 1.3470001
0.27324858 -0.044900004 1.3470001
0.27709717 -0.043617144 1.3470001
0.28180096 -0.043189526 1.3470001
0.28736001 -0.043617144 1.3470001
0.29249144 -0.044900004 1.3470001
0.28864288 -0.039768573 1.3470001
0.28370541 -0.051075563 1.3520001
0.27855495 -0.046783492 1.3520001
0.28370544 -0.046783492 1.3520001
