# .PCD v0.7 - Point Cloud Data file format
VERSION 0.7
FIELDS x y z
SIZE 4 4 4
TYPE F F F
COUNT 1 1 1
WIDTH 101
HEIGHT 1
VIEWPOINT 0 0 0 1 0 0 0
POINTS 101
DATA ascii
-0.21175715 0.079474285 0.54900002
-0.20326859 0.077857144 0.54866672
-0.21106 0.082088582 0.54900002
-0.20833483 0.083039224 0.54899997
-0.20234573 0.081042863 0.54900002
-0.19884573 0.080895245 0.54800004
-0.21205594 0.088362865 0.54900002
-0.20879431 0.086097144 0.54900002
-0.21594001 0.094114289 0.54900002
-0.21301495 0.092380382 0.54890466
-0.22012287 0.09777429 0.54900002
-0.21727204 0.098195545 0.5481112
-0.21335278 0.097607076 0.5480625
-0.217269 0.10264179 0.54707998
-0.21360511 0.1023744 0.54688895
-0.21715033 0.10653478 0.54699999
-0.21372001 0.10608001 0.546
-0.19800791 0.053289529 0.55399996
-0.20260572 0.059620958 0.55400002
-0.19838478 0.055927623 0.55400002
-0.21033001 0.064310953 0.55350006
-0.20748547 0.063443564 0.55360001
-0.20317286 0.064076431 0.55374998
-0.21014003 0.066886671 0.55300003
-0.20706107 0.067618601 0.55173683
-0.20346895 0.067516074 0.55062509
-0.21117449 0.072915815 0.55239999
-0.20772734 0.07252191 0.55085707
-0.2038895 0.072678782 0.55014294
-0.21547525 0.077086195 0.55250001
-0.21180183 0.077108048 0.55077785
-0.20761499 0.077427857 0.55041182
-0.20428573 0.077698417 0.55000001
-0.21250206 0.082275473 0.55025005
-0.20725398 0.080957673 0.55000001
-0.20428573 0.080142863 0.55000001
-0.21277148 0.087057143 0.55000007
-0.2079524 0.086428575 0.55000001
-0.21151431 0.093761913 0.55000001
-0.21161906 0.096380964 0.55000001
-0.19751334 0.019698096 0.55900002
-0.18793049 0.018633334 0.55900002
-0.19729242 0.023413515 0.55695236
-0.19414525 0.024467144 0.55850005
-0.19692925 0.027322968 0.55735296
-0.19414525 0.026595715 0.55850005
-0.20034859 0.034542859 0.55800003
-0.19722076 0.032511096 0.55804342
-0.20161536 0.038044762 0.55814296
-0.19807021 0.036005713 0.55714291
-0.20258316 0.042624328 0.55784619
-0.19943252 0.042642858 0.55671436
-0.20596299 0.047773454 0.55737507
-0.20233321 0.047139194 0.55615002
-0.19819693 0.046987511 0.55582356
-0.20605239 0.052061908 0.5570001
-0.2022709 0.052502301 0.55531824
-0.19811375 0.05113361 0.55514288
-0.20641491 0.058446549 0.55537504
-0.20239688 0.057430439 0.55500007
-0.19927144 0.057614289 0.55500001
-0.20649524 0.061666667 0.55500001
-0.20264545 0.062160552 0.55514282
-0.18331112 -0.016322223 0.565
-0.1866422 -0.012453062 0.565
-0.18379797 -0.013606123 0.565
-0.19104384 -0.006266667 0.56400001
-0.18750633 -0.0074419552 0.56447363
-0.18333344 -0.0070911688 0.5648182
-0.19163345 -0.0024181746 0.56441671
-0.18746282 -0.0026857143 0.56400007
-0.18367021 -0.0026854288 0.56390011
-0.19198272 0.0030214887 0.5640626
-0.18763469 0.0026884959 0.56451994
-0.18411541 0.0023300003 0.56416672
-0.19647349 0.0078807939 0.56416672
-0.19264702 0.0075124293 0.56344998
-0.18771499 0.0075535853 0.56442112
-0.19699349 0.012438608 0.56407696
-0.19250739 0.012332192 0.56304002
-0.18734212 0.01234579 0.56364006
-0.18456668 0.012376191 0.565
-0.1963758 0.017558811 0.5615834
-0.19245844 0.017676646 0.56099999
-0.18801387 0.016738536 0.56146157
-0.19665658 0.021447431 0.56020004
-0.19263731 0.022340951 0.56063157
-0.18909018 0.022591747 0.56033331
-0.19573335 0.028266668 0.56
-0.19255367 0.026643302 0.56026661
-0.18933335 0.026133336 0.56
-0.20672762 0.038084287 0.56125009
-0.20367716 0.037533332 0.56033331
-0.20640746 0.041688655 0.5605455
-0.20426668 0.040000003 0.56
-0.1806781 -0.02001524 0.56800002
-0.18667525 -0.016186193 0.56650007
-0.18185048 -0.017376192 0.56660002
-0.17982002 -0.017820001 0.56700003
-0.18409583 -0.010677143 0.56620008
-0.18327621 -0.0091638099 0.56600004
