# .PCD v0.7 - Point Cloud Data file format
VERSION 0.7
FIELDS x y z
SIZE 4 4 4
TYPE F F F
COUNT 1 1 1
WIDTH 1449
HEIGHT 1
VIEWPOINT 0 0 0 1 0 0 0
POINTS 1449
DATA ascii
0.26204288 0.21152858 0.66300005
0.26583144 0.21216002 0.66300005
0.26817682 0.21138637 0.66255563
0.2716665 0.21178651 0.66183341
0.27468324 0.21151754 0.66060007
0.27761906 0.21120194 0.66040003
0.28013337 0.21099049 0.66000003
0.32613841 0.2116235 0.6606667
0.32886001 0.21168049 0.66150004
0.33138004 0.21168049 0.66150004
0.33432803 0.21158631 0.66160005
0.33735281 0.21183848 0.66160005
0.26288477 0.21447526 0.66300005
0.26549831 0.21449487 0.66280007
0.26828519 0.21455295 0.66220009
0.2715978 0.21425398 0.66166669
0.27498245 0.2142154 0.66071427
0.27773896 0.21466219 0.66042858
0.27971432 0.21434288 0.66000003
0.3168 0.21560001 0.66000003
0.3193143 0.21560001 0.66000003
0.32256049 0.21483001 0.66150004
0.32557192 0.21452382 0.66250002
0.32834288 0.21468574 0.66300005
0.33124939 0.21452397 0.66250008
0.33440477 0.2145243 0.66250002
0.33725601 0.21436572 0.66240007
0.33907717 0.21531716 0.66300005
0.26898861 0.21658002 0.66300005
0.27199501 0.21743858 0.6622501
0.27467832 0.21770039 0.66180009
0.27754971 0.21776016 0.66083336
0.27971432 0.21685715 0.66000003
0.3168 0.21748573 0.66000003
0.31941003 0.2179805 0.66150004
0.32304811 0.21704763 0.66250008
0.32518575 0.21721146 0.66300005
0.33150002 0.21658002 0.66300005
0.33655146 0.21658002 0.66300005
0.27189869 0.22016878 0.66240007
0.27488762 0.22066668 0.66200006
0.27747938 0.22022223 0.6606667
0.28055239 0.22146668 0.66000003
0.28222859 0.22188573 0.66000003
0.31114289 0.22188573 0.66000003
0.31323811 0.22146668 0.66000003
0.31670856 0.22087811 0.662
0.31938264 0.2209169 0.66275007
0.32266003 0.22000776 0.66300005
0.32518575 0.21910574 0.66300005
0.27299622 0.22255811 0.66200006
0.27488762 0.22318859 0.66200006
0.27766624 0.22351831 0.66111118
0.2804493 0.22385597 0.66025007
0.28222859 0.22377145 0.66000003
0.31114289 0.22377145 0.66000003
0.31302857 0.22377144 0.66000003
0.31608671 0.22336403 0.66140002
0.31926191 0.22335668 0.66250008
0.32266003 0.22352572 0.66300005
0.27551812 0.22508001 0.66200006
0.27782932 0.22622786 0.66075003
0.28034288 0.22628573 0.66000003
0.28222859 0.22565717 0.66000003
0.31114289 0.22628573 0.66000003
0.31326622 0.22645716 0.66050005
0.31662554 0.22659354 0.66200006
0.31918192 0.22645526 0.66233343
0.32202858 0.22636716 0.66300005
0.28914288 0.23068573 0.66000003
0.29511431 0.22911429 0.66000003
0.29982859 0.22880001 0.66000003
0.3017143 0.22942859 0.66000003
0.30422857 0.22942859 0.66000003
0.30755106 0.2290694 0.66000003
0.31063217 0.22888693 0.66025001
0.31385884 0.22940692 0.66175008
0.31676668 0.22962953 0.66300005
0.31887144 0.22920859 0.66300005
0.28725716 0.23320001 0.66000003
0.28914288 0.23257145 0.66000003
0.29228571 0.23320001 0.66000003
0.29542857 0.23257144 0.66000003
0.29857147 0.23320001 0.66000003
0.30192384 0.23278098 0.66000003
0.30434406 0.23265977 0.66025001
0.30720764 0.23229431 0.66100001
0.31003946 0.23268707 0.66140002
0.312821 0.23203874 0.66266674
0.31508288 0.23173431 0.66300005
0.2876924 0.23481239 0.66100001
0.28946552 0.2357821 0.66160005
0.29265511 0.23538272 0.66083336
0.2958762 0.23544191 0.66100001
0.29830256 0.23583303 0.6603334
0.30147675 0.23566042 0.6608572
0.30445907 0.2352643 0.66050005
0.30720764 0.23544192 0.66100001
0.31019479 0.2357986 0.66200006
0.31255716 0.23489144 0.66300005
0.28946111 0.23838018 0.66216677
0.29316097 0.23843552 0.6615715
0.29572731 0.2384689 0.6606667
0.29794288 0.23885715 0.66000003
0.30172178 0.23894927 0.66099995
0.304656 0.23840992 0.66119999
0.30767289 0.2383205 0.66200006
0.31003144 0.23868001 0.66300005
0.29022923 0.24063176 0.66200006
0.29304436 0.24136791 0.66171438
0.29576454 0.24164598 0.66075003
0.29839432 0.24173716 0.66100001
0.30129009 0.24161124 0.66100001
0.30486366 0.24183191 0.66183347
0.30777207 0.24087429 0.66266674
0.29354286 0.24325716 0.66000003
0.29565287 0.24407049 0.66050005
0.29850695 0.24434787 0.66125
0.30114049 0.24444002 0.66150004
0.30411953 0.24480954 0.66250002
0.30666384 0.24436288 0.66300005
0.29638508 0.2468124 0.66166669
0.29895836 0.24724025 0.66225004
0.30148166 0.24724028 0.66225004
0.30434859 0.24752003 0.66300005
0.30624288 0.24688859 0.66300005
0.29949978 0.25026739 0.66275007
0.30182287 0.25004572 0.66300005
0.26696289 0.17394002 0.66900003
0.26823717 0.17394002 0.66900003
0.27460858 0.17330287 0.66900009
0.27811286 0.1729843 0.66900003
0.28021544 0.17266573 0.66900003
0.28374004 0.17272525 0.6680001
0.28634796 0.17269842 0.66666669
0.2895892 0.17239875 0.66633338
0.29248345 0.17229487 0.6656
0.29546598 0.17246026 0.66575003
0.29760444 0.1721416 0.66533333
0.30762857 0.17252526 0.66600001
0.31016478 0.17220812 0.66600001
0.31349999 0.17214002 0.66500002
0.26059145 0.17648858 0.66900003
0.26314002 0.17648858 0.66900003
0.26600718 0.17617001 0.66900003
0.26866192 0.17606382 0.66899997
0.27142286 0.17648858 0.66900003
0.27447173 0.17576349 0.66866666
0.27784288 0.17576781 0.66820002
0.28027526 0.17546318 0.66833335
0.28352621 0.17577407 0.66750002
0.28580442 0.17503144 0.66540003
0.28925243 0.17543332 0.66500002
0.29500669 0.17518 0.66500002
0.30843335 0.17480001 0.66500002
0.31033337 0.17543334 0.66500002
0.31318334 0.17480001 0.66500002
0.25957203 0.17852744 0.66900003
0.26314002 0.17776287 0.66900003
0.26632574 0.17840001 0.66900003
0.26887429 0.17840001 0.66900003
0.27178764 0.17843397 0.66833335
0.27426738 0.17857838 0.6672858
0.27759907 0.1785019 0.66700006
0.2804946 0.17832287 0.66633338
0.28363252 0.17855988 0.66662502
0.28605556 0.17838891 0.66500002
0.28911668 0.17828333 0.66500002
0.29196668 0.17796668 0.66500002
0.29450002 0.17796668 0.66500002
0.25963575 0.18126716 0.66900003
0.2627959 0.18149461 0.66866666
0.26574862 0.18135813 0.66875005
0.26904908 0.18154049 0.66825008
0.2717289 0.18122256 0.66766673
0.27442288 0.1816781 0.66700006
0.27759907 0.1816781 0.66700006
0.28035432 0.18140572 0.66600001
0.283667 0.18149652 0.66633332
0.28605556 0.18092223 0.66500002
0.28816667 0.18113334 0.66500002
0.25974193 0.18498383 0.66899997
0.26307869 0.18467793 0.66820008
0.26552954 0.18421906 0.66700006
0.26883936 0.18431145 0.66733342
0.27167356 0.1845444 0.66680002
0.27488086 0.18473497 0.66657144
0.27760452 0.18443525 0.66614288
0.28056559 0.18471852 0.66585714
0.28357717 0.18434858 0.66574997
0.28563336 0.18366668 0.66500002
0.28816667 0.18303335 0.66500002
0.25676858 0.18795715 0.66900003
0.25931716 0.18732001 0.66900009
0.26280624 0.18744619 0.66775012
0.26552951 0.18739523 0.66700006
0.26866075 0.18736382 0.66688889
0.27176461 0.18748 0.66640007
0.27464041 0.18759717 0.66642863
0.27781716 0.18774858 0.66600001
0.28077731 0.18760778 0.66549999
0.28373337 0.18746668 0.66500002
0.25358286 0.19114287 0.66900003
0.25613144 0.19050573 0.66900009
0.25931716 0.19050571 0.66900009
0.26273212 0.19070654 0.66842854
0.26552954 0.19057144 0.66700006
0.26846096 0.19076072 0.66600001
0.27102172 0.19043735 0.6652
0.27480358 0.19076072 0.66600001
0.27760842 0.19077604 0.66549999
0.28021446 0.19025858 0.66516668
0.25167143 0.1930543 0.66900003
0.25358286 0.19369145 0.66900003
0.25613144 0.19369145 0.66900003
0.25931716 0.19369145 0.66900009
0.26261431 0.19330542 0.66766673
0.26561987 0.19350493 0.66616666
0.26803365 0.19347429 0.66533333
0.27178174 0.19347773 0.66520005
0.27412194 0.19299477 0.66550004
0.27676669 0.19316667 0.66500002
0.25124666 0.19602764 0.66899997
0.25358286 0.19624001 0.66900003
0.25613144 0.19624001 0.66900003
0.25931716 0.19624001 0.66900009
0.26239645 0.19632067 0.6671111
0.26541296 0.19622955 0.66557139
0.26874447 0.19654445 0.66500002
0.27170002 0.19570002 0.66500002
0.25337049 0.19900095 0.66899997
0.25613144 0.19942574 0.66900009
0.25897175 0.19915992 0.66811121
0.26219663 0.19947989 0.66614288
0.26473334 0.19886668 0.66500002
0.25396538 0.20283301 0.66833335
0.25669238 0.20271881 0.66785717
0.25942221 0.20233652 0.66599995
0.26208001 0.20218477 0.66550004
0.26410002 0.20203334 0.66500002
0.25167143 0.20452288 0.66900003
0.25396541 0.20537907 0.66833335
0.2566362 0.20581716 0.66700006
0.25955176 0.20561177 0.66633338
0.26220003 0.20520002 0.66500002
0.26494446 0.20541112 0.66500002
0.25358286 0.20707144 0.66900003
0.25613144 0.20898287 0.66900003
0.25942981 0.20860425 0.6671111
0.26230937 0.20830135 0.6656
0.26545513 0.20843671 0.66522223
0.25613144 0.21153145 0.66900003
0.25933218 0.21146297 0.6672222
0.26225114 0.21195652 0.6656667
0.26543182 0.21166115 0.66579998
0.25676858 0.21344288 0.66900003
0.25931716 0.21408001 0.66900003
0.26152146 0.21391478 0.66650003
0.26493192 0.21359381 0.66550004
0.32870004 0.21786667 0.66500002
0.33186668 0.21850002 0.66500002
0.33477905 0.21818732 0.66533333
0.33790445 0.21787399 0.66566664
0.34001812 0.21829684 0.6656667
0.32616669 0.22103335 0.66500002
0.32870004 0.22040002 0.66500002
0.33165559 0.2201889 0.66500002
0.33384573 0.22094287 0.66600001
0.33723897 0.22074342 0.66685718
0.3402324 0.22089764 0.66649997
0.32236668 0.22230001 0.66500002
0.32609528 0.22341764 0.66550004
0.32856002 0.22326858 0.66600001
0.33109716 0.22326858 0.66600001
0.33431566 0.22334306 0.66660005
0.33756551 0.22373088 0.66700006
0.3404876 0.22360383 0.66700006
0.32363334 0.22673336 0.66500002
0.3257786 0.22753763 0.66550004
0.3282173 0.22639145 0.66585714
0.33126256 0.22655304 0.66633338
0.33429798 0.22672561 0.66637504
0.33756557 0.22601774 0.66700006
0.34087145 0.22682287 0.66900003
0.34214574 0.22682287 0.66900003
0.32252827 0.22959304 0.66533333
0.32526645 0.22952549 0.66575003
0.32847485 0.22994573 0.66660005
0.33134574 0.22978429 0.66649997
0.33421525 0.22962287 0.66640002
0.33749956 0.22998145 0.66800004
0.34023434 0.22937144 0.66900003
0.34214574 0.2287343 0.66900003
0.31476668 0.23370002 0.66500002
0.31730002 0.23243335 0.66500002
0.31944004 0.23197477 0.66550004
0.32245907 0.23232335 0.66650003
0.32511976 0.23241025 0.66675007
0.32858223 0.23261368 0.66733342
0.33159432 0.23249716 0.66700006
0.33413523 0.23249716 0.66700006
0.33692908 0.23267192 0.66750008
0.33959717 0.23255716 0.66900003
0.31476668 0.23496668 0.66500002
0.31679919 0.23537922 0.6661666
0.31942898 0.23560306 0.66680002
0.32228479 0.23572095 0.66833335
0.32558003 0.23574288 0.66900009
0.32876575 0.23574287 0.66900003
0.3313143 0.23574287 0.66900003
0.33449998 0.23574288 0.66900009
0.33743382 0.23556715 0.66850007
0.31323496 0.23846413 0.66533333
0.31611192 0.2386705 0.66649997
0.31899714 0.23887588 0.66766673
0.32239431 0.23829144 0.66900003
0.32621717 0.2376543 0.66900003
0.32876575 0.2376543 0.66900003
0.3313143 0.2376543 0.66900003
0.33386287 0.2376543 0.66900003
0.33704859 0.2376543 0.66900003
0.31054446 0.24214447 0.66500002
0.31333718 0.24166287 0.66599995
0.31619048 0.24190415 0.66666675
0.31978232 0.24158764 0.66860008
0.32239431 0.24020287 0.66900003
0.30843335 0.24510002 0.66500002
0.31056714 0.2446505 0.66549999
0.31357241 0.24501859 0.66650003
0.31634858 0.24520192 0.66700006
0.31931525 0.24420732 0.66833335
0.30801114 0.24763334 0.66500002
0.31056714 0.24718574 0.66550004
0.31380764 0.24774288 0.66700006
0.31682384 0.24747811 0.66800004
0.31920859 0.2465743 0.66900003
0.30526668 0.25080001 0.66500002
0.30838972 0.25079662 0.66600001
0.31103384 0.2500962 0.66649997
0.31359589 0.25007209 0.66700006
0.31702408 0.25057918 0.66900009
0.30210003 0.25333336 0.66500002
0.30438 0.25320667 0.66500002
0.3073597 0.25405303 0.66633338
0.31037736 0.25320596 0.66700006
0.3136867 0.25379524 0.66899997
0.31538573 0.25294572 0.66900003
0.30422813 0.25542527 0.66550004
0.30722526 0.25580907 0.66650003
0.31113812 0.25634381 0.66899997
0.3132619 0.25591907 0.66899997
0.30710289 0.25804287 0.66900003
0.23878857 0.17010477 0.67400002
0.24135619 0.17010477 0.67400002
0.24456573 0.17010479 0.67400002
0.24868858 0.17049238 0.67300004
0.25061142 0.17049238 0.67300004
0.25376916 0.16997966 0.67287493
0.25674832 0.16967048 0.67228568
0.25954098 0.16968222 0.6723333
0.26254538 0.16969252 0.67237496
0.26571211 0.16967049 0.67228574
0.27169159 0.16981702 0.67214286
0.22145715 0.17267239 0.67400002
0.2278762 0.1733143 0.67400002
0.22916001 0.1739562 0.67400002
0.23258351 0.17352827 0.67400002
0.23576246 0.1730392 0.67400008
0.23878856 0.17267239 0.67400002
0.24135619 0.17267239 0.67400002
0.24432296 0.17250077 0.67333329
0.24788763 0.17257524 0.67299998
0.25069335 0.17267098 0.67149997
0.25370193 0.17254287 0.671
0.25680166 0.17247835 0.67075002
0.25996256 0.17245714 0.67066669
0.26289526 0.17228572 0.67000002
0.26574454 0.17247835 0.67075002
0.26838285 0.17241333 0.67000002
0.27152631 0.17220934 0.67019999
0.27438098 0.17164762 0.67000002
0.27714604 0.17207302 0.67000002
0.28140002 0.17292382 0.67000002
0.28331429 0.17228572 0.67000002
0.2278762 0.17588192 0.67400002
0.23236954 0.17588192 0.67400002
0.23557906 0.17588191 0.67400002
0.23825668 0.17549001 0.67250001
0.24139906 0.17544667 0.6723333
0.2442981 0.17522906 0.67149997
0.24755652 0.17527302 0.67166668
0.25059977 0.17516406 0.67124999
0.25344965 0.17556307 0.67033339
0.25657827 0.17551953 0.67016673
0.25959346 0.17534918 0.67012507
0.26276764 0.17522095 0.67000002
0.26544765 0.17483811 0.67000002
0.2699143 0.17483811 0.67000002
0.27182859 0.17483811 0.67000002
0.28395239 0.17420001 0.67000002
0.21461017 0.17866349 0.67400002
0.21824762 0.17909144 0.67400002
0.22081524 0.17909144 0.67400002
0.22338286 0.17844954 0.67400002
0.22691333 0.1787705 0.67400002
0.23001589 0.17866351 0.67400002
0.23236954 0.17844953 0.67400002
0.2353012 0.17859834 0.67275
0.23808002 0.17856002 0.67199999
0.24123992 0.17853069 0.67188889
0.2441162 0.1782943 0.671
0.24722913 0.17823505 0.6707778
0.25063047 0.17838223 0.67133337
0.25332382 0.17866667 0.67000002
0.25651431 0.17866668 0.67000002
0.25842857 0.17802858 0.67000002
0.26268256 0.17887938 0.67000002
0.26480955 0.17866668 0.67000002
0.21439621 0.18294287 0.67400002
0.21760572 0.18037526 0.67400002
0.2204943 0.1813381 0.67400002
0.2230619 0.1813381 0.67400002
0.22710593 0.1814023 0.67400002
0.22980194 0.18165906 0.67400002
0.23267716 0.1816843 0.67349994
0.23527507 0.18148306 0.67240006
0.23860097 0.18166988 0.67166668
0.24174049 0.18162477 0.67150003
0.24411622 0.18148953 0.671
0.24718827 0.18139969 0.67066669
0.25087905 0.18175954 0.67200005
0.25357592 0.18139906 0.67066669
0.25651431 0.18121906 0.67000002
0.25927937 0.18143176 0.67000002
-0.010912382 0.18551049 0.67400002
0.21503811 0.18551049 0.67400002
0.22017334 0.18486857 0.67400002
0.22274096 0.18551049 0.67400002
0.22744827 0.18508255 0.67400002
0.22980192 0.18486859 0.67400002
0.23266447 0.18459398 0.67300004
0.23552001 0.18432 0.67200005
0.23808001 0.18432 0.67200005
0.24128002 0.18432002 0.67199999
0.24448001 0.18432 0.67200005
0.24743451 0.18477632 0.67133331
0.25050601 0.18468414 0.671
0.2535345 0.18456225 0.67055559
0.25651431 0.18440954 0.67000002
0.25944954 0.1841543 0.67000002
0.26225716 0.18377143 0.67000002
-0.01322324 0.18756458 0.67400002
-0.010270477 0.18743621 0.67400002
-0.008344762 0.18743619 0.67400002
-0.0057771434 0.1867943 0.67400002
0.21632192 0.1867943 0.67400002
0.2272343 0.18743619 0.67400002
0.22952004 0.18748648 0.6728
0.23232001 0.18736 0.67199999
0.23552002 0.18688002 0.67200005
0.23820801 0.18726401 0.67200005
0.24128 0.18752 0.67199999
0.24441922 0.18747318 0.67183334
0.24737288 0.18792653 0.67116666
0.25041312 0.18780978 0.67075002
0.25345019 0.18769301 0.67033339
0.25630161 0.1873873 0.67000002
-0.013480001 0.18936191 0.67400002
-0.010484446 0.18978985 0.67400002
0.21760572 0.19192953 0.67400002
0.22723429 0.19096667 0.67400002
0.22953677 0.19078934 0.67360002
0.23271456 0.19076952 0.67314285
0.23622096 0.19064571 0.67400002
0.23837602 0.19067544 0.67320001
0.24128002 0.19072002 0.67199999
0.24438882 0.19064929 0.67175007
0.24731143 0.1904362 0.671
0.25022644 0.19022311 0.67025
0.25300479 0.18983334 0.67000002
0.21760572 0.19321334 0.67400002
0.22402477 0.19385526 0.67400002
0.22684915 0.19398364 0.67400002
0.22963096 0.19371097 0.6735
0.23219763 0.19371097 0.67350006
0.23557906 0.19385524 0.67400002
0.23853393 0.19372058 0.67220002
0.2412149 0.19357942 0.67137498
0.24447134 0.19340658 0.67022222
0.24758096 0.19334286 0.67000002
0.25013334 0.19334288 0.67000002
0.25204763 0.19334286 0.67000002
0.21824762 0.19642286 0.67400002
0.22081524 0.19642286 0.67400002
0.2233783 0.19669029 0.67360002
0.2265843 0.19675714 0.67349994
0.22934668 0.19667429 0.67266673
0.2318286 0.19645716 0.67279994
0.23566206 0.19661389 0.67371422
0.23851466 0.19660251 0.671875
0.24128976 0.19660644 0.67025006
0.24439049 0.19653337 0.67000002
0.24758098 0.19653334 0.67000002
0.24992065 0.19674605 0.67000002
0.21824762 0.19899048 0.67400002
0.22081524 0.19963239 0.67400002
0.22365035 0.19982938 0.67342854
0.22630973 0.19941372 0.6724
0.22912002 0.19968002 0.67200005
0.23236039 0.19977067 0.67360002
0.23524286 0.19964431 0.67349994
0.23839259 0.19949278 0.67180002
0.24117582 0.19951107 0.671
0.24445128 0.19913542 0.67016673
0.24785835 0.19930883 0.67075002
0.25013334 0.19908573 0.67000002
0.25289842 0.19887303 0.67000002
0.22145715 0.20284191 0.67400002
0.22369112 0.20254128 0.67300004
0.22656001 0.20224002 0.67200005
0.22980192 0.20284191 0.67400002
0.23261563 0.20259352 0.67360002
0.23569527 0.2028503 0.67360002
0.23808001 0.20224002 0.67200005
0.24115969 0.20213969 0.67166668
0.24448113 0.20210207 0.67083335
0.24742514 0.20270036 0.67087501
0.25013334 0.20227621 0.67000002
0.25281337 0.20176573 0.67000002
0.22145715 0.20476763 0.67400002
0.22363429 0.20515962 0.67360002
0.22684915 0.20553792 0.67400002
0.22980191 0.20540953 0.67400002
0.23236953 0.20540954 0.67400002
0.23557906 0.20476763 0.67400002
0.23876572 0.20499302 0.67333335
0.2409981 0.20510574 0.67299998
0.24414995 0.2057015 0.67285717
0.24749573 0.20592715 0.67150003
0.25022644 0.20554358 0.67025006
0.25204763 0.20610477 0.67000002
0.2271059 0.20810553 0.67400002
0.24135621 0.2082981 0.67400002
0.2442781 0.20889744 0.67371422
0.24768001 0.20864002 0.67199999
0.25059977 0.20840786 0.67125005
0.25347468 0.20878172 0.67040002
0.23301144 0.21118668 0.67400002
0.24520764 0.21118668 0.67400002
0.24777526 0.21118668 0.67400002
0.25094211 0.21144876 0.67320001
0.25339988 0.21156584 0.67062503
0.2278762 0.21503811 0.67400002
0.25098479 0.2137543 0.67400002
0.34265718 0.2303524 0.67000002
0.34095559 0.23247938 0.67000002
0.3432537 0.23259525 0.67033339
0.3411254 0.23514891 0.67033339
0.34393597 0.2352574 0.67124999
0.32521591 0.23886032 0.67000002
0.32861906 0.23928575 0.67000002
0.33180955 0.23928574 0.67000002
0.33372384 0.23928574 0.67000002
0.33716619 0.23882622 0.67050004
0.34052417 0.23817557 0.67166668
0.34355047 0.23843524 0.67299998
0.34598669 0.23814668 0.67400002
0.32223812 0.24183811 0.67000002
0.32551718 0.24174049 0.67149997
0.32847834 0.24197622 0.67180002
0.33160743 0.24157658 0.67140001
0.33412734 0.24201365 0.67166668
0.33728001 0.24128 0.67199999
0.33984002 0.24064001 0.67200005
0.34299111 0.24114223 0.67400002
0.32096192 0.24566668 0.67000002
0.3233054 0.24445017 0.67133331
0.32565653 0.24450858 0.67266673
0.32832003 0.24448001 0.67199999
0.33152002 0.24448001 0.67200005
0.33419749 0.24450986 0.67266673
0.33742794 0.24413778 0.67400002
0.34020954 0.24392381 0.67400002
0.34213525 0.24328192 0.67400002
0.32032382 0.24758098 0.67000002
0.32239956 0.24763098 0.671
0.32512003 0.24768002 0.67199999
0.32825944 0.24705943 0.67240006
0.33143684 0.24798922 0.67400002
0.33357653 0.24756129 0.67400002
0.31992429 0.25032049 0.67050004
0.32208002 0.25050667 0.671
0.32512003 0.25088 0.67200005
0.32865524 0.25034288 0.67400002
0.33100891 0.2501289 0.67400002
0.31670797 0.25417462 0.67000002
0.32005432 0.25352797 0.67166668
0.32220024 0.25315741 0.67124999
0.32536241 0.25362906 0.67250001
0.32852691 0.25329563 0.67400002
0.33058098 0.25291049 0.67400002
0.31458098 0.25715241 0.67000002
0.31656432 0.25708812 0.67150003
0.31936002 0.25663999 0.67199999
0.32243201 0.25638399 0.67200005
0.32608765 0.25676191 0.67400002
0.32801336 0.25612003 0.67400002
0.31032699 0.25885397 0.67000002
0.31290001 0.25926048 0.67050004
0.31592524 0.25964668 0.67150003
0.31895763 0.26003289 0.67250001
0.3215943 0.25868765 0.67400002
0.32480383 0.25868765 0.67400002
0.3136 0.26240003 0.67200005
0.31678003 0.26286 0.67400002
0.3203105 0.26318097 0.67400002
0.31424001 0.26432002 0.67200005
0.31710097 0.26510668 0.67400002
0.3203105 0.26510668 0.67400002
0.31680003 0.27072001 0.67200005
0.31945464 0.27109781 0.67400002
-0.045913335 0.1649 0.67900002
-0.038153335 0.1649 0.67900002
-0.046344448 0.16662447 0.67900008
-0.043941431 0.16671716 0.67850006
-0.040680002 0.16659431 0.67800003
-0.03747905 0.16671668 0.67850006
-0.034893811 0.16736335 0.67850006
-0.032333337 0.16748668 0.67900002
0.18365334 0.16748668 0.67900002
0.19400001 0.16748668 0.67900002
0.19972128 0.16740446 0.67866665
0.20305334 0.16748668 0.67900002
0.21146001 0.16748668 0.67900008
0.21469335 0.16748668 0.67900002
0.22633335 0.16748668 0.67900002
-0.045913335 0.16942668 0.67900002
-0.043941431 0.16930191 0.67850006
-0.040430002 0.16928571 0.67650008
-0.037340954 0.16932191 0.67600006
-0.034825239 0.16961254 0.6771667
-0.031592701 0.16957089 0.67699999
-0.028453335 0.17007335 0.67900002
0.17869556 0.16964222 0.67900008
0.18140078 0.16950592 0.67879999
0.1845044 0.16924724 0.67879999
0.18753335 0.17007335 0.67900002
0.19012001 0.17007335 0.67900002
0.19330555 0.16938494 0.67883331
0.19629715 0.16917714 0.67800003
0.19957446 0.16921858 0.67816669
0.2028293 0.1692393 0.67825001
0.20564002 0.16942668 0.67900002
0.20822668 0.16942668 0.67900002
0.21146001 0.16942668 0.67899996
0.21482649 0.16961315 0.67820007
0.21769796 0.16938178 0.67771429
0.22089772 0.16951334 0.67780006
0.22348787 0.16966975 0.67675006
0.2266316 0.16935103 0.67685717
0.22942223 0.16948764 0.67666674
0.23241526 0.16932191 0.67600006
0.2355181 0.16923779 0.67566663
0.23830636 0.1690235 0.67566675
0.24157146 0.16855288 0.67550004
0.24446669 0.16855288 0.67550004
0.24740766 0.16894001 0.67533344
0.25264287 0.16907144 0.67500001
-0.045913335 0.17136668 0.67900002
-0.043480363 0.17279013 0.67887497
-0.040433716 0.17271525 0.67820001
-0.03736905 0.17266905 0.67650008
-0.034765717 0.17254096 0.67600006
-0.03151492 0.17237081 0.67533332
-0.028355556 0.17206542 0.67666674
-0.025847463 0.17253222 0.6785
-0.023280002 0.17395334 0.67900002
0.17843604 0.17261793 0.67883331
0.18159376 0.17254721 0.67855555
0.18471986 0.17244779 0.67816669
0.18744129 0.17257462 0.67866665
0.19007351 0.17261732 0.67883331
0.19325778 0.17257525 0.67866665
0.19629715 0.17240573 0.67800003
0.19945991 0.17234921 0.67777777
0.20265494 0.17232096 0.67766666
0.20533715 0.17240572 0.67800003
0.2084043 0.17256716 0.67800003
0.2115618 0.17225729 0.67814291
0.21454288 0.17231168 0.67700005
0.21767107 0.17230611 0.67660004
0.220184 0.17225562 0.67640007
0.22359335 0.17236097 0.67580009
0.22662097 0.17254096 0.67600006
0.22975716 0.17215714 0.67500001
0.23250002 0.17207144 0.67500001
0.23528573 0.17164287 0.67500001
-0.042680003 0.17589334 0.67900002
-0.040093336 0.17589334 0.67900002
-0.037424289 0.17550525 0.67750001
-0.034765717 0.17511621 0.67600006
-0.031504974 0.17552869 0.67511117
-0.028299684 0.17558604 0.67533332
-0.025873337 0.17545012 0.67580003
-0.022836383 0.1756082 0.67739999
0.17395334 0.17654002 0.67900002
0.17567778 0.1761089 0.67900008
0.17848001 0.17589334 0.67900002
0.18106668 0.17589334 0.67900002
0.18420921 0.17580731 0.67866665
0.18746454 0.17582881 0.67875004
0.19012001 0.17589334 0.67900002
0.19325779 0.175807 0.67866665
0.19629714 0.17563429 0.67800003
0.19952573 0.17563428 0.67800003
0.20275432 0.17563429 0.67800003
0.20533715 0.17563429 0.67800003
0.20856573 0.17563431 0.67800003
0.2117943 0.17563429 0.67800003
0.21466206 0.17546503 0.6762858
0.21760726 0.1753981 0.67560005
0.22060847 0.17558625 0.67533344
0.22371429 0.17550002 0.67500001
0.22634144 0.17554303 0.67516667
0.23027143 0.17575714 0.67500001
-0.042464446 0.17826445 0.67900008
-0.040093336 0.17848001 0.67900002
-0.037479527 0.17834859 0.67850006
-0.034765717 0.17769144 0.67600006
-0.031539209 0.1789351 0.6758334
-0.028285716 0.17871429 0.67500001
-0.025623623 0.17859277 0.67600006
-0.022542965 0.17842235 0.67633343
-0.019615557 0.17869556 0.67900008
-0.017460002 0.17912668 0.67900002
-0.014873334 0.17912668 0.67900002
0.17826445 0.17826445 0.67900008
0.18106668 0.17783335 0.67900002
0.18462335 0.17815667 0.67900002
0.18753335 0.17783335 0.67900002
0.19012001 0.17848001 0.67900002
0.19335334 0.17835066 0.67900002
0.19658667 0.17848001 0.67900002
0.19972128 0.1783924 0.67866665
0.2027543 0.17821714 0.67800003
0.20533714 0.17821714 0.67800003
0.20846318 0.17812921 0.67766666
0.21199076 0.17848465 0.67657143
0.21385367 0.17738889 0.67566675
0.21704453 0.17813691 0.67524999
0.22050001 0.17807144 0.67500001
0.22628573 0.17807144 0.67500001
0.22950001 0.17807144 0.67500001
-0.040093336 0.18042001 0.67900002
-0.03727302 0.18076254 0.67866677
-0.034894288 0.18093383 0.6785
-0.031625081 0.18200225 0.67766666
-0.028327622 0.1815543 0.67600006
-0.025752384 0.18155429 0.67600006
-0.022521906 0.18146509 0.67566675
-0.019371429 0.18144572 0.67800003
-0.016932379 0.18134725 0.67860001
-0.013566668 0.18153429 0.67833334
-0.010336508 0.18153431 0.67833334
-0.0077488893 0.18144445 0.67800003
-0.0054923813 0.18157905 0.67850006
0.17524667 0.18042001 0.67900002
0.17783335 0.18042001 0.67900002
0.18494669 0.18042001 0.67900002
0.19076668 0.18106668 0.67900002
0.19292223 0.18085112 0.67900008
0.19658667 0.18106668 0.67900002
0.19987784 0.18122913 0.6785714
0.2027543 0.18144573 0.67800003
0.20533717 0.18144572 0.67800003
0.20856573 0.18144572 0.67800003
0.21153982 0.18159696 0.67760003
0.21428223 0.18146478 0.67566675
0.21728572 0.18192859 0.67500001
0.22050002 0.18192859 0.67500001
0.22435716 0.18192859 0.67500001
0.22628573 0.18128574 0.67500001
-0.036860004 0.18365334 0.67900002
-0.034920003 0.18430001 0.67899996
-0.031655874 0.1847654 0.67833334
-0.02839 0.18453857 0.67750001
-0.025791431 0.18440191 0.67700005
-0.022533335 0.18412954 0.67600006
-0.019329049 0.18426524 0.67650002
-0.016653907 0.18423143 0.6778
-0.013520636 0.18477187 0.67600006
-0.010163238 0.18435144 0.67540008
-0.0077201594 0.18463604 0.67549998
-0.0045101587 0.18412413 0.67677778
-0.0012911112 0.18402731 0.67799997
0.001421143 0.18434076 0.67820001
0.0045244051 0.1843594 0.67862499
0.0077600009 0.18430001 0.67899996
0.010131112 0.18516225 0.67900008
0.18818001 0.18365334 0.67900002
0.19024935 0.18404135 0.67900002
0.19313778 0.1838689 0.67899996
0.19658668 0.18300667 0.67900002
0.19917335 0.18430001 0.67899996
0.20220733 0.18476509 0.67833334
0.20533714 0.18467429 0.67800003
0.20856571 0.18467428 0.67800003
0.2117943 0.18467429 0.67800003
0.21398693 0.18438309 0.67575002
0.21728571 0.18449999 0.67500001
0.22050004 0.18450002 0.67500001
0.22403574 0.18450001 0.67500001
0.22615716 0.18424286 0.67500001
-0.034704447 0.18731779 0.67900008
-0.031679209 0.18748748 0.67883331
-0.028411429 0.18725716 0.67800003
-0.025791431 0.18698096 0.67700005
-0.022533335 0.18734857 0.67600006
-0.019305078 0.1872559 0.67566675
-0.016726827 0.18720971 0.67549998
-0.014785715 0.18707144 0.67500001
-0.0070714289 0.18771431 0.67500001
-0.0041356464 0.18741322 0.6755715
-0.0012876191 0.18734859 0.67600006
0.0012885715 0.18744034 0.67633343
0.0043327892 0.18737496 0.6774286
0.0077600004 0.18753335 0.67900002
0.010131112 0.18731779 0.67900008
0.19076668 0.18753335 0.67900002
0.19206001 0.18753335 0.67900002
0.19917336 0.18753335 0.67900002
0.20230667 0.18744129 0.67866665
0.20533714 0.18725716 0.67800003
0.20856573 0.18725713 0.67800003
0.2117943 0.18725714 0.67800003
0.21447812 0.18742749 0.67628574
0.21750002 0.1879286 0.67500001
0.22050001 0.18771429 0.67500001
0.22371429 0.18771431 0.67500001
0.22564287 0.18771431 0.67500001
-0.030824447 0.18990445 0.67900008
-0.028443096 0.19005026 0.67875004
-0.025828574 0.18984002 0.67800003
-0.022301717 0.19066516 0.67680007
-0.019329049 0.19070907 0.67650008
-0.016733095 0.1904974 0.67575008
-0.0135 0.19060716 0.67500001
-0.0096428581 0.19092858 0.67500001
-0.007714286 0.19028573 0.67500001
-0.004505239 0.19052081 0.6758334
-0.0012895239 0.19085048 0.67700005
0.0012909526 0.19099097 0.67750001
0.0045228577 0.19036382 0.67833334
0.0075444449 0.19033557 0.67900008
0.0097000003 0.19012001 0.67900002
0.19033557 0.19033557 0.67900008
0.19723335 0.19012001 0.67900002
0.19917336 0.19012001 0.67900002
0.20235668 0.19007351 0.67883331
0.20533712 0.19048572 0.67800003
0.20872714 0.19032429 0.67800003
0.21168984 0.19039144 0.67766666
0.21461049 0.19065319 0.67728573
0.21744668 0.1904262 0.67550004
0.22010168 0.19049692 0.67575008
0.22334652 0.19052048 0.6758334
0.22628573 0.19028574 0.67500001
-0.028453335 0.19206001 0.67900002
-0.025866669 0.19270667 0.67900002
-0.022956667 0.19303001 0.67900002
-0.019386191 0.19321096 0.67850006
-0.016565399 0.19340478 0.67766672
-0.013533335 0.19333462 0.67666668
-0.010300476 0.19314383 0.67600006
-0.0077371434 0.19342953 0.67700005
-0.004514921 0.19352446 0.67733335
-0.001292381 0.19385763 0.67850006
0.0012923811 0.19385763 0.6785
0.0045266668 0.19313778 0.67899996
0.0077600004 0.19206001 0.67900002
0.18559335 0.19464669 0.67900002
0.18731779 0.19421558 0.67900008
0.19024935 0.19335334 0.67900002
0.193515 0.19351499 0.67899996
0.19671603 0.19361202 0.67900002
0.19917335 0.19335334 0.67899996
0.20230688 0.19325799 0.67866665
0.20533715 0.19371429 0.67800003
0.20842491 0.19347797 0.67814291
0.21148098 0.19342858 0.67700005
0.21443582 0.19329593 0.67557144
0.21707143 0.19435716 0.67500001
0.22066072 0.19366071 0.67500007
0.22339287 0.19317859 0.67500001
0.22628573 0.19285715 0.67500001
-0.013580001 0.19594002 0.67900008
-0.010343096 0.19651455 0.67875004
-0.0075444449 0.19637112 0.67900008
-0.0045266668 0.19658668 0.67899996
-0.0012933334 0.19594002 0.67900002
0.0012933334 0.19594002 0.67900002
0.18516225 0.19680224 0.67900008
0.18753335 0.19658668 0.67900002
0.19012001 0.19658668 0.67900002
0.19330589 0.19653827 0.67883331
0.19658667 0.19658667 0.67900002
0.19962318 0.19639365 0.67833334
0.2027543 0.19629715 0.67800003
0.20536573 0.19666713 0.67650008
0.20875837 0.1965913 0.67742866
0.21154745 0.196336 0.67680001
0.21414787 0.19645002 0.67575008
0.21664287 0.19671431 0.67500001
0.18455869 0.19930267 0.67900002
0.18753335 0.19917336 0.67900002
0.1906056 0.19965132 0.67842859
0.19355962 0.19946656 0.67842859
0.19657306 0.19970913 0.67799997
0.19953954 0.1992162 0.67750001
0.2026756 0.19913346 0.67612505
0.2057143 0.19928573 0.67500001
0.2083631 0.1993593 0.67525005
0.21110268 0.1992524 0.67620003
0.21422939 0.19943351 0.67549998
0.21664287 0.19928572 0.67500001
0.18527003 0.20240667 0.67900002
0.18753336 0.20240669 0.67899996
0.19042084 0.20260532 0.67842859
0.19357096 0.20260431 0.67750001
0.1965041 0.202389 0.67585719
0.19958097 0.20215622 0.67600006
0.20266074 0.20233931 0.67500007
0.20576525 0.20255004 0.67516667
0.20815715 0.20224288 0.67500001
0.21148191 0.2024543 0.67700005
0.21451011 0.20238669 0.67720002
0.21733797 0.20253541 0.6758334
0.21972859 0.20275715 0.67500001
0.18559335 0.20564002 0.67900002
0.18753335 0.20564002 0.67900002
0.19053222 0.20538747 0.67816669
0.19337757 0.2055155 0.67585719
0.19619539 0.20520107 0.67542857
0.19943351 0.20522273 0.67549998
0.20217083 0.20538668 0.67533332
0.2054501 0.20596516 0.67540002
0.2085381 0.2054501 0.67540002
0.2111661 0.20523849 0.67640007
0.21437715 0.20533715 0.67800003
0.21710001 0.20550492 0.67642862
0.22030783 0.20590401 0.67519999
0.23528573 0.20635715 0.67500001
0.23785716 0.20635715 0.67500001
0.18559335 0.20758002 0.67900002
0.18753335 0.20758002 0.67900002
0.19071691 0.20848097 0.67825001
0.19328524 0.20874812 0.67650008
0.19636191 0.20859428 0.67600006
0.19958097 0.20859429 0.67600006
0.20215622 0.20859431 0.67600006
0.20537525 0.20859431 0.67600006
0.20890382 0.20890288 0.67700005
0.21154897 0.2084541 0.67680007
0.21416573 0.20836002 0.67733335
0.21705334 0.20858206 0.67685717
0.22050765 0.20890287 0.67700005
0.22334653 0.20854302 0.6758334
0.22628573 0.20892859 0.67500001
0.23018001 0.20890191 0.67700005
0.23264383 0.20879936 0.67666668
0.2356343 0.20859431 0.67600006
0.23861714 0.20838858 0.67533332
0.24107145 0.20892859 0.67500001
0.18753335 0.21081334 0.67900002
0.1906724 0.21157144 0.67866665
0.19328524 0.2113262 0.67650002
0.19636191 0.21116954 0.67600006
0.19958097 0.21116954 0.67600006
0.20230526 0.2113262 0.67650002
0.20537525 0.21116953 0.67600006
0.20890382 0.21148193 0.67700005
0.21148288 0.21148191 0.67700005
0.21437716 0.2117943 0.67800003
0.21760575 0.2117943 0.67800003
0.22083431 0.2117943 0.67800003
0.22373112 0.21148224 0.67700005
0.22628574 0.2115 0.67500001
0.22902715 0.21165621 0.67550004
0.23229524 0.21116611 0.67640007
0.23615763 0.21163858 0.67750001
0.23889133 0.21184732 0.6761111
0.24184287 0.21175715 0.67500001
0.24407144 0.21235716 0.67500001
0.24814287 0.21278572 0.67500001
0.25007144 0.21278572 0.67500001
0.1905313 0.21443035 0.67816663
0.19342858 0.21406192 0.67700005
0.19600764 0.21406192 0.67700005
0.19942699 0.2142721 0.67766666
0.20275432 0.21437716 0.67800003
0.20557654 0.21395557 0.67666674
0.20890382 0.21406096 0.67700005
0.21163858 0.21421954 0.67750001
0.21437715 0.21437715 0.67800003
0.21760572 0.21437716 0.67800003
0.2208343 0.21437715 0.67800003
0.22373736 0.21444288 0.67780006
0.22597526 0.2139581 0.67600006
0.22958502 0.21382883 0.67524999
0.23267277 0.21361604 0.67600006
0.23633145 0.21373144 0.67800003
0.24768239 0.21358621 0.67550004
0.25044191 0.21438858 0.67600006
0.18731779 0.21706446 0.67900008
0.19100954 0.21728194 0.67833334
0.19371429 0.21696001 0.67800003
0.19644192 0.2171205 0.67850006
0.19952573 0.21696001 0.67800003
0.20297834 0.21720025 0.67875004
0.20533715 0.21696001 0.67800003
0.20856573 0.2163143 0.67800003
0.21114859 0.2163143 0.67800003
0.21437716 0.2163143 0.67800003
0.21760572 0.2163143 0.67800003
0.22116001 0.21663335 0.67900002
0.22310002 0.21663335 0.67900002
0.19012001 0.21922001 0.67900002
0.34650001 0.23978573 0.67500001
0.34418336 0.24189383 0.67550004
0.34636956 0.2420724 0.67600006
0.34135717 0.24492858 0.67500001
0.34379429 0.24464764 0.67600006
0.34572574 0.24400383 0.67600006
0.34804001 0.24408001 0.67800003
0.33744249 0.24687526 0.67540008
0.34070122 0.24731502 0.67625004
0.34373531 0.24816954 0.67800003
0.3461881 0.24736969 0.67816669
0.34821114 0.2474308 0.67833334
0.33235717 0.25135717 0.67500001
0.33483079 0.24988921 0.67566675
0.33747366 0.24983048 0.67666674
0.34034899 0.25051886 0.67760003
0.34352005 0.25053716 0.67800003
0.34648597 0.25081456 0.67875004
0.34855336 0.25090671 0.67900002
0.33469525 0.25333527 0.67800003
0.3370629 0.25312001 0.67800003
0.34023356 0.2531406 0.67840004
0.34363872 0.25362271 0.67900002
0.34661335 0.25349337 0.67900002
0.34855336 0.25284669 0.67900002
0.32935715 0.25650001 0.67500001
0.33180714 0.25642717 0.67650002
0.33472717 0.25589144 0.67850006
0.33756 0.25608003 0.67900002
0.34014666 0.25608003 0.67900002
0.34370339 0.25575668 0.67900002
0.34661335 0.25543335 0.67900002
0.32319242 0.26074287 0.67600006
0.3281005 0.25926334 0.67550004
0.33076286 0.25919336 0.67700005
0.334068 0.25905469 0.67900002
0.33777556 0.25845113 0.67900008
0.31950003 0.26292858 0.67500001
0.3225486 0.2626743 0.67600006
0.32565525 0.26237524 0.67800003
0.32850724 0.26210839 0.67820007
0.33130893 0.26276222 0.67900008
0.3169286 0.26421431 0.67500001
0.31973669 0.26505381 0.67550004
0.32302573 0.26564097 0.67700005
0.32556027 0.26484072 0.67825001
0.32850671 0.26513335 0.67900002
0.33044669 0.26448667 0.67900002
0.31980938 0.26828939 0.67620003
0.32238191 0.26822096 0.67700005
0.32592005 0.26836669 0.67899996
0.32786003 0.26836669 0.67900008
0.32078573 0.27064288 0.67500001
0.32374144 0.27139956 0.67850006
0.32580027 0.27150026 0.67875004
0.32850671 0.27160004 0.67900002
0.32592005 0.27354002 0.67900002
0.32786003 0.27354002 0.67900002
-0.051462859 0.16481143 0.68400002
-0.034508575 0.1640797 0.68366671
-0.031268574 0.16481143 0.68400002
-0.051872063 0.16690128 0.68366671
-0.049148194 0.16637412 0.68080008
-0.047276195 0.1664381 0.68000001
-0.036914289 0.16514286 0.68000001
-0.034415398 0.166237 0.68183333
-0.031065524 0.16676381 0.68240005
-0.028750289 0.16691029 0.68300003
-0.026057145 0.16741715 0.68400002
0.12963429 0.16741715 0.68400002
0.13354288 0.16741715 0.68400002
0.13658287 0.16698287 0.68400002
0.13940573 0.16676572 0.68400002
0.14266288 0.16689602 0.68400002
0.14592001 0.16676572 0.68400002
0.14852571 0.16676572 0.68400002
0.15113145 0.16676572 0.68400002
0.15438858 0.16676573 0.68400002
0.15764573 0.16676572 0.68400002
0.16059487 0.16684707 0.68380004
0.16344881 0.16670454 0.68375003
0.16698287 0.16698287 0.68400002
0.16937144 0.16741715 0.68400002
0.17288914 0.16689602 0.68400002
0.17569263 0.16658263 0.68325007
0.17865512 0.16696069 0.68214285
0.18178271 0.16661541 0.68250006
0.18496153 0.1667642 0.68240005
0.18740596 0.16658263 0.68325007
0.1903259 0.1669132 0.68283337
0.19331335 0.16665557 0.68266672
0.20563127 0.16688491 0.68183333
0.20840898 0.16685605 0.68171436
-0.054068577 0.16937144 0.68400002
-0.052076671 0.16924763 0.68350005
-0.049436577 0.16958591 0.68120003
-0.047276195 0.1696762 0.68000001
-0.028306669 0.16876127 0.68066669
-0.0254975 0.16939251 0.68212503
-0.022148572 0.16937143 0.68400002
-0.020194286 0.16937144 0.68400002
-0.014982858 0.17002288 0.68400002
0.12116572 0.17002288 0.68400002
0.12768 0.16937143 0.68400002
0.13028571 0.16937143 0.68400002
0.13344461 0.16924746 0.68350005
0.13664977 0.16918549 0.68325001
0.13920192 0.16912383 0.68300003
0.1424543 0.16912381 0.68300003
0.14570668 0.16912383 0.68300003
0.14830858 0.16912383 0.68300003
0.15166786 0.16954906 0.68275005
0.15463811 0.16946402 0.68279999
0.15749906 0.16946402 0.68280005
0.16053715 0.16963556 0.68244451
0.16392002 0.16912383 0.68300003
0.16652191 0.16912383 0.68300003
0.16918549 0.16918549 0.68325007
0.17252573 0.16936682 0.68285716
0.17532812 0.16948335 0.68183333
0.17751382 0.16940144 0.68150008
0.18121715 0.16822667 0.68200004
0.18777716 0.16876127 0.68066669
0.19035526 0.16862763 0.68100005
-0.057977147 0.17328 0.68400002
-0.055743683 0.17244247 0.68400002
-0.05252596 0.1725388 0.68300003
-0.049292386 0.17252001 0.68100005
-0.046844449 0.17248255 0.68000001
-0.024050001 0.17159954 0.6825
-0.022375105 0.1724162 0.68242866
-0.019537939 0.1725862 0.68383336
-0.017262857 0.17295429 0.68400002
-0.013842857 0.17279144 0.68400002
0.091851436 0.17262858 0.68400002
0.093154289 0.17262858 0.68400002
0.10748572 0.17328 0.68400002
0.10944001 0.17328 0.68400002
0.11400001 0.17262858 0.68400002
0.12442286 0.17132573 0.68400002
0.12768 0.17262858 0.68400002
0.13028572 0.17262858 0.68400002
0.1333691 0.17240445 0.68311119
0.13660002 0.17237622 0.68300003
0.13920192 0.1723762 0.68300003
0.1424543 0.17237622 0.68300003
0.1457067 0.1723762 0.68300003
0.14823589 0.17229176 0.68266672
0.1511849 0.17253076 0.68214291
0.1547621 0.1724337 0.68220007
0.15710077 0.17243373 0.68220007
0.1604324 0.17277336 0.6820001
0.16392 0.17237622 0.68300003
0.16652191 0.1723762 0.68300003
0.16912383 0.1723762 0.68300003
0.17208691 0.17241216 0.68250006
0.17567557 0.17243557 0.68066669
-0.058628574 0.17588574 0.68400002
-0.055961668 0.17569263 0.68325001
-0.052688573 0.17562859 0.68300003
-0.049148194 0.17545144 0.68080008
-0.046628576 0.17550479 0.68000001
-0.044685718 0.17615239 0.68000001
-0.021402858 0.17511335 0.68099999
-0.019461431 0.1758043 0.68116671
-0.016930716 0.1758212 0.68375003
-0.01367 0.17575668 0.68349999
-0.01064 0.17610288 0.68400002
-0.0078171436 0.17588574 0.68400002
0.011074287 0.17653716 0.68400002
0.013680001 0.17653716 0.68400002
0.016937144 0.17653716 0.68400002
0.020194286 0.17653716 0.68400002
0.086640008 0.1752343 0.68400002
0.091200009 0.17588574 0.68400002
0.093154289 0.17653716 0.68400002
0.10488001 0.1752343 0.68400002
0.10683429 0.17588574 0.68400002
0.10944001 0.17588574 0.68400002
0.11226287 0.17610288 0.68400002
0.1144343 0.1756686 0.68400002
0.12116572 0.17653716 0.68400002
0.12416229 0.17601602 0.68400002
0.12768 0.17588574 0.68400002
0.13028571 0.17588574 0.68400002
0.13344461 0.17575701 0.68350005
0.13660002 0.17562857 0.68300003
0.13920191 0.17562857 0.68300003
0.1424543 0.17562859 0.68300003
0.14554644 0.17543548 0.68225002
0.14809144 0.17537144 0.68200004
0.15133905 0.17537142 0.6820001
0.15458667 0.17537144 0.68200004
0.15718478 0.17537144 0.68200004
0.1604324 0.17537145 0.6820001
0.16380048 0.17550001 0.6825
0.16652191 0.17562859 0.68300003
0.16941431 0.17565544 0.68260002
0.17224123 0.17557594 0.68100005
0.17560725 0.17483011 0.68040001
-0.058607385 0.17842597 0.68375003
-0.055940956 0.17823049 0.68300003
-0.05249197 0.17847158 0.68285716
-0.049436577 0.17866857 0.68120003
-0.046628576 0.17874287 0.68000001
-0.044253971 0.17895873 0.68000001
-0.018780954 0.17809525 0.68000001
-0.016742667 0.17820096 0.6814
-0.01346512 0.17829131 0.68137503
-0.010387302 0.17852986 0.68166667
-0.0077998415 0.17874938 0.68250006
-0.0045566671 0.17836048 0.68350005
-0.0013028572 0.17914286 0.68400002
0.0058628577 0.17914286 0.68400002
0.0080342861 0.1787086 0.68400002
0.010415238 0.17836049 0.68350005
0.013676985 0.17844778 0.68383336
0.016937144 0.17849144 0.68400002
0.019542858 0.17849144 0.68400002
0.086640008 0.17849144 0.68400002
0.091851436 0.17784001 0.68400002
0.10444572 0.17827429 0.68400002
0.10683429 0.17849144 0.68400002
0.10944001 0.17849143 0.68400002
0.11182857 0.1787086 0.68400002
0.11443429 0.1787086 0.68400002
0.11877716 0.1787086 0.68400002
0.12116572 0.17849144 0.68400002
0.12442287 0.17849143 0.68400002
0.12763359 0.17842595 0.68375003
0.13019048 0.17836049 0.68350005
0.13337985 0.17827381 0.68316668
0.13660002 0.17823049 0.68300003
0.13920191 0.17823049 0.68300003
0.14256454 0.17865238 0.68275005
0.14552875 0.1786627 0.68216676
0.14809144 0.17861907 0.6820001
0.15133905 0.17861906 0.6820001
0.15445676 0.17835924 0.68200004
0.15724215 0.17803502 0.68225002
0.16055001 0.17809953 0.68250006
0.16386026 0.17816502 0.68275005
0.16639954 0.17810002 0.6825
0.16968811 0.17845668 0.6820001
0.17226668 0.17874286 0.68000001
0.17550476 0.17874287 0.68000001
0.17939049 0.17939049 0.68000001
0.18133335 0.17939049 0.68000001
0.18392383 0.17939049 0.68000001
0.18780954 0.17939049 0.68000001
0.1936381 0.17939049 0.68000001
-0.058607385 0.18103121 0.68375003
-0.055961668 0.18089882 0.68325007
-0.052688573 0.18126605 0.68300003
-0.049382143 0.18193358 0.68225002
-0.046697147 0.18160096 0.68100005
-0.043390479 0.18133335 0.68000001
-0.040152382 0.18198097 0.68000001
-0.038209528 0.18198097 0.68000001
-0.004113175 0.18073827 0.68183333
-0.0012993652 0.18121588 0.68199998
0.0011702857 0.18168877 0.68279999
0.0045469841 0.18124434 0.68211108
0.007786985 0.1810381 0.68133336
0.010387302 0.18112667 0.68166667
0.013653757 0.18139346 0.68266672
0.016924921 0.18161507 0.68350005
0.019542858 0.18109716 0.68400002
0.022148572 0.18174858 0.68400002
0.025405716 0.18174858 0.68400002
0.033222858 0.18174858 0.68400002
0.043645721 0.18174858 0.68400002
0.086640008 0.18109715 0.68400002
0.09771429 0.18174858 0.68400002
0.10422857 0.18109715 0.68400002
0.10683429 0.18109715 0.68400002
0.10921391 0.18132858 0.68340003
0.1127883 0.18122479 0.68342865
0.11586968 0.1816151 0.68349999
0.11850223 0.18165939 0.68366671
0.12154299 0.18174468 0.68337506
0.12469061 0.18141009 0.68342865
0.12749334 0.18148287 0.68300003
0.13009524 0.18148287 0.68300003
0.13336933 0.18151219 0.68311113
0.13660002 0.18148287 0.68300003
0.13945118 0.18144491 0.68285716
0.14231461 0.18173873 0.68233341
0.14549334 0.18186668 0.68200004
0.14809144 0.18186668 0.68200004
0.15137637 0.18191129 0.68216676
0.15485315 0.18163639 0.68260002
0.15737666 0.18143827 0.68283337
0.16066763 0.1814829 0.68300003
0.16392 0.18148287 0.68300003
0.16652191 0.18148287 0.68300003
0.16937539 0.18162599 0.68214291
0.17251906 0.1816 0.68100005
0.17518097 0.18133335 0.68000001
0.17881191 0.18205859 0.68150008
0.1816 0.18160097 0.68099999
0.18438241 0.18179098 0.68050003
0.18780954 0.18133336 0.68000001
0.1897524 0.18133335 0.68000001
0.19406985 0.18154924 0.68000001
-0.058498293 0.18409374 0.68400002
-0.055208575 0.18419145 0.68400002
-0.052244574 0.18461487 0.68400002
-0.049454525 0.18480311 0.68325007
-0.046765715 0.18446478 0.68200004
-0.04345556 0.18419462 0.68099999
-0.040022857 0.18431239 0.68000001
-0.037885718 0.18489525 0.68000001
0.00064761908 0.18327621 0.68000001
0.0045333337 0.18327621 0.68000001
0.010577779 0.18370795 0.68000001
0.013453572 0.18461215 0.68074995
0.016900478 0.18460003 0.6825
0.019523812 0.18417399 0.6833334
0.022137778 0.18426383 0.68366671
0.025405716 0.18435431 0.68400002
0.028793145 0.18461487 0.68400002
0.031138286 0.18461487 0.68400002
0.034711838 0.18472655 0.68400002
0.037782863 0.18500572 0.68400002
0.040518861 0.18461487 0.68400002
0.043645721 0.18435431 0.68400002
0.046902861 0.18435431 0.68400002
0.049378291 0.18461487 0.68400002
0.051462859 0.18565716 0.68400002
0.060582861 0.18565716 0.68400002
0.063188575 0.18500572 0.68400002
0.068400003 0.18565716 0.68400002
0.086640008 0.18435431 0.68400002
0.10357715 0.18435431 0.68400002
0.10696457 0.18435431 0.68400002
0.10953848 0.18456097 0.68380004
0.11249262 0.18444954 0.68375003
0.11578477 0.18473525 0.68300003
0.11838667 0.18473524 0.68300003
0.12144972 0.18471372 0.68340003
0.12461029 0.1850282 0.68360007
0.12749335 0.18473524 0.68300003
0.13009524 0.18473524 0.68300003
0.13334762 0.18473525 0.68300003
0.13660002 0.18473524 0.68300003
0.13920191 0.18473524 0.68300003
0.14234938 0.18460016 0.68250006
0.14554644 0.18453263 0.68225002
0.14842831 0.184726 0.68057144
0.15145554 0.18461744 0.68085712
0.15464358 0.18453217 0.68225002
0.15730049 0.18460003 0.6825
0.16066764 0.18473524 0.68300003
0.16392002 0.18473525 0.68300003
0.16652191 0.18473524 0.68300003
0.16946402 0.18455124 0.68279999
0.17243373 0.18464896 0.68220007
0.17545143 0.18401143 0.68080008
0.17887887 0.18459468 0.68200004
0.18186668 0.18446478 0.68200004
0.18493207 0.18428445 0.68133336
0.18748572 0.18489525 0.68000001
0.1897524 0.18586668 0.68000001
0.19406985 0.18543494 0.68000001
0.1968762 0.18521908 0.68000001
-0.057977147 0.18696001 0.68400002
-0.054068577 0.18761143 0.68400002
-0.052114289 0.18761143 0.68400002
-0.049508575 0.18761143 0.68400002
-0.04683429 0.18733715 0.68300003
-0.043539684 0.18715461 0.68233341
-0.04044826 0.18709588 0.68133336
-0.037561908 0.18780953 0.68000001
-0.03561905 0.18845716 0.68000001
0.011009525 0.18845716 0.68000001
0.013625523 0.18749145 0.68120003
0.016900478 0.18720001 0.6825
0.019514287 0.18733716 0.68300003
0.022116192 0.18733716 0.68300003
0.025375083 0.1873827 0.68316674
0.028641431 0.1874743 0.68350005
0.031268574 0.18761143 0.68400002
0.034491431 0.18742859 0.6833334
0.037741669 0.18740596 0.68325007
0.040373575 0.18754263 0.68375003
0.043634769 0.18756557 0.68383336
0.046902858 0.18761145 0.68400002
0.049508572 0.18761145 0.68400002
0.05189715 0.18782859 0.68400002
0.05602286 0.18826286 0.68400002
0.059280004 0.18826286 0.68400002
0.061234288 0.18761145 0.68400002
0.064491436 0.18774173 0.68400002
0.06772358 0.18754263 0.68375003
0.07035429 0.18761145 0.68400002
0.073285714 0.18793716 0.68400002
0.076217145 0.18826286 0.68400002
0.090548575 0.18826286 0.68400002
0.09445715 0.18826286 0.68400002
0.09771429 0.18826286 0.68400002
0.10032001 0.18826286 0.68400002
0.10357716 0.18761145 0.68400002
0.10683429 0.18761145 0.68400002
0.10944001 0.18761145 0.68400002
0.1126416 0.18752001 0.68366671
0.11578476 0.18733716 0.68300003
0.11842977 0.18740548 0.68325007
0.12112167 0.18754263 0.68375003
0.12442286 0.18761145 0.68400002
0.12749335 0.18733715 0.68300003
0.13009524 0.18733716 0.68300003
0.13334763 0.18733716 0.68300003
0.13660002 0.18733716 0.68300003
0.13920191 0.18733716 0.68300003
0.14245428 0.18733716 0.68300003
0.14559954 0.18720001 0.6825
0.14787494 0.18727936 0.68199998
0.15104192 0.1873454 0.68066669
0.15458667 0.18706286 0.68200004
0.15741524 0.18733715 0.68300003
0.16066764 0.18733716 0.68300003
