# .PCD v0.7 - Point Cloud Data file format
VERSION 0.7
FIELDS x y z
SIZE 4 4 4
TYPE F F F
COUNT 1 1 1
WIDTH 147
HEIGHT 1
VIEWPOINT 0 0 0 1 0 0 0
POINTS 147
DATA ascii
0.073577501 0.12627418 0.58862501
0.07809104 0.1262693 0.58708328
0.086712576 0.1269903 0.58739996
0.09191905 0.12666716 0.58850002
0.072986007 0.13244723 0.58852178
0.078857198 0.13143136 0.58724481
0.086119264 0.13141324 0.58716661
0.091286674 0.13152079 0.58840007
0.072190858 0.13879928 0.58819354
0.078895107 0.13876837 0.58752364
0.086139396 0.13871679 0.58730543
0.091711424 0.13875599 0.58871442
0.072794862 0.1451795 0.58886677
0.079127885 0.14623198 0.58819139
0.08618515 0.14606646 0.58761895
0.091560729 0.14497294 0.58852935
0.07380531 0.15354069 0.58900011
0.07902085 0.15355824 0.58845252
0.085463941 0.15371458 0.58888459
0.074606672 0.15762763 0.58900005
0.079815522 0.15834884 0.58900011
0.085545242 0.15846905 0.58900011
0.080777153 0.16548096 0.58900005
0.083955884 0.17015557 0.58900005
0.059329528 0.12265239 0.59900004
0.06443058 0.12487433 0.59403443
0.069876596 0.12559327 0.59091675
0.096408203 0.12610762 0.59060001
0.09943001 0.12646906 0.59150004
0.064422257 0.13138887 0.59416664
0.069925569 0.13057914 0.5908888
0.0951894 0.13094221 0.59077275
0.10119757 0.13131873 0.59359521
0.106456 0.13343848 0.5952
0.064404376 0.13882992 0.59474367
0.068643346 0.13897602 0.5907858
0.095069952 0.13882214 0.59066665
0.10127016 0.1386289 0.59402126
0.10588083 0.13909635 0.59542865
0.064676441 0.14622116 0.59456408
0.07081034 0.1468415 0.59058619
0.075857148 0.14609525 0.59000003
0.094875254 0.14684241 0.59120005
0.10120673 0.14623506 0.59440917
0.10618557 0.14567414 0.59516668
0.064502247 0.15371656 0.59535903
0.070243575 0.15374997 0.59121209
0.088893332 0.15384953 0.59000009
0.093460418 0.15372981 0.59158516
0.10098793 0.15376662 0.59543592
0.10527381 0.15250716 0.59750003
0.064716808 0.16129379 0.59560007
0.071583197 0.16134052 0.59141845
0.078513891 0.16234352 0.59035486
0.086314365 0.16235535 0.59024251
0.093786746 0.16134298 0.59272975
0.10099486 0.16113281 0.59573692
0.064887889 0.16867913 0.59634292
0.071672618 0.16875014 0.59259993
0.078619108 0.16892216 0.59064704
0.086363994 0.16840307 0.59044737
0.093822949 0.16866647 0.59391892
0.10106344 0.16854535 0.5965001
0.10543399 0.16801146 0.59733337
0.065187529 0.176505 0.59666669
0.071734175 0.17634396 0.59291667
0.07881517 0.17620948 0.59111887
0.086247854 0.17641386 0.59156227
0.09409219 0.17622995 0.59470731
0.10069784 0.17562051 0.59815997
0.10871392 0.17596573 0.59639996
0.06478662 0.18344809 0.59690922
0.071509771 0.18381524 0.59313321
0.078889161 0.18369952 0.59166646
0.086319469 0.18392111 0.592381
0.093842812 0.18359791 0.59431583
0.099806741 0.18371674 0.59814996
0.06537205 0.19120625 0.59736359
0.070994891 0.19088748 0.59402084
0.078713857 0.19131641 0.59281409
0.086401142 0.19132417 0.59328282
0.094122387 0.19101343 0.59543252
0.10040282 0.19220993 0.59750009
0.10687906 0.19406763 0.5955714
0.065131038 0.19875705 0.59704554
0.070906408 0.19874899 0.59499997
0.078542292 0.19863631 0.59331131
0.086024038 0.19875388 0.59402633
0.093580663 0.19836915 0.59663165
0.10120789 0.19742915 0.59780771
0.10681256 0.19769838 0.59600002
0.065249763 0.20577443 0.59785002
0.0708225 0.2062334 0.59514892
0.078473426 0.20596226 0.59335566
0.086236008 0.20621733 0.59516221
0.093114562 0.20589828 0.59762174
0.065606385 0.21357946 0.59849995
0.070936739 0.21395294 0.59588897
0.078752793 0.21407279 0.59509522
0.086206697 0.21381265 0.59549999
0.092262946 0.21311156 0.59782612
0.10439715 0.21564001 0.59900004
0.058613528 0.12583183 0.60220009
0.060604766 0.12521271 0.60033333
0.0583428 0.13168615 0.60281253
0.060567867 0.13115263 0.60091668
0.057297323 0.13856876 0.60257691
0.060604773 0.13893428 0.60033327
0.057158791 0.14600179 0.60260004
0.060565941 0.1460713 0.60038459
0.057489827 0.15379272 0.60366666
0.060661547 0.15356837 0.60046148
0.057253361 0.16147077 0.60523349
0.060643014 0.16114441 0.60115397
0.056874 0.16884132 0.60505885
0.060879949 0.16919176 0.60093749
0.10746487 0.17050785 0.60055554
0.056604799 0.17613463 0.60470009
0.061140791 0.17602102 0.60064703
0.10335638 0.17756055 0.60018176
0.10806462 0.17609699 0.60316676
0.11371498 0.17789158 0.60785717
0.057143442 0.18401578 0.60423082
0.060898364 0.18376528 0.6006
0.10309574 0.18363954 0.60027778
0.11160453 0.18262549 0.60875005
0.11453257 0.18280314 0.60805547
0.057116307 0.19097309 0.60580647
0.061731339 0.19155113 0.60158336
0.10159896 0.19080742 0.60044444
0.057241298 0.19845599 0.60603034
0.06174425 0.1986106 0.60170829
0.099891759 0.20086275 0.60011107
0.058515854 0.20628878 0.6040715
0.061710037 0.20637636 0.6013751
0.096571438 0.20857143 0.60000002
0.10001463 0.20592871 0.60165387
0.057770435 0.21390724 0.60582608
0.06195318 0.21375772 0.60211998
0.095729463 0.21454442 0.60023075
0.10055847 0.21410821 0.60167569
0.055851117 0.13447081 0.61300004
0.055281531 0.1366282 0.61360002
0.054270718 0.15989929 0.61274999
0.053535242 0.17108001 0.611
0.051874287 0.17310858 0.61200005
0.052953336 0.17340763 0.611
