# .PCD v0.7 - Point Cloud Data file format
VERSION 0.7
FIELDS x y z
SIZE 4 4 4
TYPE F F F
COUNT 1 1 1
WIDTH 223
HEIGHT 1
VIEWPOINT 0 0 0 1 0 0 0
POINTS 223
DATA ascii
0.036394287 0.044665717 0.57900006
0.041366022 0.042611066 0.57864523
0.048687719 0.043349758 0.57685721
0.034807079 0.049662132 0.57770008
0.041147679 0.048826583 0.57608181
0.048804957 0.048802067 0.57577562
0.055344801 0.049930137 0.57707411
0.033903107 0.056477468 0.57704657
0.041073069 0.056409098 0.57504106
0.048745424 0.056412075 0.57506132
0.054987755 0.0557747 0.57819051
0.034109704 0.063596867 0.57723701
0.041075457 0.064078353 0.57506144
0.048697148 0.063988164 0.57617402
0.054282468 0.063290089 0.57847059
0.035211049 0.070668504 0.57736015
0.041086331 0.071217023 0.57521451
0.048995528 0.071092963 0.57628888
0.054358546 0.071213901 0.57858831
0.035473812 0.078661039 0.57825011
0.041178327 0.078516759 0.57651007
0.048861697 0.078508087 0.57644892
0.054290172 0.077856772 0.57813334
0.0363064 0.086159743 0.57885718
0.04122733 0.086309366 0.57722443
0.048792835 0.08621382 0.57786953
0.036945716 0.092640013 0.57900006
0.041472029 0.093524396 0.57832515
0.047866944 0.093370751 0.57864308
0.042460006 0.099720344 0.57900023
0.046570648 0.099307276 0.57900006
0.04218429 0.11331858 0.57900006
0.044665717 0.15384859 0.57900006
0.045768574 0.15384859 0.57900006
0.02931262 0.043270241 0.58625001
0.033807367 0.042553402 0.58333343
0.038114287 0.041980952 0.58000004
0.052476194 0.042533334 0.58000004
0.054156911 0.044209287 0.58025002
0.028975751 0.048403155 0.58423084
0.031740043 0.047887076 0.58180958
0.055422228 0.046215877 0.58000004
0.028866956 0.055404481 0.58289999
0.030380955 0.055422228 0.58000004
0.05812782 0.057021279 0.5812667
0.061800268 0.057174981 0.58283329
0.02745915 0.064373247 0.5837
0.030532144 0.063964054 0.58024997
0.057755388 0.063687123 0.58108002
0.062216584 0.063822508 0.58385175
0.02707045 0.07158871 0.58508819
0.031778675 0.07181289 0.58100003
0.057819281 0.071433902 0.58216
0.061531909 0.072018087 0.58337504
0.026975883 0.078502119 0.58527023
0.031996787 0.079074487 0.58095837
0.057489645 0.079372898 0.5817917
0.061521515 0.07846684 0.58382362
0.027680559 0.086056784 0.58582753
0.032616954 0.086396679 0.58116138
0.052476194 0.088933341 0.58000004
0.05669713 0.086211942 0.58228207
0.062000476 0.086566895 0.58504546
0.027620463 0.094038524 0.5861724
0.033327729 0.093764447 0.58127904
0.038114287 0.096114293 0.58000004
0.051578574 0.093973801 0.57999998
0.056491401 0.093547039 0.58279496
0.062231731 0.093540207 0.58700007
0.027197527 0.1011233 0.58700001
0.033828989 0.10122376 0.58118749
0.040277787 0.10232857 0.57999998
0.049310166 0.10166746 0.58006454
0.056175523 0.10121071 0.58391666
0.061515644 0.10165405 0.58808327
0.027282638 0.10887666 0.58677137
0.033883315 0.10882437 0.58208686
0.04142857 0.10881905 0.57999992
0.048546113 0.10870474 0.58074355
0.056353558 0.10872753 0.5842827
0.061704885 0.10922394 0.58699995
0.027395956 0.11555277 0.5879643
0.033791311 0.1162025 0.58304453
0.041510612 0.11661467 0.58004755
0.048896786 0.11607572 0.58187187
0.056059022 0.11617959 0.58504438
0.061284762 0.11506381 0.58820003
0.028759742 0.12400578 0.58827782
0.034037519 0.1238004 0.58473903
0.04143025 0.12392659 0.58211118
0.048829455 0.12373402 0.58259523
0.056239508 0.12381478 0.58631688
0.060246289 0.12352172 0.58900005
0.028863933 0.13150144 0.58850002
0.033933353 0.1313304 0.58542544
0.041573141 0.13156818 0.58300012
0.04875299 0.13155608 0.58423072
0.056185044 0.13113344 0.58691108
0.060769849 0.13144985 0.58900011
0.02919299 0.13863041 0.58845454
0.034057125 0.13859051 0.58504438
0.041671801 0.13893694 0.58180863
0.048836898 0.1388334 0.58202386
0.055660926 0.13846356 0.58771873
0.029590242 0.14598787 0.58900005
0.034040358 0.14623089 0.58604163
0.041588672 0.14648689 0.58197916
0.048763067 0.14655858 0.58102429
0.054210678 0.14620492 0.58550006
0.029730478 0.15089621 0.58900005
0.034165177 0.15363485 0.58680946
0.041382946 0.15363279 0.58158141
0.048717756 0.15352859 0.5809167
0.053001191 0.15318643 0.58275008
0.035152856 0.16111574 0.58700007
0.04151101 0.16115445 0.58372098
0.048925769 0.16145891 0.58497292
0.05403842 0.16118032 0.58900005
0.035551433 0.16834207 0.58753848
0.041298363 0.16876607 0.58482498
0.04851862 0.16866463 0.58611107
0.05388581 0.16889603 0.58881825
0.036333881 0.17602266 0.5878095
0.0412503 0.17636593 0.58637857
0.04867924 0.17638274 0.58777779
0.053290479 0.17445621 0.58900011
0.036181435 0.18385215 0.58900005
0.040894188 0.18367843 0.58715546
0.048357274 0.18349229 0.58786833
0.029029287 0.19156526 0.58900005
0.034172207 0.19165535 0.58823693
0.040995244 0.19092597 0.58741844
0.048341859 0.19071636 0.58823812
0.034458969 0.19873437 0.58790916
0.04089402 0.19846225 0.58720815
0.048699874 0.19870874 0.58773458
0.053814676 0.20034745 0.58860004
0.034675274 0.20548621 0.58790004
0.040983479 0.20591256 0.58769441
0.048265912 0.20528708 0.58810347
0.054745298 0.20409495 0.58855563
0.035340004 0.21091811 0.58900005
0.040949527 0.2134867 0.58899999
0.046253081 0.21474278 0.58900011
0.024161907 0.080914289 0.59000003
0.024395674 0.086897671 0.59072733
0.024561161 0.092534505 0.5919286
0.024369685 0.10141255 0.59050006
0.063495241 0.098333336 0.59000003
0.024161907 0.10732383 0.59000009
0.02518543 0.11794771 0.59030008
0.061325956 0.11955644 0.59075004
0.026208133 0.12361742 0.59053344
0.061744608 0.12311383 0.59116673
0.025587704 0.13103573 0.59050012
0.060685717 0.13429524 0.59000003
0.022174288 0.14100572 0.597
0.026131976 0.13930205 0.59199995
0.058835246 0.14095677 0.59060001
0.062501393 0.1393199 0.59341377
0.02177893 0.14476943 0.597875
0.025831802 0.14630419 0.59338886
0.058146723 0.14670295 0.59131253
0.061755866 0.14593756 0.59324998
0.022192858 0.15478238 0.59750003
0.026421063 0.15390818 0.59376097
0.030904764 0.15677144 0.59000003
0.05734206 0.15436371 0.59206897
0.062358152 0.15439756 0.59422737
0.02218667 0.15871939 0.59733337
0.026710173 0.16138116 0.5940001
0.031443596 0.1616319 0.59038472
0.056468073 0.16116357 0.59047055
0.06122553 0.16015887 0.59300005
0.026985792 0.16838016 0.59371048
0.03199482 0.16926031 0.59068751
0.057133473 0.1686185 0.59142858
0.061046958 0.16878201 0.59350002
0.026909821 0.17634372 0.59592879
0.0325776 0.17623568 0.59092593
0.052257147 0.17812382 0.59000003
0.056949586 0.17677154 0.59415156
0.06135473 0.17578098 0.59523088
0.022248574 0.18312287 0.5990001
0.026743788 0.18383084 0.59509999
0.033082888 0.18411949 0.59121209
0.05227486 0.18470459 0.59020007
0.056469768 0.18411194 0.59465003
0.06198011 0.1839041 0.59763163
0.020864574 0.18984173 0.59860003
0.026381547 0.190501 0.59224325
0.032357145 0.18876533 0.59014297
0.051293883 0.19353609 0.59000009
0.056547362 0.19110484 0.59209096
0.06233418 0.19058704 0.59679174
0.021852382 0.20036906 0.59600002
0.026634837 0.19925228 0.59220904
0.031205362 0.19932204 0.59037507
0.056804821 0.1984908 0.59203213
0.060932387 0.19854268 0.59460002
0.021172535 0.20613573 0.59747362
0.026563905 0.20629466 0.59297562
0.031439573 0.20729846 0.59045464
0.042892069 0.20921588 0.59000003
0.049936712 0.20869406 0.59015399
0.05702205 0.20689169 0.59230775
0.020722911 0.21284543 0.59831589
0.026643232 0.2136042 0.5942046
0.033660065 0.2139551 0.59082347
0.04102619 0.21427189 0.59010005
0.049560007 0.2137439 0.59074283
0.056053676 0.21337584 0.59266663
0.020000001 0.14342858 0.60000002
0.022285718 0.17600003 0.60000002
0.023657145 0.17565715 0.60000002
0.021045502 0.18586349 0.60088891
0.019437999 0.18935114 0.60030001
0.066015005 0.19316693 0.60275006
0.068226673 0.19321334 0.60200006
0.020000001 0.20114288 0.60000002
0.066412143 0.19521216 0.60374999
0.068396673 0.1954186 0.60350001
0.020000001 0.20342858 0.60000002
