# .PCD v0.7 - Point Cloud Data file format
VERSION 0.7
FIELDS x y z
SIZE 4 4 4
TYPE F F F
COUNT 1 1 1
WIDTH 211
HEIGHT 1
VIEWPOINT 0 0 0 1 0 0 0
POINTS 211
DATA ascii
0.0046161907 0.044184763 0.52720004
0.01165729 0.04253817 0.52738476
0.018263808 0.042374037 0.52861106
0.022923335 0.044083335 0.52900004
-0.00083968265 0.051556513 0.52900004
0.0037404301 0.04890107 0.52639228
0.011011562 0.048663996 0.52585965
0.018479202 0.048943363 0.52761376
0.023213249 0.048943467 0.52881825
-0.0016642491 0.05654382 0.52792323
0.00392788 0.056081273 0.52472591
0.011562363 0.05597654 0.52359277
0.018527899 0.056071192 0.52567863
0.022765001 0.056092389 0.52824998
-0.0016014719 0.063737229 0.52809095
0.0041135685 0.063736878 0.52426237
0.011392057 0.063617393 0.52347183
0.018465485 0.063652903 0.52560008
0.023066273 0.064334363 0.52841669
-0.001926371 0.071425751 0.52827585
0.0038681524 0.071303546 0.52505088
0.011572602 0.0712329 0.52473068
0.018184761 0.071180306 0.52625531
0.02317524 0.068014286 0.52900004
-0.0025726724 0.07848528 0.52808338
0.0037328943 0.078495316 0.52573091
0.011198958 0.078605853 0.52494329
0.01863718 0.078731619 0.5270803
0.022872955 0.078896582 0.52900004
-0.0018034921 0.085639611 0.52816677
0.0035635508 0.086199187 0.5266003
0.011019791 0.086144984 0.52587539
0.017742453 0.08603622 0.52767515
-0.00089120877 0.09325546 0.52884632
0.0034526479 0.093804888 0.52716017
0.011044542 0.093872435 0.52708954
0.017145718 0.09337905 0.52835721
-0.00050380954 0.098746672 0.52900004
0.0038376621 0.10085212 0.52790916
0.011051548 0.10096268 0.52741086
0.016376361 0.10083172 0.52858829
0.0046714819 0.1084033 0.52872229
0.010847266 0.10851742 0.52871168
0.016065927 0.10708752 0.5290001
0.0061831172 0.11638001 0.5290001
0.009124551 0.11604414 0.52900022
0.0015142858 0.044923812 0.53000003
0.019180954 0.044923812 0.53000003
-0.0031618064 0.049883977 0.53127581
0.00050476193 0.045933336 0.53000003
0.019685715 0.047144767 0.53000003
0.023892066 0.049634926 0.53000003
-0.0085127894 0.058854837 0.53471434
-0.004867868 0.056349605 0.53178263
0.024602003 0.054872479 0.53150004
-0.0085487626 0.061762672 0.53420001
-0.0051619681 0.063945025 0.53119999
0.025102224 0.066208258 0.53066671
-0.0076000006 0.074480005 0.53200001
-0.0053657144 0.07099402 0.53047627
0.021145172 0.071662463 0.53042859
0.025246855 0.072081804 0.53222853
-0.008729252 0.078104317 0.53304762
-0.0057259267 0.079146467 0.53044444
0.025862664 0.078535482 0.53234887
-0.0092436196 0.086900301 0.53531992
-0.0051443256 0.086750761 0.53112501
0.021378269 0.086847022 0.53100008
0.025446519 0.086320467 0.53266674
-0.0094029531 0.093493775 0.53643346
-0.0043831505 0.093829617 0.53210264
0.020463273 0.094134592 0.53078258
0.025163738 0.093984485 0.53356409
-0.0090710344 0.10086987 0.53631049
-0.0036588144 0.10143663 0.53248978
0.00070666673 0.1032743 0.53000003
0.0200058 0.10158393 0.53157133
0.024862586 0.10119735 0.53457153
-0.0087893652 0.10792127 0.53750014
-0.0035817139 0.10885362 0.5334
0.0011109209 0.10882128 0.53046679
0.013628572 0.11155239 0.53000009
0.019326696 0.10918689 0.53187501
0.024407551 0.10870174 0.53511113
-0.0086434586 0.11563305 0.53710532
-0.0036039231 0.11616034 0.53364003
0.0028209751 0.11610442 0.5306586
0.012966955 0.11662848 0.53043336
0.018756039 0.11607139 0.53220397
0.025901463 0.11668267 0.53702033
-0.0081614647 0.12328339 0.53815395
-0.0035114859 0.12374997 0.53498006
0.0034444816 0.12392061 0.53176457
0.011195205 0.12389623 0.53128076
0.018670045 0.12365439 0.5329811
0.024579013 0.1234965 0.5362801
-0.0077000004 0.12833335 0.53900003
-0.003469524 0.13117893 0.53668886
0.0035483581 0.13139321 0.53267342
0.011146669 0.13122669 0.53199977
0.018836267 0.13131452 0.53441668
0.024582265 0.13091934 0.53679174
-0.0019436828 0.13691613 0.53500015
0.0035480077 0.13838966 0.53226519
0.011119271 0.13879386 0.53254092
0.018987784 0.13892463 0.53550929
0.023612382 0.13820967 0.53750002
-0.0089432504 0.14784084 0.53735298
-0.0036438338 0.1469578 0.53402561
0.0034450493 0.14611521 0.53345287
0.011239217 0.14626072 0.5340001
0.018660486 0.14650659 0.5365777
0.023613334 0.1463 0.53900003
-0.0095471581 0.15348031 0.53714281
-0.0037167217 0.15352522 0.5337885
0.0036602854 0.15360072 0.53354007
0.011132898 0.15357473 0.53499997
0.018655194 0.15386838 0.53706664
0.023100002 0.15451334 0.53900003
-0.0085534602 0.16173264 0.53660005
-0.0033303169 0.16101101 0.53449994
0.0035885719 0.16145988 0.53533328
0.011258984 0.16153014 0.53633332
0.018563677 0.16119817 0.53827906
-0.0080850003 0.17004167 0.53900003
-0.0035809916 0.16871013 0.53657138
0.0035721664 0.16890419 0.53579575
0.011295757 0.16891287 0.53605241
0.017304106 0.16843222 0.53710341
-0.0087266676 0.17402001 0.53900003
-0.0030466914 0.17575812 0.53702492
0.0034513876 0.1763296 0.53726095
0.011268443 0.17646794 0.53778851
0.01735865 0.17550513 0.53857905
-0.0025604903 0.18375203 0.53742862
0.0035001275 0.18398318 0.5383777
0.011147029 0.18365353 0.53793097
0.016927779 0.18415202 0.53861111
-0.0020834608 0.1908918 0.53756678
0.0035823639 0.19141792 0.53741086
0.011239451 0.19107813 0.53645295
0.016792942 0.19079518 0.53811771
-0.0083844457 0.2000289 0.53900003
-0.0024880278 0.19957581 0.53721446
0.003573352 0.19858319 0.53602022
0.011228369 0.19853626 0.53589272
0.017418558 0.19910873 0.53734487
-0.0029593413 0.2059734 0.53823078
0.0036362463 0.20593511 0.53634
0.010352056 0.20514241 0.53644741
0.019160327 0.205293 0.53821874
0.023100002 0.20482001 0.53900003
-0.0018641106 0.2135324 0.53889465
0.0037924466 0.213495 0.53775007
0.0097670536 0.21467455 0.53796875
-0.011828572 0.093085721 0.54000002
-0.011706894 0.11692966 0.54109526
-0.010688355 0.12398569 0.54140913
-0.0097345077 0.13159025 0.54169995
-0.0066857147 0.13268572 0.54000002
-0.0091853337 0.13612059 0.54180008
-0.0066857147 0.13525715 0.54000002
0.025836572 0.13659315 0.54039997
-0.011828572 0.14862858 0.54000002
0.022114288 0.14811429 0.54000002
0.025929771 0.14744399 0.54166669
0.022134766 0.15237048 0.54049999
0.026096143 0.15441175 0.54328573
0.030623812 0.15415715 0.54500002
-0.011850477 0.16436097 0.54100001
0.021949684 0.1617078 0.54016668
0.02562527 0.15933552 0.542
-0.0097866664 0.16852754 0.54077774
0.021273691 0.16812393 0.54149997
0.023481309 0.1679818 0.54187506
-0.0087428577 0.17372572 0.54000002
0.019183746 0.17808717 0.5402143
-0.00900889 0.18653588 0.54222232
-0.0061807148 0.18642977 0.54075003
0.0050693885 0.18345305 0.54000002
0.014914286 0.18411431 0.54000002
0.01996625 0.18388946 0.54155886
0.024518004 0.18475269 0.54769999
-0.015650716 0.19301596 0.54775006
-0.010597755 0.19120291 0.54454839
-0.0061903577 0.18982655 0.54162502
0.020101417 0.19167368 0.54115164
0.024003759 0.19093521 0.54299992
-0.0095582018 0.20126002 0.5407778
-0.0066857147 0.2021143 0.54000002
0.020779524 0.19830701 0.54126924
0.025769413 0.19930989 0.54364699
0.031569716 0.20098343 0.54700005
-0.0093968762 0.2062934 0.542
-0.0063469843 0.20727144 0.54033333
0.021620478 0.20590177 0.54050004
0.026645202 0.20438051 0.5447917
0.031666819 0.20553339 0.54784614
-0.010194069 0.21336289 0.54437488
-0.0048915986 0.21375085 0.54053569
0.00051428576 0.21548574 0.54000008
0.014914286 0.2165143 0.54000002
0.019366546 0.21539725 0.54203218
0.023228573 0.21525145 0.54200006
0.00051428576 0.21805716 0.54000002
0.027668575 0.18548162 0.55292308
0.030128574 0.18605715 0.55500001
-0.014142858 0.1911905 0.55000001
0.028039049 0.18873048 0.55200005
0.030128574 0.18764287 0.55500001
-0.01685643 0.21224502 0.55300003
