# .PCD v0.7 - Point Cloud Data file format
VERSION 0.7
FIELDS x y z
SIZE 4 4 4
TYPE F F F
COUNT 1 1 1
WIDTH 213
HEIGHT 1
VIEWPOINT 0 0 0 1 0 0 0
POINTS 213
DATA ascii
-0.0027086854 0.048934296 0.51900005
-0.0019771433 0.054536194 0.51900005
0.002141905 0.056513339 0.51900005
-0.0091272118 0.044478782 0.52814293
-0.0065000006 0.044500005 0.52500004
0.0045000007 0.044500005 0.52500004
-0.016009334 0.050644387 0.52860004
-0.011102431 0.048983041 0.52610642
-0.0050341082 0.049049772 0.52156252
0.0040262449 0.048948653 0.52263945
0.011043305 0.049855266 0.52678126
0.015618096 0.051388577 0.52900004
-0.016515717 0.056454252 0.52840912
-0.011598343 0.05612395 0.52496302
-0.0043678251 0.056881078 0.52060801
0.0040398389 0.056230787 0.52111334
0.010945843 0.055969171 0.52486676
-0.016657779 0.063777231 0.52847624
-0.011446422 0.063573763 0.52494007
-0.0040300926 0.0639183 0.52082461
0.0040936605 0.06367825 0.52096713
0.010947102 0.063584864 0.52336973
-0.01627581 0.070637852 0.5285334
-0.011560727 0.071064763 0.52501839
-0.0039861146 0.071140274 0.52184194
0.0039755623 0.071013972 0.52141088
0.011519982 0.071285814 0.52558827
-0.016238632 0.079302683 0.52868754
-0.011408946 0.07866282 0.52503937
-0.0039697508 0.078587778 0.52188867
0.003981533 0.078593209 0.52229685
0.011265289 0.07847105 0.52565956
0.017373096 0.079816438 0.52875006
-0.016033018 0.085705243 0.52883339
-0.011565089 0.086232238 0.5260191
-0.0039858683 0.086168438 0.52298236
0.0039852387 0.086170726 0.52300024
0.011390515 0.086373098 0.52698058
-0.015819622 0.093204789 0.5290001
-0.011221645 0.093735248 0.52621818
-0.0035438784 0.093474992 0.52335739
0.0036138359 0.093467392 0.52343875
0.010497755 0.093773633 0.52707148
-0.010904985 0.10106745 0.52656668
-0.0035979652 0.10133576 0.52496058
0.0035991042 0.1013405 0.52498031
0.010027059 0.10118031 0.52741319
-0.010811411 0.10874429 0.52735186
-0.0035034791 0.10857261 0.52534688
0.0035090768 0.10870807 0.52600026
0.009034886 0.10868095 0.52803713
-0.0098156799 0.11592837 0.52739036
-0.0035050856 0.11617087 0.5257681
0.0034591684 0.11632968 0.52678216
0.0081587313 0.1161355 0.52880019
-0.0085006347 0.12363992 0.52844453
-0.0035141502 0.12398151 0.52704108
0.003252889 0.12396845 0.52784455
0.0075571435 0.1209143 0.52900004
-0.0083632385 0.12927753 0.52900004
-0.0031818403 0.13128403 0.52861369
0.0032259524 0.13118245 0.52838641
0.0085647628 0.1314943 0.5290001
-0.0029429828 0.13818251 0.52892107
0.0022951325 0.13869691 0.52900022
0.0080609526 0.13854763 0.52900004
-0.0075571435 0.1471124 0.52900004
-0.0034636906 0.14692347 0.52900016
0.0025190478 0.14459336 0.52900004
-0.0025190476 0.1510421 0.52900004
0.0025190478 0.15114287 0.52900004
-0.0095904768 0.043914288 0.53000003
0.011631429 0.043997146 0.53100002
-0.016420476 0.049008097 0.53050005
-0.013654831 0.046020005 0.53100008
0.012391143 0.046524573 0.53100008
-0.019014884 0.065658219 0.53237504
-0.017995102 0.070598103 0.53114289
0.015957415 0.071846947 0.53071433
-0.018344814 0.078774132 0.53172231
0.014658811 0.080875956 0.53075004
0.016688574 0.079775006 0.53100008
-0.018555904 0.086781584 0.53152174
0.014638096 0.083790481 0.53000003
0.017440844 0.086144671 0.53134614
-0.018277355 0.093922995 0.53137034
0.014140239 0.094351195 0.53025007
0.015696827 0.094181284 0.5316667
-0.017782776 0.10120854 0.53248566
0.014236736 0.10153171 0.53114295
0.015975239 0.098893344 0.53250003
-0.018119952 0.10864111 0.53419995
-0.014638096 0.10832191 0.53000003
0.013036124 0.1090029 0.53131026
0.016441165 0.11067567 0.53388894
-0.018245986 0.11630119 0.53414279
-0.013773156 0.11687876 0.53068757
0.012230198 0.11630171 0.53224385
0.016927455 0.11636134 0.53434783
-0.017757554 0.12383005 0.53424317
-0.012471072 0.12392893 0.53112501
0.0065680956 0.12530001 0.53050005
0.011307369 0.12381793 0.53224558
0.016158732 0.12445036 0.53577787
-0.016499242 0.13147132 0.53353333
-0.011346024 0.13147931 0.53113461
-0.0065619051 0.1327524 0.53000003
0.0062253973 0.13224763 0.53000003
0.011586471 0.13096407 0.53384084
0.016211312 0.12994727 0.536125
-0.01754592 0.13903309 0.53557581
-0.011209271 0.13884978 0.53163332
-0.0055523813 0.14000261 0.53000009
0.0050495244 0.13867326 0.53018188
0.011278077 0.13898255 0.53489459
0.015848381 0.1395684 0.53679997
-0.017499441 0.14644685 0.53655177
-0.011243293 0.14628735 0.53239608
-0.003429574 0.14593659 0.53031588
0.0035398346 0.14645229 0.53065228
0.01077054 0.14601247 0.53484786
0.015834605 0.14421305 0.53633332
-0.017831763 0.15358484 0.53670585
-0.011176329 0.15360694 0.53317851
-0.0037964289 0.15400194 0.53129995
0.0037352173 0.15384224 0.53215909
0.0096376054 0.1541229 0.53590924
0.019885236 0.15523073 0.53694451
0.023057144 0.15320191 0.53800005
-0.017525379 0.16100676 0.53778577
-0.011172229 0.1613276 0.53414756
-0.0035457665 0.16113003 0.53181791
0.0034964324 0.16118236 0.53241801
0.010538114 0.16126728 0.53714275
0.018809525 0.15861908 0.53800005
-0.016672965 0.16894174 0.53772229
-0.011232018 0.16880611 0.53449094
-0.0035473278 0.16874626 0.53208143
0.00349234 0.16878393 0.53308511
0.0088663194 0.16862451 0.53609103
-0.016505208 0.1762227 0.53820014
-0.011178735 0.17614377 0.53491372
-0.0035515837 0.17605089 0.53271437
0.0036238092 0.17622095 0.53413743
0.0093748448 0.17648511 0.53744835
-0.016504843 0.18514137 0.53875005
-0.011179805 0.18385187 0.53582758
-0.0036746818 0.18392672 0.53407568
0.0036285149 0.18382379 0.53489983
0.0096726054 0.18422017 0.5373947
-0.017097916 0.19149396 0.53773081
-0.011285111 0.19120565 0.53488898
-0.0033766762 0.19102012 0.53245276
0.0034553024 0.19124332 0.53342378
0.01042884 0.19110309 0.53671736
0.018480001 0.18890667 0.53900003
-0.017677553 0.19925484 0.53685725
-0.010918507 0.19884624 0.53389281
-0.0035980262 0.19843265 0.53134537
0.0026291613 0.20001015 0.53166664
0.0086314287 0.19982255 0.53299999
-0.01763824 0.20582694 0.53651524
-0.011295593 0.20592788 0.53359282
-0.003481905 0.20610307 0.5318749
0.0034838493 0.20620835 0.53204143
0.0094127329 0.20609574 0.53473687
-0.017078931 0.21272524 0.53724998
-0.011166451 0.21356937 0.53501749
-0.0035018043 0.21283589 0.53315794
0.0035643075 0.21383204 0.53457159
0.0087133348 0.21558662 0.538077
-0.016683334 0.21868002 0.53900003
-0.021352855 0.10959405 0.54025
-0.024354527 0.14130835 0.54699999
-0.022013336 0.14161335 0.546
-0.024730638 0.14616795 0.54666668
-0.021330619 0.14612967 0.54355001
-0.024483539 0.15366885 0.54695237
-0.021752531 0.15321746 0.54476929
0.01441381 0.15700239 0.54050004
0.016457144 0.15685715 0.54000002
-0.024645546 0.16140401 0.54845458
-0.021121118 0.16154414 0.54543489
0.014608479 0.16110353 0.54010004
0.01688778 0.16165595 0.5409444
-0.024486573 0.16847937 0.54820013
-0.020415878 0.16866714 0.54393333
0.013479457 0.16670233 0.54142863
0.016001906 0.16724858 0.54200006
-0.023475001 0.17580073 0.54775
-0.020328632 0.17583467 0.54317147
0.012727212 0.17869349 0.54071426
-0.019314615 0.18348275 0.54217142
0.013006669 0.18225662 0.54144448
-0.024557805 0.18990433 0.5486154
-0.020811571 0.19114402 0.54370373
0.014775241 0.19134261 0.54028577
0.017327756 0.19178571 0.54042858
-0.023706878 0.1980942 0.54244447
-0.021318812 0.19900857 0.54100007
0.014955715 0.19906239 0.54150003
0.018783432 0.19861011 0.54320002
-0.023357144 0.20294763 0.54500002
-0.021247046 0.20632082 0.54060006
0.014334287 0.20676382 0.54140007
0.018770771 0.20612334 0.54516667
-0.020118348 0.21467134 0.54163158
0.012593335 0.21393433 0.54149997
0.020391431 0.21071145 0.54900002
0.015982224 0.21945399 0.54133338
-0.026714288 0.16761905 0.55000001
0.021476192 0.21109526 0.55000001
0.022523811 0.21109526 0.55000001
