# .PCD v0.7 - Point Cloud Data file format
VERSION 0.7
FIELDS x y z
SIZE 4 4 4
TYPE F F F
COUNT 1 1 1
WIDTH 201
HEIGHT 1
VIEWPOINT 0 0 0 1 0 0 0
POINTS 201
DATA ascii
-0.017620383 0.042188384 0.52860004
-0.011444882 0.042729173 0.52787507
-0.0033601362 0.043952387 0.52528584
0.0029738417 0.043828826 0.52573341
-0.0171963 0.049068615 0.52865398
-0.011255899 0.048966341 0.52592313
-0.0038773424 0.048998874 0.52398396
0.0035121283 0.048623741 0.52634692
0.0080138538 0.049136281 0.52890921
-0.017065151 0.056208603 0.52696884
-0.01160172 0.056181427 0.52419233
-0.0039847624 0.056284741 0.52300024
0.0035030793 0.055996105 0.52498233
0.0093630543 0.056823894 0.527206
-0.017270319 0.063955978 0.52710015
-0.011389859 0.06374567 0.52398151
-0.0039835116 0.063744478 0.52290642
0.003439106 0.06352511 0.52453995
0.0094574122 0.063131042 0.52609384
-0.0174418 0.070959583 0.52738899
-0.01159888 0.071331561 0.52490193
-0.0039847628 0.071227826 0.52300024
0.0035628392 0.071180157 0.52585465
0.008630041 0.071254171 0.52779174
-0.017016826 0.078832284 0.52722234
-0.01144718 0.078606196 0.5251801
-0.0039859973 0.078720927 0.52314085
0.0034512379 0.07875365 0.52616006
0.0093573034 0.077412069 0.52866673
-0.016530726 0.086231776 0.52734786
-0.011119249 0.086269327 0.52595174
-0.0034982513 0.086475499 0.52483672
0.0034581143 0.086183421 0.52694243
0.0075571439 0.088166676 0.52900004
-0.016636409 0.093828797 0.52786362
-0.011029118 0.093735985 0.52632183
-0.0035066665 0.093678109 0.52600032
0.0033486935 0.093507655 0.52744687
-0.016259525 0.1005058 0.52878582
-0.010942983 0.10123447 0.52680671
-0.0035078407 0.10125194 0.52630401
0.0027537602 0.10109318 0.52781588
-0.015842013 0.10809514 0.5290001
-0.011163761 0.10892127 0.52770698
-0.0035133532 0.10891768 0.52702063
0.002296756 0.10782574 0.52828127
-0.0099937972 0.11571098 0.5279488
-0.0035151606 0.11603093 0.5274083
0.0010071429 0.11627001 0.52850002
-0.0085128592 0.12305792 0.52890015
-0.0036270954 0.1214571 0.52895015
0.0010076191 0.12192192 0.52900004
-0.016320636 0.043073021 0.53000009
-0.014469842 0.042400002 0.53000003
-0.019618414 0.048760004 0.53000015
-0.013982223 0.045316827 0.53066671
0.010535429 0.051457714 0.53180003
-0.02009262 0.055606432 0.53075004
0.011313547 0.053977046 0.5318889
-0.020221906 0.06403397 0.53083342
-0.023213096 0.070399769 0.53275001
-0.020657208 0.071809851 0.53073341
0.01177719 0.07106518 0.53100002
-0.022907145 0.078910954 0.5345
-0.020692989 0.078620955 0.5322727
0.011829484 0.080243461 0.53212494
-0.023679703 0.086440414 0.53468746
-0.020270841 0.086094484 0.53251725
0.010560554 0.085878357 0.53253496
-0.023890978 0.093692169 0.53590488
-0.020393528 0.093719512 0.53346676
0.0063126194 0.095697865 0.53025001
0.01084555 0.093632966 0.53409606
-0.023327265 0.099937029 0.535375
-0.019693263 0.10156559 0.53229731
0.0062367469 0.10112564 0.53091675
0.010329277 0.10165218 0.53391314
-0.023855465 0.10934668 0.53694123
-0.019411994 0.10873611 0.53294879
0.0053500752 0.10973053 0.53094739
0.011025644 0.10860183 0.53450954
-0.024637487 0.11657845 0.53847998
-0.018925862 0.11612704 0.53353834
-0.013575687 0.11766197 0.53023541
0.0044750068 0.11612743 0.53145939
0.010902692 0.11623545 0.5367254
-0.023744684 0.12265025 0.53808343
-0.018695937 0.12380638 0.53364152
-0.012415343 0.12410677 0.53059465
-0.0034643023 0.12507357 0.53020686
0.0040586395 0.12404491 0.53223807
0.0090213101 0.12316124 0.5360418
-0.023040002 0.13015048 0.53760004
-0.018797368 0.13120128 0.53449994
-0.011206267 0.13121016 0.5317089
-0.0035413608 0.13103265 0.5312041
0.0036097995 0.13108447 0.53379989
0.0090988213 0.13020913 0.53776199
-0.018806249 0.13867392 0.53579998
-0.011139431 0.13871242 0.53156239
-0.0035441322 0.13878407 0.53183919
0.0035122947 0.13856781 0.53460002
0.0092803827 0.13975258 0.53830004
-0.018469149 0.14610405 0.536093
-0.011085976 0.14640702 0.53212708
-0.0036106547 0.14640483 0.53214574
0.0035961906 0.14613399 0.53519148
0.0094520533 0.14565092 0.53803456
-0.018382903 0.15369733 0.53672713
-0.011230929 0.15370764 0.53289473
-0.0034927048 0.15385076 0.53342009
0.0035841598 0.15360151 0.53683662
0.0087266676 0.15040667 0.53900003
-0.018422095 0.16130194 0.53684437
-0.011190189 0.16123345 0.5340538
-0.003565111 0.16152044 0.53499991
0.0036299808 0.1610788 0.53767991
-0.017730737 0.16868652 0.5364849
-0.011204202 0.16856961 0.53473222
-0.0035669764 0.16874225 0.53528553
0.0029446071 0.16878198 0.53760463
-0.017787024 0.17621458 0.53737497
-0.011227279 0.17604463 0.53578562
-0.0035722638 0.17608149 0.53589779
0.0024614607 0.17555413 0.53793335
-0.017540988 0.18351184 0.53743339
-0.011229256 0.18373959 0.53590602
-0.0035737569 0.18380179 0.53608906
0.0015384125 0.18412328 0.53809524
-0.023100002 0.19404002 0.53900003
-0.018127242 0.19151512 0.5365814
-0.011197901 0.19135667 0.53439051
-0.0035677229 0.19113238 0.53567398
0.0031411806 0.19203958 0.5377174
0.0077000004 0.19404002 0.53900003
-0.018193427 0.19879296 0.53500003
-0.011170019 0.19870184 0.53228325
-0.0029683209 0.19920619 0.53373694
0.0031594129 0.19852112 0.53521287
0.0076857149 0.19521716 0.53800005
-0.018454017 0.2058057 0.53697437
-0.011316952 0.206448 0.53428006
-0.0035656563 0.20626526 0.53475529
0.0035367378 0.20621184 0.53642553
0.0084937578 0.20480722 0.53866673
-0.017725827 0.21415383 0.53711772
-0.011213371 0.21356304 0.53517854
-0.0036810727 0.21373412 0.535936
0.0026306608 0.21367423 0.53819346
-0.018064708 0.21975158 0.5382942
-0.010986832 0.2210826 0.53644222
-0.0036375788 0.22097425 0.53662491
0.00092400005 0.21898802 0.53900003
-0.026657147 0.11640002 0.54000002
-0.025437681 0.12467435 0.54093748
-0.024744526 0.12989645 0.54125005
0.01134279 0.13265164 0.54135716
-0.024381474 0.13910276 0.54179168
-0.022114288 0.13885716 0.54000002
0.010739525 0.136962 0.54064286
-0.02436653 0.14635395 0.54205
-0.02214705 0.14678934 0.54080003
-0.024072383 0.15357497 0.54240006
-0.022124527 0.15332644 0.54025
0.010096366 0.15442896 0.54209095
-0.024634724 0.16175394 0.54262501
-0.022125991 0.16105527 0.54028577
0.010313539 0.16129696 0.54250008
-0.025190549 0.16887341 0.54449999
-0.021380657 0.16923733 0.54093748
0.006458519 0.16809154 0.54011112
0.009600305 0.16749303 0.54168004
-0.026043987 0.17547195 0.54648149
-0.02112879 0.17595632 0.54107684
0.0055380361 0.17724472 0.54081249
0.0091568129 0.17658401 0.54317391
-0.025600409 0.18539709 0.54528576
-0.021115489 0.18412273 0.54073685
0.0049844445 0.18361594 0.54124248
0.0089600738 0.18373843 0.54346156
-0.030736193 0.19327335 0.54700005
-0.026348185 0.19036667 0.54472739
-0.021261496 0.18994789 0.54071426
0.0056614652 0.18958925 0.54038459
0.0085617155 0.19058321 0.54153329
-0.025542621 0.20199454 0.54175001
-0.0256004 0.20641753 0.54297221
-0.021743929 0.20778728 0.54037499
0.0066857147 0.2093143 0.54000002
0.0089119738 0.20833893 0.54128581
-0.030826097 0.21473621 0.54860002
-0.026268424 0.21358728 0.54364705
-0.021119857 0.21355748 0.54085004
0.0058259349 0.21474539 0.54092306
0.0086636515 0.21440008 0.54216665
-0.024311025 0.21936803 0.54142857
-0.019783046 0.22246347 0.54036003
-0.014914286 0.22320002 0.54000002
0.0041008573 0.22166558 0.54140002
0.0090924259 0.22121532 0.5432381
-0.030904764 0.21214287 0.55000001
