# .PCD v0.7 - Point Cloud Data file format
VERSION 0.7
FIELDS x y z
SIZE 4 4 4
TYPE F F F
COUNT 1 1 1
WIDTH 214
HEIGHT 1
VIEWPOINT 0 0 0 1 0 0 0
POINTS 214
DATA ascii
0.043920003 0.05176286 0.54900002
0.048848365 0.050437346 0.54843479
0.055931073 0.049564358 0.54819357
0.060128577 0.050194286 0.54900002
0.043724131 0.056405786 0.54873335
0.048511058 0.055814192 0.54771447
0.055137508 0.055698957 0.548154
0.043111183 0.064134315 0.54881471
0.048546527 0.063684791 0.54810739
0.055120524 0.063814096 0.54773349
0.042808373 0.071361437 0.54864287
0.048543993 0.071512029 0.54808182
0.055308536 0.071527727 0.54761928
0.043629527 0.077789538 0.54900002
0.048719153 0.078866243 0.54855317
0.05454053 0.078093044 0.54861546
0.048894618 0.085405 0.54899985
0.052808575 0.083134294 0.54900002
0.051240001 0.093068585 0.54900002
0.052808575 0.091500007 0.54900002
0.041342411 0.043278158 0.55326682
0.048300814 0.043570247 0.55185002
0.054571006 0.043948788 0.55155557
0.035946619 0.04875363 0.55552638
0.041065857 0.048605125 0.55160785
0.048557401 0.047143266 0.55096161
0.054868728 0.047047768 0.55030775
0.063476272 0.051269092 0.55500001
0.036185991 0.05690999 0.55300003
0.040319107 0.055856463 0.55023527
0.058908489 0.056707907 0.55030006
0.063331522 0.056188177 0.5532729
0.034508396 0.064224169 0.55571747
0.039793015 0.063331857 0.55059266
0.059048384 0.062938288 0.55160004
0.063164979 0.063849077 0.5538252
0.034421593 0.071332127 0.55583334
0.03931034 0.071232341 0.55035013
0.059220955 0.071040243 0.55150002
0.063754126 0.071268536 0.5537917
0.06843143 0.074797146 0.55700004
0.034510776 0.078614749 0.55618763
0.040847998 0.079051279 0.55057138
0.045571432 0.07961905 0.55000001
0.057680164 0.08011844 0.55078268
0.063599013 0.078781947 0.5556978
0.067612387 0.078260005 0.55900002
0.034902293 0.086034767 0.55616671
0.041516826 0.086410686 0.55127066
0.048040818 0.088598639 0.55000013
0.05610643 0.086515248 0.55055308
0.062965721 0.086063802 0.55477792
0.034525152 0.093784183 0.55650002
0.041227516 0.093906969 0.55224544
0.048203252 0.093864121 0.54999989
0.056313705 0.093942396 0.55130613
0.063082196 0.093783237 0.55580556
0.034529362 0.10119592 0.55682349
0.041042492 0.10146967 0.55351728
0.048873004 0.1014288 0.5517959
0.056328941 0.10159979 0.55273473
0.063353561 0.10119738 0.55662507
0.034988541 0.10868543 0.55667859
0.041169696 0.10894614 0.55360013
0.048957173 0.10896698 0.55273461
0.056325652 0.10904462 0.55380863
0.063511714 0.10895737 0.55692095
0.035920832 0.11569341 0.55740011
0.041165255 0.11638219 0.55419654
0.049000468 0.11644156 0.5532245
0.056515537 0.1164234 0.55457163
0.062676087 0.11640172 0.5575186
0.03627421 0.12390056 0.55875003
0.041289546 0.12399696 0.55549097
0.049022373 0.12387756 0.55348974
0.056575555 0.12392247 0.55474019
0.062857769 0.12364124 0.5581724
0.036563404 0.13051906 0.55871433
0.04119328 0.13116659 0.5559423
0.049078804 0.13146031 0.55462527
0.056328718 0.13115655 0.55599993
0.061649211 0.12995127 0.55883336
0.036734287 0.14161333 0.55900002
0.041554388 0.13887046 0.55639291
0.04913535 0.13890204 0.55521584
0.056121185 0.13877308 0.5568043
0.06029579 0.13921933 0.5588572
0.035060607 0.14454527 0.55854553
0.041446965 0.14588279 0.55655551
0.048825867 0.14658435 0.55555999
0.056163978 0.14627413 0.556575
0.060128309 0.14632995 0.55871433
0.033540003 0.1570524 0.55900002
0.042146523 0.1535033 0.55783331
0.048307344 0.15394476 0.55738109
0.055377807 0.15318395 0.55812824
0.060513973 0.15101874 0.55900002
0.042873688 0.16133352 0.55890906
0.0483323 0.16093409 0.55769372
0.054587115 0.16100004 0.55815625
0.029045239 0.16793382 0.55449998
0.03044413 0.16805939 0.55433339
0.042886242 0.16781832 0.55900002
0.048161559 0.16761497 0.55848378
0.054399643 0.16639109 0.55862498
0.048317276 0.17546041 0.55873334
0.049511433 0.18047716 0.55900002
0.042764481 0.19329399 0.55849999
0.048432227 0.19381747 0.55883336
0.053557526 0.19261543 0.55900002
0.042113174 0.19849256 0.55875862
0.048321586 0.19889501 0.5580377
0.05383262 0.19877586 0.55825007
0.042373605 0.20448697 0.55850005
0.048365887 0.2059893 0.55720913
0.053831887 0.2056289 0.55804771
0.050258782 0.21114884 0.5588572
0.053029209 0.21229367 0.55866671
0.065066673 0.049600001 0.56
0.029350795 0.064571753 0.56033337
0.030400002 0.065066673 0.56
0.028947813 0.070821337 0.56080002
0.030552387 0.070323817 0.56
0.029385716 0.081211433 0.56100005
0.030643072 0.079008579 0.56011111
0.06773334 0.077333339 0.56
0.028171197 0.086134538 0.56350005
0.030995388 0.086583234 0.56038463
0.028889529 0.092808671 0.56272733
0.031044561 0.092981845 0.56064284
0.029368257 0.098784767 0.56066674
0.030988101 0.10098143 0.56100005
0.029396603 0.10937376 0.56414294
0.031591244 0.10867906 0.56130004
0.029261192 0.11409167 0.56375003
0.032616898 0.11601304 0.5607779
0.065159604 0.11682981 0.56014287
0.033597972 0.12377384 0.56180012
0.029595241 0.13290954 0.565
0.033438288 0.13149366 0.56197143
0.063271739 0.13275175 0.56040919
0.02957429 0.13711601 0.56459999
0.033596192 0.13869977 0.5617308
0.037866674 0.13777779 0.56000006
0.063040845 0.13827448 0.56057703
0.028808257 0.14887971 0.5636667
0.033292282 0.14710963 0.56033343
0.038080003 0.14858668 0.56
0.062845357 0.14598331 0.56079179
0.027137624 0.15221809 0.56477267
0.033921666 0.15381522 0.56052274
0.038822334 0.15440117 0.56011117
0.057858508 0.15619403 0.56028575
0.061014287 0.15375079 0.56033337
0.033868521 0.16155921 0.56180012
0.039669048 0.16144392 0.56100011
0.058334578 0.16025709 0.56090003
0.062097747 0.16257395 0.56336361
0.029490478 0.16568287 0.56300002
0.034154247 0.16815157 0.56119061
0.040575027 0.16893071 0.56041473
0.048948154 0.1707852 0.56000006
0.056567091 0.1689778 0.56088895
0.063682199 0.16885751 0.56408501
0.029804764 0.17792541 0.56900001
0.033874966 0.17662257 0.56467336
0.041118406 0.17627482 0.56140912
0.048701756 0.17760001 0.56000006
0.056077346 0.17584482 0.56141692
0.062725544 0.17557997 0.56365389
0.029034529 0.18467216 0.56808341
0.033849396 0.18393838 0.56497788
0.041282177 0.18390752 0.56297958
0.048682261 0.18419859 0.56202447
0.056406476 0.18402819 0.56381619
0.06288866 0.18419786 0.5649696
0.067500003 0.18738002 0.56700003
0.028519424 0.19169568 0.56782609
0.033902071 0.19130178 0.56445283
0.040874515 0.19056936 0.56136382
0.048636865 0.19044212 0.56120467
0.056445859 0.19130398 0.56267327
0.063793845 0.19144122 0.56508505
0.068717897 0.19070962 0.5675
0.028676264 0.19967477 0.56664288
0.033840973 0.1985493 0.56205791
0.039548159 0.19880846 0.56017399
0.048 0.19786668 0.56
0.05710635 0.19881268 0.5606668
0.061988767 0.19822168 0.56284004
0.027967764 0.20513339 0.56599993
0.033642597 0.20618726 0.56327909
0.040210146 0.20738666 0.56037951
0.057456013 0.20624177 0.56080961
0.06179836 0.20612006 0.56321061
0.028506614 0.21432471 0.56716669
0.033883795 0.21337193 0.56368744
0.040927909 0.2138605 0.56095666
0.048225798 0.21413054 0.56068575
0.056797288 0.21392311 0.56210864
0.062806614 0.21412539 0.5654375
0.067678578 0.21548906 0.56850004
0.065685719 0.16448572 0.57000005
0.068520002 0.1647743 0.57100004
0.065743342 0.16626048 0.57050002
0.068520002 0.16586192 0.57100004
0.028059239 0.17815144 0.57100004
0.027172469 0.18344288 0.57063639
0.025857028 0.18890752 0.57162505
0.025514288 0.20248573 0.57000005
0.027213812 0.20955002 0.57150006
0.027685717 0.21442859 0.57000005
0.066344768 0.21806763 0.57100004
0.067976192 0.21806763 0.57100004
