# .PCD v0.7 - Point Cloud Data file format
VERSION 0.7
FIELDS x y z
SIZE 4 4 4
TYPE F F F
COUNT 1 1 1
WIDTH 223
HEIGHT 1
VIEWPOINT 0 0 0 1 0 0 0
POINTS 223
DATA ascii
-0.031894289 0.043920003 0.54900002
-0.017839503 0.040730383 0.54861903
-0.01254262 0.041286908 0.54875004
-0.032482501 0.048364293 0.54899991
-0.026800446 0.049780443 0.54840636
-0.019205172 0.050308503 0.54821438
-0.013071429 0.051240005 0.54900002
-0.031641629 0.056302465 0.54888231
-0.026497126 0.056151588 0.54794365
-0.018804748 0.056181833 0.54679388
-0.012600763 0.056234598 0.54855996
-0.031151047 0.063242666 0.54879999
-0.026682986 0.063815042 0.54682702
-0.018752674 0.063953899 0.54705369
-0.013060002 0.061605506 0.54853851
-0.030848574 0.07058572 0.54900002
-0.026587117 0.071416043 0.54732668
-0.019480418 0.071286932 0.54773927
-0.030848576 0.077905715 0.54900002
-0.026636817 0.078860886 0.54836744
-0.019732472 0.079045266 0.54830235
-0.025694653 0.086315885 0.54872215
-0.019666323 0.086008586 0.5486818
-0.026292246 0.092359014 0.54899991
-0.020883532 0.092053629 0.54899991
-0.032244764 0.044302382 0.55049998
-0.027611051 0.044410672 0.55120003
-0.018610533 0.043613341 0.55094123
-0.011490848 0.043636031 0.55127788
-0.034414217 0.049414147 0.55085194
-0.027671715 0.046329629 0.55030006
-0.017246908 0.047264811 0.55205011
-0.011240454 0.048385438 0.5508095
-0.0068466673 0.047926668 0.55300003
-0.038414832 0.056830071 0.55471432
-0.035318121 0.056011833 0.55132264
-0.011 0.054301597 0.55000001
-0.038909748 0.064556338 0.55686378
-0.034275848 0.063747011 0.55206066
-0.010516284 0.064659931 0.55138707
-0.0064659528 0.064530239 0.55425
-0.039328795 0.071150988 0.55582356
-0.034066472 0.07126119 0.55126536
-0.015576451 0.072166756 0.55018187
-0.011047307 0.07105086 0.5526123
-0.0060838698 0.072027802 0.55556256
-0.040009394 0.078865692 0.55703455
-0.034264494 0.078853346 0.55069774
-0.015756704 0.078461185 0.55007702
-0.011135979 0.078744367 0.5521853
-0.0058662384 0.078748904 0.55495
-0.039886557 0.08623483 0.55743754
-0.033701178 0.086385623 0.55144185
-0.029373631 0.086186819 0.55000007
-0.015714288 0.087214291 0.55000007
-0.010998921 0.086229615 0.55260009
-0.0060668918 0.086221069 0.55541182
-0.039416611 0.093778588 0.5565601
-0.033909947 0.093935691 0.55224448
-0.026636038 0.095493421 0.55016679
-0.017583732 0.094357543 0.55024993
-0.011121866 0.093661219 0.55424005
-0.0060817925 0.093661278 0.55670601
-0.039441627 0.1013045 0.5571
-0.033689942 0.10144883 0.55331713
-0.026233356 0.10125663 0.55087501
-0.018369976 0.10131112 0.55116332
-0.011097921 0.101293 0.55518365
-0.0060308687 0.10165766 0.5578236
-0.039609801 0.10886893 0.55728126
-0.033633109 0.10897935 0.55386674
-0.026125297 0.10868328 0.55148154
-0.018408945 0.1088888 0.55232662
-0.010997001 0.10862955 0.55570209
-0.0060504177 0.10918578 0.55856252
-0.03885762 0.11613426 0.5575
-0.033213459 0.11644715 0.55463845
-0.025774775 0.11625171 0.5523265
-0.018451603 0.11652289 0.55361235
-0.011226725 0.11620993 0.55637258
-0.0060464079 0.11498684 0.55872732
-0.038537979 0.12325346 0.55812502
-0.033354376 0.12371608 0.55548948
-0.025804317 0.12375426 0.55293876
-0.018548118 0.12404193 0.55452108
-0.011704923 0.12336302 0.55738884
-0.037799049 0.1314981 0.55900002
-0.033362728 0.13109444 0.55599993
-0.025867995 0.13144539 0.55428588
-0.018498482 0.13146344 0.55500025
-0.012945028 0.13127267 0.55804002
-0.037799049 0.13682191 0.55900002
-0.033451013 0.13860938 0.55672908
-0.025893763 0.13897921 0.55485731
-0.018583013 0.13884617 0.55611104
-0.013616906 0.1383712 0.55800003
-0.037799053 0.14604986 0.55900002
-0.033364218 0.14620705 0.55705887
-0.025911352 0.1464791 0.55524498
-0.018445816 0.14597218 0.55682969
-0.013898202 0.14507492 0.55888891
-0.032894183 0.15358381 0.55727029
-0.025937729 0.15391545 0.55585098
-0.019827321 0.15341635 0.55799997
-0.03178601 0.16101158 0.5583846
-0.025900507 0.16132653 0.55693603
-0.019573469 0.16097267 0.55802768
-0.031321671 0.16824853 0.55835003
-0.026119404 0.16858491 0.55771744
-0.019814704 0.16840015 0.55856246
-0.030291431 0.17430954 0.55800003
-0.025533695 0.17520382 0.55855882
-0.02059905 0.1759724 0.55900002
-0.02531155 0.18484953 0.55854166
-0.020762859 0.18100953 0.55900002
-0.03252342 0.19266304 0.55793101
-0.026024148 0.19117643 0.55720347
-0.020394875 0.19161338 0.55792308
-0.031728256 0.19928546 0.55742866
-0.025975548 0.19878896 0.55661196
-0.019306373 0.1992586 0.55799997
-0.014108096 0.20070764 0.55900002
-0.032292809 0.20567133 0.55855554
-0.026062023 0.20630626 0.55704165
-0.018748896 0.20560192 0.55828953
-0.014374287 0.20336953 0.55900002
-0.031391878 0.21406567 0.55866677
-0.026867082 0.21397799 0.55848646
-0.020407937 0.2120651 0.55900002
-0.031952661 0.22062638 0.55849999
-0.027031945 0.2205117 0.5582307
-0.042133335 0.081600003 0.56
-0.043058917 0.084211849 0.56014287
-0.042133335 0.096533343 0.56
-0.046112381 0.10455715 0.56300002
-0.043662857 0.10319848 0.56320006
-0.0048000002 0.097600006 0.56
-0.043473277 0.10784495 0.56093746
-0.0042691668 0.1078056 0.56037498
-0.041866668 0.11386667 0.56
-0.0046563274 0.11752899 0.56128573
-0.042347834 0.12460934 0.56225926
-0.0089515345 0.12562054 0.56022227
-0.0052334354 0.12335509 0.56175005
-0.045738097 0.12752858 0.565
-0.040657695 0.13084267 0.56111544
-0.0093171857 0.13123049 0.56121743
-0.0060992264 0.13158745 0.56306255
-0.039887004 0.138202 0.56080002
-0.010017389 0.13881223 0.56135488
-0.0063238097 0.13859168 0.56512505
-0.040224262 0.14733049 0.56233329
-0.010568083 0.14650163 0.56146157
-0.0065322458 0.14824574 0.56485718
-0.040531438 0.15295 0.56327277
-0.036574405 0.15417205 0.56062502
-0.016345099 0.15444705 0.56
-0.01199603 0.15361166 0.56177151
-0.0069704768 0.15066953 0.56300002
-0.04078095 0.16181715 0.565
-0.035590604 0.16160187 0.56065232
-0.016000001 0.16151112 0.56
-0.011355672 0.16112719 0.56336945
-0.0062085725 0.16215681 0.56463641
-0.040516336 0.16900568 0.56446153
-0.034944531 0.16915941 0.56031048
-0.016355112 0.16902168 0.56126666
-0.011344072 0.16877635 0.56510633
-0.0065859058 0.16799203 0.56680006
-0.040782448 0.17605379 0.56437838
-0.033920392 0.17622761 0.56064296
-0.027342228 0.17852445 0.56
-0.01793474 0.1764778 0.56089485
-0.011376355 0.17608532 0.56556523
-0.00508099 0.17560819 0.56842309
-0.040729266 0.18396072 0.56637502
-0.033642162 0.18379116 0.56166679
-0.02676543 0.18313086 0.56000018
-0.018665051 0.18416347 0.56155819
-0.011575456 0.18384093 0.56560421
-0.003603532 0.18588464 0.56629175
-0.040795907 0.19130467 0.56356519
-0.034555174 0.18974005 0.5606429
-0.017129812 0.1905966 0.56090015
-0.011113104 0.19115809 0.5639444
-0.0039336244 0.19141275 0.56622452
0.0012512698 0.19290653 0.56316668
-0.042001646 0.19828042 0.56336361
-0.016453968 0.19762795 0.56033337
-0.012644269 0.19817965 0.56100005
-0.0018880954 0.19576858 0.56550002
-0.046864528 0.20594694 0.56887507
-0.041667566 0.20646958 0.56492859
-0.035694487 0.20728345 0.56026316
-0.017253969 0.20919113 0.56033337
-0.011744871 0.20702465 0.56280768
-0.046029527 0.21498612 0.56860006
-0.041815747 0.21352366 0.56537503
-0.034229971 0.21330348 0.56032157
-0.023466669 0.21493335 0.56
-0.018627409 0.21412307 0.56104451
-0.011291387 0.21351913 0.56472337
-0.0070200004 0.21546002 0.56700003
-0.046292387 0.22009191 0.56850004
-0.041633207 0.22121201 0.5657872
-0.035527371 0.22173603 0.56120002
-0.024455691 0.22223867 0.56015795
-0.018738518 0.22157137 0.56156278
-0.011861635 0.22131115 0.56574363
-0.045554407 0.16888964 0.57112503
-0.043971431 0.16828573 0.57000011
-0.046087623 0.1737787 0.57200003
-0.0081428578 0.17968573 0.57000005
-0.0059714294 0.17968574 0.57000005
-0.043971431 0.18565714 0.57000005
-0.0081428578 0.18294287 0.57000005
-0.0062013338 0.18256593 0.57120007
-0.045136195 0.18978953 0.57100004
-0.043971431 0.1889143 0.57000005
-0.046142861 0.20248573 0.57000005
-0.04941611 0.20699309 0.57018197
-0.04740198 0.2119488 0.57021445
-0.0089571439 0.22230002 0.57000005
