# .PCD v0.7 - Point Cloud Data file format
VERSION 0.7
FIELDS x y z
SIZE 4 4 4
TYPE F F F
COUNT 1 1 1
WIDTH 220
HEIGHT 1
VIEWPOINT 0 0 0 1 0 0 0
POINTS 220
DATA ascii
0.033637147 0.042002864 0.54900002
0.049671434 0.043571435 0.54899997
0.052808575 0.041828573 0.54900002
0.036181718 0.050508 0.54899997
0.041684791 0.049547751 0.54832363
0.048636988 0.048634373 0.54837507
0.035697911 0.05612633 0.54832006
0.041251291 0.056249231 0.54752755
0.048370898 0.056099527 0.54743415
0.053904638 0.057248894 0.54879999
0.036141653 0.06364087 0.54854548
0.041088153 0.063989416 0.54696012
0.048631549 0.063917018 0.5476926
0.053714987 0.061409187 0.54854548
0.036311261 0.07124 0.54882348
0.041205093 0.071459487 0.54767376
0.048523925 0.07148017 0.54783702
0.052792549 0.072131597 0.54883337
0.036687143 0.079212859 0.54899997
0.041258447 0.078863129 0.54838783
0.047864631 0.078310393 0.54848582
0.052808575 0.075814292 0.54900002
0.036425717 0.083482862 0.54900002
0.041808009 0.085975662 0.54890233
0.046713039 0.085727751 0.54886359
0.043169811 0.093318649 0.54899991
0.046011437 0.093591444 0.54899997
0.045488574 0.09777429 0.54900002
0.028432025 0.04422988 0.55287498
0.034619056 0.04310533 0.55141664
0.041647516 0.042603992 0.55145454
0.047582768 0.041843805 0.55019057
0.054542225 0.044227939 0.55066669
0.028098043 0.04902757 0.55550003
0.033044595 0.048482947 0.55199999
0.040403176 0.046479374 0.55000007
0.045571432 0.045571432 0.55000001
0.05593653 0.049049348 0.55137759
0.06084048 0.050787624 0.55550003
0.028677145 0.05629497 0.55614299
0.031824119 0.056103505 0.55254835
0.056956109 0.055473309 0.55146879
0.060785718 0.055922862 0.55500001
0.027061259 0.064230517 0.55660009
0.032269217 0.063761882 0.5525676
0.056974996 0.064228773 0.55278957
0.060917858 0.06435357 0.55500001
0.026528994 0.071386322 0.55582929
0.03238247 0.071225747 0.55189747
0.056597468 0.070992813 0.55235565
0.060984127 0.071313865 0.5546667
0.027423922 0.0782791 0.55577791
0.032784402 0.078555673 0.55193341
0.050530132 0.080548644 0.55021441
0.056579452 0.078710914 0.55336964
0.060917858 0.078360721 0.55500001
0.028192727 0.086145125 0.55636841
0.033476651 0.086327702 0.55232698
0.038761906 0.087869048 0.55000001
0.050307721 0.086926013 0.55044442
0.056364935 0.086038634 0.55370015
0.060813099 0.084610239 0.55525005
0.027362231 0.093979038 0.55686677
0.033708282 0.093763836 0.55310351
0.039750405 0.094056346 0.55030775
0.049833439 0.093893647 0.55077142
0.056345899 0.093662068 0.55412
0.061958499 0.094843261 0.55841672
0.027925966 0.10135902 0.55695659
0.033720195 0.10130589 0.55330372
0.041410435 0.1011704 0.55040812
0.048907321 0.10141896 0.55139583
0.056494448 0.10125592 0.55478734
0.061540078 0.10153026 0.55815393
0.028330376 0.10854582 0.55777782
0.033742879 0.10863509 0.55372232
0.041462999 0.10864452 0.55108154
0.048951846 0.10895178 0.55265307
0.056043115 0.10884451 0.55523276
0.060509056 0.1081502 0.55830008
0.028882956 0.11563992 0.55750006
0.033821356 0.11627173 0.55493122
0.041609831 0.11640725 0.55306125
0.048993718 0.11642034 0.55312252
0.056299578 0.11630112 0.55643582
0.060457669 0.11700001 0.55818188
0.029202383 0.12388906 0.55750006
0.033651087 0.12381004 0.55560398
0.041423857 0.12407424 0.55382711
0.048875589 0.12370703 0.55422735
0.055372201 0.123311 0.55759996
0.06015905 0.12085048 0.55900002
0.029197145 0.13006 0.55740005
0.03323742 0.13115954 0.55635548
0.041154306 0.13157353 0.55490929
0.048607621 0.13129206 0.55572093
0.054070052 0.13095081 0.55812001
0.034099467 0.13883597 0.55686957
0.041253738 0.13885443 0.55443662
0.04880432 0.13892679 0.55577773
0.052803952 0.1383539 0.55842865
0.029228574 0.14720573 0.55800003
0.033405453 0.14606032 0.55680424
0.04123215 0.14642873 0.55505377
0.048689637 0.14640065 0.55582929
0.052611433 0.14295429 0.55800003
0.034623712 0.15335751 0.55767739
0.040884357 0.15344602 0.55532616
0.048578963 0.15384296 0.55728585
0.035386804 0.15962219 0.55814296
0.041076478 0.16142558 0.55758816
0.04783773 0.16113207 0.55838102
0.036096748 0.16948693 0.55875003
0.040786155 0.16882922 0.55745643
0.04670538 0.16833656 0.55865216
0.03673429 0.17621812 0.55900002
0.041179445 0.17616281 0.55851161
0.045784764 0.17462097 0.55900002
0.062233336 0.17579478 0.55850005
0.041940786 0.18126011 0.55872732
0.033843473 0.19311325 0.55845457
0.040805958 0.19290675 0.55646431
0.048017383 0.19338636 0.55708331
0.052611433 0.19396953 0.55800003
0.034023322 0.1985077 0.55843908
0.040803503 0.19871823 0.55640805
0.0485074 0.19882739 0.55688447
0.052933656 0.19775461 0.55766672
0.034675058 0.20618342 0.55848384
0.040803131 0.20622753 0.55702114
0.048169348 0.20622984 0.55742216
0.052692246 0.20597933 0.5588572
0.035346806 0.21170357 0.55871433
0.040367864 0.21258405 0.55844998
0.048709322 0.21155573 0.55878943
0.052705716 0.21082288 0.55900002
0.04134826 0.21809874 0.55900002
0.024666669 0.063200012 0.56
0.025073064 0.080249399 0.56014287
0.021983812 0.084181912 0.56300002
0.024972742 0.08616861 0.56124145
0.024693407 0.092815317 0.56084615
0.062400006 0.096533343 0.56000006
0.024826942 0.10153607 0.5615238
0.061688893 0.10115556 0.56000006
0.022061907 0.10708096 0.565
0.024959395 0.10865751 0.56248003
0.061333336 0.10826667 0.56
0.027029645 0.11646323 0.56062502
0.02714905 0.1234665 0.56065398
0.058375154 0.12524147 0.56045455
0.060761314 0.12446179 0.56087506
0.028060241 0.1322974 0.56124997
0.05793247 0.13148957 0.56073922
0.060892455 0.13169305 0.56123078
0.026610631 0.13873278 0.56334877
0.030552387 0.13859048 0.56
0.056808885 0.13916014 0.56242502
0.061025791 0.1389899 0.56246156
0.027837368 0.14604837 0.56300002
0.030400002 0.14986667 0.56
0.056356054 0.14633591 0.561674
0.06081178 0.14539482 0.56145459
0.027494956 0.15365316 0.56345457
0.031350162 0.15433303 0.56046665
0.056070905 0.1535826 0.56180853
0.06072405 0.1526169 0.56424999
0.026638847 0.16142169 0.56488097
0.032823339 0.16175435 0.56100011
0.037866671 0.16266668 0.56
0.051066671 0.16213335 0.56
0.054911051 0.16117772 0.56178135
0.026939547 0.16877873 0.5652954
0.032884076 0.16844012 0.56102514
0.050160542 0.16926546 0.56004363
0.056440368 0.16861711 0.56365955
0.061823137 0.1698965 0.56657141
0.026950691 0.17630985 0.56492496
0.033381253 0.17620911 0.56107157
0.038400002 0.17706667 0.56
0.049170583 0.1764897 0.5608421
0.056426641 0.17617562 0.56422454
0.061925326 0.17603071 0.56495458
0.027056543 0.18397209 0.56526315
0.033660736 0.18371707 0.56218755
0.040798575 0.18473433 0.5601843
0.048691258 0.18357156 0.56127107
0.05612126 0.1835285 0.5643636
0.061806671 0.18188389 0.56207705
0.026647409 0.19114067 0.56421995
0.033563267 0.18986434 0.56148583
0.041066669 0.18986674 0.56000018
0.048911288 0.19020642 0.56142116
0.055865575 0.19082147 0.56397229
0.063214205 0.19259699 0.56863648
0.067658737 0.1932327 0.56833339
0.020887051 0.20141315 0.56820005
0.026702624 0.19892178 0.56224412
0.031247729 0.20047545 0.56033337
0.05396286 0.20249429 0.56100005
0.06329143 0.19528382 0.56800002
0.021223063 0.20545082 0.56684202
0.02621232 0.20615192 0.5637607
0.031749923 0.20711966 0.56058824
0.056127865 0.2069129 0.56203711
0.022126986 0.21425907 0.56666672
0.026295036 0.2135141 0.56452167
0.033342887 0.21427496 0.56082869
0.04143969 0.2161449 0.56022221
0.048361003 0.21552634 0.56069571
0.056267142 0.21358415 0.56318408
0.022218097 0.21838763 0.56900001
0.02195905 0.18638128 0.57166672
0.023342859 0.18620001 0.57000005
0.062158577 0.18701668 0.57249999
0.02103905 0.18998383 0.57200009
0.023342859 0.18837143 0.57000005
0.059240639 0.18859112 0.57066673
0.06335853 0.19049165 0.57123083
0.068520002 0.19196478 0.57100004
