# .PCD v0.7 - Point Cloud Data file format
VERSION 0.7
FIELDS x y z
SIZE 4 4 4
TYPE F F F
COUNT 1 1 1
WIDTH 211
HEIGHT 1
VIEWPOINT 0 0 0 1 0 0 0
POINTS 211
DATA ascii
-0.024530407 0.043067701 0.58846152
-0.020988258 0.043035876 0.58855563
-0.031369053 0.050974768 0.58816671
-0.025867732 0.049041573 0.58802372
-0.019125 0.049031243 0.58805001
-0.014023811 0.052168574 0.58900005
-0.031280193 0.058635242 0.58860004
-0.026311273 0.056536857 0.58777547
-0.018452324 0.05647745 0.58714277
-0.013066136 0.056683071 0.58800006
-0.031132858 0.061704766 0.58900005
-0.025835652 0.063061118 0.58803332
-0.018954366 0.063588299 0.58825004
-0.014023811 0.061704766 0.58900005
-0.030852383 0.071801908 0.58900005
-0.025965063 0.071962923 0.58863157
-0.020269573 0.069957696 0.58863157
-0.025192553 0.078099765 0.58875006
-0.021732263 0.079358689 0.58887506
-0.023560002 0.085545242 0.58900005
-0.038781364 0.0436581 0.59757149
-0.033817437 0.041971795 0.59488565
-0.028872579 0.041445147 0.59286666
-0.017376123 0.041695442 0.59278572
-0.01199643 0.042314328 0.5958215
-0.039776724 0.04867645 0.59628004
-0.034630131 0.048837684 0.59216666
-0.015685821 0.047555242 0.59055561
-0.011330331 0.048852533 0.5927949
-0.007391429 0.046054289 0.597
-0.039677754 0.05611423 0.59514296
-0.034146585 0.055916049 0.59124237
-0.010069882 0.055218566 0.59162503
-0.039916545 0.063760415 0.59530008
-0.034139797 0.063905828 0.59127015
-0.027626984 0.066023812 0.59000015
-0.015746191 0.065798581 0.59050006
-0.011016266 0.064048402 0.5926578
-0.006759481 0.06424278 0.59600008
-0.039699882 0.071455047 0.59545839
-0.03385194 0.071379371 0.59110248
-0.027737664 0.068705633 0.59000015
-0.017430447 0.072200999 0.59043336
-0.011416069 0.071424738 0.59266651
-0.0073716193 0.071562096 0.59540004
-0.040241681 0.078773111 0.59660619
-0.033929862 0.078873381 0.59235126
-0.028364068 0.079696514 0.59013343
-0.017919511 0.078678697 0.59068573
-0.011180953 0.078909501 0.5941025
-0.0058042658 0.0790243 0.59656519
-0.040632445 0.086479597 0.59727275
-0.033743124 0.086156383 0.59242487
-0.026756 0.086116754 0.59029549
-0.018505756 0.086205497 0.59112477
-0.01144784 0.086341232 0.59433335
-0.00632902 0.085973509 0.59782356
-0.040856771 0.093696751 0.59678048
-0.034045693 0.093645595 0.59365791
-0.026305513 0.093764141 0.59091288
-0.018668463 0.09362293 0.59160453
-0.011211136 0.093863145 0.59564096
-0.0068833698 0.093781114 0.59846157
-0.04067608 0.10113819 0.59690922
-0.033937331 0.10123942 0.59385717
-0.02663363 0.10115789 0.59162194
-0.018547025 0.10107666 0.59249991
-0.011358361 0.10112169 0.5965001
-0.0068427785 0.10093185 0.59875
-0.046270955 0.10665001 0.59250003
-0.040951423 0.10847552 0.59739029
-0.03399365 0.10876991 0.59483331
-0.026525583 0.10884948 0.59256268
-0.018634742 0.10844543 0.5930475
-0.01159199 0.10847335 0.59728205
-0.0069272118 0.10700505 0.5990001
-0.039180003 0.1159718 0.59837496
-0.033879329 0.11627071 0.59566665
-0.026511883 0.1164222 0.59409517
-0.018690906 0.11612721 0.59479588
-0.012009019 0.11650248 0.59723532
-0.038507145 0.1212262 0.59900004
-0.033618901 0.12381802 0.5968141
-0.026099365 0.12369499 0.59577787
-0.018756781 0.12391012 0.59680957
-0.012662995 0.12363243 0.59795237
-0.03323897 0.1313113 0.59686685
-0.026116934 0.13115685 0.59616679
-0.018888697 0.13124195 0.59721285
-0.013976667 0.12921287 0.59900004
-0.033684656 0.13887179 0.59800017
-0.026132116 0.13861592 0.59650022
-0.018811433 0.13861054 0.59776199
-0.038221907 0.14318953 0.59900004
-0.03301039 0.14569815 0.59845722
-0.026162725 0.14616999 0.5971905
-0.019806672 0.1462535 0.5980556
-0.031978335 0.15324932 0.59882152
-0.026203647 0.15380119 0.59811103
-0.018962137 0.15347748 0.59809768
-0.030995876 0.16106446 0.5990001
-0.026239073 0.16142578 0.59892893
-0.020420304 0.16051081 0.59891999
-0.03023524 0.16600858 0.59900004
-0.026486401 0.16633457 0.5990001
-0.033658098 0.18654573 0.59900004
-0.033105385 0.19115937 0.59880012
-0.026361078 0.19215573 0.5985862
-0.020359104 0.19282624 0.59870583
-0.033034146 0.19806397 0.59861773
-0.026383143 0.19843788 0.59863901
-0.019250963 0.19835539 0.59881109
-0.014261906 0.19795525 0.59900004
-0.03120066 0.20444992 0.59900004
-0.027947936 0.20571388 0.59888893
-0.02110762 0.20251906 0.59900004
-0.039445478 0.04173167 0.60025001
-0.045293335 0.081986673 0.60200006
-0.044000003 0.079428576 0.60000002
-0.043809529 0.08476191 0.60000002
-0.0051428573 0.089714289 0.60000002
-0.0049808165 0.093655385 0.6001429
-0.045193017 0.10125461 0.6006667
-0.044000007 0.10000001 0.60000002
-0.004763572 0.10232851 0.60024995
-0.0085714292 0.11085715 0.60000002
-0.0047639008 0.10892338 0.60028577
-0.045368575 0.11887715 0.60300004
-0.042378042 0.11663217 0.60082364
-0.0085714301 0.11600001 0.60000002
-0.0063787764 0.11491376 0.60114282
-0.045628767 0.12424363 0.60340005
-0.04155815 0.1239912 0.60158825
-0.0098545728 0.1256123 0.60170001
-0.0074780956 0.1265524 0.60400003
-0.04578327 0.13044614 0.6041429
-0.041253507 0.13121003 0.60244739
-0.037142858 0.13085715 0.60000002
-0.011014011 0.13167018 0.60162854
-0.0070179054 0.13092421 0.60400003
-0.045572795 0.1390245 0.60571426
-0.041365884 0.13886543 0.60295129
-0.015428573 0.14171429 0.60000002
-0.011467037 0.13881154 0.60227782
-0.0065394398 0.13876893 0.60488236
-0.045964956 0.14676344 0.60480005
-0.041365582 0.14622797 0.6022501
-0.036816325 0.14734696 0.60000002
-0.015885716 0.14628573 0.59999996
-0.011606155 0.14608477 0.6026153
-0.0061390484 0.14502062 0.60552943
-0.046342321 0.15343063 0.60500002
-0.04141406 0.15359928 0.60367572
-0.035960324 0.15399362 0.6002382
-0.015447859 0.15476644 0.60075003
-0.011362655 0.15400366 0.60402381
-0.0402813 0.16122071 0.60322225
-0.035048954 0.16130839 0.60046446
-0.016853176 0.16212566 0.60105556
-0.010836691 0.16152146 0.60519063
-0.0059658736 0.16318367 0.60616672
-0.046154957 0.16888849 0.60730004
-0.041489739 0.16863208 0.60500008
-0.033768579 0.16872346 0.60090923
-0.026228011 0.16976358 0.60003465
-0.018918324 0.16861309 0.60041314
-0.011261067 0.16887306 0.60607141
-0.0053204764 0.16825517 0.60710001
-0.046178099 0.17614725 0.60760003
-0.041588541 0.17625915 0.60582942
-0.033973705 0.17627338 0.60184425
-0.026312167 0.17618112 0.60061109
-0.018910181 0.17619795 0.60178572
-0.011189061 0.17651956 0.60662168
-0.0054743919 0.1745819 0.60855561
-0.046380516 0.18396044 0.60815388
-0.041316304 0.18388093 0.6042093
-0.033785537 0.18374255 0.60127079
-0.026359301 0.18394355 0.60169041
-0.018819854 0.18399544 0.60245103
-0.011029433 0.18367656 0.60615689
-0.0049473993 0.18552205 0.60830772
-0.04689724 0.18953033 0.6079092
-0.041263383 0.1912269 0.60169047
-0.036126986 0.19092064 0.59999996
-0.025987472 0.18886352 0.60023075
-0.018053334 0.19066189 0.60062498
-0.011147668 0.19102482 0.60423815
-0.0056246757 0.18935907 0.60736364
-0.047451001 0.19962096 0.6069091
-0.041387029 0.19890982 0.60250002
-0.036308691 0.2004118 0.600375
-0.023428572 0.20171429 0.60000002
-0.015657146 0.19965716 0.60000002
-0.011161135 0.19842252 0.60513532
-0.0063695242 0.1968762 0.60800004
-0.046790421 0.20480415 0.60553336
-0.041351687 0.20630793 0.60366678
-0.034633707 0.2067703 0.60119349
-0.024901677 0.20631877 0.60009533
-0.018828638 0.20609605 0.6009025
-0.011264924 0.20651221 0.60573179
-0.039930522 0.2133777 0.60325003
-0.033798631 0.21365505 0.60144448
-0.026197262 0.21377629 0.6007632
-0.019415205 0.21269245 0.60248393
-0.011240001 0.21262376 0.6068182
-0.0075647626 0.17166191 0.611
-0.0089613339 0.17422231 0.611
-0.0490123 0.18568124 0.61327279
-0.050332859 0.18844429 0.61450005
