# .PCD v0.7 - Point Cloud Data file format
VERSION 0.7
FIELDS x y z
SIZE 4 4 4
TYPE F F F
COUNT 1 1 1
WIDTH 213
HEIGHT 1
VIEWPOINT 0 0 0 1 0 0 0
POINTS 213
DATA ascii
0.2838743 0.13418287 0.708
0.26836574 0.14227429 0.708
0.27336112 0.14183156 0.70771438
0.28232843 0.13955544 0.70688897
0.28789368 0.13891426 0.70417857
0.26817 0.14633526 0.70707697
0.27356377 0.14612058 0.70703709
0.28150856 0.14610055 0.70494872
0.2884959 0.14623277 0.70317847
0.29320621 0.14627001 0.70450008
0.26803502 0.1535861 0.70753849
0.27345797 0.15358695 0.70689213
0.28106111 0.15361615 0.70467508
0.28858426 0.15347423 0.7042858
0.29362512 0.15344034 0.70766664
0.26844063 0.16130415 0.70800006
0.27378479 0.16144858 0.70633352
0.28126705 0.16108453 0.70403469
0.28857303 0.16152278 0.70582145
0.29393655 0.16180037 0.70787501
0.26767048 0.16845143 0.70749998
0.27374345 0.16889349 0.7065295
0.28121936 0.16920345 0.7044245
0.28850865 0.16853483 0.70547992
0.2938225 0.1683398 0.70760006
0.26828989 0.17593965 0.70780009
0.27357253 0.17610995 0.70578593
0.28125378 0.17633879 0.70442319
0.28869274 0.17627594 0.7057932
0.29371026 0.17651959 0.70718187
0.26836574 0.18340573 0.70800012
0.27329874 0.18358424 0.70641929
0.28115416 0.18395847 0.70619369
0.28865135 0.18408059 0.7068519
0.29369763 0.18389858 0.70730001
0.26850057 0.19163202 0.70800012
0.27375016 0.1914926 0.70764881
0.28134698 0.19112976 0.70627278
0.28930113 0.19158645 0.70680654
0.29343867 0.18947601 0.70700002
0.26904002 0.19891432 0.708
0.27402103 0.1987322 0.70694298
0.28145599 0.19874048 0.7058965
0.28923422 0.19873609 0.70718527
0.29290003 0.20065334 0.70700002
0.26904002 0.20532 0.708
0.27375349 0.20600365 0.70705152
0.28191367 0.20655416 0.70693105
0.28902104 0.20610386 0.7076208
0.29357335 0.20469335 0.70700002
0.27421856 0.21359876 0.70784628
0.28154609 0.21351776 0.70723349
0.28873435 0.21380994 0.707591
0.2744343 0.22140844 0.70800006
0.28100571 0.2215196 0.70784009
0.28831667 0.22017415 0.70800012
0.27599034 0.22837539 0.70800012
0.28088048 0.22825049 0.70769566
0.28522289 0.22656003 0.708
0.27570796 0.23622476 0.70800012
0.28056601 0.23635146 0.70787513
0.27508426 0.24242887 0.70753849
0.28001961 0.24186516 0.70780009
0.26836574 0.25420573 0.708
0.27308574 0.25420573 0.708
0.26904002 0.25555429 0.708
0.27478477 0.25798967 0.7079547
0.27892956 0.25982481 0.70800006
0.27551317 0.26697224 0.70800018
0.27960384 0.26668006 0.70800012
0.27506012 0.27101514 0.70787507
0.27982861 0.27135187 0.70800006
0.27336743 0.29058546 0.70792317
0.26861832 0.29746062 0.7076
0.2726101 0.29558155 0.70731586
0.28973764 0.29782385 0.70750004
0.26769143 0.30005717 0.708
0.29061717 0.30005717 0.708
0.26871288 0.13435572 0.71250004
0.27508992 0.13408077 0.71320003
0.28132668 0.13414 0.71255571
0.26143336 0.14192097 0.71300006
0.26722553 0.13938226 0.71257687
0.27395108 0.13807507 0.71156263
0.27980003 0.13757412 0.71066678
0.26143047 0.14652781 0.71560013
0.26523265 0.14614023 0.7126922
0.27656192 0.14335239 0.71000004
0.26007077 0.1542286 0.71700007
0.26511589 0.15352985 0.71390623
0.26025277 0.16078971 0.71629995
0.26496661 0.16087109 0.71220595
0.26053551 0.16838332 0.71647054
0.26438108 0.16890459 0.71180773
0.29684764 0.16701907 0.71000004
0.26077145 0.17570409 0.71785718
0.26479548 0.17633519 0.71315634
0.26125154 0.18364044 0.71827275
0.26485497 0.18369873 0.7130304
0.26135126 0.19146572 0.71799999
0.26476911 0.19109952 0.71225005
0.26211792 0.19915639 0.71860009
0.26554385 0.19886096 0.71291667
0.26135126 0.20650952 0.71799999
0.26566771 0.20628671 0.7134499
0.26040924 0.21411566 0.71766675
0.26642501 0.21376111 0.71327901
0.27115241 0.21502858 0.71000004
0.26107809 0.22046192 0.71799999
0.26627663 0.22096044 0.71335715
0.27325612 0.22036298 0.71000004
0.2825124 0.21976192 0.71000004
0.28895873 0.22156511 0.71000004
0.26226383 0.22734097 0.71900004
0.26640949 0.22840929 0.71456087
0.27260017 0.2289716 0.71025008
0.28400004 0.23193336 0.71000004
0.28884521 0.22833027 0.71013045
0.29355478 0.23171763 0.71350002
0.26157907 0.23624288 0.71899998
0.26629829 0.23620354 0.71504992
0.27242348 0.23576961 0.71147633
0.2842254 0.23508891 0.71000004
0.28877205 0.23610294 0.71145475
0.2938934 0.23664396 0.71333349
0.2615701 0.24309258 0.71859998
0.26627281 0.24355172 0.7134468
0.27262881 0.24421012 0.71050012
0.28254044 0.24487025 0.71058339
0.28854871 0.24364631 0.71114838
0.29348016 0.24309759 0.71214288
0.26149717 0.25178191 0.7184
0.26577809 0.25129005 0.71405697
0.2733956 0.25202653 0.71149999
0.28078371 0.25158855 0.71194452
0.28824386 0.25115547 0.71200019
0.29266953 0.2505686 0.71300006
0.26165515 0.25861177 0.71899998
0.26652244 0.25917077 0.71519995
0.27187425 0.26014787 0.71041673
0.28203657 0.2585257 0.71037507
0.28870255 0.25863051 0.71354175
0.29390097 0.2594648 0.71600002
0.26145568 0.26536316 0.71785718
0.26594499 0.26643834 0.71456403
0.27286038 0.26567906 0.71108711
0.28257668 0.26538908 0.7105
0.28858265 0.26617336 0.71296692
0.29308003 0.26928002 0.71400005
0.26226383 0.27185053 0.71900004
0.26628509 0.27379405 0.71619993
0.27298692 0.27397758 0.71222752
0.28127983 0.27476242 0.71081257
0.28774491 0.27274349 0.71238905
0.29266953 0.27161908 0.71300006
0.26137671 0.28202087 0.71827275
0.26629752 0.28143486 0.71536976
0.27377644 0.28145689 0.71276319
0.2805756 0.28099754 0.71128124
0.28794837 0.28196606 0.71375006
0.29342335 0.28455287 0.71650004
0.26097095 0.28833124 0.71546161
0.26635611 0.28865966 0.7126857
0.2731663 0.28805077 0.71034789
0.28125724 0.28832763 0.71029019
0.2881628 0.28828421 0.71345454
0.29561597 0.28723663 0.71614283
0.25906706 0.29703942 0.71668762
0.26615295 0.29618922 0.71297163
0.27063143 0.29636288 0.71100008
0.28127691 0.29649585 0.71084005
0.28808436 0.29650569 0.71255177
0.2587986 0.3020786 0.71700001
0.26543933 0.30190516 0.71381825
0.28223687 0.30118734 0.71066666
0.28746575 0.30124351 0.71133339
0.25988573 0.16388573 0.72000003
0.25440001 0.1721143 0.72000003
0.25844857 0.1691442 0.72020006
0.25789016 0.17669272 0.7218948
0.2593165 0.18388009 0.72426313
0.26058736 0.19133455 0.72526675
0.25478572 0.20230953 0.72500002
0.26027414 0.1992126 0.72280014
0.25826401 0.20557998 0.72154176
0.25839013 0.21270823 0.7209335
0.25913006 0.22175357 0.72146672
0.25966007 0.22894464 0.72208351
0.26262859 0.23177144 0.72000003
0.258818 0.2359774 0.7227729
0.25936809 0.24459334 0.72366661
0.25926486 0.2502194 0.72343469
0.25978127 0.25840664 0.72200018
0.26083583 0.2667695 0.72511774
0.25923985 0.27414605 0.72542864
0.26262859 0.27565718 0.72000003
0.25370547 0.28295988 0.72642863
0.25822857 0.28126088 0.72373533
0.26262859 0.27771431 0.72000003
0.25352848 0.28858215 0.72582352
0.25783134 0.28846005 0.72425002
0.25300258 0.29782084 0.72649997
0.25629571 0.29569057 0.72476918
0.25160223 0.3030335 0.72540742
0.25598511 0.30429706 0.72233331
0.25237143 0.30768573 0.72600001
0.25513715 0.30768573 0.72600001
0.25828668 0.19423716 0.73100001
0.25828668 0.19562954 0.73100001
0.25968745 0.26833963 0.73259997
0.25864002 0.27118668 0.73200005
0.25271717 0.28474194 0.73100001
0.25271717 0.29657716 0.73100001
