# .PCD v0.7 - Point Cloud Data file format
VERSION 0.7
FIELDS x y z
SIZE 4 4 4
TYPE F F F
COUNT 1 1 1
WIDTH 406
HEIGHT 1
VIEWPOINT 0 0 0 1 0 0 0
POINTS 406
DATA ascii
0.14288001 -0.28044003 0.79800004
0.14592001 -0.28044003 0.79800004
0.11976857 -0.28073049 0.801
0.12251572 -0.28052431 0.80150002
0.13847812 -0.28078413 0.8033334
0.14741525 -0.28031811 0.80200005
0.11739118 -0.27733785 0.80181825
0.12285145 -0.27752349 0.80319995
0.12741287 -0.27892905 0.80350006
0.13828097 -0.27834892 0.80366671
0.14239457 -0.27780521 0.80199999
0.14741524 -0.27781525 0.80200005
0.15207392 -0.27798173 0.80319995
0.15658572 -0.27780098 0.80299997
0.11792001 -0.27489144 0.80400002
0.14318858 -0.27489144 0.80400008
0.14625144 -0.27489144 0.80400002
0.15352573 -0.27374285 0.80400002
0.15620573 -0.27412573 0.80400002
0.10388572 -0.28164575 0.80800003
0.10741673 -0.28208849 0.80755562
0.11186072 -0.28176883 0.80725008
0.13620572 -0.28087622 0.80800003
0.15352382 -0.2817162 0.80600005
0.10388572 -0.27856764 0.80800003
0.10696381 -0.27856764 0.80800003
0.11220984 -0.27745372 0.80700004
0.11591049 -0.27557525 0.80600005
0.12205144 -0.27557525 0.80600011
0.12802181 -0.27676934 0.80600011
0.13290794 -0.27734101 0.80666679
0.13694827 -0.276714 0.80633342
0.14047429 -0.27557525 0.80600005
0.14891811 -0.27557525 0.80600005
0.15122096 -0.27557525 0.80600005
0.11081143 -0.27472001 0.80800003
0.11773716 -0.27472001 0.80800003
0.1226621 -0.27410442 0.80800003
0.12650906 -0.27416524 0.80750006
0.13081905 -0.27472001 0.80800003
0.13804334 -0.27416524 0.80750006
0.14224446 -0.27295431 0.80733341
0.14726205 -0.27234048 0.80714285
0.15194945 -0.27169284 0.80690914
0.15659429 -0.27173716 0.80600005
0.15159622 -0.26856384 0.80800003
0.15736191 -0.2694343 0.80600005
0.10414287 -0.27617145 0.81000006
0.10722858 -0.27617145 0.81000006
0.11431143 -0.27574003 0.81100005
0.13345715 -0.27540001 0.81000006
0.13500001 -0.27540001 0.81000006
0.10405461 -0.27214223 0.81333339
0.10775395 -0.27272782 0.81290925
0.11243502 -0.27254406 0.81246167
0.11754586 -0.2722109 0.8120001
0.12261975 -0.27176052 0.81254554
0.1278556 -0.27224422 0.81272745
0.13245684 -0.27265877 0.81333345
0.13724732 -0.2725285 0.81276941
0.14182554 -0.27112994 0.8120001
0.15582858 -0.27077144 0.81000006
0.10310667 -0.26900762 0.81400001
0.11706096 -0.26900762 0.81400001
0.12259838 -0.26834315 0.81400007
0.12791429 -0.26823241 0.81400007
0.1321781 -0.26862001 0.81400001
0.13790667 -0.26767954 0.81350005
0.14277416 -0.26763245 0.81285727
0.14761573 -0.26740524 0.81150019
0.15222161 -0.26657972 0.81133336
0.15695222 -0.26753929 0.81254554
0.13876763 -0.2643562 0.81400001
0.14316064 -0.26383936 0.81400007
0.14807048 -0.26280573 0.81400007
0.15272193 -0.2628057 0.81400007
0.15715185 -0.26280576 0.81400007
0.15323874 -0.25867113 0.81400007
0.15737335 -0.25784421 0.81400007
0.1063381 -0.2708905 0.81500006
0.1075141 -0.26777586 0.81686687
0.11248114 -0.26739874 0.81554556
0.11720478 -0.26700959 0.81500006
0.12248286 -0.26654384 0.81500006
0.12807144 -0.26623338 0.81500006
0.13303906 -0.26685435 0.81500006
0.13583334 -0.26700956 0.81500006
0.1074672 -0.26316521 0.81833339
0.11311715 -0.26284844 0.81800002
0.11746746 -0.2629399 0.81683344
0.12233108 -0.26302442 0.81653863
0.12752274 -0.26312408 0.81684631
0.13281401 -0.26281342 0.81700021
0.13739716 -0.26243109 0.81590915
0.14189239 -0.26146191 0.81525004
0.14701049 -0.26033431 0.81500006
0.15834287 -0.26312858 0.81500006
0.11388001 -0.25818002 0.81900007
0.11856001 -0.25974002 0.81900007
0.12246001 -0.25974005 0.81900012
0.12714002 -0.25974005 0.81900012
0.13338003 -0.25974005 0.81900012
0.138372 -0.25911602 0.81900007
0.14226288 -0.25802144 0.8185001
0.14744875 -0.25715703 0.81700009
0.1518084 -0.25633261 0.81660002
0.15601429 -0.25536668 0.81500006
0.15406191 -0.25365812 0.81700003
0.15626954 -0.25267336 0.81633341
0.10881715 -0.26147336 0.82200003
0.11217888 -0.26081392 0.82140011
0.11650382 -0.26037431 0.82100004
0.1290143 -0.26193812 0.82100004
0.1305781 -0.26037431 0.82100004
0.10894953 -0.25787336 0.82300001
0.11245321 -0.25791824 0.82242858
0.11778287 -0.25715262 0.82120001
0.12279271 -0.2573159 0.82122231
0.12762256 -0.25759357 0.82211113
0.13221344 -0.2573851 0.82144445
0.13730249 -0.25693396 0.82100004
0.14387049 -0.25646478 0.82100004
0.1462162 -0.25568289 0.82100004
0.11804605 -0.25411239 0.82266676
0.1230581 -0.25361839 0.82300007
0.12815286 -0.25356239 0.82300001
0.13265976 -0.25336644 0.82300001
0.13732049 -0.25328904 0.82274997
0.14204368 -0.25262386 0.82249999
0.14725335 -0.25221008 0.82242858
0.15213525 -0.25312287 0.82200003
0.1559781 -0.25317049 0.82300001
0.14500476 -0.24846764 0.82300001
0.10921429 -0.26007146 0.82500005
0.108107 -0.25621706 0.82722229
0.11214001 -0.2558856 0.8267144
0.12728572 -0.25535715 0.82500005
0.10721735 -0.25217393 0.82900012
0.11401714 -0.25328335 0.82850003
0.11714827 -0.25223058 0.82677788
0.1220962 -0.25152987 0.82533336
0.12782192 -0.25135589 0.82677788
0.13209657 -0.25112745 0.82660007
0.13710715 -0.25103575 0.82500005
0.1422143 -0.25064287 0.82500005
0.1529524 -0.2511667 0.82499999
0.15635715 -0.2514286 0.82500005
0.11907429 -0.24918765 0.82800007
0.12246287 -0.24867098 0.82825005
0.12668073 -0.24783503 0.82875001
0.13238554 -0.24820307 0.82840008
0.13737901 -0.2474713 0.82806689
0.14229049 -0.2476325 0.82544446
0.14721315 -0.24718975 0.82660007
0.15261176 -0.24779874 0.82600009
0.15635715 -0.24907145 0.82500005
0.13500857 -0.24396287 0.82900006
0.14301276 -0.24455488 0.8278001
0.14812858 -0.24372669 0.82820004
0.15196837 -0.2433085 0.82677776
0.10842572 -0.25088286 0.83100003
0.11176732 -0.25211397 0.83099997
0.11634001 -0.25088286 0.83100003
0.11758801 -0.24769831 0.83200008
0.12227573 -0.24653001 0.83100003
0.12821144 -0.2461343 0.83100003
0.13137716 -0.2461343 0.83100003
0.11964953 -0.24405241 0.83200002
0.12306682 -0.24375445 0.83214295
0.12763467 -0.24305944 0.83240002
0.1324545 -0.24288402 0.83179998
0.13715091 -0.24211872 0.83154553
0.14225048 -0.24227333 0.83133334
0.14744192 -0.24203621 0.83233345
0.13645333 -0.23879334 0.83300006
0.14083652 -0.23912987 0.83233345
0.10894763 -0.25050002 0.83500004
0.1122181 -0.25070003 0.83566666
0.10920858 -0.24870858 0.83700001
0.11224709 -0.24758148 0.83588886
0.11570715 -0.24692143 0.83500004
0.11274496 -0.24321452 0.83840007
0.11716131 -0.24281119 0.8379091
0.12225131 -0.24188669 0.83585715
0.12818477 -0.24124573 0.83600003
0.13200954 -0.24095716 0.83500004
0.14791429 -0.24095716 0.83500004
0.15235488 -0.24182422 0.83579999
0.11858763 -0.23877192 0.83850002
0.12224029 -0.23802209 0.83790922
0.12750334 -0.23747596 0.83674997
0.13293698 -0.23721574 0.83583343
0.13786745 -0.23672898 0.83579999
0.14274573 -0.23689829 0.83640003
0.14741366 -0.23745242 0.8366667
0.15231314 -0.23836668 0.83820009
0.12794535 -0.23368974 0.8386001
0.13241926 -0.2321341 0.83760005
0.1377179 -0.23202935 0.83780003
0.14275306 -0.23289974 0.83871442
0.14782384 -0.23332193 0.83900011
0.15181905 -0.23412097 0.83900005
0.13264191 -0.22932668 0.83900005
0.11213334 -0.24108668 0.84100002
0.11355906 -0.23913938 0.8416667
0.11740123 -0.23720831 0.84185719
0.12094381 -0.23628096 0.84100002
0.15378287 -0.23628096 0.84100002
0.11948381 -0.23415525 0.84200001
0.12306403 -0.23320542 0.84211111
0.12706572 -0.23178872 0.84214288
0.14417143 -0.23147525 0.84100002
0.14754954 -0.23094764 0.84200013
0.15273105 -0.2324758 0.84214288
0.12878191 -0.22867763 0.84249997
0.13196173 -0.22848783 0.84180003
0.13696286 -0.22907239 0.84100002
0.14193717 -0.22934382 0.84200001
0.11347143 -0.24062383 0.84500003
0.11367286 -0.23701717 0.84650004
0.11588935 -0.23580594 0.84619999
0.1187773 -0.23271987 0.8465001
0.12162548 -0.23117025 0.84575003
0.15274592 -0.23048954 0.84680003
0.15531906 -0.23096669 0.84500003
0.12320049 -0.22868715 0.84549999
0.12717202 -0.22774687 0.84619999
0.13227275 -0.22663848 0.84687507
0.1378586 -0.22734432 0.8465001
0.14317048 -0.22774839 0.84740013
0.14780013 -0.22845274 0.84687501
0.15102477 -0.2285562 0.84800005
0.11468001 -0.23505335 0.85400003
0.11468001 -0.23180002 0.85400003
0.11702351 -0.2321562 0.85133338
0.11468001 -0.22692001 0.85400003
0.11817208 -0.22812679 0.85311121
0.12204714 -0.22706527 0.85150003
0.12669048 -0.22626191 0.85000002
0.13195239 -0.22585715 0.85000002
0.13680953 -0.22585717 0.85000008
0.14166668 -0.22626191 0.85000002
0.1467824 -0.22666049 0.85150003
0.15286429 -0.22767334 0.85149997
0.15534668 -0.22692001 0.85400003
0.11386667 -0.22204001 0.85400003
0.11630668 -0.22204001 0.85400003
0.12329122 -0.22282648 0.85355562
0.12759335 -0.22267781 0.85333341
0.13241811 -0.22259049 0.8530001
0.1372924 -0.22259049 0.8530001
0.14216667 -0.22259049 0.8530001
0.14704067 -0.22259085 0.8530001
0.15162383 -0.22307099 0.85250014
0.12850668 -0.21878669 0.85400003
0.13257334 -0.21878669 0.85400003
0.13745335 -0.21878669 0.85400003
0.15173715 -0.21989715 0.85200012
0.1123777 -0.23257525 0.8577143
0.11321262 -0.22765025 0.85675001
0.11712255 -0.22636446 0.85600013
0.15408 -0.22582097 0.85600007
0.15571049 -0.22582097 0.85600007
0.1136442 -0.22288612 0.85600007
0.1184824 -0.22269048 0.85650003
0.12147048 -0.22174478 0.85600007
0.11413334 -0.21929906 0.85600007
0.11753048 -0.21955526 0.85700005
0.1230144 -0.21820045 0.85666668
0.12775947 -0.21720274 0.85600007
0.13288383 -0.21685335 0.85600007
0.13777524 -0.21746477 0.85600001
0.14266668 -0.21766861 0.85600001
0.14755811 -0.21766861 0.85600001
0.15122668 -0.21807621 0.85600007
0.12747431 -0.21436381 0.85799998
0.13310614 -0.21359812 0.85742861
0.13711905 -0.21465811 0.85700005
0.14266668 -0.21440765 0.85600013
0.14773048 -0.21384099 0.85700005
0.15099525 -0.21384096 0.85700005
0.11384763 -0.23670478 0.86000001
0.11384763 -0.21868573 0.86000001
0.11721461 -0.21721463 0.86066675
0.12158604 -0.21666859 0.86066675
0.14005715 -0.21540953 0.86000001
0.12314287 -0.21426858 0.86200005
0.12692872 -0.21201609 0.86142862
0.13137113 -0.21166891 0.86033344
0.13706574 -0.21205097 0.86050004
0.14202371 -0.2127158 0.86088896
0.14779697 -0.21210098 0.86120003
0.1502343 -0.21098478 0.86200005
0.13299429 -0.20934287 0.86200005
0.13709906 -0.20934288 0.86200011
0.11798509 -0.21534573 0.86633343
0.12110001 -0.21501429 0.86500007
0.11752191 -0.21435335 0.86900002
0.12256173 -0.21258704 0.86720008
0.12769049 -0.21007144 0.86500013
0.13098572 -0.21007144 0.86500007
0.14293095 -0.21048334 0.86500007
0.14740591 -0.21111906 0.86660004
0.1514543 -0.21104287 0.86900002
0.12497048 -0.20938763 0.86900002
0.12822857 -0.20751858 0.86725008
0.13276921 -0.20698698 0.86588895
0.13761112 -0.20682891 0.86522233
0.14281365 -0.20719992 0.8667779
0.14803144 -0.20922701 0.86833334
0.15228191 -0.20938763 0.86900002
0.1340743 -0.20442192 0.86900002
0.14317811 -0.20442192 0.86900002
0.11692773 -0.21235061 0.8721112
0.12124953 -0.21094002 0.87200004
0.12295683 -0.20797431 0.87233341
0.12581667 -0.20678763 0.87200004
0.14765525 -0.20738097 0.87100005
0.15180288 -0.20738098 0.87100017
0.12772192 -0.20310834 0.87225008
0.13185327 -0.20234485 0.87172747
0.13719368 -0.20242901 0.87209105
0.14187542 -0.20242904 0.87209105
0.14701346 -0.20349132 0.8721112
0.15181288 -0.20373145 0.87225008
0.13718572 -0.19871144 0.87300003
0.11750001 -0.21083334 0.87500006
0.11749131 -0.20790409 0.87671447
0.12187524 -0.20701954 0.87650001
0.1241743 -0.2036124 0.87800002
0.12638891 -0.20138893 0.87500012
0.14766859 -0.20106289 0.87600005
0.15166667 -0.20083335 0.87500006
0.12782644 -0.19926073 0.87725002
0.13265143 -0.19939432 0.87600005
0.13735411 -0.19810307 0.87620002
0.14266479 -0.19939432 0.87600005
0.14716953 -0.19984953 0.87800002
0.11481906 -0.2137143 0.88000005
0.11850668 -0.20667432 0.88000005
0.12152382 -0.20533335 0.88000005
0.11820982 -0.20252492 0.8802858
0.12239596 -0.20161881 0.88025004
0.15169525 -0.20030479 0.88000005
0.11844001 -0.19908002 0.88200003
0.12279892 -0.19818288 0.88228583
0.12770115 -0.19683944 0.88100004
0.13325715 -0.1969524 0.88000005
0.13856509 -0.19639367 0.88000005
0.14292791 -0.19731866 0.88057154
0.1471262 -0.19707716 0.88150001
0.15226986 -0.19769713 0.88333333
0.1280559 -0.19362669 0.88266671
0.13188002 -0.19236001 0.88200003
0.13685058 -0.19226225 0.88155556
0.14191097 -0.19278717 0.88300002
0.1474781 -0.19315161 0.88342863
0.13386288 -0.18774478 0.88400006
0.13698119 -0.18790168 0.88374996
0.14144 -0.18942858 0.88400006
0.11938 -0.19727334 0.88900006
0.12206351 -0.19648826 0.88800001
0.12586953 -0.19514002 0.88700002
0.15290192 -0.19514003 0.88700002
0.12389557 -0.19332224 0.88900012
0.12776341 -0.19207038 0.88842857
0.13178286 -0.19007143 0.88700002
0.1444543 -0.19091621 0.88700002
0.14749543 -0.19074726 0.88700002
0.15241919 -0.19200234 0.88700008
0.12954001 -0.18880668 0.88900006
0.13200524 -0.18785381 0.88850009
0.13938573 -0.18669239 0.88700002
0.14249125 -0.1877903 0.88740009
0.14816669 -0.1888067 0.88900012
0.11964858 -0.19771716 0.89100003
0.1224 -0.19294859 0.89250004
0.12579858 -0.19125001 0.89250004
0.12749858 -0.18869954 0.8925001
0.1340743 -0.18583715 0.89100003
0.13770144 -0.18615001 0.89250004
0.14171144 -0.18583715 0.89100003
0.14666229 -0.18710686 0.89220011
0.15325716 -0.18986858 0.89400005
0.13367429 -0.18390858 0.89400005
0.13537715 -0.18390858 0.89400005
0.12373334 -0.19029334 0.89600003
0.12400953 -0.18900762 0.89800006
0.12771659 -0.18687087 0.89760011
0.13156 -0.18623334 0.89700007
0.13824001 -0.18517335 0.89600003
0.14250669 -0.18517336 0.89600009
0.14773652 -0.18588001 0.89666671
0.15104 -0.18858668 0.89600003
0.12828572 -0.18216573 0.89800006
0.13227335 -0.18185097 0.8975001
0.13771597 -0.18169786 0.89675003
0.14253552 -0.18259592 0.89771444
0.14681588 -0.18330604 0.89800012
0.12279843 -0.19149557 0.90166676
0.12370192 -0.18727238 0.90200007
0.12614001 -0.18706477 0.90100002
0.1514232 -0.18691653 0.90166676
0.12716971 -0.18277429 0.90100002
0.12193143 -0.1911124 0.90800005
0.15428096 -0.19048096 0.90500003
