# .PCD v0.7 - Point Cloud Data file format
VERSION 0.7
FIELDS x y z
SIZE 4 4 4
TYPE F F F
COUNT 1 1 1
WIDTH 366
HEIGHT 1
VIEWPOINT 0 0 0 1 0 0 0
POINTS 366
DATA ascii
0.12953952 -0.1314919 0.68350005
0.13186643 -0.13121453 0.68375003
0.11629334 -0.13001335 0.68600005
0.12300572 -0.13020286 0.68700004
0.12715742 -0.13070874 0.68671435
0.13197336 -0.13001335 0.68600005
0.13755071 -0.13132739 0.68774998
0.14239334 -0.13320668 0.68900001
0.14764288 -0.1332067 0.68900001
0.15223619 -0.1312381 0.68900001
0.15721007 -0.13201451 0.68811119
0.16214097 -0.13136382 0.68760008
0.11417715 -0.12926953 0.68900001
0.11712821 -0.12866955 0.6886
0.12205144 -0.12883207 0.68900007
0.12752859 -0.12865348 0.68871433
0.13208096 -0.12893201 0.68860006
0.16426636 -0.12883207 0.68900001
0.13953334 -0.13120954 0.69000006
0.1426 -0.13192144 0.69000006
0.14698096 -0.13164763 0.69000006
0.15245715 -0.13142858 0.69000006
0.15793334 -0.13120954 0.69000006
0.10863239 -0.12671071 0.69025004
0.11225196 -0.12730649 0.69000006
0.11700572 -0.1266021 0.69020003
0.12226458 -0.12660228 0.69020003
0.127369 -0.12649174 0.69055557
0.13285828 -0.12693828 0.69060004
0.13741541 -0.12758726 0.69138461
0.14222571 -0.12773798 0.69137502
0.14738633 -0.12764631 0.69087505
0.15266435 -0.12765804 0.69093752
0.15788573 -0.12762357 0.69075
0.16225863 -0.12735628 0.69027281
0.10875303 -0.12344255 0.69066668
0.112291 -0.12296096 0.69245464
0.11743786 -0.12337358 0.6927501
0.12248148 -0.12379917 0.69266671
0.12747192 -0.12416905 0.69350004
0.13190702 -0.12397873 0.69366676
0.13740417 -0.12419155 0.69362497
0.14242369 -0.12430205 0.69371432
0.14767824 -0.12427634 0.69357151
0.15220803 -0.12408749 0.69357145
0.15725407 -0.12393896 0.69344443
0.1613882 -0.12417562 0.69280005
0.11293525 -0.12088381 0.69550002
0.11781906 -0.12112858 0.69500005
0.12271714 -0.1216581 0.69500011
0.12708573 -0.12179048 0.69500011
0.13292572 -0.12150263 0.69525009
0.1374899 -0.12146229 0.69540018
0.14307383 -0.12154572 0.69550008
0.14745136 -0.12124351 0.69566673
0.15232573 -0.12146229 0.69540012
0.1574388 -0.12169594 0.69500011
0.16084287 -0.12179048 0.69500005
0.11293238 -0.11906691 0.6965
0.11754119 -0.11793054 0.6968236
0.12219042 -0.11754365 0.69681251
0.12749347 -0.11789144 0.6965884
0.1325517 -0.11750143 0.69705564
0.13784985 -0.11837746 0.69700003
0.14238238 -0.11781 0.69730002
0.14729594 -0.11820772 0.69730002
0.15289716 -0.1178011 0.69714284
0.15768714 -0.11816409 0.69626671
0.16063112 -0.11820635 0.69600004
0.12330604 -0.1144508 0.69733334
0.12678765 -0.11483906 0.69700003
0.1125 -0.11650001 0.70000005
0.11666667 -0.11533334 0.70000005
0.13755557 -0.11577778 0.70000005
0.14222223 -0.11577778 0.70000005
0.14768457 -0.11593258 0.70040005
0.15110955 -0.11589964 0.70020002
0.15739025 -0.11537454 0.70025003
0.1608962 -0.1154981 0.70100003
0.11285477 -0.11218622 0.70116681
0.11757412 -0.11222841 0.70143759
0.12268838 -0.11219247 0.70121437
0.12744932 -0.11212581 0.70176935
0.13225417 -0.11258056 0.70185721
0.13742471 -0.11249669 0.70192868
0.14232749 -0.11279017 0.70216674
0.14755158 -0.1124554 0.70285726
0.15250163 -0.11236829 0.70231259
0.15728328 -0.11243883 0.70275015
0.16185297 -0.11304229 0.70400006
0.11341848 -0.108596 0.70300001
0.11803716 -0.1089263 0.70340008
0.12199795 -0.10859128 0.70383334
0.12739049 -0.10928763 0.70400006
0.14884573 -0.10861715 0.70400006
0.15286858 -0.10928763 0.70400006
0.15689144 -0.10928763 0.70400006
0.16292572 -0.10928763 0.70400006
0.1336143 -0.11078572 0.70500004
0.14256668 -0.11078572 0.7050001
0.14570001 -0.11078572 0.70500004
0.16168749 -0.11255716 0.70528573
0.11402636 -0.10640921 0.70566672
0.11731017 -0.10669217 0.7065556
0.12253959 -0.10640922 0.70566666
0.12761094 -0.10743584 0.70607686
0.13243936 -0.10757561 0.70700002
0.13738358 -0.10775084 0.70712501
0.14264619 -0.10765595 0.70649987
0.1469404 -0.10728078 0.7058
0.15216079 -0.10679889 0.70609087
0.15733781 -0.10701034 0.70530772
0.16133827 -0.10815921 0.70683336
0.11379334 -0.10436668 0.70700002
0.11732572 -0.10451429 0.708
0.12267668 -0.10380311 0.70775008
0.12779905 -0.10391525 0.70785719
0.13148573 -0.10406478 0.70800006
0.13777906 -0.10451429 0.70800006
0.14294858 -0.10384002 0.70800006
0.14735715 -0.10394534 0.70779997
0.15238859 -0.10451429 0.708
0.1577823 -0.10415601 0.70740002
0.11492001 -0.10268001 0.71400005
0.11783354 -0.10264402 0.71107143
0.12244795 -0.10147589 0.71033335
0.12721334 -0.10149954 0.7105
0.13298056 -0.10230072 0.71058339
0.13786247 -0.10255008 0.71075004
0.14257608 -0.10153525 0.71142858
0.14769536 -0.10196298 0.711375
0.15247265 -0.10232495 0.71154553
0.15705703 -0.10238275 0.71312505
0.11854668 -0.099506676 0.71400011
0.12269972 -0.098232612 0.71361554
0.12761572 -0.097746678 0.7127502
0.13227502 -0.097677395 0.71225011
0.13723175 -0.098507307 0.71333349
0.14271693 -0.098541841 0.71358347
0.14749113 -0.098553345 0.71366674
0.15215994 -0.09849596 0.7132501
0.15572003 -0.098600015 0.71400011
0.11596541 -0.10092857 0.71766675
0.15820192 -0.10024001 0.71600002
0.11788725 -0.09764763 0.71800005
0.12115176 -0.096603185 0.71600002
0.13779359 -0.096182153 0.71625
0.14219859 -0.095710009 0.7178334
0.14765096 -0.095698819 0.71775001
0.15272748 -0.095734291 0.71728581
0.15751323 -0.096842967 0.7166667
0.11983334 -0.093812384 0.71900004
0.12307128 -0.093419857 0.71761543
0.12742692 -0.092920244 0.7174167
0.13262811 -0.093658261 0.71783328
0.13761348 -0.094052933 0.71785718
0.14227526 -0.09357892 0.71871436
0.14585429 -0.093812384 0.71900004
0.11704724 -0.095915817 0.72040004
0.11794255 -0.092717357 0.72233337
0.12139144 -0.090969123 0.72128588
0.1296 -0.091200009 0.72000003
0.13276497 -0.090751253 0.7208001
0.13729553 -0.09143158 0.72028583
0.14308575 -0.091657147 0.72000003
0.14787023 -0.091893949 0.72154552
0.15240532 -0.092701674 0.72191679
0.15748715 -0.092151724 0.72210008
0.12280687 -0.088977151 0.72200006
0.12781516 -0.088600278 0.72118193
0.13200732 -0.087978102 0.72233337
0.13742547 -0.088013209 0.722
0.14251256 -0.088626169 0.7203638
0.1473543 -0.088825718 0.72300005
0.11647792 -0.09105505 0.72539997
0.15351589 -0.0909127 0.72500008
0.15604763 -0.090452388 0.72500002
0.11786232 -0.0873328 0.72614294
0.12288451 -0.086553082 0.72600001
0.12640025 -0.086338811 0.72525001
0.13326192 -0.086309537 0.72500008
0.13878572 -0.08630953 0.72500002
0.14332359 -0.085993581 0.72525007
0.14773975 -0.086782344 0.72581816
0.15254553 -0.086997621 0.72664285
0.15736431 -0.087324038 0.72607142
0.11802858 -0.084008574 0.72900003
0.12262873 -0.083526514 0.72883338
0.12744136 -0.08288414 0.72646666
0.13249722 -0.083190963 0.72621447
0.13741469 -0.082901098 0.72714287
0.14204632 -0.083075024 0.72646159
0.14739919 -0.08316572 0.72857153
0.15228496 -0.083707809 0.72880006
0.15760288 -0.084008574 0.72900003
0.11858445 -0.082382545 0.73100007
0.12235105 -0.081241526 0.73159999
0.12746033 -0.08009842 0.73133337
0.13236761 -0.080116674 0.73150003
0.13714954 -0.080061913 0.73100007
0.14211905 -0.080116674 0.73150003
0.1475924 -0.080758102 0.73100001
0.15277109 -0.081348933 0.73162502
0.157364 -0.081691787 0.73200005
0.12373143 -0.078992389 0.73400003
0.12757632 -0.077786244 0.732889
0.13269842 -0.077522546 0.73333335
0.13758731 -0.077522539 0.73333335
0.14266606 -0.077964656 0.73311114
0.14778563 -0.077809311 0.7331112
0.1522688 -0.077725716 0.73377782
0.15728572 -0.078293338 0.73400009
0.12932383 -0.0747981 0.73400003
0.11854143 -0.081365243 0.73650002
0.12002572 -0.080719054 0.73700005
0.11903556 -0.078811437 0.73666668
0.1226062 -0.077989526 0.73775005
0.1267644 -0.07622572 0.73700005
0.13248001 -0.07500191 0.73600006
0.13743407 -0.075027384 0.73625004
0.1423578 -0.075736821 0.73633337
0.14709963 -0.075302675 0.73620003
0.15307182 -0.07562381 0.73660004
0.15743566 -0.075660959 0.73657149
0.13239039 -0.072873123 0.73811114
0.13746652 -0.072467186 0.73745459
0.14227526 -0.072425716 0.73833328
0.14764977 -0.07312119 0.73824996
0.15272668 -0.073196203 0.73900002
0.1565823 -0.073296957 0.73860008
0.13794668 -0.069677144 0.73900002
0.11906224 -0.076152384 0.74266672
0.12240493 -0.076032862 0.74150008
0.1261524 -0.075409532 0.74000001
0.1233616 -0.073828265 0.74300003
0.127413 -0.072388381 0.74207145
0.13165835 -0.070947386 0.74125004
0.14447621 -0.071180955 0.74000001
0.14729524 -0.071180955 0.74000001
0.15257144 -0.070869528 0.74166673
0.15645716 -0.071180955 0.74000001
0.12949429 -0.068639055 0.74300003
0.13292383 -0.068582669 0.74240005
0.1372419 -0.067264602 0.7421667
0.1423343 -0.067987084 0.74142861
0.14723651 -0.068018101 0.74266666
0.15242408 -0.068787351 0.74242866
0.1566962 -0.068808958 0.74180001
0.11912255 -0.072704136 0.74600005
0.122122 -0.071877316 0.74590921
0.12629524 -0.070242859 0.74500006
0.12250942 -0.067842744 0.74787503
0.12770538 -0.067373946 0.74609101
0.13268098 -0.065985724 0.74500006
0.14900002 -0.065985717 0.74500006
0.15291411 -0.066588767 0.74540007
0.15559429 -0.066783816 0.74600005
0.12894095 -0.064826667 0.74800003
0.13339303 -0.063847944 0.74766678
0.13724445 -0.06328699 0.74666673
0.14228509 -0.063315883 0.7470001
0.14682493 -0.063804924 0.74716675
0.15031239 -0.064826667 0.74800003
0.12219779 -0.066457465 0.75033343
0.12607144 -0.065357149 0.75000006
0.1307143 -0.065000005 0.75000006
0.15285715 -0.065000005 0.75000006
0.15684573 -0.065173343 0.75200003
0.12334858 -0.063825719 0.75300002
0.12784211 -0.062417906 0.75159997
0.1317845 -0.061961908 0.7502858
0.13671429 -0.061000001 0.75000006
0.14214286 -0.06071429 0.75000012
0.14797036 -0.061576877 0.75057149
0.15239187 -0.06224307 0.75122231
0.15639792 -0.06293162 0.75260007
0.13306081 -0.058527466 0.75250006
0.13763407 -0.057819858 0.75238466
0.14241394 -0.058218934 0.75237501
0.14763334 -0.05876619 0.7525
0.15198407 -0.058785956 0.75275004
0.12253977 -0.06207905 0.75575006
0.12583335 -0.061838098 0.75500005
0.15829524 -0.061878573 0.75550008
0.12488953 -0.059918098 0.75800002
0.12798478 -0.058261588 0.75733334
0.13168992 -0.056849528 0.75560009
0.13661906 -0.055366669 0.75500005
0.14284116 -0.055668958 0.75520009
0.14750239 -0.056122389 0.75550008
0.15279029 -0.056846142 0.75555563
0.15715663 -0.057619479 0.75733328
0.12922096 -0.054142863 0.75800002
0.13283587 -0.052753083 0.75690913
0.13762085 -0.052597146 0.75655562
0.14220344 -0.052731056 0.75640005
0.14702794 -0.052699048 0.75799996
0.1523219 -0.054142863 0.75800002
0.13499621 -0.04981143 0.75800002
0.13788383 -0.049811434 0.75800008
0.14221525 -0.049811434 0.75800008
0.14510287 -0.04981143 0.75800002
0.12304763 -0.060076196 0.76000005
0.12323605 -0.057267781 0.76116675
0.12623937 -0.056722861 0.76033342
0.1592381 -0.057180956 0.76000005
0.16140953 -0.057180956 0.76000005
0.12345191 -0.053737622 0.76250005
0.12785476 -0.052446511 0.76133341
0.13109572 -0.050699528 0.76050007
0.14982858 -0.052114289 0.76000005
0.15255134 -0.051767714 0.76130009
0.13324504 -0.048630346 0.7621429
0.13752168 -0.047415003 0.76300001
0.14223859 -0.047170162 0.76200008
0.14723451 -0.048109211 0.76155561
0.15042001 -0.048686668 0.76300001
0.14460668 -0.04432667 0.76300001
0.1581143 -0.052583344 0.76683348
0.12937859 -0.048242383 0.76750004
0.13192016 -0.046749804 0.76528579
0.13624287 -0.045900002 0.76500005
0.14862859 -0.045900002 0.76500005
0.15265405 -0.047236905 0.76599997
0.15663397 -0.047989212 0.76733339
0.13324827 -0.0440908 0.76733339
0.13753173 -0.043360855 0.76650012
0.14247431 -0.043018289 0.76559997
0.14787006 -0.043514974 0.76700008
0.15266955 -0.044559054 0.76700008
0.1244162 -0.051533334 0.77300006
0.12686801 -0.051306482 0.77180004
0.12875 -0.048556671 0.77250004
0.13302913 -0.042311568 0.77171439
0.13705371 -0.040982861 0.77120006
0.14226668 -0.040333334 0.77000004
0.14784725 -0.04096191 0.77080005
0.15259577 -0.041882753 0.7715556
0.15523572 -0.041199528 0.77250004
0.13472286 -0.039018098 0.77300006
0.13754827 -0.038984448 0.77233338
0.14157882 -0.038612146 0.77225006
0.14567095 -0.038992859 0.77250004
0.12358001 -0.051060002 0.77700001
0.1238981 -0.049707621 0.77900004
0.12760028 -0.047336023 0.77772743
0.13064286 -0.045761909 0.77500004
0.12816232 -0.042649396 0.77785724
0.13180429 -0.042207144 0.77750003
0.13355334 -0.03809429 0.77820003
0.13755001 -0.036975242 0.77649999
0.14289467 -0.03679448 0.77579999
0.14757667 -0.037493337 0.77575004
0.15243886 -0.037737716 0.77700001
0.1553981 -0.037736192 0.77700007
0.1379343 -0.034360003 0.77866668
0.14260614 -0.033983272 0.77814299
0.14726812 -0.034498572 0.77900004
0.12437525 -0.046917465 0.78200006
0.12586477 -0.046917465 0.78200006
0.12768 -0.041066669 0.78400004
0.13074286 -0.040857144 0.78000003
0.12884381 -0.038725719 0.78200006
0.13149048 -0.036928196 0.78180003
0.13430415 -0.034009527 0.78200006
0.15254669 -0.034228578 0.78133339
