# .PCD v0.7 - Point Cloud Data file format
VERSION 0.7
FIELDS x y z
SIZE 4 4 4
TYPE F F F
COUNT 1 1 1
WIDTH 387
HEIGHT 1
VIEWPOINT 0 0 0 1 0 0 0
POINTS 387
DATA ascii
0.12366001 -0.13020286 0.68700004
0.1272081 -0.13048714 0.68850005
0.13104858 -0.13039239 0.68800002
0.14819001 -0.13212572 0.68850005
0.15196857 -0.13185133 0.6887778
0.15744057 -0.13264306 0.6888001
0.16212405 -0.13130739 0.68850005
0.1177862 -0.12894143 0.68900001
0.12191787 -0.12847263 0.68825006
0.12730095 -0.12926953 0.68900001
0.13058192 -0.12926953 0.68900001
0.16327192 -0.12884763 0.68849999
0.11209239 -0.13052097 0.6910001
0.13405715 -0.13077144 0.69000006
0.13813144 -0.13129716 0.69000006
0.14235744 -0.13197325 0.69010007
0.14680573 -0.1310343 0.69000006
0.15442859 -0.13142858 0.69000006
0.15771429 -0.13142858 0.69000006
0.10867191 -0.12675619 0.69050002
0.11247969 -0.12760825 0.69066668
0.11672747 -0.12702936 0.69050002
0.12231714 -0.12626238 0.69050002
0.12757793 -0.12691984 0.69050002
0.13286689 -0.12760334 0.69064295
0.13759957 -0.12775795 0.69230771
0.14244436 -0.12793435 0.69243747
0.14762633 -0.12785311 0.69199997
0.15269478 -0.12810701 0.69235724
0.15754539 -0.12771647 0.69147062
0.16159084 -0.12719798 0.69112498
0.10854138 -0.12338872 0.6907143
0.1123645 -0.12304174 0.69290906
0.11745127 -0.12338874 0.69283336
0.12276065 -0.12341842 0.69300002
0.12738001 -0.12474 0.69300002
0.13185309 -0.12430205 0.69371432
0.13742906 -0.12421405 0.69375002
0.14236915 -0.12465563 0.69400001
0.14739239 -0.12458953 0.69400001
0.15245971 -0.12447938 0.69400001
0.15739335 -0.12461963 0.69380003
0.16115573 -0.12483001 0.69350004
0.11334859 -0.12063906 0.69600004
0.11748858 -0.12093277 0.69540006
0.12245239 -0.12112858 0.69500005
0.12755679 -0.12238973 0.69540018
0.13268669 -0.12208858 0.69544452
0.13767618 -0.12179048 0.69500011
0.14322653 -0.12215017 0.69516677
0.14747925 -0.12170398 0.69554555
0.15185618 -0.12200235 0.69518197
0.15741767 -0.12204991 0.69561553
0.1610743 -0.12196381 0.69600004
0.1125743 -0.11876413 0.69666672
0.11765878 -0.11784735 0.69685721
0.12209053 -0.11763822 0.69694114
0.12734798 -0.11790123 0.69664723
0.13251783 -0.11839225 0.69671428
0.13753515 -0.11883382 0.69630009
0.14229526 -0.11788807 0.69692308
0.14743315 -0.11771052 0.69707698
0.15280378 -0.11736988 0.69710529
0.15780444 -0.11821672 0.69700003
0.16130573 -0.11882191 0.69700003
0.11899239 -0.11367429 0.69800001
0.10748668 -0.11549811 0.70100009
0.11211077 -0.11651611 0.7007001
0.11633334 -0.11566668 0.70000005
0.12400001 -0.11533334 0.70000005
0.12733334 -0.11533334 0.70000005
0.13240001 -0.11560001 0.70000005
0.13733333 -0.116 0.70000005
0.142 -0.11586668 0.70000005
0.14733335 -0.11533334 0.70000005
0.15000001 -0.11533334 0.70000005
0.15839025 -0.11570787 0.70025003
0.16138439 -0.11706705 0.7008
0.10753872 -0.11226963 0.70054549
0.11222036 -0.11221895 0.70137513
0.11746783 -0.11212067 0.70160013
0.12276662 -0.11234466 0.70133346
0.12750499 -0.11217489 0.70207709
0.13243398 -0.11246128 0.70206684
0.13742429 -0.11249669 0.70192879
0.14232731 -0.11278985 0.70216674
0.14743924 -0.1129968 0.70281827
0.15252456 -0.11305326 0.70241678
0.1570161 -0.11298096 0.70288897
0.16001619 -0.11448858 0.70300001
0.11226205 -0.1086245 0.70342863
0.11733334 -0.10928763 0.70400012
0.1213562 -0.10928763 0.70400012
0.16294667 -0.11514001 0.70700002
0.13227144 -0.11078572 0.70500004
0.14256668 -0.11078572 0.7050001
0.1477143 -0.11078572 0.70500004
0.15241431 -0.11078572 0.7050001
0.15789858 -0.11120001 0.70550007
0.16196647 -0.11223376 0.70566666
0.11357747 -0.10730572 0.70566672
0.11725187 -0.1068536 0.70645458
0.12258243 -0.10716075 0.70630765
0.1276423 -0.10773385 0.70613331
0.13263246 -0.10771982 0.70692867
0.13759831 -0.10767893 0.70753342
0.14273399 -0.10772328 0.70693743
0.14753826 -0.10779379 0.70638454
0.15227906 -0.10757723 0.70686662
0.15764454 -0.10778917 0.70737505
0.16182858 -0.1092343 0.708
0.11867429 -0.10451429 0.708
0.12272001 -0.10384002 0.70800006
0.12744001 -0.10384002 0.70800006
0.13013715 -0.10384001 0.708
0.14335315 -0.10424458 0.708
0.14766859 -0.10384002 0.70800006
0.15137714 -0.10417715 0.708
0.11358668 -0.10590857 0.71133339
0.11445929 -0.1039293 0.71325004
0.11766453 -0.10298469 0.71141672
0.1221256 -0.10143335 0.7107144
0.12719178 -0.10148203 0.71037501
0.13280426 -0.10281716 0.71061546
0.13766523 -0.10298776 0.71113342
0.14263889 -0.10230677 0.71227282
0.14735335 -0.10185715 0.71300006
0.15244642 -0.10239031 0.71200019
0.15713163 -0.10349941 0.71200013
0.11849113 -0.099460006 0.71366668
0.12262 -0.098168291 0.71315402
0.12758234 -0.097721018 0.71256274
0.13229096 -0.097689226 0.71233344
0.1370524 -0.098635077 0.71336377
0.1428 -0.098600015 0.71400017
0.14753728 -0.098584458 0.71388894
0.15202256 -0.099006683 0.7136668
0.15572001 -0.099960007 0.71400005
0.12988001 -0.094520003 0.71400005
0.11381405 -0.10185072 0.71775007
0.11612549 -0.10109738 0.71725005
0.15820192 -0.10092191 0.71600002
0.11435524 -0.097236201 0.71900004
0.11724632 -0.097258024 0.71799999
0.12116453 -0.096247867 0.71675003
0.13774477 -0.096489534 0.71600002
0.14174058 -0.096089534 0.71760005
0.14770287 -0.095732391 0.71799999
0.15297441 -0.096569404 0.71787506
0.15764439 -0.097046465 0.71799999
0.16128781 -0.09808667 0.71820009
0.11983334 -0.093812384 0.71900004
0.12329345 -0.093818314 0.71788889
0.12750944 -0.093478017 0.71750003
0.13258515 -0.093628198 0.71759999
0.13744594 -0.093680434 0.71799999
0.14252605 -0.093876302 0.7183333
0.14722382 -0.093812384 0.71900004
0.15954953 -0.093812384 0.71900004
0.11314286 -0.10080001 0.72000003
0.11314286 -0.098742865 0.72000003
0.11862858 -0.095314294 0.72000003
0.12 -0.095314294 0.72000003
0.1529143 -0.095314294 0.72000003
0.15702859 -0.095314294 0.72000003
0.11763386 -0.092268147 0.72154552
0.12201867 -0.091101527 0.72140008
0.12772001 -0.090639055 0.72100008
0.13252668 -0.090639055 0.72100008
0.13651969 -0.091241591 0.72033346
0.14269367 -0.091699362 0.72033334
0.14767431 -0.091625147 0.72120011
0.1524401 -0.09242443 0.72192872
0.15717421 -0.092461638 0.72130007
0.12417239 -0.088366672 0.72300005
0.12789716 -0.088702865 0.72200006
0.13250428 -0.087590002 0.72275007
0.13767372 -0.087883748 0.72206676
0.14239605 -0.088077679 0.72123092
0.14660804 -0.08800368 0.72271436
0.14184573 -0.084694289 0.72300005
0.11582287 -0.090954289 0.72533339
0.1539762 -0.090452388 0.72500002
0.15765874 -0.090452395 0.72500008
0.1181736 -0.087826587 0.72718185
0.12231351 -0.086773261 0.7262308
0.12726358 -0.086511433 0.72524995
0.1323413 -0.086769849 0.72500008
0.14794751 -0.086162463 0.72542864
0.15253146 -0.086988434 0.72657144
0.15716647 -0.087277822 0.72599995
0.12262873 -0.083526514 0.72883338
0.12763163 -0.082811095 0.72721428
0.13250968 -0.083199471 0.72628576
0.13726592 -0.082812183 0.7263571
0.14235027 -0.082853548 0.72638458
0.14771447 -0.083218262 0.72816676
0.15159762 -0.083603807 0.72850001
0.15690857 -0.084008574 0.72900003
0.12983143 -0.079842865 0.72900003
0.11678159 -0.087062865 0.73133337
0.11862154 -0.08321505 0.73180002
0.122334 -0.081230581 0.73150003
0.12740287 -0.080061913 0.73100007
0.1329724 -0.080061913 0.73100007
0.13784572 -0.080061913 0.73100001
0.14278351 -0.08009842 0.73133337
0.14766847 -0.08079917 0.73137504
0.15267459 -0.081564903 0.73200005
0.1567768 -0.082220122 0.73162502
0.12361779 -0.078920648 0.73333335
0.12755674 -0.077618942 0.73277783
0.13259357 -0.077460721 0.73275012
0.1373969 -0.077688336 0.73324996
0.14266606 -0.077964656 0.7331112
0.14698534 -0.077732526 0.7334286
0.1509943 -0.078992389 0.73400003
0.11472096 -0.086568579 0.73900002
0.11617684 -0.086723499 0.73633337
0.11441048 -0.080719054 0.73700005
0.11717421 -0.082347535 0.7367273
0.15491049 -0.08060953 0.73600006
0.15701334 -0.08060953 0.73600006
0.11772715 -0.079071909 0.73800004
0.12239846 -0.077319659 0.73745459
0.12727748 -0.075571433 0.73699999
0.13248001 -0.07500191 0.73600006
0.13780725 -0.075282291 0.73600006
0.1423578 -0.075736836 0.73633337
0.14793478 -0.075719848 0.73616672
0.15256432 -0.076950818 0.73636371
0.15669066 -0.077034891 0.73718184
0.12866502 -0.073473103 0.73825008
0.13254069 -0.072383143 0.73789996
0.13748324 -0.072476283 0.73754549
0.14247583 -0.07229162 0.73839998
0.14698635 -0.072672702 0.73766667
0.15258953 -0.073129535 0.7383334
0.15666801 -0.073336959 0.73900002
0.13724288 -0.069677144 0.73900002
0.1400581 -0.069677144 0.73900002
0.11794573 -0.076980822 0.74157149
0.12109271 -0.075947307 0.74066675
0.12297942 -0.073151082 0.74212503
0.1267181 -0.071611263 0.74181819
0.13038096 -0.071180955 0.74000001
0.14870477 -0.071180955 0.74000001
0.15192938 -0.071260154 0.7408334
0.15575239 -0.071180955 0.74000001
0.12909693 -0.068615481 0.74275005
0.13282709 -0.068128034 0.74185723
0.13747981 -0.06697201 0.74180001
0.14249483 -0.06784983 0.74153858
0.14749049 -0.068441153 0.74240005
0.15233739 -0.069629766 0.74225008
0.15617335 -0.06925334 0.74200004
0.11754286 -0.076224767 0.74800003
0.11918535 -0.073442481 0.74580008
0.12169279 -0.071148574 0.74600011
0.12391263 -0.068365484 0.74774998
0.12733185 -0.067178845 0.74600005
0.13126191 -0.065985717 0.74500006
0.14758095 -0.065985717 0.74500006
0.15287954 -0.067294292 0.74575007
0.15566382 -0.067524135 0.74633336
0.12894095 -0.064114287 0.74800003
0.13202201 -0.063592099 0.74690008
0.13749966 -0.063774407 0.7461251
0.14259264 -0.062938973 0.74675006
0.14706555 -0.062767714 0.74663639
0.1512724 -0.063580684 0.7477144
0.1172981 -0.075100005 0.75100005
0.11817145 -0.072335243 0.75200003
0.11915287 -0.067813814 0.75216675
0.12198706 -0.066927619 0.75080001
0.12607144 -0.065357149 0.75000006
0.15670794 -0.065115564 0.75133342
0.12334858 -0.063825719 0.75300002
0.12737906 -0.062257905 0.75139999
0.13258715 -0.061111908 0.75050008
0.13704084 -0.061326541 0.75000012
0.14214286 -0.06071429 0.75000012
0.14928572 -0.06071429 0.75000006
0.15283716 -0.061620004 0.75060004
0.15592691 -0.062012147 0.75275004
0.12908572 -0.05952286 0.75300002
0.13306081 -0.058527466 0.75250006
0.13761993 -0.057814218 0.75230771
0.14234263 -0.05818953 0.75199997
0.14725378 -0.058470692 0.75177777
0.1524462 -0.058687784 0.75150007
0.15520668 -0.058648575 0.75100005
0.12204726 -0.062318485 0.75560009
0.12583335 -0.06111905 0.75500005
0.15829524 -0.063317627 0.75550008
0.12344572 -0.059918098 0.75800008
0.12760814 -0.057915244 0.75699997
0.13182276 -0.056518 0.75544453
0.13661906 -0.055366669 0.75500005
0.14284115 -0.055668958 0.75520009
0.14780955 -0.055985909 0.75560009
0.15233226 -0.056262322 0.7560001
0.15603431 -0.056017783 0.7573334
0.12922096 -0.054142863 0.75800002
0.13286684 -0.052766066 0.75709093
0.1376413 -0.052605085 0.75666666
0.14198658 -0.052612804 0.75677776
0.14726287 -0.052804332 0.75763637
0.15113953 -0.053024288 0.75750005
0.1335524 -0.049811434 0.75800008
0.13716191 -0.04981143 0.75800002
0.14510287 -0.04981143 0.75800002
0.1233223 -0.057529528 0.76080006
0.12608764 -0.056601908 0.76000005
0.12818696 -0.052493241 0.76130003
0.13100953 -0.05139048 0.76000005
0.13987906 -0.050008576 0.76100004
0.14205334 -0.050008576 0.76100004
0.14703001 -0.050699528 0.76050007
0.15333894 -0.051870618 0.76100004
0.13280764 -0.049105402 0.76200002
0.13704935 -0.048105337 0.76300001
0.14276792 -0.047927529 0.76250005
0.14773779 -0.048841909 0.76166672
0.15042001 -0.048686668 0.76300001
0.12312858 -0.056100003 0.76500005
0.12431588 -0.054251116 0.76633334
0.12637192 -0.052228101 0.76700008
0.15762287 -0.050834291 0.76800001
0.16018286 -0.051931433 0.76800001
0.12946287 -0.049005717 0.76800001
0.13245097 -0.047433335 0.76625007
0.13747905 -0.04621543 0.76540011
0.14207146 -0.045900002 0.76500005
0.14819145 -0.046482857 0.76500005
0.15285312 -0.047298573 0.76700002
0.15684073 -0.048259288 0.76775002
0.13385144 -0.044617146 0.76800001
0.13790619 -0.044100478 0.76750004
0.1428324 -0.043924358 0.76685721
0.14748631 -0.043997146 0.76740009
0.15286858 -0.044617146 0.76800001
0.15881144 -0.055142861 0.77200001
0.16101715 -0.055142861 0.77200001
0.12364715 -0.05209953 0.77050006
0.12725049 -0.050753336 0.77233338
0.15842986 -0.05313715 0.7713334
0.16101715 -0.053672384 0.77200001
0.12404811 -0.048220482 0.77300006
0.12732393 -0.047838416 0.77277786
0.13056985 -0.046790164 0.77166671
0.15693334 -0.047666669 0.77000004
0.12425525 -0.04337905 0.77200001
0.12687048 -0.043621499 0.7725715
0.13342346 -0.042635836 0.77187502
0.13717215 -0.041683096 0.77125001
0.14245144 -0.04111905 0.77099997
0.14788383 -0.041456334 0.77142864
0.15228859 -0.043028384 0.77100009
0.13454857 -0.038967621 0.77200001
0.13790214 -0.038612142 0.77225
0.14199287 -0.038256668 0.77250004
0.14576572 -0.039018098 0.77300006
0.12252381 -0.050928574 0.77500004
0.13064286 -0.045023814 0.77500004
0.128612 -0.041586481 0.77700001
0.13166255 -0.042160641 0.77666676
0.1528843 -0.041359529 0.77550006
0.15580001 -0.040804766 0.77900004
0.12884414 -0.038826354 0.77900004
0.13272882 -0.03794881 0.77750003
0.13712043 -0.036839325 0.77585721
0.1424524 -0.036166668 0.77500004
0.14736371 -0.037288301 0.77642858
0.15203145 -0.038330954 0.77775007
0.15559906 -0.038528573 0.778
0.13781621 -0.034330167 0.77800006
0.14260614 -0.033983272 0.77814287
0.1471743 -0.034476191 0.77850002
0.13091049 -0.036445718 0.78100002
0.15340763 -0.035934608 0.78066671
0.15565525 -0.036493335 0.78200006
0.13397096 -0.034235716 0.78149998
0.13789907 -0.031801909 0.7826668
0.14770859 -0.03301651 0.78200006
0.15183477 -0.034235716 0.78149998
0.13100001 -0.03518286 0.78600001
