# .PCD v0.7 - Point Cloud Data file format
VERSION 0.7
FIELDS x y z
SIZE 4 4 4
TYPE F F F
COUNT 1 1 1
WIDTH 354
HEIGHT 1
VIEWPOINT 0 0 0 1 0 0 0
POINTS 354
DATA ascii
0.24877906 -0.030065717 0.61900002
0.24818954 -0.028886668 0.61900002
0.20918858 -0.033874288 0.62400001
0.21303622 -0.030688575 0.6236667
0.2176827 -0.030250287 0.62280005
0.22300455 -0.03024786 0.62275004
0.22606002 -0.030260002 0.62300003
0.23852001 -0.030853335 0.62300003
0.2421246 -0.030192003 0.62160003
0.24504763 -0.030114288 0.62
0.21326311 -0.028811194 0.62375003
0.21762745 -0.028882286 0.62400001
0.2227917 -0.028139051 0.62381822
0.22780113 -0.02792066 0.62376928
0.23338045 -0.027002225 0.62388891
0.23770046 -0.027375134 0.62273693
0.24267806 -0.02714123 0.62194115
0.24759799 -0.02709534 0.62063152
0.25214192 -0.02695105 0.62059999
0.23762943 -0.023856331 0.62400001
0.24251154 -0.023395715 0.62350005
0.24721996 -0.022868734 0.62283337
0.25136447 -0.0227054 0.62200004
0.24722287 -0.019611429 0.62400001
0.19407144 -0.030454287 0.62700003
0.19768409 -0.031056289 0.62709999
0.20270479 -0.031001907 0.62599999
0.20730814 -0.031572387 0.62549996
0.21128492 -0.031909935 0.62542862
0.19407144 -0.02866286 0.62700003
0.19769776 -0.027847037 0.62830782
0.20243125 -0.027467718 0.62700003
0.20761891 -0.027443517 0.62643754
0.21218267 -0.027171228 0.62607145
0.21756668 -0.026628064 0.62561542
0.22208272 -0.026197305 0.62516665
0.22726193 -0.025833337 0.625
0.23154764 -0.025892859 0.625
0.20307717 -0.024560954 0.62900007
0.20758519 -0.024185173 0.62814295
0.2127254 -0.023563117 0.62854558
0.21764769 -0.02278598 0.62783325
0.22254579 -0.022700539 0.62731248
0.22751017 -0.022689627 0.62700015
0.23244712 -0.022558823 0.6262942
0.23725621 -0.022046668 0.62566668
0.24220181 -0.021182993 0.62528574
0.24940477 -0.020833334 0.625
0.25059524 -0.020833334 0.625
0.22344479 -0.019768573 0.62900007
0.22792459 -0.019522669 0.62880003
0.23255897 -0.01880067 0.62870008
0.23722163 -0.018385179 0.6278125
0.24249333 -0.017811028 0.62673682
0.24710722 -0.017783945 0.62542862
0.25059524 -0.01904762 0.625
0.24297738 -0.014293123 0.62822229
0.24616615 -0.013897553 0.62671435
0.19731271 -0.026241589 0.63100004
0.19828747 -0.022900797 0.6328333
0.20234479 -0.02263226 0.63162506
0.20766623 -0.021919571 0.63136369
0.21253686 -0.02143397 0.63100004
0.21574192 -0.021033335 0.63100004
0.19986096 -0.019925715 0.634
0.20299299 -0.01894724 0.6336
0.20744388 -0.018089702 0.63318747
0.21239808 -0.018155238 0.63215798
0.21773829 -0.018067323 0.63243759
0.22242531 -0.017530536 0.63206249
0.22732086 -0.016743699 0.6319412
0.23222074 -0.016135637 0.63141668
0.23792046 -0.015480478 0.63125002
0.22814929 -0.013882143 0.63374996
0.23286194 -0.012572381 0.6333077
0.23747848 -0.012053452 0.63287503
0.24238735 -0.011837726 0.63205558
0.24639049 -0.010817144 0.63100004
0.23910859 -0.0090571437 0.634
0.24310306 -0.0090485727 0.63339996
0.24659082 -0.0086136516 0.63100004
0.19818796 -0.017435597 0.63687503
0.20179367 -0.016437463 0.63533342
0.20703018 -0.015320636 0.63500005
0.21287622 -0.015119049 0.63500005
0.21771431 -0.015119049 0.63500005
0.22194764 -0.015119049 0.63500011
0.20269553 -0.013092902 0.63809097
0.20741598 -0.012101794 0.637353
0.2124587 -0.012137976 0.637375
0.21759863 -0.012269949 0.63722229
0.22268182 -0.01198402 0.63633341
0.22749788 -0.011688353 0.63569242
0.23194668 -0.010689525 0.63533336
0.22345394 -0.0080617862 0.63887501
0.22749877 -0.008150572 0.63870001
0.23257481 -0.0081023816 0.63816673
0.23710124 -0.0070726457 0.63672233
0.24263634 -0.0066554928 0.63533348
0.24662192 -0.0068942863 0.63500005
0.23795144 -0.0042600008 0.63900006
0.24282256 -0.0034086455 0.63753849
0.24613811 -0.0042333337 0.63500005
0.19831896 -0.012362945 0.64036363
0.20184222 -0.011063131 0.64028579
0.20540954 -0.010361905 0.64000005
0.19917096 -0.0091642868 0.6415
0.20271707 -0.0083128577 0.64189994
0.20732129 -0.0072951824 0.64170593
0.21230538 -0.0073288102 0.6415
0.217328 -0.0072210659 0.6415295
0.22167671 -0.0068093659 0.64033335
0.22796193 -0.005892064 0.6400001
0.2324724 -0.005729524 0.64000005
0.20914668 -0.0042933337 0.64400005
0.21160002 -0.0042933337 0.64400005
0.21773335 -0.0042933337 0.64400005
0.22291473 -0.0038744977 0.64244443
0.22747239 -0.0027915644 0.64157146
0.23231074 -0.0023721165 0.64116675
0.23750661 -0.0019111749 0.64086676
0.24217002 -0.001219524 0.64050007
0.23490669 0.00061333337 0.64400005
0.23797335 0.00061333337 0.64400005
0.24243858 0.0010211112 0.64283341
0.19979763 -0.0073766671 0.64550006
0.20225573 -0.0059935725 0.6455
0.20312639 -0.0035740004 0.64709997
0.20739414 -0.002306012 0.64618748
0.21251883 -0.0023355556 0.64580011
0.21732172 -0.0019314967 0.64564294
0.22226365 -0.0015975239 0.64539999
0.22667144 -0.00061428582 0.6450001
0.20921144 0.00061714288 0.648
0.21250288 0.0010285715 0.648
0.21765469 0.0015421429 0.64741659
0.22285508 0.0022606349 0.64699996
0.22774613 0.0025743416 0.64682347
0.23251478 0.0024620236 0.64587504
0.23735939 0.0030755557 0.64566666
0.24219535 0.003323714 0.64609998
0.23241603 0.0058011436 0.648
0.23712164 0.0060978839 0.64744455
0.24076733 0.0063742865 0.64766669
0.1994862 -0.0024766668 0.65050006
0.20206226 -0.0015207792 0.65063643
0.20351765 0.00093238102 0.65250003
0.20744854 0.0023272026 0.6511876
0.21244161 0.0034068259 0.6503334
0.21769844 0.0039206352 0.6500001
0.22161907 0.0043333336 0.65000004
0.20896001 0.0055971434 0.65300006
0.2126084 0.0064183073 0.65211111
0.21736136 0.0068326197 0.6520834
0.22238851 0.006719741 0.65209097
0.22760215 0.0070614284 0.65162498
0.23249874 0.0082516493 0.65100002
0.23776037 0.0086684525 0.65012503
0.24301597 0.0077125556 0.65018195
0.23328967 0.011456192 0.65271437
0.23749559 0.011585715 0.65166664
0.24152298 0.011928678 0.6515556
0.2022875 0.0027689799 0.65614289
0.20564923 0.0039507942 0.65500009
0.20379315 0.0061379052 0.65760005
0.20733717 0.0076250168 0.65613335
0.21203125 0.0085317465 0.6554445
0.21716787 0.0093607148 0.65525007
0.22220097 0.0091076195 0.65500003
0.22685876 0.0093571432 0.65500009
0.20886688 0.011151428 0.65780008
0.21293274 0.012394289 0.65720004
0.21770678 0.01251357 0.65687501
0.2225842 0.01250631 0.65650004
0.2273263 0.012491907 0.65575004
0.2318186 0.012903018 0.65550005
0.23728345 0.01412 0.65600002
0.24016668 0.01434762 0.65500003
0.22918525 0.015654763 0.65750003
0.23303258 0.01590305 0.65740007
0.23764998 0.017488739 0.65717643
0.24016668 0.01621905 0.65500003
0.23813334 0.020680001 0.65800005
0.24001335 0.021306667 0.65800005
0.19890001 0.0088400003 0.66300005
0.20208721 0.0079579176 0.66181248
0.20554288 0.0088 0.66000003
0.20403503 0.011037381 0.66225004
0.20732982 0.012834873 0.66107696
0.21099049 0.014038096 0.66000003
0.2093181 0.015761906 0.66200006
0.21260858 0.016778789 0.66136372
0.21748428 0.017513715 0.66140008
0.22240983 0.017644107 0.66156256
0.22748601 0.017893838 0.66123539
0.23255958 0.018355932 0.66045457
0.2357143 0.018857144 0.66000003
0.2228943 0.020837145 0.66300005
0.22878765 0.021258097 0.66300005
0.23248182 0.021377463 0.66233343
0.23745751 0.022676533 0.66135716
0.2408089 0.024144132 0.66133338
0.23931144 0.025888573 0.66300005
0.2405743 0.026520003 0.66300005
0.20300059 0.012787858 0.66574997
0.20662144 0.01457762 0.66550004
0.20812599 0.017147446 0.6668182
0.21190366 0.019245241 0.66616666
0.21549478 0.019648097 0.66550004
0.20962001 0.021025715 0.66900003
0.21340157 0.022120599 0.66837502
0.21726455 0.02274017 0.66647059
0.22229125 0.022903752 0.6656875
0.22726552 0.023180073 0.66549999
0.23260762 0.024085239 0.66549999
0.23635113 0.024712382 0.66533339
0.21854001 0.026122859 0.66900003
0.22298658 0.026635515 0.66814297
0.22742747 0.02722312 0.6675455
0.23220858 0.026880238 0.66799998
0.23716621 0.02747082 0.66635716
0.24021381 0.027888097 0.66550004
0.20257811 0.014698097 0.671
0.20351849 0.017793717 0.67200005
0.20667183 0.018776953 0.67060006
0.20433971 0.021610796 0.67400002
0.20763895 0.022730736 0.67166662
0.21194182 0.023875717 0.67030001
0.2087843 0.026298573 0.6735
0.21256755 0.027393334 0.6717273
0.21695545 0.027727244 0.67080003
0.22168653 0.028296035 0.67016667
0.22524764 0.028714288 0.67000002
0.23290478 0.02871429 0.67000002
0.23673336 0.029565081 0.67000002
0.21867177 0.030139685 0.67333335
0.22240955 0.030766668 0.67299998
0.22713812 0.03111486 0.67220002
0.23285668 0.031154113 0.67254543
0.23726752 0.031882502 0.67287505
0.20178822 0.018648764 0.67519999
0.20271337 0.022703812 0.67625004
0.20507145 0.023785716 0.67500001
0.20349875 0.02584159 0.6783334
0.2071474 0.027413774 0.67661542
0.21085715 0.028928574 0.67500001
0.20936525 0.031017143 0.67850006
0.21240799 0.032154046 0.676875
0.21709198 0.032558605 0.67560005
0.22251146 0.03344119 0.67525011
0.22762716 0.033651274 0.67516673
0.23228574 0.033642858 0.67500007
0.2372143 0.034071431 0.67500007
0.21404669 0.035566669 0.67900002
0.21741962 0.036098506 0.67857146
0.2224163 0.036435496 0.67763644
0.22763662 0.036794048 0.67775005
0.23277208 0.036789525 0.67766678
0.23768084 0.036384609 0.67816675
0.20387501 0.028569289 0.68175006
0.20529525 0.028495241 0.68000001
0.20439859 0.030594762 0.68350005
0.20827515 0.032270901 0.68222225
0.2104762 0.034323812 0.68000001
0.21280329 0.0369155 0.68218184
0.21749461 0.038802769 0.6813001
0.2225651 0.03907302 0.68000001
0.22796193 0.039504763 0.68000001
0.23249525 0.039504763 0.68000001
0.23789063 0.038459867 0.68114293
0.21812162 0.041020006 0.68366671
0.22256032 0.042015713 0.68290013
0.22755542 0.04226191 0.68266672
0.23254175 0.042009521 0.68280005
0.23612212 0.042282477 0.68300003
0.20348287 0.02944286 0.68700004
0.20413715 0.031405717 0.68700004
0.20735726 0.033551786 0.68737507
0.20927168 0.037009291 0.6877501
0.21173356 0.038972761 0.68660015
0.20932478 0.040027622 0.68900001
0.21323943 0.041928217 0.68787503
0.21697377 0.042930163 0.68644446
0.22148001 0.043446671 0.68600005
0.23454668 0.043773334 0.68600005
0.21851945 0.045749526 0.6882
0.22261858 0.046227332 0.68750012
0.22747414 0.046500951 0.68766683
0.23260954 0.045867622 0.68800008
0.23688477 0.045277145 0.68900001
0.20574257 0.034473971 0.69166672
0.20700972 0.037666846 0.69163638
0.20804001 0.042202622 0.69237494
0.21211699 0.043528385 0.69040006
0.21339034 0.046735071 0.69290906
0.2171078 0.047967624 0.69150007
0.22178286 0.048871428 0.69033337
0.22737144 0.049285717 0.69000006
0.23236462 0.048711278 0.69116676
0.23718455 0.048163101 0.69274998
0.21861716 0.05118715 0.69350004
0.22233763 0.051462147 0.69274998
0.22713859 0.051840287 0.6925
0.23248813 0.051517308 0.69350004
0.23701754 0.051422101 0.69400001
0.20560096 0.04275116 0.69671434
0.20894858 0.046102386 0.69650006
0.2119718 0.048598457 0.69662505
0.23894763 0.048319049 0.69500005
0.24027145 0.048319049 0.69500005
0.21456429 0.051814765 0.69749999
0.21690075 0.052661378 0.69600004
0.22240001 0.053614289 0.69500005
0.22782765 0.054408576 0.69500011
0.23338762 0.053349532 0.69500011
0.23696193 0.053614289 0.69500005
0.21862787 0.05548786 0.69775003
0.22242497 0.056907937 0.69749999
0.22696991 0.057573263 0.69730777
0.23237476 0.057098217 0.69712508
0.23598431 0.056091908 0.69700003
0.22801335 0.06082572 0.69800001
0.23140402 0.060937714 0.69700003
0.20760997 0.047499262 0.70244449
0.21030001 0.048736192 0.70100003
0.2090079 0.051606264 0.70371431
0.21234825 0.052420482 0.7017858
0.21533334 0.054000005 0.70000005
0.21309705 0.056290124 0.70362502
0.21717431 0.057928715 0.70257151
0.2209805 0.059084766 0.70100003
0.22321978 0.060818337 0.70175004
0.22753048 0.062460959 0.7026667
0.23065716 0.062847622 0.70200002
0.20612858 0.048342861 0.70500004
0.20690948 0.052854363 0.70661545
0.20828024 0.056283101 0.70774996
0.21214764 0.058470376 0.70566666
0.21105145 0.060011432 0.708
0.21778323 0.061936554 0.70687509
0.22219527 0.063089855 0.70722228
0.22665645 0.06365262 0.70725
0.20836611 0.057812195 0.71080005
0.21029525 0.058828574 0.71000004
0.21341002 0.062430002 0.7125001
0.21658257 0.063847624 0.71066666
0.2180545 0.066602014 0.71277785
0.22210231 0.067038499 0.71100003
0.22719006 0.067142427 0.71209103
0.23071286 0.066501431 0.71250004
0.22190669 0.07049334 0.71400011
0.21213165 0.063162476 0.71620005
0.21373287 0.066578574 0.71700001
0.23558573 0.066919997 0.71700001
