# .PCD v0.7 - Point Cloud Data file format
VERSION 0.7
FIELDS x y z
SIZE 4 4 4
TYPE F F F
COUNT 1 1 1
WIDTH 373
HEIGHT 1
VIEWPOINT 0 0 0 1 0 0 0
POINTS 373
DATA ascii
-0.11551049 -0.27676001 0.81400001
-0.11396001 -0.27676001 0.81400001
-0.13182001 -0.27534002 0.81900007
-0.12698478 -0.27578196 0.81800008
-0.12231049 -0.27578196 0.81800002
-0.11781144 -0.27566478 0.81650001
-0.11296096 -0.27578193 0.81800002
-0.10998001 -0.27534002 0.81900007
-0.10105811 -0.27563465 0.81833339
-0.097321436 -0.27600288 0.8175
-0.092593342 -0.27622384 0.81700009
-0.087854296 -0.27599844 0.81633341
-0.082724229 -0.27659938 0.81614292
-0.078633815 -0.27600098 0.81750005
-0.13156 -0.27248004 0.81900012
-0.12812699 -0.27314794 0.81866682
-0.12285001 -0.27339002 0.81900007
-0.11717103 -0.27339691 0.81785721
-0.11304402 -0.27364552 0.81860012
-0.10998001 -0.273 0.81900007
-0.10114001 -0.27326 0.81900012
-0.097435422 -0.27260429 0.81845462
-0.09270668 -0.27266482 0.8180002
-0.087444261 -0.27262044 0.81833363
-0.082077883 -0.27297315 0.81838477
-0.078000009 -0.273 0.81900007
-0.13338001 -0.26910001 0.81900007
-0.091260009 -0.26910001 0.81900007
-0.08736001 -0.26910001 0.81900007
-0.081900008 -0.26910001 0.81900012
-0.10712096 -0.27601239 0.82100004
-0.10399334 -0.27601239 0.82100004
-0.13266319 -0.27236351 0.82100004
-0.12666857 -0.27210289 0.82100004
-0.1224463 -0.27194652 0.82100004
-0.11801501 -0.27106312 0.82200003
-0.11311557 -0.27184224 0.82100004
-0.10712096 -0.27288479 0.82100004
-0.1029508 -0.27236351 0.82100004
-0.078190476 -0.27132097 0.82100004
-0.13120364 -0.26850614 0.82100004
-0.12750192 -0.26751909 0.82133335
-0.12293287 -0.26779005 0.82216668
-0.11992286 -0.26806289 0.82300001
-0.11199398 -0.26862764 0.82233334
-0.10729462 -0.26784417 0.82233334
-0.10257509 -0.26778975 0.82216668
-0.097837619 -0.26768115 0.82183337
-0.092991278 -0.26723576 0.82166672
-0.087378956 -0.26683041 0.82118195
-0.082144879 -0.26677305 0.82144451
-0.0782381 -0.26757288 0.8215
-0.12619334 -0.26100859 0.82300001
-0.10738191 -0.26414382 0.82300001
-0.10424668 -0.26414382 0.82300001
-0.091705725 -0.26414382 0.82300007
-0.087340958 -0.26359144 0.82250005
-0.082300007 -0.26414382 0.82300007
-0.12021429 -0.26635715 0.82500005
-0.11714238 -0.26730338 0.82549995
-0.11235715 -0.26635715 0.82500005
-0.077186674 -0.26542765 0.82700002
-0.12684038 -0.26265165 0.82620001
-0.12230001 -0.26319453 0.82684618
-0.11754445 -0.26269874 0.82833338
-0.11269763 -0.26322052 0.8275001
-0.10785202 -0.26246271 0.82660007
-0.1023192 -0.26254436 0.82642859
-0.096993342 -0.26290208 0.82592314
-0.092027627 -0.26192349 0.82588899
-0.087043814 -0.26152527 0.82524997
-0.082633346 -0.26206446 0.8263334
-0.078130677 -0.26259103 0.82700008
-0.12711334 -0.25975335 0.82900012
-0.12198143 -0.25935858 0.82900006
-0.11763906 -0.25896382 0.82900012
-0.11329667 -0.25935858 0.82900006
-0.10703688 -0.25907663 0.82900012
-0.10184859 -0.25896382 0.82900012
-0.096885853 -0.25862548 0.82900012
-0.092318892 -0.25722843 0.82850003
-0.087496512 -0.25696921 0.82766688
-0.082934462 -0.25725934 0.82790923
-0.07836096 -0.25853595 0.82871443
-0.084479056 -0.25343716 0.82900006
-0.12783715 -0.25805211 0.83200002
-0.12309072 -0.25747931 0.8325001
-0.11734239 -0.25688526 0.8325001
-0.11177049 -0.25762573 0.83233345
-0.10692921 -0.25662798 0.83166671
-0.10217619 -0.25662798 0.83166665
-0.097709909 -0.25638765 0.83140004
-0.081517145 -0.25563145 0.83100003
-0.078034863 -0.2562646 0.83100003
-0.12900287 -0.25325716 0.83100003
-0.12296668 -0.25402534 0.83300012
-0.11741334 -0.25386667 0.83300012
-0.11186002 -0.2538667 0.83300012
-0.10868667 -0.25466001 0.83300006
-0.097125724 -0.25411049 0.83250004
-0.092708573 -0.25356099 0.83200002
-0.088456675 -0.25426334 0.83300006
-0.082308576 -0.25404859 0.83100003
-0.078351438 -0.25404859 0.83100003
-0.12739715 -0.25654384 0.83500004
-0.10656191 -0.25527143 0.83500004
-0.10258573 -0.25527143 0.83500004
-0.12697302 -0.25315082 0.83500004
-0.12261238 -0.25159448 0.83600008
-0.11694732 -0.25139523 0.83533335
-0.11212858 -0.25129527 0.83500004
-0.1073853 -0.25215712 0.83522224
-0.10269451 -0.2523576 0.83588886
-0.097681336 -0.25177413 0.83659995
-0.092467442 -0.25109774 0.83700001
-0.087209791 -0.25207335 0.83590919
-0.081974931 -0.25229049 0.83566666
-0.077933341 -0.25209051 0.83500004
-0.12149849 -0.24858497 0.83820009
-0.11716058 -0.2478869 0.838
-0.11223849 -0.2475903 0.83700007
-0.10780632 -0.24743804 0.83736372
-0.10291304 -0.24730955 0.83766669
-0.098555245 -0.24758554 0.8386001
-0.090292387 -0.24690573 0.83900011
-0.086876109 -0.24727076 0.83827281
-0.08220382 -0.24740766 0.83800006
-0.078448579 -0.24784128 0.83766669
-0.10614667 -0.2442162 0.83800006
-0.10307716 -0.24370953 0.83900011
-0.090292387 -0.24370953 0.83900005
-0.087096199 -0.24370953 0.83900011
-0.082301915 -0.24370953 0.83900011
-0.07910572 -0.24370953 0.83900005
-0.12201175 -0.24642637 0.84100002
-0.11854096 -0.24589239 0.84100002
-0.11373524 -0.24589239 0.84100002
-0.095713817 -0.24709381 0.84100002
-0.092910491 -0.24749431 0.84100002
-0.12123144 -0.24246287 0.84300005
-0.11815295 -0.2428865 0.84280008
-0.11282057 -0.24339308 0.84185719
-0.1076846 -0.24212687 0.8420909
-0.10202018 -0.24188773 0.8422727
-0.097106993 -0.24236605 0.8426668
-0.092414819 -0.24208583 0.84245467
-0.087442227 -0.24146761 0.84233338
-0.082628898 -0.24146761 0.84233332
-0.07942 -0.24146764 0.84233332
-0.090722866 -0.23844859 0.84300005
-0.12312858 -0.2454524 0.84500003
-0.12312858 -0.24384287 0.84500003
-0.11639024 -0.24123977 0.84575003
-0.11236501 -0.24123979 0.84575003
-0.10864286 -0.24062383 0.84500003
-0.12033524 -0.23905525 0.84800005
-0.11193601 -0.23921679 0.84800005
-0.10706894 -0.23813131 0.84687501
-0.10225637 -0.23727559 0.84663635
-0.097711101 -0.23727559 0.84663635
-0.092872031 -0.23751751 0.84612507
-0.087843627 -0.23741715 0.84620011
-0.082988583 -0.2376838 0.84600002
-0.079765722 -0.23768383 0.84600008
-0.094491437 -0.23340192 0.84800005
-0.11738096 -0.2404286 0.85000008
-0.11748416 -0.23710531 0.85181826
-0.1128313 -0.23688628 0.85057151
-0.10807143 -0.2359762 0.85000002
-0.10442858 -0.23557144 0.85000002
-0.09633334 -0.23557144 0.85000002
-0.093095243 -0.23557144 0.85000008
-0.08715874 -0.23557144 0.85000008
-0.081761912 -0.23557144 0.85000008
-0.078523815 -0.23557144 0.85000002
-0.11630668 -0.23261335 0.85400003
-0.11283325 -0.23268506 0.85345459
-0.10802588 -0.23229387 0.85283345
-0.10281979 -0.23192018 0.85215396
-0.097738102 -0.23197465 0.85166681
-0.092368662 -0.23184368 0.85145468
-0.087148286 -0.23237675 0.85153854
-0.081970006 -0.23211163 0.85216683
-0.078847148 -0.23247573 0.85350007
-0.10817334 -0.22854668 0.85400003
-0.10492001 -0.22854668 0.85400003
-0.095973343 -0.22854668 0.85400003
-0.092258573 -0.22881858 0.85350007
-0.087534294 -0.22818571 0.85366672
-0.08296001 -0.22854668 0.85400003
-0.12012001 -0.23288575 0.85800004
-0.11780191 -0.23193526 0.85600007
-0.11494858 -0.2307124 0.85600007
-0.11698715 -0.22764477 0.85749996
-0.11240508 -0.22780445 0.8573333
-0.1072079 -0.22736356 0.85742861
-0.10203704 -0.2277454 0.8571111
-0.097312123 -0.2271369 0.8565715
-0.092121914 -0.22663622 0.85600007
-0.086822867 -0.22622859 0.85600007
-0.08213307 -0.22706097 0.85628581
-0.079139695 -0.22762732 0.85666674
-0.11685143 -0.22430572 0.85800004
-0.11276572 -0.22471429 0.85800004
-0.10541143 -0.22471429 0.85800004
-0.10214286 -0.22471429 0.85800004
-0.096422866 -0.22308002 0.85799998
-0.092288889 -0.22296363 0.85755551
-0.087561667 -0.22308834 0.85724998
-0.082531437 -0.22389716 0.85799998
-0.07926286 -0.22389716 0.85800004
-0.11057144 -0.22523811 0.86000001
-0.10811429 -0.22523811 0.86000001
-0.10238096 -0.22523811 0.86000001
-0.09910477 -0.22523811 0.86000001
-0.11688981 -0.22196192 0.86000013
-0.11232509 -0.2221901 0.86088896
-0.1074616 -0.22230478 0.86133343
-0.10248721 -0.2221901 0.86088896
-0.098168008 -0.22140916 0.86040002
-0.092552394 -0.22032385 0.86000001
-0.087278575 -0.22086143 0.86049998
-0.082820013 -0.22139905 0.86100006
-0.079540007 -0.22139907 0.86100006
-0.11643906 -0.21812001 0.86100006
-0.11288096 -0.21878383 0.86200005
-0.10754477 -0.21919429 0.86200011
-0.10261905 -0.21837334 0.86200011
-0.097656205 -0.2182886 0.86166668
-0.093123339 -0.21865667 0.86150002
-0.088662863 -0.21919429 0.86200005
-0.081274293 -0.21919429 0.86200005
-0.079632387 -0.21919429 0.86200005
-0.11586668 -0.21683621 0.86900002
-0.11232881 -0.21701668 0.86725008
-0.10786905 -0.21717952 0.8662501
-0.10309525 -0.21608669 0.86600012
-0.098146677 -0.21608669 0.86600012
-0.092436194 -0.21673127 0.86660004
-0.087017067 -0.2176564 0.8671819
-0.08240515 -0.21765523 0.8670001
-0.079909526 -0.21830954 0.86500007
-0.11007334 -0.21435335 0.86900002
-0.10676286 -0.21393955 0.86900002
-0.10179716 -0.21352574 0.86900008
-0.097245246 -0.21393955 0.86900002
-0.092279531 -0.21393955 0.86900002
-0.085244767 -0.21435335 0.86900002
-0.081934288 -0.21435337 0.86900008
-0.11696286 -0.21650572 0.87100005
-0.11626667 -0.21426192 0.87200004
-0.11202794 -0.21354511 0.87133348
-0.10716215 -0.21162336 0.87225008
-0.10256524 -0.21135573 0.8720001
-0.096537791 -0.21188542 0.87133348
-0.091662996 -0.21166629 0.8715716
-0.087325908 -0.21250306 0.87160015
-0.082185723 -0.21168923 0.87166679
-0.10199977 -0.20836027 0.87250006
-0.097479373 -0.20880508 0.87233341
-0.093481913 -0.20856813 0.87250006
-0.082311437 -0.20868859 0.87300003
-0.11724611 -0.2116446 0.87560004
-0.11283334 -0.21150003 0.87500012
-0.087500006 -0.21083334 0.87500006
-0.11689943 -0.20854592 0.87800008
-0.11280064 -0.20805207 0.87733346
-0.10762287 -0.20773524 0.87600005
-0.10250001 -0.20583336 0.87500012
-0.097500004 -0.20650001 0.87500012
-0.091944449 -0.20694445 0.87500012
-0.087533332 -0.20757841 0.87533337
-0.082593344 -0.20690191 0.87600005
-0.079438098 -0.20653906 0.87800002
-0.10745049 -0.20444858 0.87800002
-0.1027343 -0.20296094 0.87700009
-0.097976886 -0.20347212 0.87714297
-0.092946194 -0.20322834 0.87725008
-0.087381914 -0.2044486 0.87800002
-0.084455244 -0.20486668 0.87800002
-0.11649524 -0.20533335 0.88000005
-0.11314287 -0.20533335 0.88000005
-0.082133338 -0.20533335 0.88000005
-0.07961905 -0.20533335 0.88000005
-0.11290973 -0.2031703 0.88080007
-0.10835454 -0.20182835 0.8802501
-0.10308573 -0.20030479 0.88000005
-0.097721912 -0.20097525 0.88000005
-0.09266144 -0.20083763 0.88050002
-0.088123575 -0.20247692 0.88125002
-0.08334858 -0.20458287 0.88400006
-0.10687353 -0.19775735 0.88360006
-0.10283683 -0.19773503 0.88266671
-0.097549528 -0.19846383 0.88300008
-0.092734866 -0.19910438 0.88360006
-0.081097148 -0.20527716 0.88700002
-0.11284325 -0.20115526 0.88819999
-0.086512074 -0.2014854 0.8876667
-0.082003504 -0.20204858 0.8876667
-0.11260667 -0.19896668 0.88900006
-0.10736667 -0.19641559 0.8876667
-0.1019081 -0.19578239 0.88800001
-0.097220004 -0.19613145 0.8876667
-0.091997147 -0.1968943 0.88824999
-0.088476673 -0.19769669 0.88900006
-0.082126677 -0.19896668 0.88900012
-0.10583334 -0.19388668 0.88900006
-0.10244668 -0.19388668 0.88900006
-0.097705342 -0.19320935 0.88900006
-0.093415558 -0.19332224 0.88900012
-0.11186929 -0.19821501 0.89325005
-0.10965 -0.19719858 0.89250004
-0.086384587 -0.19737773 0.89099997
-0.082311437 -0.1968686 0.89099997
-0.11289944 -0.19395545 0.89400005
-0.10813143 -0.19412573 0.89400005
-0.10292491 -0.19260167 0.89314294
-0.097242147 -0.1915136 0.89175004
-0.091979526 -0.19216716 0.8915
-0.087630488 -0.19312954 0.89333332
-0.082791433 -0.19366737 0.8935715
-0.097914293 -0.1898686 0.89400005
-0.092805728 -0.1898686 0.89400005
-0.089400008 -0.18986858 0.89400005
-0.080885723 -0.18986858 0.89400005
-0.079182863 -0.18986858 0.89400005
-0.1157689 -0.19598225 0.89600009
-0.11349334 -0.19712001 0.89600003
-0.11076267 -0.19165869 0.89600003
-0.10752001 -0.19114667 0.89600003
-0.10325335 -0.19029336 0.89600009
-0.087040007 -0.19029334 0.89600003
-0.082773343 -0.19114667 0.89600003
-0.11100991 -0.18763925 0.89800006
-0.10732545 -0.18693307 0.89742869
-0.10273483 -0.18697186 0.89644444
-0.097974293 -0.18719669 0.89649999
-0.09305948 -0.18697187 0.89644456
-0.087980531 -0.18706414 0.89688897
-0.082937151 -0.18725038 0.89777786
-0.079537146 -0.18558668 0.89800006
-0.10604953 -0.1838762 0.89800006
-0.10177334 -0.1838762 0.89800012
-0.09749715 -0.1838762 0.89800006
-0.093220964 -0.1838762 0.89800012
-0.089800008 -0.1838762 0.89800006
-0.10774952 -0.18330477 0.90150005
-0.10222667 -0.18211715 0.90200007
-0.097072385 -0.18211715 0.90200007
-0.09195143 -0.18218479 0.90233344
-0.087623179 -0.18297589 0.90200007
-0.084951431 -0.18449049 0.90100002
-0.097180009 -0.17974001 0.90300006
-0.093740009 -0.17974001 0.90300006
-0.081880957 -0.18530953 0.90500009
-0.10705191 -0.18216336 0.90650004
-0.10256668 -0.18013811 0.90500009
-0.097395241 -0.18013811 0.90500003
-0.09136191 -0.18013811 0.90500003
-0.086419433 -0.18129183 0.90560007
-0.082880005 -0.18302526 0.90650004
-0.10204192 -0.17814097 0.90800005
-0.097671978 -0.17768589 0.90757149
-0.092668578 -0.17734453 0.90725005
-0.088493973 -0.17842923 0.90800011
-0.11006667 -0.18286668 0.91000003
-0.10764524 -0.18143192 0.91150004
-0.08333572 -0.18143192 0.91150004
-0.10608192 -0.17912191 0.91300005
-0.10313334 -0.1770889 0.91000003
-0.097933337 -0.17593335 0.91000003
-0.091000006 -0.17593335 0.91000003
-0.08700271 -0.17718558 0.91050005
