# .PCD v0.7 - Point Cloud Data file format
VERSION 0.7
FIELDS x y z
SIZE 4 4 4
TYPE F F F
COUNT 1 1 1
WIDTH 1475
HEIGHT 1
VIEWPOINT 0 0 0 1 0 0 0
POINTS 1475
DATA ascii
-0.7950772 0.74179715 1.6650002
-0.78810006 0.74052864 1.6650001
-0.69295716 0.74052864 1.6650001
-0.68185717 0.74052864 1.6650001
-0.56292862 0.74052864 1.6650001
-0.54072863 0.74052864 1.6650001
-0.53280002 0.74052864 1.6650001
-0.52487147 0.74052864 1.6650001
-0.5153572 0.74158573 1.6650002
-0.49632859 0.74052864 1.6650001
-0.42021433 0.74052864 1.6650001
-0.41545719 0.74052864 1.6650001
-0.40435719 0.7405287 1.6650002
-0.39642859 0.74052864 1.6650001
-0.38215718 0.74052864 1.6650001
-0.3764486 0.74243146 1.6650002
-0.36709288 0.74132144 1.6650001
-0.35837144 0.74052864 1.6650001
-0.34251431 0.74052864 1.6650001
-0.33458573 0.74052864 1.6650001
-0.32507145 0.74052864 1.6650001
-0.30604288 0.74052864 1.6650001
-0.29335713 0.7405287 1.6650002
-0.28384289 0.7405287 1.6650002
-0.27591431 0.74052864 1.6650001
-0.26481432 0.74052864 1.6650001
-0.2521286 0.74052864 1.6650001
-0.24578574 0.7405287 1.6650002
-0.23627144 0.7405287 1.6650002
-0.21248573 0.74052864 1.6650001
-0.20455717 0.7405287 1.6650002
-0.19504285 0.74264288 1.6650002
-0.18394287 0.74052864 1.6650001
-0.17707145 0.74158573 1.6650002
-0.16967145 0.74052864 1.6650001
-0.14112858 0.74052864 1.6650001
-0.13478574 0.74581432 1.6650002
-0.12527144 0.74687147 1.6650001
-0.11575715 0.74475718 1.6650002
-0.10941429 0.74211431 1.6650001
-0.093557149 0.7405287 1.6650002
-0.084042862 0.74211431 1.6650001
-0.074528575 0.74370003 1.6650002
-0.065014288 0.74158573 1.6650002
-0.054707147 0.7413215 1.6650001
-0.045985721 0.74528575 1.6650002
-0.03647143 0.74607861 1.6650001
-0.011100001 0.74687147 1.6650001
-0.0039642858 0.74607861 1.6650001
0.0053914287 0.74560291 1.6650002
0.01427143 0.74687147 1.6650002
0.024420002 0.74560291 1.6650002
0.034357145 0.74581432 1.6650002
0.068185717 0.74687147 1.6650001
0.074528575 0.74581432 1.6650002
0.08404287 0.74687147 1.6650002
0.091971435 0.74687147 1.6650001
0.16729288 0.74607861 1.6650001
0.1760143 0.74687147 1.6650002
0.18394287 0.74687147 1.6650001
0.22992858 0.74687147 1.6650001
0.23310001 0.74687147 1.6650001
0.2775 0.74687147 1.6650001
0.28384286 0.74496859 1.6650002
0.2925643 0.74132144 1.6650001
0.30762857 0.74370003 1.6650001
0.36841434 0.74581432 1.6650002
0.37370002 0.74581432 1.6650002
-0.85152864 0.75162864 1.6650001
-0.84518576 0.75162864 1.6650002
-0.83567154 0.75162864 1.6650002
-0.12527144 0.75162864 1.6650001
-0.030128574 0.75162864 1.6650001
-0.023785716 0.75162864 1.6650002
-0.01427143 0.75162864 1.6650002
-0.0079285717 0.75162864 1.6650001
0.0047571431 0.75162864 1.6650002
0.01427143 0.75162864 1.6650002
0.022200001 0.75162864 1.6650001
0.045985721 0.75162864 1.6650002
0.055500008 0.75162864 1.6650002
0.063428573 0.75162864 1.6650001
0.096728586 0.75162864 1.6650002
0.10307144 0.75162864 1.6650001
0.13637143 0.75162864 1.6650001
0.14747144 0.75162864 1.6650001
0.15381432 0.75162864 1.6650002
0.16174287 0.75162864 1.6650001
0.17918573 0.75162864 1.6650001
0.18552861 0.75162864 1.6650002
0.19504288 0.75162864 1.6650002
0.20297143 0.75162864 1.6650001
0.21407145 0.75162864 1.6650002
0.22517145 0.75162864 1.6650001
0.23627144 0.75162864 1.6650002
0.24895716 0.75162864 1.6650001
0.25688574 0.75162864 1.6650001
0.26481432 0.75162864 1.6650002
0.2775 0.75162864 1.6650001
0.28384286 0.75162864 1.6650002
0.36947146 0.75162864 1.6650001
0.37370002 0.75110006 1.6650002
0.75428408 -0.6338281 1.6730002
0.7377134 -0.62299335 1.6730001
0.74472409 -0.62681741 1.6730002
0.75364679 -0.6277734 1.6730002
0.76002008 -0.6277734 1.6730001
0.71222007 -0.60068673 1.6730001
0.70903337 -0.59112668 1.6730001
0.71349472 -0.59367603 1.6730002
0.71476942 -0.58539069 1.6730002
0.72337341 -0.58156669 1.6730001
0.71779668 -0.57439673 1.6730001
0.72305477 -0.5758307 1.6730002
0.71620339 -0.56643003 1.6730001
0.72178006 -0.56563342 1.6730001
0.70584673 -0.55926001 1.6730001
0.71540672 -0.55288672 1.6730001
0.70903337 -0.54014003 1.6730001
0.7151171 -0.54448557 1.6730002
0.7240563 -0.543782 1.6730002
0.71700001 -0.53695339 1.6730001
0.72456843 -0.53336841 1.6730002
0.71859336 -0.5242067 1.6730001
0.7240563 -0.5246619 1.6730002
0.71859336 -0.51783335 1.6730001
0.7249667 -0.51464671 1.6730002
0.71859336 -0.50827336 1.6730001
0.72536504 -0.50548506 1.6730002
0.72417003 -0.49632338 1.6730001
0.72443569 -0.48596668 1.6730002
0.7377134 -0.48437339 1.6730001
0.72678769 -0.47549623 1.6730002
0.73452675 -0.47481334 1.6730002
0.72815341 -0.46366006 1.6730001
0.73361623 -0.46411526 1.6730002
0.72815341 -0.45410007 1.6730001
0.7326147 -0.4547374 1.6730002
0.72815341 -0.44613338 1.6730001
0.73346448 -0.44347781 1.6730002
0.7249667 -0.43458173 1.6730002
0.73346448 -0.43604225 1.6730002
0.7249667 -0.42860669 1.6730001
0.73134005 -0.42701334 1.6730001
0.72369212 -0.41649738 1.6730002
0.74727339 -0.41426671 1.6730001
0.75364673 -0.41426668 1.6730002
0.72735673 -0.40709668 1.6730001
0.73452675 -0.40470672 1.6730002
0.74472409 -0.40566275 1.6730002
0.75364673 -0.40630007 1.6730002
0.76002008 -0.40630001 1.6730001
0.73481637 -0.39558125 1.6730002
0.74408674 -0.3951467 1.6730002
0.75205338 -0.39461562 1.6730002
0.76002008 -0.39355335 1.6730001
0.73492503 -0.38359502 1.6730002
0.74408674 -0.38399336 1.6730002
0.75285006 -0.38638335 1.6730001
0.73612005 -0.37762001 1.6730001
0.74499726 -0.3748886 1.6730002
0.75205344 -0.37443337 1.6730002
0.74647677 -0.36567 1.6730001
0.75319153 -0.36396292 1.6730002
0.74727339 -0.35850003 1.6730001
0.75364679 -0.35531336 1.6730002
0.76108235 -0.35318893 1.6730001
0.75524002 -0.34575334 1.6730001
0.76436555 -0.34546366 1.6730002
0.75683343 -0.33619338 1.6730001
0.76436555 -0.33648306 1.6730002
0.75577116 -0.32610226 1.6730002
0.76320684 -0.32504001 1.6730002
0.75683337 -0.31548002 1.6730001
0.76267564 -0.3138867 1.6730002
0.75205338 -0.30114001 1.6730001
0.76360506 -0.30392835 1.6730002
0.75555867 -0.29412934 1.6730002
0.76391494 -0.29441261 1.6730002
0.77276671 -0.29158002 1.6730001
0.75524008 -0.28520668 1.6730001
0.76519835 -0.28560504 1.6730002
0.77276671 -0.28680003 1.6730001
0.75417793 -0.27458447 1.6730002
0.76436549 -0.27535701 1.6730002
0.75364673 -0.2660867 1.6730002
0.76356083 -0.26679483 1.6730002
0.77436006 -0.26449335 1.6730001
0.75444341 -0.25612837 1.6730002
0.7641173 -0.25447816 1.6730002
0.77458769 -0.25470576 1.6730002
0.75683337 -0.24537335 1.6730001
0.76480007 -0.24378006 1.6730002
0.77504289 -0.24332479 1.6730002
0.76639336 -0.23501669 1.6730002
0.77595335 -0.23422003 1.6730002
0.7823267 -0.23262668 1.6730001
0.76480007 -0.22466004 1.6730002
0.77595335 -0.22465999 1.6730002
0.76480001 -0.21510002 1.6730002
0.77356339 -0.21589668 1.6730001
0.76426899 -0.20589411 1.6730002
0.76958007 -0.19598001 1.6730001
0.77489126 -0.19598001 1.6730001
0.76958007 -0.18960668 1.6730001
0.77624303 -0.18526123 1.6730002
0.7823267 -0.18164001 1.6730001
0.76639336 -0.17048667 1.6730001
0.77754676 -0.17367336 1.6730002
0.7823267 -0.17526668 1.6730001
0.76798671 -0.16411334 1.6730002
0.77404135 -0.16411336 1.6730002
0.76798671 -0.15455334 1.6730002
0.77504289 -0.15409811 1.6730002
0.76730382 -0.1454486 1.6730002
0.77595335 -0.14499335 1.6730002
0.76830542 -0.13607068 1.6730002
0.77595335 -0.13543335 1.6730002
0.77436006 -0.12587334 1.6730002
0.76958007 -0.11631334 1.6730001
0.77436006 -0.11631335 1.6730002
0.76798666 -0.10516001 1.6730002
0.77382892 -0.10622223 1.6730002
0.76798671 -0.097193338 1.6730001
0.77404135 -0.093369342 1.6730002
0.77467871 -0.083172008 1.6730002
0.7855134 -0.081260011 1.6730001
0.76958007 -0.071700007 1.6730001
0.77635169 -0.074488342 1.6730002
0.78460294 -0.07534191 1.6730002
0.76958007 -0.068513341 1.6730001
0.77595335 -0.065326668 1.6730002
0.78511506 -0.064928338 1.6730002
0.77555501 -0.056165006 1.6730002
0.78392005 -0.057360005 1.6730001
0.77722806 -0.046844002 1.6730002
0.78392005 -0.047800001 1.6730001
0.77754676 -0.033991113 1.6730002
0.78369248 -0.034370478 1.6730002
0.77914006 -0.027086668 1.6730001
0.78642392 -0.02435524 1.6730002
0.79188675 -0.02230667 1.6730001
0.77595341 -0.017526668 1.6730001
0.78591174 -0.014738334 1.6730002
0.79188675 -0.014340001 1.6730001
0.78710675 -0.0047800001 1.6730002
0.7934801 -0.0039833337 1.6730001
0.80144674 -0.0015933334 1.6730001
0.79507339 0.0047800005 1.6730002
0.80250895 0.0058422228 1.6730001
0.78870004 0.015933335 1.6730001
0.79507345 0.014340002 1.6730002
0.80224335 0.013543334 1.6730001
0.77914006 0.027086668 1.6730001
0.7855134 0.023900002 1.6730002
0.79416293 0.023444764 1.6730002
0.80144674 0.020713335 1.6730001
0.77914006 0.03186667 1.6730001
0.78580314 0.034618791 1.6730002
0.7934801 0.035053335 1.6730002
0.78710675 0.046206668 1.6730002
0.79507339 0.046206672 1.6730002
0.80144674 0.049393337 1.6730001
0.78710675 0.055766672 1.6730002
0.79507345 0.055766676 1.6730002
0.80144674 0.052580003 1.6730001
0.78642392 0.065326676 1.6730002
0.79507345 0.065326668 1.6730002
0.80250895 0.067451119 1.6730001
0.78790337 0.074090004 1.6730001
0.79507345 0.074886665 1.6730002
0.7966668 0.084446669 1.6730002
0.80144674 0.082853332 1.6730001
0.79316139 0.093369342 1.6730002
0.78763789 0.10516 1.6730002
0.79325253 0.10493238 1.6730002
0.78742546 0.11567601 1.6730002
0.79401124 0.11684446 1.6730002
0.78790343 0.12587334 1.6730001
0.79547173 0.125475 1.6730002
0.80144674 0.12746668 1.6730001
0.79666674 0.13543335 1.6730002
0.8014468 0.13543335 1.6730001
0.79826003 0.14340001 1.6730001
0.80304003 0.14499335 1.6730002
0.80516452 0.15349112 1.6730002
0.80304003 0.16411334 1.6730002
0.79507345 0.17686002 1.6730001
0.80144674 0.17208001 1.6730001
0.84924674 0.17367335 1.6730001
0.8534956 0.17473558 1.6730001
0.86358672 0.17367335 1.6730001
0.79416299 0.18277811 1.6730002
0.80392534 0.18606594 1.6730002
0.81100672 0.18801335 1.6730001
0.80399609 0.19470535 1.6730002
0.81100672 0.19279334 1.6730001
0.80304003 0.20394668 1.6730001
0.80463338 0.21669334 1.6730001
0.80463344 0.22466002 1.6730002
0.80569571 0.2331578 1.6730002
0.81419343 0.2374067 1.6730001
0.80675787 0.24271779 1.6730001
0.80782008 0.25015336 1.6730001
0.81373817 0.25743717 1.6730002
0.82056671 0.25652668 1.6730001
0.81379503 0.26568836 1.6730002
0.82184142 0.26672402 1.6730002
0.83650005 0.26768002 1.6730001
0.84712231 0.26821113 1.6730001
0.81260002 0.27246001 1.6730001
0.82375336 0.27564669 1.6730002
0.83092338 0.27485001 1.6730001
0.84765339 0.27246001 1.6730001
0.82375336 0.28520671 1.6730002
0.8328582 0.28611717 1.6730002
0.80782008 0.29636002 1.6730001
0.81578672 0.29636002 1.6730001
0.82284296 0.29431146 1.6730002
0.83450842 0.29436836 1.6730002
0.8441481 0.29540405 1.6730002
0.81546801 0.30432668 1.6730002
0.82335508 0.30472499 1.6730002
0.83458805 0.30464533 1.6730002
0.8441481 0.30368936 1.6730002
0.82415169 0.31348836 1.6730002
0.83490676 0.3138867 1.6730002
0.84287339 0.31229335 1.6730001
0.81483072 0.32567737 1.6730002
0.82375354 0.32504001 1.6730002
0.83513439 0.32526767 1.6730002
0.8149901 0.33380336 1.6730001
0.82415169 0.33579502 1.6730002
0.8328582 0.33619338 1.6730002
0.8349067 0.3425667 1.6730001
0.80675787 0.36699781 1.6730001
0.81355602 0.36614802 1.6730002
0.823116 0.36423603 1.6730002
0.81459165 0.374035 1.6730002
0.82269114 0.3765578 1.6730001
0.83291507 0.37483168 1.6730002
0.81738007 0.38080668 1.6730001
0.82375336 0.38080668 1.6730001
0.83172005 0.38080668 1.6730001
0.79826003 0.45728669 1.6730001
0.79666674 0.46047336 1.6730001
-0.9958334 0.72815341 1.6730001
-0.74090004 0.72815341 1.6730001
-0.59112668 0.72815341 1.6730001
-0.58475339 0.72815341 1.6730001
-0.57519335 0.72815341 1.6730001
-0.16411334 0.72815341 1.6730001
-0.99628866 0.73543721 1.6730002
-0.98627341 0.73771346 1.6730001
-0.97458899 0.73771346 1.6730001
-0.96460402 0.73643869 1.6730002
-0.95440674 0.73665118 1.6730001
-0.94484675 0.73516405 1.6730002
-0.93688005 0.73134005 1.6730001
-0.91404235 0.73452675 1.6730001
-0.90433055 0.73498195 1.6730002
-0.89449739 0.73643869 1.6730002
-0.8874867 0.7377134 1.6730001
-0.87394339 0.73691672 1.6730001
-0.86581737 0.73643869 1.6730002
-0.82162899 0.73558897 1.6730001
-0.81419337 0.73516405 1.6730002
-0.80372298 0.73498195 1.6730002
-0.79552865 0.73543721 1.6730002
-0.7855134 0.73771346 1.6730001
-0.77595347 0.73665118 1.6730001
-0.76448143 0.7338894 1.6730002
-0.75364679 0.73399562 1.6730002
-0.74514902 0.73346448 1.6730002
-0.73407149 0.73361623 1.6730002
-0.7249667 0.7329334 1.6730002
-0.71540672 0.73325205 1.6730002
-0.70584673 0.7326147 1.6730002
-0.69692403 0.73452669 1.6730002
-0.68832004 0.7377134 1.6730001
-0.65486002 0.73771346 1.6730001
-0.64530003 0.73612005 1.6730001
-0.63653672 0.73612005 1.6730001
-0.62697673 0.73213673 1.6730001
-0.61598271 0.7319774 1.6730002
-0.60466999 0.73373002 1.6730001
-0.59431338 0.73134011 1.6730001
-0.58475339 0.73213673 1.6730001
-0.57519341 0.73240232 1.6730001
-0.56563342 0.73452669 1.6730001
-0.55543607 0.73452669 1.6730002
-0.54492003 0.73612005 1.6730002
-0.53536004 0.7377134 1.6730001
-0.52420676 0.73771346 1.6730001
-0.51384997 0.73691672 1.6730001
-0.50508666 0.73558897 1.6730001
-0.49552673 0.73771346 1.6730001
-0.48596668 0.73771346 1.6730001
-0.47481337 0.73691672 1.6730001
-0.46366006 0.73771346 1.6730001
-0.45410007 0.73771346 1.6730001
-0.44613338 0.7377134 1.6730001
-0.39196002 0.7377134 1.6730001
-0.38463068 0.73643869 1.6730002
-0.37443337 0.73771346 1.6730001
-0.36487338 0.73771346 1.6730001
-0.35531336 0.73612005 1.6730001
-0.34575337 0.73558897 1.6730001
-0.33778667 0.7377134 1.6730001
-0.32982001 0.7377134 1.6730001
-0.31548002 0.7377134 1.6730001
-0.30114001 0.7377134 1.6730001
-0.28361335 0.7377134 1.6730001
-0.27352223 0.73665118 1.6730001
-0.26688337 0.73691672 1.6730001
-0.25812 0.7377134 1.6730001
-0.24378002 0.7377134 1.6730001
-0.19279334 0.7377134 1.6730001
-0.18323335 0.73771346 1.6730001
-0.17208001 0.7377134 1.6730001
-0.16411334 0.73240232 1.6730001
-0.15455334 0.73134011 1.6730001
-0.14499335 0.73452675 1.6730001
-0.10356668 0.73771346 1.6730001
-0.09400668 0.73771346 1.6730001
-0.087633342 0.7377134 1.6730001
0.28680003 0.7377134 1.6730001
0.29317337 0.7377134 1.6730001
-0.99822342 0.74329007 1.6730001
-0.98786676 0.74408674 1.6730002
-0.97352672 0.74090004 1.6730001
-0.95440674 0.74090004 1.6730001
-0.94484681 0.74196231 1.6730001
-0.93528676 0.74302453 1.6730001
-0.92572683 0.74249339 1.6730002
-0.9169634 0.74249339 1.6730001
-0.90660673 0.74090004 1.6730001
-0.8938601 0.74090004 1.6730001
-0.88350338 0.74169672 1.6730001
-0.87394339 0.74169672 1.6730001
-0.86199337 0.74408674 1.6730001
-0.85562009 0.74355567 1.6730002
-0.84560496 0.744542 1.6730002
-0.83650011 0.74408674 1.6730002
-0.81419343 0.74249339 1.6730002
-0.80463338 0.74090004 1.6730001
-0.75046003 0.74090004 1.6730001
-0.74472409 0.74217474 1.6730002
-0.67398006 0.74090004 1.6730001
-0.53297007 0.74169672 1.6730001
-0.52356929 0.74217474 1.6730002
-0.51783335 0.74090004 1.6730001
-0.44135335 0.74090004 1.6730001
-0.43657339 0.74090004 1.6730001
-0.42382669 0.74090004 1.6730001
-0.41506335 0.74169672 1.6730001
-0.40630004 0.74090004 1.6730001
-0.3956778 0.74090004 1.6730001
-0.38240004 0.74090004 1.6730001
-0.37443337 0.74169672 1.6730001
-0.36487335 0.74090004 1.6730001
-0.35850003 0.74090004 1.6730001
-0.33300668 0.74090004 1.6730001
-0.32424337 0.74249339 1.6730001
-0.30751336 0.74090004 1.6730001
-0.29317337 0.74090004 1.6730001
-0.28839335 0.74090004 1.6730001
-0.27883336 0.74090004 1.6730001
-0.25174668 0.74090004 1.6730001
-0.24378002 0.74090004 1.6730001
-0.23422001 0.74090004 1.6730001
-0.22306669 0.74090004 1.6730001
-0.21510002 0.74090004 1.6730001
-0.20394668 0.74090004 1.6730001
-0.19598001 0.74249339 1.6730001
-0.18578267 0.74153739 1.6730002
-0.17447001 0.74169672 1.6730001
-0.14180668 0.74090004 1.6730001
-0.13623001 0.74488342 1.6730001
-0.12587336 0.74727339 1.6730001
-0.11551667 0.74408674 1.6730001
-0.10994001 0.74090004 1.6730001
-0.092413336 0.74090004 1.6730001
-0.083809339 0.74217474 1.6730002
-0.074090004 0.74329007 1.6730001
-0.066123337 0.74169672 1.6730001
-0.057360005 0.74090004 1.6730001
-0.046206668 0.74408674 1.6730001
-0.03558445 0.74568003 1.6730002
-0.023900002 0.74727339 1.6730001
-0.01434 0.74727339 1.6730001
-0.0047800005 0.74621123 1.6730001
0.0047800005 0.74514902 1.6730001
0.014340001 0.74727339 1.6730001
0.024696669 0.74408674 1.6730001
0.035053335 0.74568009 1.6730001
0.055766672 0.74727339 1.6730001
0.066920005 0.74727339 1.6730001
0.074886672 0.74621123 1.6730001
0.083809339 0.7459988 1.6730002
0.092413336 0.74727339 1.6730001
0.16730002 0.74727339 1.6730001
0.17526668 0.74727339 1.6730001
0.18323335 0.74727339 1.6730001
0.19598001 0.74727339 1.6730001
0.2331578 0.74621123 1.6730001
0.24696669 0.74727339 1.6730001
0.25971335 0.74727339 1.6730001
0.2660867 0.74727339 1.6730001
0.27564669 0.74727339 1.6730001
0.28584403 0.74472409 1.6730002
0.29476672 0.74090004 1.6730001
-0.83650005 0.75046003 1.6730001
-0.12587334 0.75046003 1.6730001
-0.030273335 0.75046003 1.6730001
-0.023900002 0.75046003 1.6730001
-0.015933335 0.75046003 1.6730001
0.046206668 0.75046003 1.6730001
0.055766672 0.75046003 1.6730001
0.063733339 0.75046003 1.6730001
0.097193338 0.75046003 1.6730001
0.10622223 0.75364679 1.6730002
0.11631335 0.75524008 1.6730002
0.12587336 0.75524014 1.6730002
0.13415867 0.75237203 1.6730002
0.14408287 0.75319159 1.6730002
0.15455335 0.75046003 1.6730001
0.16092667 0.75046003 1.6730001
0.18960668 0.75046003 1.6730001
0.19598001 0.75046003 1.6730001
0.20633666 0.75285006 1.6730001
0.21350668 0.75046003 1.6730001
0.22784668 0.75046003 1.6730001
0.23740669 0.75046003 1.6730001
0.24469051 0.75319159 1.6730002
0.25440225 0.75205344 1.6730002
0.2660867 0.75046003 1.6730001
0.27405334 0.75364673 1.6730002
0.35212669 0.75364673 1.6730001
0.36434227 0.75364679 1.6730002
0.43816671 0.75524008 1.6730001
0.44294667 0.75524008 1.6730001
0.70762098 -0.64198196 1.6810001
0.70666045 -0.63749933 1.6810001
0.70762098 -0.62277049 1.6810001
0.74444288 -0.62917435 1.6810001
0.70762098 -0.61956859 1.6810001
0.71242386 -0.60195816 1.6810001
0.70922196 -0.59395337 1.6810001
0.71242386 -0.59395337 1.6810001
0.70922196 -0.58114576 1.6810001
0.71516836 -0.58343291 1.6810001
0.70794117 -0.57538235 1.6810001
0.71509212 -0.5758093 1.6810001
0.70922196 -0.56673717 1.6810001
0.71562576 -0.56513625 1.6810001
0.71562576 -0.55713141 1.6810001
0.70922196 -0.53952098 1.6810001
0.71562576 -0.53695947 1.6810001
0.72202957 -0.53471816 1.6810001
0.71818727 -0.5241518 1.6810001
0.72202957 -0.52671337 1.6810001
0.71722674 -0.51390576 1.6810001
0.72202957 -0.51550674 1.6810001
0.71754694 -0.50494045 1.6810001
0.72283006 -0.50430006 1.6810001
0.71882766 -0.49469432 1.6810001
0.72331035 -0.49533471 1.6810001
0.72416419 -0.48508859 1.6810001
0.72629875 -0.47548288 1.6810001
0.72843337 -0.46587718 1.6810001
0.72843337 -0.4562715 1.6810001
0.71882766 -0.44026193 1.6810001
0.72594303 -0.44488689 1.681
0.73163527 -0.44346383 1.6810001
0.71776044 -0.43599272 1.6810001
0.72309685 -0.43385813 1.6810001
0.72523147 -0.41304573 1.6810001
0.72715259 -0.40568137 1.6810001
0.73163527 -0.40183908 1.6810001
0.72843337 -0.39703622 1.6810001
0.7324357 -0.39463478 1.6810001
0.73270261 -0.38582954 1.6810001
0.73643816 -0.37782478 1.6810001
0.74337566 -0.37515652 1.6810001
0.74684429 -0.36501718 1.6810001
0.74764478 -0.35541144 1.6810001
0.75298136 -0.35274321 1.6810001
0.75450617 -0.34420478 1.6810001
0.75532943 -0.33523947 1.6810001
0.75458235 -0.32499337 1.6810001
0.75645006 -0.31538764 1.6810001
0.76205337 -0.31218573 1.6810001
0.75618327 -0.30684924 1.6810001
0.76125294 -0.30658239 1.6810001
0.75484908 -0.29697669 1.6810001
0.75450617 -0.28336859 1.6810001
0.76258707 -0.28870511 1.6810001
0.75244772 -0.27456337 1.6810001
0.75084674 -0.26415718 1.6810001
0.75468904 -0.25455147 1.6810001
0.75564957 -0.24494573 1.6810001
0.76045245 -0.24174383 1.6810001
0.75564957 -0.23534003 1.6810001
0.76319689 -0.2344252 1.6810001
0.75404865 -0.22573429 1.681
0.76045245 -0.22573429 1.6810001
0.75645006 -0.21692906 1.6810001
0.76045245 -0.21612859 1.6810001
0.75725055 -0.20972477 1.6810001
0.76285386 -0.20492192 1.6810001
0.77005816 -0.20011906 1.6810001
0.76525533 -0.19211429 1.6810001
0.77005816 -0.19371526 1.6810001
0.76685631 -0.18410954 1.6810001
0.7723453 -0.18365213 1.6810001
0.76557553 -0.17386344 1.6810001
0.7736603 -0.17490406 1.681
0.76456916 -0.16535552 1.6810001
0.76525533 -0.15529239 1.6810001
0.76493514 -0.14504629 1.6810001
0.75404865 -0.13928287 1.6810001
0.76525533 -0.13608098 1.6810001
0.77005816 -0.13287906 1.6810001
0.76685625 -0.12487429 1.6810001
0.77165914 -0.12487429 1.681
0.76685625 -0.11366762 1.6810001
0.7711255 -0.11473493 1.6810001
0.76685631 -0.10406192 1.6810001
0.76685625 -0.097658105 1.6810001
0.77165914 -0.092855245 1.6810001
0.77165914 -0.084850483 1.6810001
0.77261972 -0.075885154 1.6810001
0.77165914 -0.064838573 1.6810001
0.77219284 -0.058167942 1.6810001
0.77646196 -0.049629528 1.6810001
0.77966386 -0.036821906 1.6810001
0.77886337 -0.023213811 1.6810001
0.78446674 -0.022413336 1.6810001
0.77806288 -0.014408573 1.6810001
0.78366625 -0.013608096 1.6810001
0.77966386 -0.0064038099 1.6810001
0.78446674 -0.0048028575 1.6810001
0.78652507 0.0048028575 1.6810001
0.79247153 0.0048028575 1.6810001
0.78606761 0.014408572 1.681
0.79247147 0.011206667 1.6810001
0.77859658 0.026148891 1.6810001
0.78286576 0.022413336 1.6810001
0.77838314 0.032979622 1.6810001
0.78286576 0.036821906 1.6810001
0.78469551 0.044140544 1.6810001
0.78606766 0.057634287 1.6810001
0.78446674 0.064838573 1.6810001
0.78734839 0.075885154 1.6810001
0.78846908 0.08405 1.6810001
0.79407239 0.084850483 1.6810001
0.78766865 0.094456196 1.6810001
0.79247153 0.094456196 1.6810001
0.787135 0.10299461 1.6810001
0.78766859 0.11366762 1.6810001
0.78766865 0.12540793 1.6810001
0.79567337 0.12967715 1.6810001
0.78766865 0.13448001 1.6810001
0.79407239 0.13608098 1.6810001
0.79887527 0.14568669 1.6810001
0.80207717 0.14888859 1.6810001
0.8042118 0.15529239 1.6810001
0.79887527 0.16810001 1.6810001
0.80207717 0.16489811 1.6810001
0.79567337 0.17557113 1.6810001
0.80207717 0.17290287 1.6810001
0.78926957 0.18571049 1.6810001
0.79247153 0.18410954 1.6810001
0.80207717 0.18571049 1.6810001
0.78926957 0.19371524 1.6810001
0.79658824 0.19371526 1.6810001
0.8028776 0.19451573 1.6810001
0.79727435 0.20172001 1.6810001
0.80207717 0.20172001 1.6810001
0.80447859 0.21692906 1.6810001
0.79887527 0.22893621 1.6810001
0.80207717 0.22733524 1.6810001
0.79647386 0.23293859 1.6810001
0.80421185 0.23640732 1.6810001
0.79887527 0.24494573 1.6810001
0.80487889 0.24534598 1.681
0.81168294 0.24494573 1.6810001
0.79887527 0.25295049 1.6810001
0.80634642 0.25348416 1.6810001
0.81168294 0.25615239 1.6810001
0.79887527 0.26095524 1.6810001
0.80581284 0.26308987 1.6810001
0.81168294 0.26415715 1.6810001
0.85330766 0.26735908 1.6810001
0.80591947 0.27312252 1.6810001
0.81360406 0.27504364 1.6810001
0.8212887 0.27376288 1.6810001
0.83729815 0.27696478 1.6810001
0.81488484 0.28496954 1.681
0.82128865 0.28496954 1.6810001
0.83729815 0.28176764 1.6810001
0.84290147 0.28577 1.6810001
0.80688 0.29297429 1.6810001
0.81488484 0.29489547 1.6810001
0.82128865 0.29297429 1.6810001
0.81648576 0.30578193 1.6810001
0.81728625 0.31458718 1.6810001
0.82208914 0.31618813 1.6810001
0.80848098 0.32819527 1.6810001
0.8138175 0.32499337 1.6810001
0.80848098 0.33459908 1.6810001
0.81360406 0.33587983 1.6810001
0.81648576 0.34100288 1.6810001
0.82288957 0.34100288 1.6810001
0.83345598 0.34612593 1.6810001
0.84210098 0.34740669 1.6810001
0.81648576 0.35701239 1.6810001
0.82449055 0.35701239 1.6810001
0.83369601 0.35381049 1.681
0.84050006 0.35701239 1.6810001
0.80768049 0.36501718 1.6810001
0.81488484 0.36181527 1.6810001
0.82369006 0.36101478 1.6810001
0.83318156 0.36341625 1.6810001
0.84050006 0.36021432 1.6810001
0.80848098 0.37622386 1.6810001
0.81248343 0.37702429 1.6810001
0.80848098 0.38262764 1.6810001
0.81488472 0.38582957 1.681
0.82449055 0.38743049 1.6810001
0.83249533 0.38582954 1.6810001
0.80848098 0.40824288 1.6810001
0.81168294 0.40824288 1.6810001
0.80768049 0.41544718 1.6810001
0.81168294 0.41464671 1.6810001
0.82342327 0.41251206 1.6810001
0.81328392 0.42425239 1.6810001
0.79727435 0.45947337 1.6810001
0.80591947 0.45755225 1.6810001
0.81648576 0.45947337 1.6810001
0.79567337 0.46267527 1.6810001
0.80591947 0.46459642 1.6810001
0.81701946 0.46480989 1.6810001
0.82128865 0.46587718 1.6810001
0.81648576 0.49789622 1.6810001
-1.0005953 0.72843337 1.6810001
-0.97177815 0.72843337 1.6810001
-0.94936484 0.72843337 1.6810001
-0.88212484 0.72843337 1.6810001
-0.87412006 0.72843337 1.6810001
-0.74284196 0.72843337 1.6810001
-0.73483717 0.72843337 1.6810001
-0.72683239 0.72843337 1.6810001
-0.71242386 0.72843337 1.6810001
-0.70602006 0.72843337 1.6810001
-0.60035717 0.72843337 1.6810001
-0.59395337 0.72843337 1.6810001
-0.58434767 0.72843337 1.6810001
-0.57794386 0.72843337 1.6810001
-0.16489811 0.72843337 1.6810001
-0.15849429 0.72843337 1.6810001
-1.0005953 0.73483717 1.6810001
-0.99419153 0.73537081 1.6810001
-0.98778766 0.73803908 1.6810001
-0.97284549 0.73483723 1.6810001
-0.96409363 0.73483723 1.6810001
-0.95622605 0.73392236 1.6810001
-0.94616294 0.73483723 1.6810001
-0.93335539 0.73620945 1.6810001
-0.92374957 0.73575199 1.6810001
-0.91414386 0.73243576 1.6810001
-0.90533864 0.73403668 1.6810001
-0.89429206 0.73611796 1.6810001
-0.88532674 0.73483711 1.681
-0.87617844 0.73392236 1.6810001
-0.86931717 0.73483717 1.6810001
-0.85330766 0.73803908 1.6810001
-0.84050006 0.73803908 1.6810001
-0.83249533 0.73483717 1.6810001
-0.82288957 0.73483717 1.6810001
-0.81442744 0.73529458 1.6810001
-0.80527914 0.73163527 1.6810001
-0.79567337 0.73430359 1.6810001
-0.78606766 0.73675835 1.6810001
-0.77463239 0.73529458 1.6810001
-0.76365435 0.73163527 1.6810001
-0.75404865 0.73243576 1.6810001
-0.74444288 0.73163527 1.6810001
-0.73483723 0.73163527 1.6810001
-0.72523153 0.73163527 1.6810001
-0.71642625 0.73243576 1.6810001
-0.70602006 0.73163527 1.6810001
-0.69458473 0.73529458 1.6810001
-0.66439527 0.73803914 1.6810001
-0.65478963 0.73803914 1.6810001
-0.64731848 0.73590457 1.6810001
-0.63717914 0.73643816 1.6810001
-0.61476576 0.73163527 1.6810001
-0.60516 0.73270261 1.6810001
-0.59715527 0.73163527 1.6810001
-0.58434767 0.73163527 1.6810001
-0.57367468 0.73376989 1.6810001
-0.56593674 0.73563766 1.6810001
-0.55489016 0.73291606 1.6810001
-0.54592478 0.73323625 1.6810001
-0.53631908 0.73483711 1.681
-0.52467579 0.73512822 1.681
-0.51436323 0.73392236 1.6810001
-0.50389987 0.73443687 1.681
-0.49429408 0.73523736 1.681
-0.48588908 0.73723859 1.6810001
-0.47548288 0.7364381 1.6810001
-0.46587718 0.73803914 1.6810001
-0.45520419 0.73590457 1.6810001
-0.44506478 0.7364381 1.681
-0.43449852 0.73675829 1.6810001
-0.42745432 0.73803908 1.6810001
-0.41624764 0.73803908 1.6810001
-0.39543527 0.73803914 1.6810001
-0.38262764 0.73803908 1.6810001
-0.37622386 0.73803914 1.6810001
-0.36501718 0.73803908 1.6810001
-0.35381049 0.73483723 1.6810001
-0.34356442 0.73611796 1.6810001
-0.33780098 0.73803908 1.6810001
-0.32339239 0.73803908 1.6810001
-0.31538767 0.73803914 1.6810001
-0.30418098 0.73803908 1.6810001
-0.29617622 0.73803914 1.6810001
-0.28496954 0.7364381 1.681
-0.27456337 0.73563766 1.6810001
-0.26415715 0.73643816 1.6810001
-0.25455147 0.73643816 1.6810001
-0.24558611 0.73675835 1.6810001
-0.23534003 0.73803914 1.6810001
-0.19307487 0.73675835 1.6810001
-0.18410954 0.73643816 1.6810001
-0.17450383 0.73643816 1.6810001
-0.16596541 0.73270261 1.6810001
-0.15529239 0.73163527 1.6810001
-0.14488621 0.73483717 1.6810001
-0.12007143 0.73803908 1.6810001
-0.11302725 0.73675835 1.6810001
-0.10459556 0.73590446 1.6810001
-0.094456196 0.73803914 1.6810001
-0.084850483 0.73803914 1.6810001
-0.057634287 0.73803908 1.6810001
-1.0005953 0.74764478 1.6810001
-0.99739337 0.7460438 1.6810001
-0.98138386 0.74124098 1.6810001
-0.95576864 0.74284196 1.6810001
-0.94456196 0.74284196 1.6810001
-0.93602359 0.74230832 1.6810001
-0.92374957 0.74230832 1.6810001
-0.88692772 0.74124098 1.6810001
-0.85490865 0.74284196 1.6810001
-0.84370202 0.74124098 1.6810001
-0.83729815 0.74124098 1.6810001
-0.68424708 0.7431621 1.6810001
-0.67400098 0.74230832 1.6810001
-0.66599619 0.74124098 1.6810001
-0.53311718 0.74124098 1.6810001
-0.44186288 0.74124098 1.6810001
-0.43385813 0.74124098 1.6810001
-0.42425245 0.74124098 1.6810001
-0.41464671 0.74124098 1.6810001
-0.40504098 0.74124098 1.6810001
-0.39863718 0.74124098 1.6810001
-0.33459908 0.74124098 1.6810001
-0.32419285 0.74204147 1.6810001
-0.31218573 0.74124098 1.6810001
-0.30738288 0.74124098 1.6810001
-0.29617622 0.74124098 1.6810001
-0.28496954 0.74124098 1.6810001
-0.25295049 0.74124098 1.6810001
-0.24494573 0.74124098 1.6810001
-0.23614049 0.74204147 1.6810001
-0.22733524 0.74124098 1.6810001
-0.21612859 0.74124098 1.6810001
-0.20492193 0.74230832 1.6810001
-0.19371524 0.74124098 1.6810001
-0.17770572 0.74124098 1.6810001
-0.13544059 0.74508333 1.6810001
-0.12487429 0.74444288 1.681
-0.11446811 0.74204147 1.6810001
-0.083249524 0.74124098 1.6810001
-0.075885154 0.74252176 1.6810001
-0.065639049 0.74124098 1.6810001
-0.05523286 0.74204147 1.6810001
-0.044826671 0.74444288 1.6810001
-0.03362 0.7439093 1.6810001
-0.02401429 0.74604386 1.6810001
-0.015209049 0.74684429 1.6810001
-0.0048028575 0.7460438 1.6810001
0.0048028575 0.7460438 1.6810001
0.013608096 0.74684429 1.6810001
0.023373907 0.74380255 1.6810001
0.03362 0.74390924 1.6810001
0.043866098 0.74700445 1.6810001
0.054432385 0.74764478 1.6810001
0.065639049 0.74764478 1.6810001
0.076045245 0.7460438 1.6810001
0.084850475 0.7460438 1.6810001
0.094456196 0.74764478 1.6810001
0.10246096 0.74764478 1.6810001
0.13768192 0.74764478 1.6810001
0.14248477 0.74764478 1.6810001
0.16649906 0.74764478 1.6810001
0.17530429 0.74684429 1.6810001
0.18410954 0.74684429 1.6810001
0.19371526 0.74764478 1.6810001
0.22573429 0.74764478 1.6810001
0.23534001 0.74764478 1.6810001
0.26415718 0.74764478 1.6810001
0.27216193 0.74764478 1.6810001
0.30258003 0.74444288 1.6810001
-1.0005953 0.75084674 1.6810001
-0.99739337 0.75084674 1.6810001
-0.014408573 0.75084674 1.6810001
0.046427622 0.75084674 1.6810001
0.056033336 0.75084674 1.6810001
0.062437147 0.75084674 1.6810001
0.097658105 0.75084674 1.6810001
0.10486238 0.75164723 1.6810001
0.11366763 0.75276792 1.6810001
0.1255604 0.75267643 1.6810001
0.13608097 0.75084674 1.6810001
0.14568669 0.75084674 1.6810001
0.15529239 0.75084674 1.6810001
0.16329715 0.75084674 1.6810001
0.19211429 0.75084674 1.6810001
0.20492192 0.75164723 1.6810001
0.21612859 0.75191402 1.6810001
0.22509392 0.75212759 1.6810001
0.23854192 0.75084674 1.6810001
0.24334478 0.75084674 1.6810001
0.25455147 0.75084674 1.6810001
0.31698859 0.75725055 1.6810001
0.32499337 0.75725055 1.6810001
0.33459911 0.75725055 1.6810001
0.34500527 0.75645006 1.6810001
0.35434413 0.75404859 1.6810001
0.36387366 0.75313395 1.6810001
0.44506478 0.75564957 1.6810001
0.45413685 0.75618327 1.6810001
0.48829052 0.75725055 1.6810001
0.49149242 0.75725055 1.6810001
0.50430006 0.75725055 1.6810001
0.51070386 0.75725055 1.6810001
0.54912668 0.75725055 1.6810001
0.55232859 0.75725055 1.6810001
0.31698859 0.76045245 1.6810001
0.32499337 0.76045245 1.6810001
0.33459911 0.76045245 1.6810001
0.34420478 0.76045245 1.6810001
0.35381049 0.76045245 1.6810001
0.36341622 0.76045245 1.6810001
0.44986764 0.76045245 1.6810001
0.45467052 0.76045245 1.6810001
0.48829052 0.76045245 1.6810001
0.49149242 0.76045245 1.6810001
0.50430006 0.76045245 1.6810001
0.51070386 0.76045245 1.6810001
0.54912668 0.76045245 1.6810001
0.55232859 0.76045245 1.6810001
0.695889 -0.64207053 1.6953334
0.70244229 -0.64541906 1.6900003
0.7178477 -0.64380956 1.6900001
0.69559324 -0.63602912 1.6968572
0.70279127 -0.63601512 1.6914549
0.7178477 -0.63898098 1.6900001
0.69559324 -0.62633294 1.6968572
0.70293397 -0.62554622 1.6928575
0.69537151 -0.61936575 1.6980001
0.70438129 -0.61659354 1.6980002
0.70980006 -0.60035241 1.6900001
0.71301907 -0.60196197 1.6900001
0.70986289 -0.59370291 1.6940002
0.71301907 -0.59230483 1.6900001
0.70663911 -0.58363754 1.6944444
0.71301907 -0.58747625 1.6900001
0.70634454 -0.57402688 1.6943637
0.71521211 -0.57227755 1.6926668
0.70667768 -0.56485534 1.697
0.71535867 -0.56524497 1.6922859
0.70828766 -0.55585659 1.6966667
0.71576506 -0.5551365 1.6958183
0.70744294 -0.54449618 1.694
0.71477717 -0.54821146 1.6980001
0.70882672 -0.53592706 1.6966667
0.71548164 -0.53520131 1.692667
0.70709574 -0.5259757 1.6980001
0.7157197 -0.52597666 1.6936365
0.70992583 -0.5158686 1.6980002
0.71536154 -0.51554024 1.6948
0.70561337 -0.50940001 1.6980002
0.71664304 -0.50522131 1.6958183
0.72267622 -0.50056195 1.6900001
0.71830058 -0.49663886 1.6964
0.72276956 -0.49368006 1.694
0.71801144 -0.48837715 1.6980001
0.72438288 -0.48399621 1.6940001
0.72717524 -0.47597909 1.6980002
0.73256576 -0.47382292 1.6980002
0.72933149 -0.46088573 1.6980001
0.73256576 -0.46412003 1.6980002
0.72717524 -0.45387813 1.6980002
0.73256576 -0.45765147 1.6980001
0.70992583 -0.44471431 1.6980002
0.71308959 -0.4436667 1.694
0.72609717 -0.4479486 1.6980001
0.70986295 -0.43559241 1.694
0.71563965 -0.43550673 1.6924002
0.72685528 -0.43288195 1.696
0.73555243 -0.43296194 1.6900001
0.70992577 -0.42854288 1.6980001
0.71699435 -0.42696229 1.6956002
0.72571468 -0.42534977 1.6955999
0.73366749 -0.42821527 1.6916001
0.7184934 -0.41603622 1.6953334
0.72393006 -0.41454145 1.6920002
0.72539759 -0.40456572 1.6936365
0.72702402 -0.39647204 1.6964
0.73319626 -0.39238197 1.692
0.72825336 -0.38865337 1.6980002
0.73466861 -0.3842957 1.6962222
0.73750925 -0.37440574 1.6953335
0.74360001 -0.37340957 1.6900001
0.73791254 -0.36464447 1.6966667
0.74560606 -0.36473095 1.6945716
0.73741722 -0.35415432 1.6980002
0.74536544 -0.35456645 1.6943637
0.75164765 -0.35248575 1.6900001
0.72933149 -0.34121716 1.6980001
0.73660862 -0.34445146 1.6980001
0.74596614 -0.34538704 1.6960001
0.75321662 -0.34421146 1.6945714
0.72933149 -0.33636576 1.6980001
0.73704731 -0.33572081 1.6964
0.74579549 -0.33459088 1.6972001
0.75459838 -0.33591434 1.6945714
0.73768812 -0.32344875 1.6964
0.74615973 -0.32508731 1.6940001
0.75394702 -0.32305446 1.6900003
0.73741716 -0.3153429 1.6980002
0.74508995 -0.31521755 1.6956002
0.75467891 -0.31380305 1.6932003
0.74415356 -0.30728957 1.6964
0.75516331 -0.3058624 1.697
0.75561005 -0.29553288 1.6980001
0.74873722 -0.28461719 1.6980001
0.75435472 -0.28647 1.697
0.74765915 -0.27491432 1.6980002
0.75183272 -0.27504903 1.6945717
0.746427 -0.26313227 1.6980002
0.7518096 -0.2645829 1.694
0.74550295 -0.25389144 1.6980001
0.75257385 -0.25475335 1.6930001
0.74550295 -0.24418858 1.6980001
0.7528286 -0.24556763 1.6926668
0.74712008 -0.23448575 1.6980002
0.75271052 -0.23532192 1.6924002
0.74873722 -0.22640002 1.6980001
0.75275463 -0.22386695 1.6945714
0.75503242 -0.21457335 1.6940002
0.75844008 -0.20861144 1.6980001
0.76285869 -0.20401675 1.6926668
0.75844008 -0.19405717 1.6980001
0.76302522 -0.19535087 1.6924002
0.77096194 -0.19797145 1.6900001
0.75714636 -0.18532459 1.6980002
0.76381153 -0.1853143 1.6920003
0.74873722 -0.17626858 1.6980002
0.75610518 -0.17545716 1.6964
0.76336294 -0.17634858 1.6910002
0.74873722 -0.16494858 1.6980001
0.75605398 -0.16478044 1.6962858
0.76259243 -0.16513716 1.6900002
0.74873722 -0.15362859 1.6980002
0.75537235 -0.15453595 1.695091
0.76291436 -0.15612383 1.6900003
0.74873722 -0.14392573 1.6980002
0.75474602 -0.14474535 1.6930772
0.76291436 -0.14485715 1.6900003
0.74873722 -0.13584 1.6980001
0.75533026 -0.1339581 1.6946667
0.76360422 -0.13313062 1.6900003
0.75730294 -0.12549779 1.6966667
0.76499003 -0.12390322 1.6936365
0.75844014 -0.11481716 1.6980002
0.76561725 -0.11468192 1.6960001
0.77096194 -0.1142762 1.6900001
0.76561713 -0.10499048 1.6960001
0.76669967 -0.09580709 1.6968572
0.77116954 -0.093573339 1.694
0.76640576 -0.085264012 1.6956002
0.77096194 -0.085304767 1.6900001
0.76531565 -0.075887635 1.6953334
0.77176666 -0.076452389 1.6900001
0.76640576 -0.066532575 1.6956002
0.77176672 -0.065990478 1.6900001
0.76716167 -0.056559734 1.6968572
0.77346897 -0.054230858 1.6948
0.76814288 -0.046897147 1.6980001
0.77482581 -0.04479602 1.6965456
0.78084964 -0.043560009 1.6940001
0.76814288 -0.030725716 1.6980001
0.77455574 -0.032729048 1.697
0.7808035 -0.034510858 1.6932
0.77461147 -0.024257146 1.6980001
0.78237379 -0.024904002 1.6980002
0.76814288 -0.014554287 1.6980002
0.77511853 -0.01483446 1.6965456
0.7826972 -0.011320001 1.6980001
0.76684922 -0.0042045717 1.6980002
0.77461147 -0.0048514283 1.6980001
0.78127652 -0.0043785041 1.6934286
0.76490861 0.0016171429 1.6980001
0.77461147 0.0048514293 1.6980001
0.78384656 0.0048445719 1.6955999
0.79027623 0.0048285718 1.6900001
0.76490867 0.014554287 1.6980002
0.7756896 0.013476192 1.6980002
0.78307754 0.014531429 1.6953332
0.75520575 0.025874287 1.6980001
0.76531291 0.024661431 1.6980001
0.77461147 0.024257142 1.6980001
0.78138608 0.023126986 1.694
0.75520575 0.030725716 1.6980001
0.76583272 0.033497967 1.6980002
0.77461147 0.033960003 1.6980001
0.78096479 0.034724765 1.6960001
0.76814288 0.04204572 1.6980001
0.77461147 0.043662861 1.6980001
0.78350848 0.044739921 1.694364
0.76814288 0.054982863 1.6980001
0.77500987 0.055405725 1.6968572
0.78341818 0.055052385 1.6920003
0.79027623 0.053114288 1.6900001
0.77511853 0.065953434 1.6965456
0.78268868 0.066836193 1.6910002
0.77784574 0.07277143 1.6980001
0.78376454 0.075798109 1.6933335
0.7850191 0.085269101 1.695091
0.79027623 0.086914286 1.6900001
0.78548223 0.095163397 1.6935556
0.78655577 0.1045243 1.6950002
0.79027623 0.10461906 1.6900001
0.78548223 0.11451493 1.6935556
0.79027623 0.11266667 1.6900001
0.78376454 0.12417652 1.6933335
0.79027623 0.12071429 1.6900001
0.77784574 0.13098858 1.6980001
0.78407371 0.13390921 1.6940001
0.78486294 0.14314477 1.6964
0.79477239 0.1450343 1.6906158
0.78674001 0.15443715 1.6980001
0.79401714 0.15362859 1.6980001
0.80340135 0.15609123 1.6935556
0.78593147 0.16494858 1.6980001
0.79545277 0.16522604 1.6953334
0.80262768 0.16213429 1.6940001
0.78471863 0.17667286 1.6980001
0.79433382 0.17538476 1.6946669
0.80315244 0.17221905 1.6900001
0.78541297 0.18562095 1.6948
0.79108101 0.18429048 1.6900001
0.78735203 0.19594936 1.6948
0.79368913 0.19469383 1.6930001
0.7875486 0.2069943 1.6980001
0.79382467 0.20473403 1.6950911
0.8034324 0.20812002 1.694
0.79509288 0.21489576 1.6965456
0.80337495 0.21447201 1.6932001
0.78593147 0.22316572 1.6980001
0.79509288 0.22429769 1.6965456
0.803177 0.22509579 1.6968572
0.81018865 0.22478287 1.6980001
0.79582566 0.23485415 1.6940001
0.80315244 0.23981906 1.6900001
0.79697907 0.24522287 1.6940001
0.79703206 0.25437871 1.6948003
0.80519438 0.25808802 1.6916001
0.79767746 0.26309448 1.6948
0.80416435 0.26603717 1.6930001
0.86270481 0.26879048 1.6900001
0.79554224 0.27577782 1.6966667
0.80439335 0.27551103 1.6945717
0.86270481 0.27200955 1.6900001
0.79509532 0.28677338 1.6980002
0.80491751 0.28551406 1.6937336
0.81280965 0.28488573 1.6900001
0.7962923 0.29496151 1.6944447
0.80447608 0.2948083 1.6935556
0.81326962 0.29720956 1.696
0.7966339 0.30661041 1.6957145
0.80398053 0.30487195 1.6960001
0.81342298 0.30471596 1.6980002
0.7940172 0.3153429 1.6980001
0.8045609 0.31374675 1.6968572
0.8165499 0.31724894 1.6966667
0.80827242 0.32749906 1.694
0.81478864 0.32507852 1.6948
0.80772436 0.33638433 1.6920002
0.81149912 0.3339524 1.694
0.80659008 0.34625381 1.6930001
0.81500602 0.34606183 1.6945717
0.82525909 0.34739369 1.6913335
0.83212388 0.34765714 1.6900001
0.79993337 0.35248575 1.6900001
0.80473155 0.35515106 1.6928574
0.81610018 0.35481545 1.6908891
0.82585436 0.35330147 1.6920002
0.83212388 0.35409528 1.6900001
0.8473829 0.35577145 1.6980001
0.85385156 0.35577145 1.6980001
0.79993337 0.36214289 1.6900001
0.80485296 0.3645356 1.6930772
0.83856195 0.36858097 1.6900001
0.84539056 0.36622667 1.694
0.85439056 0.36331815 1.6980002
0.80639476 0.37414369 1.6948003
0.84530944 0.37185416 1.6932001
0.85223436 0.37194288 1.6980001
0.80673194 0.38258383 1.6950002
0.8113597 0.3867768 1.6964
0.8473829 0.38973147 1.6980001
0.85223436 0.38973147 1.6980001
0.80585611 0.39640194 1.6950911
0.8143732 0.39510414 1.6917779
0.82568574 0.3959429 1.6900003
0.83563703 0.39572689 1.6932001
0.84360957 0.39404386 1.6980002
0.79725146 0.4026686 1.6980001
0.8049615 0.40347195 1.6953334
0.8151077 0.40500769 1.6920003
0.82532233 0.40380603 1.6911432
0.83550018 0.4056319 1.6968572
0.80628663 0.41435832 1.6929092
0.81924766 0.41364765 1.6900001
0.82375443 0.41364765 1.6900002
0.83498478 0.41344959 1.6980002
0.79993337 0.42974287 1.6900001
0.80634457 0.4263064 1.6930772
0.81549209 0.4254508 1.6900003
0.82407624 0.42008573 1.6900001
0.79509389 0.43571192 1.6960001
0.80439442 0.43505719 1.6945717
0.81545383 0.43574813 1.6930003
0.8261404 0.43648452 1.6953334
0.79793894 0.44473395 1.6945714
0.80433863 0.44551504 1.694364
0.81548101 0.44442034 1.6980002
0.82636005 0.44471428 1.6980001
0.8352986 0.4456805 1.6940002
0.8425315 0.4479486 1.6980001
0.79751909 0.45790952 1.6900001
0.80591166 0.4545756 1.6900003
0.81834173 0.45517036 1.6948
0.8260259 0.45495316 1.6940001
0.8350724 0.45388195 1.6960001
0.79523337 0.46570289 1.6920002
0.80315244 0.46837145 1.6900001
0.81683338 0.46515241 1.6900001
0.82761729 0.46450862 1.6900002
0.83343691 0.46265718 1.6926668
0.7875486 0.47382289 1.6980001
0.79582572 0.47431737 1.6940004
0.80637151 0.47480956 1.6900003
0.81602859 0.4744072 1.6900003
0.82407635 0.47480959 1.6900003
0.79531091 0.48223206 1.6980002
0.80453902 0.48466608 1.6944444
0.81659871 0.48596349 1.6972728
0.82322299 0.48469469 1.6926668
0.80210292 0.49969718 1.6980001
0.81595355 0.49662289 1.6965456
0.82290614 0.49567813 1.6953334
0.80653155 0.5039981 1.6922859
0.81502205 0.50404423 1.6908891
0.82517987 0.50490475 1.6916001
0.83282864 0.50940001 1.6980001
0.80744451 0.51558423 1.6900003
0.81659001 0.5136472 1.6920002
0.82480282 0.51489943 1.6948003
0.83282864 0.51263434 1.6980001
0.80479813 0.5244934 1.6980002
0.81611812 0.52449334 1.6980002
0.82474291 0.52395433 1.6980001
0.80695432 0.55791432 1.6980001
0.80695432 0.56438291 1.6980002
0.81018865 0.56438291 1.6980002
-1.0107143 0.72609717 1.6980001
-1.0067163 0.72760952 1.6940001
-0.99777722 0.72933149 1.6980001
-0.97525442 0.72922289 1.6940001
-0.96562111 0.72918671 1.6926668
-0.95896578 0.72933149 1.6980001
-0.89104575 0.72933149 1.6980001
-0.88255566 0.72804135 1.6900001
-0.87719053 0.72750485 1.6900001
-0.81180578 0.72933149 1.6980001
-0.77461147 0.72933149 1.6980002
-0.76403707 0.72791052 1.6932
-0.75526977 0.7262361 1.6936927
-0.74535626 0.72801197 1.694
-0.73505729 0.72924465 1.6948003
-0.7259962 0.72922295 1.6940001
-0.7169475 0.72920126 1.6932001
-0.706581 0.72911435 1.6900001
-0.57408577 0.72933149 1.6980002
-0.56460685 0.72924465 1.6948003
-0.5549829 0.72922295 1.694
-0.54479432 0.7287764 1.6945717
-0.53603518 0.7287764 1.6945717
-0.52588981 0.7287764 1.6945717
-0.51484668 0.72916859 1.692
-0.50497335 0.72922289 1.694
-0.49322861 0.72933149 1.6980001
-0.26036 0.72933149 1.6980001
-0.25524509 0.72918671 1.6926668
-0.24625717 0.72911441 1.6900001
-0.23981906 0.72911435 1.6900001
-0.17543811 0.72911435 1.6900001
-0.16578096 0.72911435 1.6900001
-0.11552953 0.72918671 1.6926668
-1.0039433 0.73316616 1.6964
-0.99461305 0.73486894 1.6940001
-0.98425376 0.73527557 1.6926668
-0.97238171 0.73505467 1.6913335
-0.96454298 0.73241085 1.6926668
-0.95249718 0.73903435 1.6980001
-0.94578409 0.73768806 1.6964
-0.93412006 0.73487151 1.694
-0.92391056 0.73492956 1.6960001
-0.9131391 0.73406672 1.6940001
-0.90436006 0.73402041 1.6926668
-0.89595056 0.7331962 1.6920002
-0.88362861 0.73233336 1.6900001
-0.85425782 0.73791242 1.6966667
-0.84488481 0.73685241 1.6930001
-0.83641875 0.73570102 1.6948
-0.82538676 0.73492956 1.6960001
-0.81546378 0.73246628 1.6945716
-0.8056795 0.7330274 1.6953334
-0.79366803 0.73402166 1.6926669
-0.78459954 0.7353338 1.6960001
-0.77600956 0.73325431 1.694
-0.76452386 0.73233336 1.6900001
-0.75486678 0.73233336 1.6900001
-0.74226862 0.73256576 1.6980001
-0.7387715 0.73233336 1.6900001
-0.72428572 0.73233336 1.6900001
-0.71630859 0.73244953 1.694
-0.70340282 0.73289287 1.6934286
-0.69343638 0.73539484 1.6943637
-0.68405056 0.73654288 1.6960001
-0.67465401 0.73690444 1.6958183
-0.6643253 0.73748171 1.6944444
-0.65462387 0.73523903 1.6930001
-0.6453594 0.73563319 1.6926668
-0.6361255 0.73519868 1.6934286
-0.6259715 0.734061 1.6940002
-0.61539245 0.73243296 1.6934286
-0.60762739 0.73248833 1.6953335
-0.59349149 0.73256576 1.6980002
-0.58378863 0.73256576 1.6980002
-0.57445526 0.73331946 1.6922859
-0.56592512 0.73344517 1.6913335
-0.55528575 0.73233336 1.6900001
-0.54562867 0.73233336 1.6900001
-0.53516668 0.73313814 1.6900001
-0.52631438 0.73233336 1.6900001
-0.51521182 0.73237985 1.6916001
-0.50403941 0.73294735 1.6926668
-0.49466646 0.73289287 1.6934286
-0.48496032 0.73536414 1.6926669
-0.47392687 0.7361185 1.6934286
-0.46441603 0.73629373 1.6932003
-0.45457339 0.73381478 1.6934286
-0.44474173 0.73565143 1.6932001
-0.43521991 0.73611844 1.6934289
-0.42502189 0.73679048 1.6921821
-0.41451621 0.73709482 1.6935556
-0.40397668 0.73691624 1.6950002
-0.39557782 0.73786861 1.6953335
-0.38512346 0.73731357 1.6948
-0.37472999 0.73709488 1.6935556
-0.36539003 0.73682141 1.6920002
-0.35550016 0.73519868 1.6934286
-0.34638056 0.73634785 1.6948
-0.33556956 0.73890299 1.694
-0.32509035 0.73888421 1.6934286
-0.31621337 0.73890293 1.694
-0.30516005 0.73786855 1.6953334
-0.29494524 0.73515004 1.6900003
-0.28533274 0.73509848 1.6926668
-0.27480191 0.73567623 1.6940002
-0.2643759 0.73455942 1.6926668
-0.2559143 0.73394293 1.6900003
-0.24579732 0.73463267 1.6900003
-0.23535746 0.73670924 1.6926669
-0.22478287 0.73903435 1.6980002
-0.21358669 0.73833495 1.6964
-0.2048413 0.73709482 1.6935556
-0.19535087 0.7340126 1.6924002
-0.18538733 0.73348385 1.6926668
-0.17564574 0.73359859 1.6920002
-0.16712067 0.73241085 1.6926668
-0.15314096 0.73348898 1.6926668
-0.14358668 0.73675179 1.694
-0.13352306 0.73629528 1.6932001
-0.12374598 0.73500937 1.6914549
-0.11434191 0.73437428 1.6910002
-0.1048313 0.73519647 1.6934286
-0.09511175 0.73670799 1.6926668
-0.085439362 0.73670799 1.6926668
-0.075826675 0.73890299 1.694
-0.066146672 0.73890299 1.694
-0.058080003 0.73890293 1.6940001
-0.040428575 0.73903435 1.6980001
-0.033880003 0.73890299 1.6940002
-0.024257144 0.73903435 1.6980002
0.017788572 0.73903435 1.6980001
0.02749143 0.73903435 1.6980001
0.034443177 0.73840773 1.6953334
0.04280667 0.73896867 1.6960001
0.05498286 0.73903435 1.6980001
0.063068576 0.73903435 1.6980001
0.27653146 0.73903435 1.6980002
0.28461719 0.73903435 1.6980001
0.31480119 0.73818028 1.6916001
0.32181144 0.73903435 1.6980001
-0.9945429 0.74226862 1.6980001
-0.98699725 0.74206007 1.692
-0.87325722 0.74388576 1.6980001
-0.86463577 0.74289954 1.6930001
-0.85659695 0.74479735 1.6964
-0.84414864 0.74550289 1.6980001
-0.83582801 0.74325407 1.6953334
-0.69048578 0.74199051 1.6900001
-0.6840477 0.74279529 1.6900001
-0.67653656 0.74306357 1.6900001
-0.4249143 0.74199051 1.6900001
-0.41203812 0.74199051 1.6900001
-0.40677905 0.74208325 1.6926668
-0.33478099 0.74199051 1.6900001
-0.32995239 0.74199051 1.6900001
-0.31137335 0.74212956 1.694
-0.23016192 0.74199051 1.6900001
-0.22417773 0.74256963 1.6934286
-0.21511887 0.74210179 1.6932
-0.20440952 0.74199051 1.6900001
-0.14002858 0.74199051 1.6900001
-0.13423429 0.74327815 1.6900002
-0.12554286 0.74199051 1.6900001
-0.075647622 0.74199051 1.6900001
-0.065990478 0.74199051 1.6900001
-0.052203815 0.74217594 1.6953334
-0.044703901 0.74355632 1.6929092
-0.032995239 0.74279529 1.6900001
-0.024180954 0.74315625 1.6926668
-0.014230477 0.74507284 1.694364
-0.0048428569 0.74579531 1.6949999
0.0041946666 0.74535322 1.6940001
0.014808141 0.74475342 1.6936365
0.023731973 0.74256963 1.6934286
0.03318515 0.74269003 1.6916001
0.045102231 0.74471945 1.6913337
0.055561639 0.745143 1.6945716
0.066146672 0.74535245 1.6940001
0.075852253 0.74629915 1.6945714
0.085961431 0.74700624 1.6950001
0.09526287 0.74594045 1.6953334
