# .PCD v0.7 - Point Cloud Data file format
VERSION 0.7
FIELDS x y z
SIZE 4 4 4
TYPE F F F
COUNT 1 1 1
WIDTH 1488
HEIGHT 1
VIEWPOINT 0 0 0 1 0 0 0
POINTS 1488
DATA ascii
0.70516431 -0.32427606 1.7410002
0.71132296 -0.32332861 1.7410001
0.70601702 -0.3147065 1.7410001
0.71132296 -0.31338 1.7410001
0.70563811 -0.30390522 1.7410002
0.71331263 -0.30210498 1.7410001
0.72127146 -0.30011526 1.7410001
0.70800674 -0.29679906 1.7410001
0.71463907 -0.29348287 1.7410001
0.7229296 -0.2934829 1.7410001
0.70601702 -0.28486079 1.7410001
0.71463907 -0.28353432 1.7410001
0.72127146 -0.2851924 1.7410001
0.70800674 -0.27690193 1.7410001
0.71463901 -0.27358574 1.7410001
0.70800674 -0.26363716 1.7410001
0.71505356 -0.26322263 1.7410001
0.70800674 -0.25037241 1.7410001
0.71397585 -0.25302535 1.7410001
0.70634866 -0.2470562 1.7410001
0.71331263 -0.24440327 1.7410001
0.71519178 -0.23379146 1.7410001
0.71629715 -0.22384286 1.7410001
0.72127146 -0.22550097 1.7410001
0.71629715 -0.21389431 1.7410001
0.72127146 -0.21555239 1.7410001
0.70800674 -0.20228763 1.7410001
0.71463907 -0.20394574 1.7410002
0.71331257 -0.19532363 1.7410001
0.71408641 -0.18404859 1.7410001
0.71795529 -0.17410001 1.7410001
0.7221005 -0.17327096 1.7410001
0.71795529 -0.16083525 1.7410001
0.72348231 -0.16525683 1.7410001
0.71795529 -0.15420286 1.7410001
0.72127146 -0.15420286 1.7410001
0.71795529 -0.1442543 1.7410001
0.72127146 -0.1442543 1.7410001
0.71795529 -0.13264763 1.7410001
0.72417319 -0.1338912 1.7410001
0.73122007 -0.13098954 1.7410001
0.71795529 -0.12435715 1.7410001
0.72500223 -0.12477167 1.7410001
0.73122007 -0.12767334 1.7410001
0.72624576 -0.11440858 1.7410001
0.72790384 -0.10446 1.7410001
0.72624576 -0.094511434 1.7410001
0.73232549 -0.092300639 1.7410001
0.72541672 -0.082904771 1.7410001
0.73358881 -0.084562868 1.7410002
0.72553515 -0.075088039 1.7410002
0.73204911 -0.075443335 1.7410001
0.72500217 -0.064251192 1.7410001
0.73122013 -0.06466572 1.7410001
0.71795529 -0.058033336 1.7410001
0.72458774 -0.05471715 1.7410001
0.73122013 -0.054717146 1.7410001
0.71795529 -0.043110482 1.7410001
0.72458768 -0.044768572 1.7410001
0.73122013 -0.044768579 1.7410001
0.71795529 -0.034820005 1.7410001
0.72500217 -0.035234522 1.7410001
0.73453629 -0.031503811 1.7410001
0.74614286 -0.031503811 1.7410001
0.75277531 -0.031503811 1.7410001
0.72624576 -0.024871429 1.7410001
0.73453635 -0.024871429 1.7410001
0.74448472 -0.024871428 1.7410001
0.75244367 -0.025534669 1.7410001
0.7265774 -0.015586096 1.7410001
0.73453629 -0.014922857 1.7410001
0.7428267 -0.014922859 1.7410001
0.72624576 -0.0033161906 1.7410001
0.73406255 -0.0059217694 1.7410002
0.74116862 -0.0082904771 1.7410001
0.72679847 0.0027634925 1.7410001
0.73398352 0.0049742865 1.7410001
0.73652601 0.014259621 1.7410001
0.74116862 0.018239049 1.7410001
0.73785245 0.024871429 1.7410001
0.7428267 0.024871431 1.7410001
0.73495078 0.035234526 1.7410001
0.74407029 0.035234526 1.7410001
0.72790384 0.046426669 1.7410001
0.73453629 0.044768576 1.7410001
0.74448472 0.044768572 1.7410001
0.72790384 0.053059049 1.7410001
0.73453629 0.05471715 1.7410001
0.74448472 0.05513167 1.7410001
0.75111717 0.054717146 1.7410001
0.72790384 0.06466572 1.7410001
0.73453629 0.064665712 1.7410001
0.74393219 0.063560322 1.7410001
0.73495078 0.074199766 1.7410001
0.74448472 0.074614301 1.7410001
0.75111717 0.076272383 1.7410001
0.73702335 0.083733819 1.7410001
0.74448478 0.084562868 1.7410001
0.75332803 0.085668266 1.7410001
0.73785245 0.091195241 1.7410001
0.74531388 0.092853338 1.7410001
0.75401884 0.094096906 1.7410001
0.74780101 0.10280191 1.7410001
0.75401884 0.10487452 1.7410001
0.74614298 0.11440858 1.7410001
0.75360435 0.11192144 1.7410001
0.73785245 0.12767334 1.7410001
0.74393219 0.12435716 1.7410001
0.73785245 0.13430572 1.7410001
0.74116868 0.13430572 1.7410001
0.73785245 0.1442543 1.7410001
0.7419976 0.14508334 1.7410001
0.74448478 0.15420285 1.7410001
0.74543232 0.16367772 1.7410002
0.75111717 0.16249335 1.7410001
0.74697196 0.17327096 1.7410001
0.75277531 0.17410003 1.7410001
0.74581134 0.18537506 1.7410001
0.75401884 0.18446311 1.7410001
0.76217121 0.18625937 1.7410001
0.73652601 0.19466041 1.7410001
0.74448478 0.19399716 1.7410001
0.75443345 0.19399716 1.7410001
0.76438206 0.19399716 1.7410001
0.73619437 0.20062953 1.7410001
0.74401104 0.20489322 1.7410002
0.75443339 0.20394571 1.7410001
0.764382 0.20394571 1.7410001
0.74543226 0.21342055 1.7410002
0.75443345 0.21389428 1.7410001
0.76272386 0.21389429 1.7410001
0.74614286 0.22218478 1.7410001
0.75443339 0.22218478 1.7410001
0.76382923 0.22439556 1.7410001
0.76396745 0.23337692 1.7410001
0.77101433 0.23379144 1.7410001
0.75509661 0.24572973 1.7410001
0.76217121 0.24263462 1.7410001
0.74614286 0.25203049 1.7410001
0.75277531 0.25037241 1.7410001
0.74780101 0.26197904 1.7410001
0.75222254 0.26253176 1.7410001
0.764382 0.26695335 1.7410001
0.77267241 0.26695335 1.7410001
0.76570845 0.27358577 1.7410001
0.77211976 0.27469116 1.7410001
0.75609148 0.29514098 1.7410001
0.76548737 0.2956937 1.7410001
0.77350152 0.29597002 1.7410001
0.78096288 0.29679906 1.7410001
0.75692052 0.30426049 1.7410001
0.7647965 0.303846 1.7410001
0.7743305 0.30343145 1.7410001
0.78317374 0.30453688 1.7410001
0.75774956 0.31338 1.7410001
0.764382 0.31338 1.7410001
0.7743305 0.31338003 1.7410001
0.78262103 0.31338 1.7410001
0.75609148 0.32332858 1.7410001
0.7651189 0.32406551 1.7410001
0.7751596 0.32084143 1.7410001
0.78096288 0.32167047 1.7410001
0.75609148 0.33825147 1.7410001
0.7647965 0.33700791 1.7410001
0.77101433 0.33990955 1.7410001
0.75774956 0.34322575 1.7410001
0.76769817 0.34322575 1.7410001
0.77433056 0.34654194 1.7410002
0.78262103 0.34820002 1.7410001
0.77474505 0.35607594 1.7410001
0.78096288 0.3531743 1.7410001
0.77433056 0.36478096 1.7410001
0.75664419 0.37859845 1.7410001
0.76106578 0.37638766 1.7410001
0.75609148 0.38302001 1.7410001
0.764382 0.40678608 1.7410001
0.77433056 0.40789145 1.7410001
0.7647965 0.4165965 1.7410001
0.7743305 0.41618192 1.7410001
0.78096288 0.41618192 1.7410001
0.76769817 0.42447239 1.7410001
0.77433056 0.42447242 1.7410001
0.78427911 0.42613053 1.7410001
0.79339862 0.42695957 1.7410001
0.80086005 0.42281431 1.7410001
0.78759527 0.43276289 1.7410001
0.7909115 0.43276289 1.7410001
0.78427911 0.44934386 1.7410001
0.77267247 0.45514715 1.7410001
0.78262103 0.45431811 1.7410001
0.77101433 0.48913813 1.7410001
0.78759527 0.48913813 1.7410001
0.77300406 0.49709699 1.7410001
0.78427911 0.49577051 1.7410001
0.76272386 0.50571907 1.7410001
0.77322519 0.50682449 1.7410001
0.76604009 0.51566768 1.7410001
0.7743305 0.51566774 1.7410001
0.78096288 0.51566768 1.7410001
0.76604009 0.5223 1.7410001
0.77433056 0.52561617 1.7410001
0.77433056 0.53224862 1.7410001
0.78206825 0.53777564 1.7410001
0.77764672 0.54385531 1.7410001
0.78427911 0.54385531 1.7410001
0.79256958 0.54385531 1.7410001
0.78510815 0.57784623 1.7410001
0.7909115 0.57701719 1.7410001
0.80417627 0.57535911 1.7410001
0.7909115 0.58364958 1.7410001
0.78593719 0.73785245 1.7410001
0.78759527 0.7428267 1.7410001
0.79356444 0.74448484 1.7410001
0.80086005 0.74448478 1.7410001
0.7967149 0.75360435 1.7410001
0.80086011 0.75443339 1.7410001
0.79754388 0.764382 1.7410001
0.80417627 0.7635529 1.7410001
0.79754388 0.77101433 1.7410001
0.80417627 0.77101433 1.7410001
0.65500003 -0.67166668 1.7500001
0.65500003 -0.66833335 1.7500001
0.64496672 -0.64329147 1.7590001
0.65166765 -0.64329147 1.7590001
0.66837668 -0.6416415 1.7545002
0.67177051 -0.64161623 1.7590001
0.64496678 -0.63395804 1.7590001
0.65501815 -0.63491523 1.7589999
0.66566294 -0.63462764 1.7573638
0.67166668 -0.63833338 1.7500001
0.64580435 -0.62653905 1.7590001
0.65459931 -0.62528265 1.7589999
0.66539943 -0.62531567 1.7540001
0.67333341 -0.62500006 1.7500001
0.65701777 -0.61756098 1.7554001
0.66470844 -0.6142174 1.7554001
0.67166668 -0.61166668 1.7500001
0.66470331 -0.60485655 1.7554001
0.65836859 -0.59303433 1.7590001
0.66436994 -0.59449244 1.7554001
0.65702838 -0.58532828 1.7590001
0.6650306 -0.58482909 1.7545002
0.66503775 -0.5747692 1.75525
0.67177051 -0.57125622 1.7590001
0.66842002 -0.56623054 1.7590001
0.67177051 -0.56455529 1.7590002
0.6728124 -0.55428195 1.7530001
0.68182194 -0.55115336 1.7590001
0.67651999 -0.54413027 1.7564287
0.68177021 -0.54240704 1.7560003
0.67573929 -0.5353176 1.7554001
0.68311751 -0.53539318 1.7512859
0.66730326 -0.52211595 1.7590002
0.67536753 -0.52403605 1.7549093
0.68174434 -0.52466619 1.7545002
0.66674483 -0.51429814 1.7590001
0.67510563 -0.51437801 1.758
0.68359369 -0.51633084 1.7512859
0.66674483 -0.50424671 1.7590001
0.67535496 -0.50496227 1.7540911
0.66649312 -0.49478644 1.7577144
0.6747238 -0.49493441 1.7545
0.68174434 -0.49460623 1.7545002
0.65836859 -0.48079336 1.7590001
0.6645835 -0.485221 1.7577144
0.67396957 -0.48442927 1.756
0.68372881 -0.48532763 1.7536001
0.69166672 -0.48166668 1.7500001
0.66254359 -0.47515267 1.7567501
0.67504245 -0.47345474 1.7532729
0.68504691 -0.47521204 1.7525716
0.69166672 -0.47166669 1.7500001
0.67623782 -0.46515784 1.7590001
0.68534672 -0.46422595 1.7548463
0.6917184 -0.46392265 1.7522502
0.67847145 -0.45734003 1.7590001
0.68517238 -0.45398957 1.7589999
0.69257754 -0.45503774 1.7533751
0.67847145 -0.44058764 1.7590001
0.68559122 -0.44393814 1.7589999
0.69277167 -0.44424155 1.7564287
0.67735469 -0.43500352 1.7590002
0.6855045 -0.43413413 1.757
0.69317222 -0.43276921 1.7572001
0.68737447 -0.42458782 1.7575001
0.69180453 -0.42310673 1.756
0.68728542 -0.41348928 1.7530001
0.69177008 -0.41773385 1.7545002
0.68718272 -0.40306234 1.7590001
0.69351137 -0.40282974 1.7575001
0.68684769 -0.39703146 1.7590001
0.69633579 -0.39458358 1.7549093
0.70333338 -0.39166668 1.7500001
0.69737715 -0.38408637 1.756
0.70333338 -0.38500005 1.7500002
0.69700491 -0.37330753 1.756
0.70166671 -0.37500006 1.7500002
0.68852288 -0.3635267 1.7590001
0.69607186 -0.36423311 1.7565455
0.70166671 -0.36666667 1.7500001
0.68852288 -0.35682574 1.7590001
0.69513434 -0.35442194 1.7554001
0.69700688 -0.34469 1.756
0.7019248 -0.34342384 1.7590001
0.69849396 -0.33502609 1.756
0.70186031 -0.33294594 1.7567501
0.6985743 -0.32332098 1.7590001
0.70394635 -0.32573992 1.7520001
0.6985743 -0.31829524 1.7590001
0.70374417 -0.31481937 1.7527001
0.6985743 -0.30489337 1.7590001
0.70304793 -0.3053655 1.7545
0.6985743 -0.29986763 1.7590001
0.70543563 -0.29588503 1.7552502
0.7116667 -0.29333335 1.7500001
0.68852288 -0.28311527 1.7590001
0.69665939 -0.28613809 1.757
0.70419902 -0.28393111 1.7511251
0.68684769 -0.27976477 1.7590001
0.69522381 -0.2764143 1.7589999
0.70513338 -0.27570719 1.7545002
0.7116667 -0.27333334 1.7500001
0.69645023 -0.267028 1.757875
0.70509863 -0.26518792 1.7532729
0.71277779 -0.26611114 1.7500002
0.69689912 -0.25631142 1.7590001
0.70483416 -0.25554931 1.7537501
0.71416664 -0.25750002 1.7500001
0.69745749 -0.24849367 1.7590002
0.70451605 -0.24526665 1.754091
0.71277779 -0.24277781 1.7500002
0.68852288 -0.23285811 1.7590001
0.69522387 -0.23285811 1.7590001
0.70714802 -0.23603594 1.7577144
0.71270746 -0.23534533 1.7525716
0.69410706 -0.22839081 1.7590002
0.70695055 -0.22615717 1.7590001
0.71288097 -0.22538573 1.753
0.70669943 -0.21511737 1.757
0.71313947 -0.21563664 1.7512859
0.70741153 -0.20570289 1.756
0.71333337 -0.20833334 1.7500001
0.70741147 -0.19566858 1.756
0.71166676 -0.19500002 1.7500002
0.70862573 -0.18762669 1.7590001
0.71227562 -0.18493159 1.7538573
0.71516192 -0.17544714 1.7545002
0.70862573 -0.1624981 1.7590001
0.7160784 -0.16563645 1.7567501
0.72166669 -0.16666669 1.7500001
0.70695055 -0.15579715 1.7590001
0.71544844 -0.15566693 1.754091
0.71727955 -0.14512144 1.7515001
0.71850526 -0.13534716 1.7545002
0.72166669 -0.13833334 1.7500001
0.71841931 -0.12516072 1.7522501
0.72277784 -0.1238889 1.7500002
0.71847087 -0.1145665 1.7536001
0.72333336 -0.11500001 1.7500002
0.7052753 -0.10721524 1.7590001
0.71867722 -0.10554001 1.7590002
0.72425699 -0.10513502 1.7522501
0.70661551 -0.096828766 1.7590001
0.7160784 -0.095366433 1.7567501
0.72333336 -0.095000014 1.7500002
0.71628398 -0.085915789 1.7590001
0.72377509 -0.085797809 1.7527001
0.73166674 -0.085000008 1.7500001
0.71700191 -0.07538572 1.7590001
0.72263545 -0.074727975 1.7533751
0.70847952 -0.061825242 1.7545002
0.71608049 -0.064836197 1.75675
0.72234261 -0.066225395 1.7530001
0.70840645 -0.055908337 1.7522501
0.71622193 -0.05509048 1.753
0.72166669 -0.053333335 1.7500001
0.70840645 -0.044220239 1.7522501
0.71581525 -0.045055237 1.7520001
0.72166669 -0.048333336 1.7500001
0.71485555 -0.035072144 1.7537502
0.72500002 -0.03166667 1.7500001
0.70862573 -0.028479049 1.7590001
0.71424413 -0.025032146 1.7522502
0.72333336 -0.025000004 1.7500002
0.71700191 -0.015077143 1.7590001
0.72381282 -0.01469581 1.7536001
0.71733695 -0.0056958101 1.7590001
0.72381282 -0.0053453334 1.7536001
0.73166674 -0.0083333338 1.7500001
0.71616435 0.0041880957 1.7590001
0.72422379 0.0053139399 1.7532729
0.73333341 0.0083333338 1.7500001
0.71532667 0.011726667 1.7590001
0.72557652 0.014754634 1.7565455
0.7338016 0.01584512 1.7511251
0.71867716 0.023453336 1.7590001
0.72537816 0.025128571 1.7589999
0.73458338 0.02504429 1.7530001
0.71756029 0.03629683 1.7590002
0.72523755 0.035416014 1.7557273
0.73241585 0.033699241 1.7518002
0.72748005 0.045154288 1.756
0.73166674 0.041666668 1.7500001
0.72803849 0.054074608 1.756
0.73187292 0.05848334 1.7545002
0.71700191 0.068684764 1.7590001
0.72648877 0.065243125 1.7565455
0.71756029 0.0742689 1.7590002
0.72593653 0.074827313 1.7590001
0.73231965 0.075641505 1.7538573
0.728531 0.085218579 1.7545002
0.73458338 0.085416667 1.7500001
0.72872859 0.093813345 1.7590001
0.73421139 0.094914392 1.7545
0.74428272 0.096790954 1.7522501
0.75166672 0.095000006 1.7500001
0.73542958 0.10458274 1.7590001
0.74460053 0.10518144 1.7530001
0.75166672 0.10833334 1.7500001
0.74335617 0.11526096 1.7540001
0.73584443 0.12746315 1.7577144
0.74328178 0.12337887 1.7554001
0.73621482 0.1350138 1.7545
0.73625439 0.14524859 1.753
0.73693949 0.15508369 1.755625
0.74178267 0.15603691 1.7522502
0.73710477 0.1624981 1.7590001
0.74412668 0.16542432 1.7545002
0.74649268 0.17586881 1.7545
0.74670595 0.18458886 1.7551429
0.72872859 0.19767812 1.7590001
0.7345919 0.19851574 1.7590001
0.74213052 0.19265239 1.7590001
0.72872859 0.20270382 1.7590001
0.73458457 0.20578383 1.7540911
0.74166673 0.20666668 1.7500001
0.73695886 0.21462606 1.756
0.7432965 0.21643119 1.7538573
0.73878002 0.22448191 1.7590001
0.74489498 0.22564287 1.755
0.75500005 0.22833335 1.7500002
0.76166672 0.22833335 1.7500001
0.74883145 0.23453334 1.7590001
0.75494123 0.2355036 1.7537501
0.76166672 0.23500001 1.7500002
0.75461042 0.24509546 1.756
0.76166672 0.24166669 1.7500001
0.74682993 0.2554343 1.7530001
0.74883145 0.26468766 1.7590001
0.75542253 0.26742706 1.7572001
0.76166672 0.26833335 1.7500001
0.75748909 0.27606073 1.75675
0.76373589 0.2754041 1.7525716
0.75623477 0.28693265 1.75675
0.76489848 0.28525129 1.7536001
0.77619374 0.28646573 1.7590001
0.73878002 0.29986763 1.7590001
0.74648714 0.29729494 1.757
0.75381446 0.2943542 1.7511251
0.76500005 0.29366669 1.7500002
0.77579373 0.29330346 1.7518002
0.74548101 0.30321813 1.7590002
0.75463134 0.30541158 1.7540911
0.76500005 0.30166668 1.7500001
0.75642765 0.31562766 1.7572001
0.76223338 0.31997049 1.7590001
0.75542599 0.32499701 1.7572001
0.76378006 0.32599756 1.7518002
0.75630349 0.33441132 1.757875
0.76510519 0.33432969 1.7590001
0.74773192 0.34482902 1.7564287
0.75423306 0.34426403 1.7524546
0.76666671 0.34666669 1.7500001
0.74643368 0.35324281 1.756
0.75527054 0.3542462 1.7545002
0.74715626 0.36017621 1.7590001
0.75553244 0.36352673 1.7589999
0.76223344 0.3635267 1.7590002
0.75637007 0.37106526 1.7590001
0.76390862 0.37190288 1.7590001
0.75609958 0.38598573 1.7545002
0.76388896 0.38500005 1.7500002
0.75888288 0.39033049 1.7590001
0.76390862 0.39535621 1.7590001
0.75721061 0.40489951 1.756
0.76256353 0.40315276 1.7536001
0.75799304 0.4129301 1.7554001
0.76287222 0.41480017 1.7515001
0.78611112 0.41611117 1.7500002
0.79406291 0.4154591 1.7590001
0.75860816 0.42274672 1.7545002
0.76452386 0.4259524 1.7500002
0.78833336 0.42166668 1.7500001
0.76725912 0.43556195 1.7590001
0.77228481 0.43556195 1.7590001
0.7661745 0.44451731 1.7540911
0.77187276 0.44464037 1.7530001
0.7666837 0.45305696 1.7554001
0.77566671 0.45433336 1.7500002
0.7816667 0.45500004 1.7500001
0.77483469 0.46222591 1.7572001
0.7816667 0.4616667 1.7500001
0.76725912 0.48749432 1.7590001
0.76501912 0.49397981 1.75675
0.77191395 0.49534822 1.7536001
0.75888288 0.50424671 1.7590001
0.76558381 0.50424671 1.7589999
0.77449405 0.50494063 1.7564287
0.78333336 0.50500005 1.7500001
0.76725912 0.51597333 1.7590001
0.7756353 0.51346052 1.7590001
0.76558387 0.52099907 1.7590001
0.77228481 0.55617905 1.7590001
0.78401148 0.55450386 1.7590001
0.76725912 0.56455529 1.7590001
0.7678175 0.57237309 1.7590002
0.77786893 0.7477147 1.7590002
0.78568673 0.74548101 1.7590002
0.79238766 0.74883145 1.7590001
0.77786893 0.75664926 1.7590002
0.78568673 0.75888288 1.7590001
0.79338861 0.7551775 1.753
0.8033334 0.75166672 1.7500001
0.75833338 0.76666671 1.7500001
0.76558387 0.76725912 1.7590001
0.77731055 0.76558387 1.7590001
0.79706627 0.7650243 1.7577144
0.80435979 0.76848364 1.7522501
0.76558387 0.77228481 1.7590001
0.77720469 0.77608502 1.7575001
0.78233624 0.77396005 1.7590001
0.79908866 0.77563524 1.7590002
0.80346358 0.77471453 1.7554001
0.77675211 0.78456992 1.7590002
0.64826673 -0.67520767 1.7680001
0.65163434 -0.67520767 1.7680001
0.64742482 -0.66426289 1.7680001
0.65500194 -0.66510481 1.768
0.64658296 -0.65500194 1.768
0.65403974 -0.65548301 1.768
0.64405721 -0.64405721 1.7680001
0.65432847 -0.6455726 1.768
0.66426289 -0.64574099 1.7680001
0.64153147 -0.63479626 1.7680001
0.63816386 -0.62300956 1.7680001
0.64489913 -0.62469339 1.7679999
0.65275693 -0.62357086 1.7680001
0.64826673 -0.61795813 1.7680001
0.65500194 -0.61459047 1.7679999
0.6628598 -0.61459053 1.7680001
0.65542287 -0.60490865 1.7679999
0.6617372 -0.60448766 1.7680001
0.65556324 -0.59438479 1.768
0.65668571 -0.58428192 1.7680001
0.6617372 -0.58091432 1.7680001
0.65702248 -0.57350558 1.768
0.66375774 -0.57283205 1.768
0.65500194 -0.56744385 1.7680001
0.66712534 -0.56474972 1.768
0.67184007 -0.56239241 1.7680001
0.67453414 -0.55397338 1.768
0.68194288 -0.55397338 1.7680001
0.66510481 -0.54050291 1.7680001
0.67408514 -0.54387051 1.7680001
0.66510481 -0.53334671 1.7679999
0.67478675 -0.53418863 1.7679999
0.65836954 -0.52029717 1.7680001
0.66510481 -0.52366477 1.768
0.65836954 -0.51692957 1.7680001
0.6637578 -0.5142355 1.768
0.65836954 -0.50009143 1.7680001
0.6637578 -0.50278562 1.768
0.6628598 -0.4956013 1.7680001
0.65668571 -0.48325336 1.7680001
0.6628598 -0.48886606 1.7680001
0.67184007 -0.48325336 1.7680001
0.65752763 -0.47736007 1.7680001
0.66454357 -0.47651815 1.768
0.67268193 -0.47651815 1.7680001
0.65836954 -0.46978289 1.7680001
0.66552579 -0.46683618 1.7679999
0.67408514 -0.46529269 1.768
0.66847241 -0.45968002 1.7680001
0.67616993 -0.45679355 1.768
0.68194288 -0.45462859 1.7680001
0.67722821 -0.44620958 1.768
0.68306541 -0.44733211 1.7680001
0.67478669 -0.43610668 1.7679999
0.68362671 -0.43273908 1.7680001
0.66510487 -0.42432007 1.768
0.67520761 -0.42600384 1.7679999
0.68434834 -0.42552274 1.768
0.66622734 -0.41702351 1.768
0.67520773 -0.41590095 1.7679999
0.68531054 -0.41590095 1.7679999
0.69372952 -0.41253337 1.7680001
0.67568886 -0.40579811 1.768
0.6843484 -0.40627924 1.768
0.67576903 -0.39625654 1.768
0.68488955 -0.39527431 1.7679999
0.69372952 -0.39401147 1.7680001
0.67857528 -0.3855924 1.7680001
0.68573147 -0.38517147 1.7679999
0.69372958 -0.38559243 1.768
0.68733114 -0.3761631 1.768
0.69429082 -0.37661213 1.768
0.67857528 -0.36201906 1.7680001
0.68531054 -0.36538666 1.7679999
0.69204575 -0.36538669 1.7680001
0.67773336 -0.35612574 1.7680001
0.68531054 -0.35528383 1.7679999
0.69316834 -0.35303876 1.7680001
0.67857528 -0.34518099 1.7680001
0.68531054 -0.34518096 1.7679999
0.69372958 -0.34518099 1.768
0.67857528 -0.33676192 1.7680001
0.68531054 -0.33676192 1.768
0.69541335 -0.33507809 1.7679999
0.70214862 -0.33507812 1.7680001
0.69541335 -0.32497525 1.7679999
0.70214862 -0.32834288 1.7680001
0.69583428 -0.31529337 1.7679999
0.70214862 -0.31318861 1.7680001
0.68867815 -0.30140191 1.7680001
0.69583428 -0.30434856 1.7679999
0.67520767 -0.29803431 1.7680001
0.68733114 -0.29399318 1.768
0.69499242 -0.29508764 1.7679999
0.70214862 -0.29635048 1.7680001
0.68531054 -0.28456384 1.768
0.69372952 -0.28793144 1.7680001
0.68699443 -0.27446097 1.768
0.69204581 -0.27446097 1.7680001
0.68733114 -0.26503164 1.768
0.69372958 -0.2643581 1.768
0.69372958 -0.25425526 1.768
0.68665761 -0.24415241 1.768
0.69541335 -0.24415238 1.7679999
0.70327115 -0.24190733 1.7680001
0.68733114 -0.23472308 1.768
0.69473982 -0.23539661 1.768
0.70383251 -0.23404954 1.768
0.68755567 -0.22506921 1.7680001
0.69499236 -0.22352572 1.7679999
0.70383239 -0.22394668 1.768
0.68867815 -0.21552762 1.7680001
0.69541335 -0.21384382 1.7679999
0.70349568 -0.21384382 1.768
0.69583434 -0.20374098 1.7679999
0.70383251 -0.20374098 1.768
0.69637561 -0.19411919 1.768
0.70455414 -0.19315703 1.768
0.69878101 -0.18353526 1.7680001
0.70551622 -0.18353526 1.7679999
0.71225148 -0.18185145 1.7680001
0.70551622 -0.17343241 1.7679999
0.71225154 -0.17343239 1.7680001
0.69878101 -0.16501334 1.7680001
0.70551622 -0.16501334 1.768
0.71225148 -0.16669716 1.7680001
0.69878101 -0.15659429 1.7680001
0.70455402 -0.15707538 1.768
0.71393526 -0.15322667 1.7680001
0.69878101 -0.14649144 1.7680001
0.70551616 -0.14649144 1.7679999
0.71561909 -0.14649145 1.7679999
0.69878101 -0.13638858 1.7680001
0.70551616 -0.1363886 1.7679999
0.71561909 -0.1363886 1.7679999
0.69653594 -0.12516318 1.7680001
0.70551622 -0.12628573 1.7679999
0.71561903 -0.12628573 1.7679999
0.72235435 -0.12628572 1.7680001
0.69429082 -0.11506033 1.768
0.70551616 -0.11618286 1.7679999
0.71561903 -0.11618287 1.7679999
0.72235435 -0.11955048 1.7680001
0.69637555 -0.1065611 1.768
0.70455402 -0.10559892 1.768
0.71561909 -0.10608 1.7679999
0.69709718 -0.09597715 1.768
0.70503515 -0.095014974 1.768
0.70599735 -0.086836465 1.768
0.71359849 -0.085200764 1.768
0.70720005 -0.075771436 1.7680001
0.71393532 -0.075771444 1.768
0.70720005 -0.065668575 1.768
0.71337402 -0.067913651 1.7680001
0.69878101 -0.058933336 1.7680001
0.70647842 -0.056046806 1.768
0.71225148 -0.053881906 1.7680001
0.70720005 -0.045462862 1.768
0.71225148 -0.047146671 1.7680001
0.70720005 -0.035360005 1.768
0.71225154 -0.035360001 1.7680001
0.70720005 -0.025257144 1.768
0.71225148 -0.023573335 1.7680001
0.70720005 -0.016838096 1.7680001
0.71427202 -0.01582781 1.768
0.716461 -0.004209524 1.7680001
0.71561909 0.0056126988 1.768
0.72235435 0.008419048 1.7680001
0.71561909 0.015575239 1.7679999
0.72235435 0.016838096 1.7680001
0.71561903 0.025257142 1.7679999
0.72235435 0.028624764 1.7680001
0.70888388 0.038727622 1.7680001
0.71561915 0.035841092 1.768
0.72235435 0.031992383 1.7680001
0.70214862 0.04209524 1.7680001
0.71898669 0.043779053 1.7680001
0.72403812 0.045462862 1.768
0.72530103 0.055986673 1.7679999
0.71696615 0.064995058 1.768
0.72347689 0.064546041 1.7680001
0.70720005 0.07408762 1.7680001
0.71618044 0.075771444 1.768
0.72656387 0.077455245 1.7680001
0.71730292 0.085874289 1.768
0.72572201 0.085874297 1.7679999
0.71730298 0.09597715 1.768
0.72572201 0.09597715 1.7679999
0.73245722 0.099344768 1.7680001
0.71814483 0.10692191 1.7680001
0.72572196 0.10608 1.7679999
0.73329914 0.10692191 1.7680001
0.74256003 0.10944763 1.7680001
0.71786422 0.11506033 1.7680001
0.72684455 0.11506033 1.768
0.73582482 0.11618286 1.7679999
0.74256009 0.11618286 1.7680001
0.72908962 0.12628573 1.7680001
0.73447776 0.12493868 1.768
0.74256003 0.12291811 1.7680001
0.71898669 0.13638858 1.7680001
0.72572196 0.13638858 1.7679999
0.73380429 0.13706212 1.768
0.71814477 0.14733335 1.7680001
0.72572196 0.14649145 1.7679999
0.73414105 0.14649145 1.768
0.70888388 0.15659429 1.7680001
0.71674168 0.15547174 1.768
0.72459948 0.15547174 1.768
0.73498291 0.15575239 1.7680001
0.71898669 0.16332954 1.7680001
0.72403812 0.16332954 1.7680001
0.73582482 0.16501334 1.7680001
0.74424386 0.16669716 1.7680001
0.73919243 0.17343239 1.7680001
0.74424386 0.17343239 1.768
0.73919243 0.18353526 1.7680001
0.74424386 0.18353525 1.768
0.72908956 0.19700573 1.7680001
0.73630595 0.19267593 1.768
0.74340189 0.1927962 1.7680001
0.72668415 0.20374098 1.768
0.73245722 0.20710859 1.7680001
0.72908956 0.2104762 1.7680001
0.73414099 0.21384382 1.7680001
0.73835051 0.22310477 1.7680001
0.7455067 0.2344705 1.7679999
0.73717189 0.24415238 1.768
0.74592763 0.24415241 1.7679999
0.7526629 0.24415241 1.7680001
0.73750865 0.25762287 1.7680001
0.74648899 0.25425526 1.768
0.7526629 0.25088763 1.7680001
0.73582482 0.2609905 1.7680001
0.74688989 0.26387703 1.768
0.74929529 0.2778286 1.7680001
0.75434673 0.274461 1.768
0.7472747 0.28591087 1.768
0.75434673 0.28456384 1.768
0.78633916 0.28793144 1.7680001
0.73919243 0.29635048 1.7680001
0.74544656 0.29370451 1.768
0.7526629 0.29129907 1.7680001
0.73624575 0.30434859 1.7679999
0.74508572 0.30729526 1.7680001
0.7526629 0.30813715 1.7680001
0.74660122 0.31419888 1.768
0.7526629 0.31487241 1.7680001
0.75400996 0.32430175 1.768
0.74817276 0.33732319 1.7680001
0.75400996 0.33440456 1.768
0.73678702 0.34566209 1.768
0.74496549 0.34469992 1.768
0.73624575 0.35486287 1.7679999
0.74390709 0.35528383 1.768
0.73717189 0.36606023 1.768
0.7455067 0.36580765 1.7679999
0.7526629 0.3670705 1.7680001
0.74676955 0.37296385 1.7680001
0.75554949 0.37645176 1.768
0.76613343 0.3788572 1.7680001
0.75651163 0.38511136 1.768
0.7644496 0.3822248 1.7680001
0.75645143 0.39527428 1.7679999
0.76276577 0.39737907 1.7680001
0.74817276 0.40692067 1.7680001
0.75490803 0.4046756 1.768
0.74761152 0.41253337 1.7680001
0.75560957 0.41632193 1.7679999
0.76276577 0.41926861 1.7680001
0.75645149 0.42558289 1.7679999
0.76276577 0.42937145 1.7680001
0.75771433 0.43273908 1.7680001
0.7644496 0.43610668 1.768
0.75939816 0.44620961 1.7680001
0.76411289 0.44553605 1.768
0.75939816 0.45462859 1.7680001
0.76276577 0.45462859 1.7680001
0.77286863 0.46473145 1.7680001
0.75715303 0.48886606 1.7680001
0.76545984 0.48796803 1.768
0.75603056 0.49537683 1.768
0.76388836 0.49447879 1.7680001
0.7580511 0.50278562 1.768
0.76276577 0.50177526 1.7680001
0.76444954 0.51440388 1.7680001
0.7644496 0.52029717 1.7680001
0.77286863 0.521981 1.7680001
0.75771433 0.53545147 1.7680001
0.75827563 0.5416255 1.7680001
0.76276577 0.54387051 1.7680001
0.75939816 0.55565715 1.7680001
0.76655436 0.5543943 1.7679999
0.77455246 0.55481529 1.7680001
0.7829715 0.55734098 1.7680001
0.76613343 0.56407619 1.768
0.77623624 0.56323433 1.7680001
0.78802288 0.56239241 1.7680001
0.7580511 0.57350558 1.768
0.76517123 0.57466018 1.768
0.76613343 0.58428192 1.7679999
0.77286863 0.58764958 1.7680001
0.75939816 0.74592769 1.7680001
0.76276577 0.74592769 1.7680001
0.76748043 0.75603056 1.768
0.77623624 0.75670403 1.768
0.78730136 0.75603062 1.768
0.79307431 0.75603056 1.7680001
0.76613343 0.76557207 1.768
0.7752741 0.76565236 1.768
0.78970671 0.76613343 1.7680001
0.79419684 0.7683785 1.7680001
0.77539432 0.77707815 1.7680001
0.78970671 0.77623624 1.7680001
0.79778904 0.77690983 1.768
0.77623624 0.78633916 1.7680001
0.79812574 0.7829715 1.7680001
0.77960384 0.79475814 1.7680001
0.7829715 0.79475814 1.7680001
0.62674516 -0.6831578 1.7770002
0.6346429 -0.6837219 1.7770002
0.64395106 -0.68287575 1.7770001
0.62618101 -0.67864484 1.7770001
0.63560998 -0.6757437 1.7770002
0.64479721 -0.67526001 1.7770002
0.65325904 -0.67864484 1.7770001
0.63633525 -0.66510576 1.7770002
0.64423311 -0.66623402 1.7770002
0.65664387 -0.66849053 1.7770001
0.66172099 -0.66849053 1.7770001
0.643951 -0.65410531 1.7770001
0.64141244 -0.64818197 1.7770001
0.64141244 -0.63295054 1.7770001
0.64648962 -0.62110382 1.7770001
0.64682811 -0.61433434 1.7770001
0.65156668 -0.61433434 1.7770002
0.64615107 -0.60553396 1.7770001
0.6529206 -0.60350317 1.7770001
0.64818203 -0.59402579 1.7770002
0.6529206 -0.59402573 1.7770001
0.65551561 -0.58387148 1.7770002
0.63802767 -0.57033241 1.7770001
0.64412022 -0.57236332 1.7770001
0.66341341 -0.57033241 1.7770001
0.63802767 -0.56356287 1.7770002
0.64479721 -0.56187052 1.7770002
0.65495145 -0.56187057 1.7770002
0.66468263 -0.56313986 1.7770002
0.6718753 -0.56017816 1.7770001
0.64818197 -0.55171621 1.7770001
0.65495139 -0.55340856 1.7770002
0.66510582 -0.55340862 1.7770002
0.67322916 -0.55273169 1.7770001
0.65607977 -0.54551083 1.7770002
0.66510576 -0.54528517 1.7770001
0.67356765 -0.54663908 1.7770001
0.65833622 -0.53648478 1.7770001
0.66341341 -0.53733099 1.7770001
0.65833622 -0.52294576 1.7770001
0.66341341 -0.52802289 1.7770001
0.65833622 -0.51956099 1.7770001
0.66341341 -0.51448381 1.7770001
0.65833622 -0.50263715 1.7770001
0.66510576 -0.50940669 1.7770001
0.65833628 -0.49586767 1.7770002
0.66172099 -0.49586767 1.7770002
0.65438735 -0.48571336 1.7770002
0.66172099 -0.48909813 1.7770001
0.65537459 -0.47555909 1.7770002
0.65664387 -0.46878955 1.7770001
0.66442883 -0.46405086 1.7770001
0.66713661 -0.45592746 1.7770001
0.67356771 -0.4552505 1.7770002
0.66679811 -0.44509622 1.7770001
0.67526007 -0.4459424 1.7770001
0.65833622 -0.43155718 1.7770001
0.6651057 -0.43494192 1.7770002
0.67187536 -0.43494195 1.7770002
0.65749002 -0.42394143 1.7770001
0.66172099 -0.42478764 1.7770002
0.65664381 -0.41463336 1.7770001
0.66468269 -0.41421029 1.7770002
0.67526007 -0.41124859 1.7770001
0.65833622 -0.40617144 1.7770001
0.66558927 -0.40544614 1.7770002
0.67390615 -0.40380213 1.7770001
0.66607285 -0.39384124 1.7770002
0.67477649 -0.39335769 1.7770002
0.6837219 -0.39094004 1.7770001
0.66849053 -0.38755527 1.7770001
0.67568314 -0.38459361 1.7770002
0.6831578 -0.38191399 1.7770002
0.67622715 -0.37401623 1.7770002
0.68428606 -0.37458035 1.7770002
0.66849053 -0.36047718 1.7770001
0.67483693 -0.36428502 1.7770002
0.68202955 -0.36724669 1.7770001
0.66645968 -0.35506156 1.7770001
0.67526013 -0.35370764 1.7770002
0.66849053 -0.34355336 1.7770001
0.67526001 -0.34355333 1.7770002
0.66849059 -0.33339906 1.7770002
0.67526007 -0.33339909 1.7770002
0.68541431 -0.3317067 1.7770002
0.69218385 -0.3317067 1.7770001
0.67526007 -0.32662958 1.7770002
0.68541431 -0.32493716 1.7770002
0.69218385 -0.32493716 1.7770001
0.68589795 -0.31550822 1.7770002
0.69303012 -0.31562907 1.7770001
0.67574364 -0.30535394 1.7770002
0.68541431 -0.30632094 1.7770002
0.69331217 -0.30857748 1.7770002
0.66849053 -0.29616669 1.7770001
0.67526013 -0.29616672 1.7770002
0.68444723 -0.29665023 1.7770002
0.67864484 -0.28601241 1.7770002
0.68287569 -0.28685856 1.7770001
0.67779869 -0.27501193 1.7770001
0.6837219 -0.27585813 1.7770002
0.67751664 -0.26796037 1.7770002
0.68444723 -0.26522031 1.7770002
0.67864484 -0.25893429 1.7770001
0.68541431 -0.25554955 1.7770002
0.69218385 -0.25554955 1.7770002
0.67864484 -0.24539524 1.7770001
0.68372196 -0.24539527 1.7770002
0.69218385 -0.24539526 1.7770001
0.68444723 -0.23475745 1.7770002
0.68499124 -0.22466357 1.7770002
0.69218385 -0.22508667 1.7770001
0.68541431 -0.2149324 1.7770002
0.69218385 -0.21154763 1.7770001
0.67864484 -0.20477811 1.7770001
0.68541431 -0.20477811 1.7770002
0.69303 -0.20477811 1.7770001
0.68583745 -0.1950469 1.7770002
0.69353783 -0.19394688 1.7770001
0.69653577 -0.18398601 1.7770002
0.69556862 -0.17431526 1.7770002
0.70233816 -0.17431526 1.7770002
0.68767089 -0.16303271 1.7770002
0.69556868 -0.16416095 1.7770002
0.68767089 -0.15513495 1.7770002
0.69556862 -0.15400667 1.7770002
0.68879908 -0.14385238 1.7770001
0.69556868 -0.14385241 1.7770002
0.68795294 -0.13285191 1.7770001
0.69556868 -0.13369812 1.7770002
0.68638146 -0.12402735 1.7770002
0.69556874 -0.12402735 1.7770002
0.70233816 -0.12354381 1.7770001
0.68795288 -0.11423572 1.7770001
0.69218385 -0.11338954 1.7770002
0.70233816 -0.11677429 1.7770001
0.68879908 -0.10662001 1.7770001
0.69387627 -0.10492763 1.7770001
0.69387627 -0.096465722 1.7770002
0.68744522 -0.086988389 1.7770001
0.69556868 -0.086311437 1.7770002
0.70436901 -0.08495754 1.7770001
0.68879908 -0.074464768 1.7770001
0.69556862 -0.076157145 1.7770002
0.7047559 -0.076157145 1.7770002
0.71249241 -0.076157145 1.7770001
0.68879908 -0.062618099 1.7770001
0.69556856 -0.066002861 1.7770002
0.70403051 -0.066002861 1.7770002
0.68879908 -0.05584858 1.7770002
0.69556862 -0.05584858 1.7770002
0.70403051 -0.054156192 1.7770001
0.68879908 -0.045694288 1.7770002
0.69556868 -0.045694284 1.7770002
0.70403051 -0.045694288 1.7770002
0.69726104 -0.035540003 1.7770002
0.70403051 -0.035540007 1.7770002
0.69810718 -0.025385715 1.7770001
0.70403051 -0.025385715 1.7770002
0.69810718 -0.016077621 1.7770001
0.7047559 -0.014747893 1.7770002
0.71418476 -0.011846667 1.7770001
0.706146 -0.0055002384 1.7770002
0.71418476 -0.0050771432 1.7770002
0.70669001 0.0055606808 1.7770002
0.71333861 0.0042309528 1.7770001
0.70826143 0.01438524 1.7770001
0.71249241 0.015231431 1.7770002
0.69895339 0.028770478 1.7770001
0.70685118 0.02651397 1.7770002
0.71249241 0.025385715 1.7770002
0.69895339 0.035540003 1.7770001
0.706146 0.035540007 1.7770002
0.71362066 0.033283498 1.7770002
0.69810718 0.044848099 1.7770001
0.70572293 0.046117384 1.7770002
0.71587718 0.045271192 1.7770002
0.72264671 0.049079049 1.7770001
0.69895339 0.05584858 1.7770002
0.70572293 0.05584858 1.7770002
0.71926194 0.057540957 1.7770001
0.72264671 0.05584858 1.7770002
0.69895339 0.066002861 1.7770002
0.70572293 0.066002861 1.7770002
0.71418476 0.066002861 1.7770002
0.69895339 0.076157153 1.7770002
0.70529974 0.076580241 1.7770002
0.71418476 0.076157145 1.7770001
0.70741528 0.082926676 1.7770001
0.71418476 0.086311445 1.7770002
0.71418476 0.096465729 1.7770002
0.70741528 0.10662001 1.7770001
0.71587723 0.10492763 1.7770002
0.70572293 0.11338953 1.7770002
0.71491015 0.11338954 1.7770002
0.72603148 0.11677429 1.7770001
0.70741528 0.12185144 1.7770001
0.71630031 0.12312072 1.7770002
0.72603154 0.12354382 1.7770002
0.71630031 0.133275 1.7770002
0.72603148 0.13031334 1.7770002
0.70910764 0.14723715 1.7770001
0.71587723 0.14385241 1.7770002
0.70685118 0.15513495 1.7770002
0.71418476 0.15400669 1.7770001
0.73449337 0.15739144 1.7770001
0.69895339 0.1607762 1.7770001
0.70572293 0.16416094 1.7770002
0.71630031 0.16458406 1.7770002
0.72687769 0.16585335 1.7770001
0.73415494 0.16416097 1.7770001
0.69895339 0.17431526 1.7770002
0.70572293 0.17431526 1.7770002
0.71587723 0.17431526 1.7770002
0.72645456 0.17389216 1.7770002
0.73660886 0.17431526 1.7770002
0.70910764 0.18277715 1.7770001
0.71384633 0.18446954 1.7770001
0.72699863 0.18495308 1.7770002
0.73618585 0.18446954 1.7770002
0.71926194 0.19800858 1.7770001
0.72699857 0.19510737 1.7770002
0.73280102 0.19293144 1.7770001
0.71926194 0.20477811 1.7770001
0.72433913 0.20562428 1.7770001
0.72806233 0.21425544 1.7770001
0.73392928 0.21718889 1.7770002
0.72941625 0.22508669 1.7770001
0.73618579 0.22557023 1.7770002
0.72828805 0.23749749 1.7770002
0.73660886 0.23566407 1.7770002
0.74295533 0.23524098 1.7770002
0.72772384 0.24539524 1.7770002
0.73570222 0.24539526 1.7770002
0.72603154 0.25554955 1.7770002
0.73576266 0.25512645 1.7770002
0.74464762 0.25385717 1.7770001
0.719262 0.26570386 1.7770002
0.72603148 0.26570383 1.7770002
0.73576272 0.26612693 1.7770002
0.74430919 0.26638079 1.7770001
0.71926194 0.27247337 1.7770001
0.72670841 0.27382728 1.7770001
0.73392928 0.27360162 1.7770002
0.74634004 0.27755052 1.7770002
0.75310957 0.27416575 1.7770001
0.73787814 0.28939715 1.7770001
0.74585646 0.28504533 1.7770002
0.73660886 0.29658979 1.7770002
0.74295527 0.29278192 1.7770001
0.73280102 0.30462858 1.7770001
0.7395705 0.31647527 1.7770002
0.74521178 0.3170394 1.7770002
0.75310957 0.31647527 1.7770001
0.74634004 0.32493716 1.7770002
0.75310957 0.32493716 1.7770001
0.72941625 0.33678383 1.7770001
0.73660886 0.33382216 1.7770002
0.7463401 0.33339906 1.7770002
0.75310957 0.3317067 1.7770001
0.72941625 0.34186098 1.7770001
0.7352187 0.34306982 1.7770002
0.74464762 0.3401686 1.7770001
0.73280102 0.35032287 1.7770001
0.73618579 0.36724669 1.7770001
0.74295527 0.36386192 1.7770001
0.72941625 0.37401623 1.7770001
0.73618579 0.37345213 1.7770002
0.74549383 0.37655479 1.7770001
0.73618573 0.38247812 1.7770002
0.74634004 0.38247812 1.7770002
0.75395578 0.38501668 1.7770001
0.75310963 0.39432478 1.7770002
0.74746835 0.40560731 1.7770002
0.75423783 0.40222257 1.7770002
0.7378782 0.41294098 1.7770001
0.7459169 0.41463336 1.7770002
0.75310957 0.41801813 1.7770001
0.74803245 0.42309526 1.7770001
0.75310963 0.42478764 1.7770002
0.7576226 0.43494195 1.7770002
0.76326388 0.43832669 1.7770001
0.7578482 0.44645014 1.7770001
0.76326388 0.44171146 1.7770001
0.75784826 0.45389661 1.7770001
0.75987911 0.48740575 1.7770001
0.76495624 0.48571336 1.7770001
0.75987911 0.49417526 1.7770001
0.75649434 0.50669891 1.7770001
0.7576226 0.51391971 1.7770002
0.75987911 0.5297153 1.7770001
0.75987911 0.53310001 1.7770001
0.76326388 0.53310001 1.7770001
0.75987911 0.54663908 1.7770001
0.72603148 0.55002385 1.7770001
0.74972481 0.55679339 1.7770001
0.75734055 0.55594724 1.7770001
0.76495624 0.55340862 1.7770001
0.74972481 0.56187052 1.7770001
0.75649434 0.56356287 1.7770002
0.76439214 0.56581944 1.7770002
0.7869572 0.56525528 1.7770001
0.75581735 0.57168633 1.7770001
0.76326388 0.57033241 1.7770001
0.75987911 0.58725625 1.7770001
0.75987911 0.74634004 1.7770001
0.76326388 0.74634004 1.7770001
0.75581741 0.75784826 1.7770001
0.76495624 0.75649428 1.7770002
0.77511048 0.75987911 1.7770001
0.75987911 0.76495624 1.7770001
0.7649563 0.7649563 1.7770001
0.76326388 0.77003336 1.7770001
0.79711145 0.7768029 1.7770001
0.78018767 0.78188002 1.7770001
0.79711145 0.78357244 1.7770002
0.61744577 -0.67527813 1.7860001
0.62765145 -0.67527819 1.7860001
0.63309449 -0.67527819 1.7860001
0.61404389 -0.66507244 1.7860001
0.62765145 -0.66847432 1.7860001
0.63275433 -0.66677338 1.7860001
0.64466101 -0.66337144 1.7860001
0.64806288 -0.65146482 1.7860001
0.61744577 -0.64296007 1.7860001
0.62084764 -0.64296007 1.7860001
0.61744583 -0.63445532 1.7860001
0.62084764 -0.63445532 1.7860001
0.62084764 -0.62765145 1.7860001
0.64602178 -0.60519886 1.7860001
0.64636195 -0.59363246 1.7860001
0.65146482 -0.59023052 1.7860001
0.64806288 -0.58512765 1.7860001
0.65316576 -0.58512765 1.7860001
0.6378572 -0.57322097 1.7860001
0.65316576 -0.57322097 1.7860001
0.6378572 -0.56641722 1.7860001
0.64636195 -0.56981909 1.7860001
0.65316576 -0.56981909 1.7860001
0.64721245 -0.55621147 1.7860001
0.65146482 -0.55961335 1.7860001
0.65373278 -0.54827374 1.7860001
0.66167051 -0.54430479 1.7860001
0.66167051 -0.5340991 1.7860001
0.66167051 -0.52899623 1.7860001
0.65826863 -0.51538861 1.7860001
0.65741819 -0.50433242 1.7860001
0.65622753 -0.49565759 1.7860001
0.64806288 -0.48477146 1.7860001
0.65146482 -0.48477146 1.7860001
0.64806288 -0.47626668 1.7860001
0.65316576 -0.47541621 1.7860001
0.6548667 -0.46776193 1.7860001
0.66337144 -0.46776193 1.7860001
0.66847432 -0.45415431 1.7860001
0.67357719 -0.45075241 1.7860001
0.66677338 -0.44564956 1.7860001
0.67357719 -0.4473505 1.7860001
0.65713465 -0.43147498 1.7860001
0.66167051 -0.43714479 1.7860001
0.65622753 -0.42353716 1.7860001
0.6548667 -0.41673335 1.7860001
0.66167051 -0.41333145 1.7860001
0.65826863 -0.40822858 1.7860001
0.66507244 -0.40312573 1.7860001
0.66507244 -0.39632192 1.7860001
0.6673404 -0.38838416 1.7860001
0.67301023 -0.38384828 1.7860001
0.67357719 -0.37506002 1.7860001
0.6673404 -0.36343688 1.7860001
0.67187625 -0.36740571 1.7860001
0.66677338 -0.35379812 1.7860001
0.66762388 -0.34614381 1.7860001
0.67187625 -0.34529334 1.7860001
0.66847438 -0.33508763 1.7860001
0.66762388 -0.32573241 1.7860001
0.67479217 -0.32390997 1.7860003
0.68463337 -0.3223305 1.7860001
0.66549766 -0.31510147 1.7860001
0.67527813 -0.31467623 1.7860001
0.68208194 -0.31637716 1.7860001
0.66847432 -0.30787241 1.7860001
0.67697906 -0.29086289 1.7860001
0.67868012 -0.28405911 1.7860001
0.67527819 -0.27385339 1.7860001
0.67527813 -0.26364768 1.7860001
0.68208194 -0.26364765 1.7860001
0.67868012 -0.25344193 1.7860001
0.68208194 -0.25514287 1.7860001
0.67868006 -0.24493715 1.7860001
0.68208194 -0.2466381 1.7860001
0.67868012 -0.2364324 1.7860001
0.68208194 -0.2364324 1.7860001
0.67731935 -0.22554632 1.7860001
0.68208194 -0.22622669 1.7860001
0.67697906 -0.21602097 1.7860001
0.68208194 -0.21602099 1.7860001
0.67697906 -0.20581524 1.7860001
0.68208194 -0.20581526 1.7860001
0.67697906 -0.19560954 1.7860001
0.68293244 -0.19475907 1.7860001
0.68718481 -0.18540382 1.7860001
0.69364852 -0.1860842 1.7860001
0.68752497 -0.17519812 1.7860001
0.69228768 -0.17519812 1.7860001
0.68684465 -0.16567278 1.7860001
0.69228768 -0.16499239 1.7860001
0.68616426 -0.15478669 1.7860001
0.69228768 -0.15478668 1.7860001
0.68752497 -0.14458096 1.7860001
0.69228768 -0.14458096 1.7860001
0.67868006 -0.13097334 1.7860001
0.68605089 -0.13437524 1.7860001
0.67868012 -0.12416953 1.7860001
0.68344277 -0.12348916 1.7860001
0.67868006 -0.11566477 1.7860001
0.68548387 -0.11453082 1.7860001
0.68888581 -0.10375811 1.7860001
0.69228768 -0.10205715 1.7860001
0.68718481 -0.093552388 1.7860001
0.69228768 -0.095253341 1.7860001
0.68661785 -0.084480643 1.7860001
0.68596989 -0.075570896 1.7860003
0.69228768 -0.079944767 1.7860001
0.68888581 -0.066337153 1.7860001
0.69228768 -0.068038099 1.7860001
0.68718481 -0.056131434 1.7860001
0.67868006 -0.042523813 1.7860001
0.68718481 -0.045925718 1.7860001
0.68752497 -0.036400385 1.7860001
0.69398868 -0.035720006 1.7860001
0.69568962 -0.026000274 1.7860003
0.69625658 -0.015308573 1.7860001
0.69909155 -0.0051028575 1.7860001
0.70334387 -0.0042523812 1.7860001
0.69909149 0.0085047623 1.7860001
0.7038542 0.0044224765 1.7860001
0.69909155 0.015308572 1.7860001
0.70546997 0.01573381 1.7860001
0.68888575 0.028916193 1.7860001
0.69611478 0.025939526 1.7860001
0.70521492 0.023473145 1.7860001
0.68888575 0.035720002 1.7860001
0.69611484 0.035720002 1.7860001
0.70419431 0.035720002 1.7860001
0.69636995 0.045245338 1.7860001
0.71950293 0.049327623 1.7860001
0.68888575 0.059533339 1.7860001
0.69617563 0.057103407 1.7860003
0.71780193 0.056131434 1.7860001
0.7229048 0.052729528 1.7860001
0.69568956 0.066337146 1.7860001
0.69611484 0.076117627 1.7860001
0.70759624 0.085047625 1.7860001
0.71269912 0.086748578 1.7860001
0.70844674 0.093552388 1.7860001
0.71269912 0.093552396 1.7860001
0.70725602 0.10307772 1.7860001
0.71269912 0.10205715 1.7860001
0.69795752 0.11509779 1.7860001
0.70249337 0.11396383 1.7860001
0.70532835 0.12416954 1.7860001
0.71440005 0.12757143 1.7860001
0.70793647 0.13369487 1.7860001
0.71354961 0.13522571 1.7860001
0.70759624 0.14628191 1.7860001
0.71269912 0.14288001 1.7860001
0.69909149 0.15818858 1.7860001
0.7058953 0.15393621 1.7860001
0.69909155 0.16499239 1.7860001
0.70249337 0.16669334 1.7860001
0.69909155 0.17519812 1.7860001
0.72630674 0.17860001 1.7860001
0.73651242 0.17519811 1.7860001
0.69909149 0.18200192 1.7860001
0.70674574 0.18285239 1.7860001
0.71610105 0.18710478 1.7860001
0.72426552 0.18472345 1.7860001
0.71746176 0.19424878 1.7860001
0.72460574 0.19390859 1.7860001
0.71950293 0.20581526 1.7860001
0.72403878 0.20468128 1.7860001
0.72533476 0.21650696 1.7860003
0.72630674 0.2262267 1.7860001
0.73481148 0.22622669 1.7860001
0.71780199 0.23643242 1.7860001
0.72588152 0.23600715 1.7860001
0.73481148 0.2330305 1.7860001
0.71950293 0.2432362 1.7860001
0.72460574 0.24493715 1.7860001
0.72375524 0.25259146 1.7860001
0.7229048 0.26024574 1.7860001
0.71950293 0.27385336 1.7860001
0.7246058 0.27725527 1.7860001
0.73991436 0.27725527 1.7860001
0.74445027 0.27498734 1.7860001
0.75182104 0.27385336 1.7860001
0.72744071 0.2829251 1.7860001
0.73651242 0.28405911 1.7860001
0.74331629 0.28405908 1.7860001
0.72744071 0.29539877 1.7860001
0.73447132 0.29358444 1.7860001
0.69909149 0.30787241 1.7860001
0.70674574 0.30702195 1.7860001
0.71950293 0.3010686 1.7860001
0.72573972 0.30333656 1.7860001
0.73311055 0.30447051 1.7860001
0.69909149 0.31127432 1.7860001
0.7058953 0.31127435 1.7860001
0.7263068 0.31127435 1.7860001
0.73693764 0.3146762 1.7860001
0.72800767 0.32828382 1.7860001
0.73651248 0.32488194 1.7860001
0.74331623 0.32658285 1.7860001
0.72727877 0.33508763 1.7860003
0.73424453 0.3328197 1.7860001
0.7283479 0.34461296 1.7860001
0.73311055 0.34869525 1.7860001
0.73481148 0.35549909 1.7860001
0.73878044 0.36570477 1.7860001
0.73566198 0.37761143 1.7860001
0.74671817 0.38951811 1.7860001
0.75182104 0.38951811 1.7860001
0.74671817 0.39632192 1.7860001
0.75182104 0.39632195 1.7860001
0.73991436 0.40992954 1.7860001
0.74501723 0.40822858 1.7860001
0.75352198 0.40312573 1.7860001
0.73537844 0.41559941 1.7860001
0.73481148 0.42013526 1.7860001
0.74558419 0.48590541 1.7860001
0.75284159 0.48681259 1.7860001
0.76032579 0.48817337 1.7860001
0.75522298 0.49497721 1.7860001
0.76032579 0.49157527 1.7860001
0.75692385 0.50348192 1.7860001
0.76032579 0.53750098 1.7860001
0.76032579 0.54260385 1.7860001
0.76372766 0.55394351 1.7860001
0.77223241 0.55280954 1.7860001
0.7509706 0.56726766 1.7860001
0.75182104 0.57322097 1.7860001
0.76202673 0.75352198 1.7860001
0.75182104 0.76202673 1.7860001
0.76372766 0.76372766 1.7860001
0.62739527 -0.68210006 1.7950001
0.61485881 -0.67469209 1.7950001
0.62446469 -0.67526203 1.7950002
0.63252383 -0.67868102 1.7950001
0.61371911 -0.66329527 1.7950001
0.62055719 -0.66329527 1.7950001
0.61371911 -0.65474772 1.7950001
0.62055719 -0.65132862 1.7950001
0.61577052 -0.64517438 1.7950001
0.62739527 -0.6410715 1.7950001
0.63651276 -0.6422112 1.7950001
0.64380676 -0.64312291 1.7950001
0.61713815 -0.63423336 1.7950001
0.62568575 -0.63337862 1.7950001
0.63423336 -0.63423336 1.7950001
0.64278102 -0.6376524 1.7950001
0.61713815 -0.62397623 1.7950001
0.62397623 -0.62568581 1.7950001
0.63195401 -0.62625563 1.7950001
0.6410715 -0.61030006 1.7950001
0.62397623 -0.60004288 1.7950001
0.6376524 -0.60688096 1.7950001
0.64449054 -0.60688096 1.7950001
0.62226671 -0.59491432 1.7950001
0.6376524 -0.59662384 1.7950001
0.64676994 -0.5943445 1.7950001
0.6231215 -0.5872215 1.7950001
0.63594288 -0.58465719 1.7950001
0.64491796 -0.58593935 1.7950001
0.62397623 -0.57781911 1.7950001
0.64278102 -0.57952863 1.7950001
0.63594288 -0.5658524 1.7950001
0.64620006 -0.56243336 1.7950001
0.62397623 -0.55901432 1.7950001
0.66158575 -0.54362863 1.7950001
0.65816671 -0.53337145 1.7950001
0.66158575 -0.53508103 1.7950001
0.65731192 -0.52396905 1.7950001
0.66158575 -0.52653337 1.7950001
0.65523607 -0.51358986 1.7950002
0.6537708 -0.50479794 1.7950002
0.62397623 -0.49234289 1.7950001
0.64620006 -0.49063337 1.7950001
0.65303814 -0.49576193 1.7950001
0.62283659 -0.48607466 1.7950001
0.63081431 -0.48721433 1.7950001
0.64620006 -0.48379526 1.7950001
0.65303814 -0.47182861 1.7950001
0.66158575 -0.47011909 1.7950001
0.65816671 -0.4649905 1.7950001
0.66432101 -0.46464863 1.7950001
0.65523612 -0.45546606 1.7950002
0.66500485 -0.45644289 1.7950001
0.65523612 -0.44716266 1.7950002
0.66329527 -0.44618577 1.7950001
0.64790958 -0.43250954 1.7950001
0.65432024 -0.43635601 1.7950001
0.66158575 -0.43934765 1.7950001
0.65303814 -0.42567146 1.7950001
0.65645719 -0.41541433 1.7950001
0.65816671 -0.40857622 1.7950001
0.66500485 -0.40287781 1.7950001
0.66415006 -0.39404523 1.7950001
0.66500485 -0.38635239 1.7950001
0.67298257 -0.38236353 1.7950001
0.66500485 -0.37438574 1.7950001
0.67184293 -0.37438577 1.7950001
0.66443497 -0.36412859 1.7950001
0.66415 -0.35472623 1.7950001
0.66842383 -0.34361431 1.7950001
0.66728419 -0.33449686 1.7950001
0.65816671 -0.32310003 1.7950001
0.66500485 -0.32554221 1.7950002
0.65731198 -0.31540716 1.7950001
0.66244048 -0.31540716 1.7950001
0.65816671 -0.30771431 1.7950001
0.66500473 -0.30600479 1.7950001
0.67389435 -0.30532095 1.7950001
0.65816671 -0.29916668 1.7950001
0.66500479 -0.29574767 1.7950001
0.67412227 -0.29517782 1.7950001
0.66842383 -0.28549048 1.7950001
0.67526197 -0.28549051 1.7950001
0.67355239 -0.27608812 1.7950001
0.66842383 -0.26668572 1.7950001
0.67184287 -0.26668572 1.7950001
0.67697144 -0.25471908 1.7950001
0.67782629 -0.24531668 1.7950001
0.67640162 -0.2330651 1.7950001
0.65731198 -0.22309288 1.7950001
