# .PCD v0.7 - Point Cloud Data file format
VERSION 0.7
FIELDS x y z
SIZE 4 4 4
TYPE F F F
COUNT 1 1 1
WIDTH 241
HEIGHT 1
VIEWPOINT 0 0 0 1 0 0 0
POINTS 241
DATA ascii
0.63707906 0.73943532 1.853
0.64060861 0.73943532 1.853
0.63707906 0.7429648 1.853
0.64060861 0.7429648 1.853
0.68649244 0.74472958 1.853
0.69284558 0.7443766 1.853
0.64237338 0.75002384 1.853
0.65472674 0.75002384 1.853
0.68649244 0.75002384 1.853
0.66535723 0.70794004 1.8630002
0.67422867 0.70794004 1.863
0.66535723 0.7114886 1.8630002
0.64229143 0.73987716 1.863
0.69374573 0.73899007 1.863
0.70084292 0.73987716 1.863
0.70084292 0.74342579 1.863
0.65227973 0.67725313 1.8730001
0.6510905 0.68319911 1.8730001
0.66179335 0.69746959 1.8730001
0.65644193 0.70638865 1.8730001
0.66322041 0.70531839 1.8730001
0.65822577 0.71174008 1.8730001
0.66536105 0.71768606 1.8730001
0.69390196 0.73671341 1.8730001
0.64573908 0.74028099 1.8730001
0.6510905 0.74563241 1.8730001
0.7046048 0.74028099 1.8730001
0.65822577 0.75455147 1.8730001
0.66179335 0.75455147 1.8730001
0.64752293 0.76168674 1.8730001
0.65822577 0.76168674 1.8730001
0.66712004 0.67788005 1.8830001
0.65815336 0.68326002 1.8830001
0.66604406 0.68469471 1.8830003
0.67519003 0.68595004 1.8830001
0.66592443 0.69521558 1.8830003
0.67465204 0.69545472 1.8830003
0.68326002 0.69760668 1.8830001
0.65815336 0.70119339 1.8830001
0.66532671 0.70298672 1.8830001
0.67608672 0.70478004 1.8830003
0.68326002 0.70298672 1.8830001
0.66532671 0.71554005 1.8830001
0.67698342 0.71374673 1.8830001
0.68445557 0.7167356 1.8830001
0.66711998 0.7263 1.8830001
0.67608672 0.72450668 1.8830001
0.64739341 0.74064672 1.8830001
0.65456671 0.74423337 1.8830001
0.68326002 0.74782002 1.8830001
0.69402003 0.74602669 1.8830001
0.70298672 0.74064672 1.8830001
0.65671867 0.75571078 1.8830003
0.66174006 0.75499338 1.8830001
0.68505335 0.75140673 1.8830001
0.69312334 0.75409669 1.8830001
0.65636003 0.76396006 1.8830001
0.66921335 0.6746248 1.8940001
0.67282099 0.6746248 1.8940001
0.66380197 0.69266289 1.8940001
0.67282099 0.69446671 1.8940001
0.68364382 0.69627047 1.8940001
0.6367448 0.70889717 1.8940001
0.64035243 0.70889717 1.8940001
0.66199815 0.70889717 1.8940001
0.64396006 0.71611243 1.8940001
0.66199815 0.71972007 1.8940001
0.68725145 0.7125048 1.8940001
0.69085908 0.71430862 1.8940001
0.66560578 0.72693527 1.8940001
0.69536865 0.72603345 1.8940001
0.70288455 0.72573274 1.8940001
0.64576387 0.73775816 1.8940001
0.66704881 0.73487204 1.8940001
0.67522609 0.73655558 1.8940001
0.68304253 0.73535311 1.8940001
0.69085908 0.7305429 1.8940001
0.70528954 0.7305429 1.8940001
0.64576387 0.74136579 1.8940001
0.66680831 0.74617594 1.8940001
0.6746248 0.74497342 1.8940001
0.68364388 0.74497336 1.8940002
0.6937452 0.74641645 1.8940001
0.66680831 0.75459379 1.8940001
0.6746248 0.75579631 1.8940001
0.68292236 0.75507468 1.8940001
0.69266284 0.75579625 1.8940001
0.68725145 0.76301146 1.8940001
0.69266289 0.76301146 1.8940001
0.65658671 0.77563816 1.8940001
0.66680831 0.77142924 1.8940001
0.67282099 0.77203053 1.8940001
0.65461332 0.73394668 1.9040002
0.69813335 0.73440003 1.904
0.70357335 0.73440003 1.904
0.65824002 0.74346673 1.904
0.6945067 0.74346673 1.904
0.67637336 0.76704007 1.904
0.6843521 0.76558942 1.9040002
0.66730672 0.77792007 1.904
0.68000007 0.77066672 1.904
0.66933817 0.73134768 1.9150001
0.67298573 0.73134768 1.9150001
0.69851911 0.7422905 1.9150001
0.70581436 0.7422905 1.9150002
0.71310955 0.7422905 1.9150001
0.64533341 0.72600007 1.9250001
0.65541673 0.72508335 1.9250001
0.66183341 0.72783339 1.9250001
0.64716673 0.73700005 1.9250001
0.64716673 0.74250007 1.9250001
0.70583338 0.74983341 1.9250001
0.71500003 0.74983341 1.9250001
0.70766675 0.75350004 1.9250001
0.71500003 0.75350004 1.9250001
0.58375019 0.72609228 1.9360001
0.59309214 0.72584641 1.9360002
0.6066134 0.7283048 1.9360001
0.61030102 0.7283048 1.9360001
0.58540958 0.73475814 1.9360001
0.59186292 0.73568004 1.9360002
0.61030102 0.73199242 1.9360001
0.64717716 0.73752385 1.9360001
0.65086478 0.73568004 1.9360001
0.63980192 0.74489909 1.9360001
0.64594793 0.74551368 1.9360002
0.63980192 0.75043052 1.9360001
0.64471877 0.75165975 1.9360002
0.71355432 0.75411814 1.9360001
0.59596753 0.73540974 1.9470001
0.60486805 0.73689318 1.9470001
0.61006004 0.73800576 1.9470001
0.63972861 0.73800576 1.9470001
0.64467335 0.73738766 1.9470003
0.63972861 0.7454229 1.9470001
0.64590955 0.7448048 1.9470003
0.63824522 0.75543606 1.9470001
0.64343721 0.75840288 1.9470001
0.63972861 0.76211149 1.9470001
0.64343721 0.76211149 1.9470001
0.61723626 0.71793336 1.9580001
0.62096578 0.71793336 1.9580001
0.58553529 0.72912192 1.9580001
0.59485906 0.72818953 1.9580001
0.60604763 0.72912192 1.9580001
0.61443913 0.72446001 1.9580001
0.62531692 0.72539246 1.9580001
0.57994097 0.73658103 1.9580001
0.5836705 0.7347163 1.9580001
0.60729086 0.73409474 1.9580001
0.61537147 0.73285151 1.9580001
0.62656009 0.7347163 1.9580001
0.57994097 0.74031055 1.9580001
0.5836705 0.74031055 1.9580001
0.62656009 0.74031055 1.9580001
0.65080196 0.74404007 1.9580001
0.63961339 0.75336385 1.9580001
0.59257531 0.72759247 1.9690001
0.60945243 0.72759247 1.9690001
0.61445308 0.72571725 1.9690002
0.6225791 0.72946769 1.9690001
0.62320417 0.73446834 1.9690002
0.62445432 0.74071908 1.9690001
0.60531437 0.72977149 1.9800003
0.61474288 0.72600007 1.9800001
0.60720003 0.73354292 1.9800001
0.57483435 0.70384002 1.9920001
0.61657149 0.72660577 1.9920001
0.6222629 0.72660577 1.9920001
0.60329145 0.73040003 1.9920001
0.61277717 0.73040003 1.9920001
0.57419336 0.71154201 2.003
0.58468527 0.71726483 2.003
0.61997622 0.71917242 2.003
0.62569904 0.71917242 2.003
0.58563912 0.72489524 2.0030003
0.59454131 0.7255311 2.003
0.60395223 0.72527677 2.003
0.61616099 0.72489524 2.0030003
0.62569904 0.72489524 2.003
0.58563912 0.73252571 2.0030003
0.59517717 0.73252571 2.003
0.60376149 0.73157191 2.003
0.61361754 0.7318899 2.003
0.56867784 0.71580482 2.0150001
0.57571435 0.71964288 2.0150001
0.58339047 0.71964288 2.0150001
0.5699572 0.72540009 2.0150001
0.57571435 0.72540003 2.0150001
0.58147144 0.72540009 2.0150001
0.57571435 0.73115718 2.0150001
0.58147144 0.73307621 2.0150001
0.55404669 0.7026934 2.0270002
0.55533373 0.71491975 2.0270002
0.56369907 0.71620673 2.0270002
0.55790764 0.72006768 2.0270002
0.56949055 0.72392863 2.0270002
0.54567528 0.70602119 2.039
0.5534429 0.70685339 2.039
0.5476172 0.71267909 2.039
0.5534429 0.71462101 2.039
0.56897813 0.72433054 2.039
0.54498005 0.72078007 2.0510001
0.55409563 0.72338456 2.0510001
0.56842005 0.72859341 2.0510001
0.52622807 0.73484415 2.0510004
0.56842005 0.73250008 2.0510001
0.57232672 0.73445344 2.0510001
0.51763338 0.74031341 2.0510001
0.52544677 0.74031341 2.0510001
0.54358423 0.72630703 2.0630002
0.55209816 0.72892672 2.0630002
0.53441525 0.73482096 2.0630002
0.5568136 0.73442805 2.0630002
0.53976005 0.73747432 2.0760002
0.54569149 0.73747432 2.0760002
0.55162287 0.73747432 2.0760002
0.54569149 0.74142861 2.0760002
0.54486859 0.74969149 2.0880001
0.55680001 0.74571431 2.0880001
0.54288006 0.7556572 2.0880001
0.54685718 0.76957721 2.0880001
0.54685718 0.77554291 2.0880001
0.55381715 0.78250295 2.0880001
0.55426383 0.75569314 2.1010003
0.56226766 0.75435913 2.1010001
0.54626006 0.77236772 2.1010001
0.55493081 0.77436864 2.1010001
0.56426859 0.77636957 2.1010001
0.57377309 0.77486879 2.1010001
0.55626476 0.78237242 2.1010001
0.56493562 0.78370643 2.1010003
0.57160544 0.78370637 2.1010003
0.55826575 0.79237723 2.1010001
0.56360167 0.79171026 2.1010003
0.57027149 0.79037625 2.1010001
0.55635118 0.76573789 2.1140001
0.56494141 0.76546937 2.1140001
0.54964006 0.77110672 2.1140001
0.55568004 0.77110672 2.1140001
0.56574678 0.77312011 2.1140003
