# .PCD v0.7 - Point Cloud Data file format
VERSION 0.7
FIELDS x y z
SIZE 4 4 4
TYPE F F F
COUNT 1 1 1
WIDTH 1116
HEIGHT 1
VIEWPOINT 0 0 0 1 0 0 0
POINTS 1116
DATA ascii
0.09771429 -0.19542858 0.68400002
0.078171432 -0.19238858 0.68400002
0.082470864 -0.1917806 0.68400002
0.08664 -0.19217142 0.68400002
0.096411437 -0.19412574 0.68400002
0.084065907 -0.18895279 0.68320006
0.086960562 -0.18859811 0.68285722
0.068700001 -0.19628572 0.68700004
0.099306673 -0.19665334 0.68600005
0.10295854 -0.19675303 0.6871112
0.10695906 -0.19554478 0.68900001
0.068154924 -0.19354351 0.68811119
0.072760902 -0.19242603 0.68786681
0.077462517 -0.19169562 0.68718183
0.093957625 -0.19184384 0.68750006
0.097662531 -0.19201066 0.68741184
0.10234997 -0.19373648 0.68809104
0.10695906 -0.19423239 0.68900001
0.078164525 -0.1884481 0.68825006
0.082009092 -0.18779521 0.68761539
0.086738244 -0.18656437 0.68700004
0.092077866 -0.18857788 0.68812501
0.097772382 -0.18898287 0.68900001
0.061202861 -0.20006096 0.69100004
0.063173823 -0.19830827 0.69216669
0.06609524 -0.19696382 0.69400001
0.064773336 -0.1916762 0.69400001
0.068007201 -0.1911287 0.69255555
0.071628578 -0.19057144 0.69000006
0.10305271 -0.19097367 0.69066668
0.10666148 -0.19198601 0.69209099
0.069485717 -0.18910794 0.69266671
0.072776668 -0.18778929 0.69156253
0.076638818 -0.18600763 0.69075
0.081748575 -0.18557715 0.69000006
0.088388309 -0.18581583 0.69257152
0.092633538 -0.18658498 0.69180006
0.09695892 -0.18666206 0.69257146
0.10154223 -0.18879685 0.6923334
0.077655241 -0.18426667 0.6910001
0.082530484 -0.18420573 0.69325006
0.086931437 -0.18416688 0.69360006
0.092830002 -0.18400858 0.69375002
0.059828576 -0.19942859 0.69800001
0.062417526 -0.19680725 0.6972
0.065811433 -0.19610476 0.69800001
0.063667148 -0.19216549 0.69637507
0.10921429 -0.1926143 0.69500005
0.11120154 -0.19237565 0.69749999
0.067449182 -0.18798859 0.69681817
0.071833529 -0.18581145 0.69580013
0.099285722 -0.18533334 0.69500005
0.10277259 -0.18724309 0.69620007
0.10707768 -0.18849058 0.69688886
0.069135241 -0.18480383 0.69800001
0.072380953 -0.18460526 0.69725001
0.077836022 -0.18330668 0.69690913
0.082916513 -0.18175177 0.69650006
0.087525517 -0.18167937 0.69622225
0.092025355 -0.18190551 0.69630772
0.097401664 -0.18259113 0.69666678
0.10104381 -0.18480383 0.69800001
0.083095245 -0.17948572 0.69800001
0.087083817 -0.17948572 0.69800001
0.092401914 -0.17948572 0.69800001
0.058082864 -0.20095333 0.70100003
0.060000002 -0.20133334 0.70000005
0.058279291 -0.19761334 0.70337504
0.061004128 -0.19748604 0.7013334
0.11416286 -0.19628002 0.70100003
0.059001908 -0.19443811 0.70400006
0.061256282 -0.19264349 0.70190912
0.11421172 -0.19276872 0.70071441
0.11616572 -0.1922743 0.70100009
0.063112684 -0.18738243 0.70269245
0.066108577 -0.18670453 0.70014292
0.10333334 -0.18533334 0.70000005
0.10790401 -0.18629068 0.70110005
0.11253425 -0.18773207 0.70166683
0.067866944 -0.18285771 0.70257157
0.072763108 -0.18224251 0.70093757
0.076821722 -0.18138477 0.70020002
0.080000006 -0.18133335 0.70000005
0.10231226 -0.1822274 0.70107698
0.10691658 -0.18435733 0.70340008
0.069059052 -0.17968763 0.70400006
0.073377393 -0.17875406 0.70362508
0.077371307 -0.17757657 0.7026251
0.082020745 -0.17739935 0.70144445
0.087255396 -0.17728268 0.70061541
0.092674039 -0.17706744 0.70106673
0.097334862 -0.17781973 0.70193338
0.10096458 -0.17836003 0.70300001
0.082875885 -0.17379431 0.70366669
0.087878108 -0.17393026 0.70290911
0.092205338 -0.1736884 0.70360005
0.095207624 -0.17432383 0.70400006
0.12273905 -0.21854478 0.70700008
0.05580667 -0.20036954 0.70600003
0.053917464 -0.19769654 0.70766664
0.055699598 -0.19725472 0.70585716
0.053942859 -0.1941943 0.708
0.057339936 -0.19257008 0.70666665
0.060428575 -0.19068573 0.70500004
0.059316196 -0.18805858 0.70774996
0.060800005 -0.18724345 0.7062
0.11312 -0.18584001 0.70700002
0.11648667 -0.18853335 0.70700002
0.063063562 -0.18319292 0.70718187
0.066230007 -0.18120526 0.70600003
0.10474286 -0.18128572 0.70500004
0.10743373 -0.18201621 0.70679998
0.11151572 -0.18428668 0.70750004
0.068678856 -0.17829792 0.70700002
0.071534038 -0.17645247 0.70618182
0.099371433 -0.1759143 0.70500004
0.10249634 -0.17749335 0.70671439
0.10558858 -0.17882606 0.70766664
0.073311299 -0.17317662 0.70714289
0.077337153 -0.17283072 0.7061249
0.08236324 -0.17171393 0.70539999
0.087957144 -0.17121428 0.70499998
0.092961639 -0.17170943 0.70585716
0.09774217 -0.17346235 0.70645458
0.077514768 -0.16986001 0.70775002
0.0835445 -0.16901226 0.70742857
0.087363057 -0.16933261 0.70779997
0.091702864 -0.16992001 0.70800006
0.11951239 -0.22544383 0.71300006
0.12154953 -0.22544383 0.71300006
0.11968001 -0.22372001 0.71400005
0.12154803 -0.22235513 0.71242869
0.12215658 -0.2174983 0.71100003
0.053243183 -0.19627874 0.71066666
0.053992003 -0.19235888 0.71220005
0.055551749 -0.19104192 0.71133339
0.057249688 -0.18733953 0.71141672
0.11495239 -0.18662858 0.71000004
0.11723211 -0.18729933 0.7132858
0.058616508 -0.18293376 0.71200013
0.062105477 -0.18124025 0.71075004
0.06500572 -0.18012001 0.71100003
0.10954286 -0.18121906 0.71000004
0.11266153 -0.18212497 0.71090001
0.11682367 -0.18270604 0.71316683
0.062847361 -0.17806751 0.71285731
0.066585995 -0.17701429 0.71135718
0.10373144 -0.17634287 0.71033335
0.10797202 -0.17762713 0.71061546
0.1125654 -0.17743304 0.71200007
0.11601372 -0.17768918 0.71320003
0.068185635 -0.17256486 0.71336371
0.071756199 -0.17194517 0.71079999
0.094666675 -0.17040001 0.71000004
0.097394608 -0.1711162 0.71016669
0.1027999 -0.1722879 0.71187508
0.10744002 -0.17321835 0.71261549
0.11048649 -0.17319468 0.71260005
0.073154055 -0.1688824 0.71287501
0.077829592 -0.16759089 0.7118668
0.082301438 -0.16697192 0.71125001
0.08773049 -0.16676605 0.71133345
0.092533879 -0.1675463 0.7114287
0.097218327 -0.16759798 0.71269244
0.10121382 -0.1691419 0.71325004
0.078200005 -0.16456001 0.71400005
0.082260638 -0.16406827 0.71383345
0.087690011 -0.16450238 0.71375006
0.091120005 -0.16456001 0.71400005
0.11402033 -0.23625144 0.71833342
0.11556286 -0.23591334 0.71800005
0.11367048 -0.23418859 0.71900004
0.11648096 -0.2320044 0.71859998
0.12018286 -0.23080572 0.71700001
0.11802382 -0.22733955 0.71737504
0.12009905 -0.22859716 0.71650004
0.11831882 -0.22227572 0.71812499
0.12001525 -0.22161907 0.71600002
0.11869207 -0.21866731 0.71900004
0.12090223 -0.21704404 0.71766669
0.12120287 -0.21227621 0.71900004
0.053411432 -0.19036382 0.71900004
0.054343335 -0.1886643 0.71775007
0.056150481 -0.18625525 0.71900004
0.058271118 -0.18163812 0.71700001
0.060091432 -0.18027429 0.71700001
0.11796953 -0.18002287 0.71600002
0.061658815 -0.1771224 0.71737504
0.11728763 -0.17684065 0.71600002
0.063659437 -0.17376688 0.71720004
0.066206038 -0.17199874 0.7166667
0.10774096 -0.1704762 0.71600002
0.1131962 -0.17456762 0.71600002
0.068408579 -0.16828649 0.71829998
0.072225533 -0.16684268 0.71680003
0.075464137 -0.16547558 0.71600002
0.09342096 -0.16502096 0.71600002
0.097976767 -0.16538592 0.71640003
0.1024762 -0.16714814 0.71733338
0.10615772 -0.16881107 0.71820009
0.073006988 -0.16335367 0.71866673
0.077256791 -0.1620324 0.717875
0.08268287 -0.16165511 0.71750003
0.087507471 -0.16202287 0.7178334
0.092177913 -0.16219772 0.71799999
0.097633019 -0.16332826 0.71855557
0.063807622 -0.23640954 0.72300005
0.10879429 -0.23755716 0.72300005
0.11130774 -0.23727557 0.72144449
0.1122054 -0.23288731 0.72133344
0.11520001 -0.23040001 0.72000003
0.06059429 -0.22722858 0.72300005
0.11373842 -0.22816607 0.72233343
0.11576381 -0.22718033 0.72066677
0.11422382 -0.22363049 0.72250009
0.11623786 -0.22251716 0.72112507
0.11847925 -0.21744154 0.72160006
0.11964572 -0.21453716 0.72200006
0.055493336 -0.18620127 0.72233343
0.057799529 -0.18234572 0.72250009
0.059217148 -0.17902859 0.72300005
0.060342859 -0.17622858 0.72000003
0.11552001 -0.17603049 0.72200006
0.062469959 -0.17229596 0.72154558
0.11001906 -0.17052953 0.72200006
0.11636858 -0.17489715 0.72300005
0.064156957 -0.16824001 0.72280008
0.067039169 -0.16645271 0.72155571
0.10396319 -0.16533336 0.72133338
0.10722587 -0.16731839 0.72171444
0.068744138 -0.16338509 0.72183341
0.071805 -0.16164953 0.72150004
0.09462858 -0.16045715 0.72000003
0.097700581 -0.16109486 0.72040004
0.10202731 -0.16266032 0.72166669
0.073243432 -0.15915354 0.72280008
0.077665091 -0.15807748 0.72166681
0.082457148 -0.15776591 0.7215001
0.087341212 -0.15754198 0.72173345
0.092648007 -0.15752751 0.72166681
0.097210482 -0.15828882 0.72262508
0.10053144 -0.15974858 0.72300005
0.069047622 -0.24028572 0.72500002
0.07180953 -0.24028572 0.72500008
0.077598102 -0.24088161 0.72750008
0.082632527 -0.24175803 0.72735715
0.087657489 -0.24229755 0.72641176
0.092486367 -0.24143082 0.72741669
0.097514048 -0.24152812 0.72875005
0.10256509 -0.24139908 0.72766674
0.10711525 -0.24118382 0.72562498
0.11093652 -0.24120638 0.72500008
0.064904764 -0.23614287 0.72500002
0.067870669 -0.2366461 0.72569996
0.07253062 -0.23787482 0.72728574
0.077738293 -0.23876841 0.72880006
0.081425399 -0.23918733 0.72866672
0.087360002 -0.23989335 0.72800004
0.09303429 -0.23883431 0.72900003
0.09902858 -0.23854795 0.72883338
0.10296116 -0.23797603 0.72850007
0.10677027 -0.23728146 0.72653854
0.063557662 -0.23254685 0.72538465
0.067103818 -0.23269288 0.72825003
0.10344858 -0.23466858 0.72900003
0.10791756 -0.23276764 0.72771436
0.11115048 -0.23114859 0.72580004
0.05946286 -0.22540572 0.72600001
0.062143281 -0.22764574 0.72677779
0.065695874 -0.22854668 0.72866672
0.10969715 -0.22911429 0.72900003
0.11231768 -0.22756214 0.72700006
0.05946286 -0.22402287 0.72600001
0.06076191 -0.22371431 0.72500002
0.11367588 -0.22274289 0.72633338
0.11554667 -0.22071621 0.72650003
0.11744306 -0.21757431 0.72710001
0.12080573 -0.21522859 0.72900003
0.11941715 -0.21384001 0.72900003
0.12080573 -0.21384001 0.72900003
0.053931437 -0.18668383 0.72600001
0.055238098 -0.18504763 0.72500002
0.053548578 -0.18285853 0.72885722
0.056286566 -0.18193398 0.72666669
0.057542421 -0.17753643 0.72730774
0.11392858 -0.17538096 0.72500002
0.11830159 -0.1763016 0.72500008
0.058932386 -0.17333335 0.7280001
0.060845718 -0.17147431 0.72600001
0.11330143 -0.17255026 0.72762501
0.1165034 -0.17229731 0.72736371
0.059708577 -0.16940573 0.72900003
0.062398966 -0.16719863 0.72654551
0.10890049 -0.16594143 0.72600001
0.11195107 -0.16799317 0.72830003
0.11694858 -0.16786286 0.72900003
0.064174294 -0.16320573 0.72716665
0.0669562 -0.16172136 0.7263
0.070428573 -0.16019049 0.72500002
0.10357144 -0.16122621 0.72500002
0.10738223 -0.16257048 0.72741669
0.11108572 -0.16385144 0.72900003
0.067729846 -0.15788415 0.72816676
0.072487622 -0.15684001 0.72685713
0.077092864 -0.15591621 0.72599995
0.081936516 -0.15604763 0.72500008
0.087000005 -0.15604763 0.72500002
0.098209113 -0.15624002 0.72733337
0.102149 -0.15768212 0.7268889
0.10594605 -0.15914986 0.72866672
0.07391572 -0.15373144 0.72874999
0.077826194 -0.15374503 0.72800004
0.082592271 -0.1532644 0.7275334
0.087489389 -0.15323797 0.7273078
0.092368521 -0.15311395 0.72813344
0.096274287 -0.15366858 0.72900003
0.088174298 -0.14996572 0.72900003
0.092340007 -0.14996572 0.72900003
0.096074291 -0.24088192 0.73100001
0.072777152 -0.23574097 0.73124999
0.077615663 -0.2368724 0.73200005
0.082663216 -0.2375924 0.73218185
0.087305665 -0.23764904 0.73220009
0.092412606 -0.23746349 0.73169231
0.097014479 -0.23696251 0.73180002
0.10094763 -0.23600858 0.73100001
0.069048576 -0.2322524 0.73233336
0.07212095 -0.23357525 0.73283339
0.07549715 -0.23488002 0.73400003
0.089478098 -0.23488002 0.73400003
0.09157525 -0.23488002 0.73400003
0.098708585 -0.23420064 0.73333335
0.10281756 -0.23243718 0.7322858
0.10628509 -0.23159938 0.73100007
0.063758738 -0.226647 0.73300004
0.066956513 -0.22760352 0.73233336
0.10457143 -0.22866288 0.73200005
0.10779502 -0.2275275 0.73200005
0.11084476 -0.22587287 0.73199999
0.10835239 -0.22369525 0.73400003
0.11255499 -0.22244556 0.73281831
0.11430173 -0.21770363 0.73360002
0.11645361 -0.2165837 0.73157144
0.11707111 -0.21289779 0.73266679
0.051866192 -0.18205382 0.73100001
0.053196192 -0.17783108 0.73110002
0.055695243 -0.17544001 0.73100001
0.053680003 -0.17358857 0.73200005
0.057277583 -0.17234008 0.73181814
0.059515562 -0.16832066 0.73233336
0.060691431 -0.16603334 0.73250002
0.11371112 -0.16615747 0.73100007
0.11603175 -0.16615747 0.73100007
0.062403813 -0.16246192 0.73212498
0.10953398 -0.16058795 0.73100007
0.11299412 -0.16214217 0.73154545
0.11613715 -0.16282287 0.73166668
0.063700579 -0.1581341 0.73340005
0.06607049 -0.15639466 0.73180002
0.10396445 -0.1564108 0.73100007
0.10736953 -0.15747382 0.73325002
0.11114858 -0.15938286 0.73400003
0.068598479 -0.15420726 0.73200005
0.072730891 -0.15283187 0.73228574
0.077342145 -0.15120192 0.73162502
0.082428955 -0.15065563 0.73100001
0.086327627 -0.15037715 0.73100001
0.092593342 -0.15037715 0.73100001
0.097806141 -0.15197018 0.73122221
0.10239171 -0.15313551 0.73278588
0.077970296 -0.14923505 0.73360008
0.083073951 -0.14788435 0.7324546
0.087365031 -0.14746721 0.7322728
0.092364207 -0.14803296 0.73250002
0.096921913 -0.14887391 0.73320001
0.10066286 -0.1495962 0.73400003
0.078506678 -0.2358705 0.73600006
0.08271239 -0.23552004 0.73600006
0.086918101 -0.23552004 0.73600006
0.093927622 -0.23552002 0.73600006
0.096030481 -0.23552002 0.73600006
0.073121905 -0.23183472 0.73666674
0.077375069 -0.23301801 0.73736364
0.08256074 -0.23266086 0.73753858
0.087589599 -0.23244831 0.73693347
0.092469856 -0.23245987 0.73741674
0.097458929 -0.23227225 0.73726678
0.10098287 -0.23141843 0.73633337
0.063786671 -0.22570668 0.73600006
0.067571819 -0.22626744 0.73600006
0.071945585 -0.22787102 0.73750013
0.087272383 -0.22944193 0.73900002
0.091495246 -0.22944193 0.73900002
0.098817632 -0.22893478 0.73850006
0.10267524 -0.22782904 0.73758334
0.10552905 -0.22683477 0.73625004
0.063998379 -0.22288899 0.73728579
0.067306295 -0.22313488 0.73770005
0.070285723 -0.2242105 0.73800004
0.10406985 -0.22360829 0.7383334
0.10733628 -0.22234084 0.73700005
0.11110096 -0.22115049 0.73600006
0.10922604 -0.21892129 0.7383334
0.11230371 -0.21758945 0.73700005
0.11433239 -0.21323429 0.73650002
0.054452389 -0.17108572 0.73775005
0.056076195 -0.1710324 0.73600006
0.054046672 -0.16705334 0.73700011
0.057421308 -0.16754305 0.73690921
0.06028191 -0.16542478 0.73600006
0.054748576 -0.16354382 0.73700005
0.057712562 -0.16241041 0.73736364
0.060595047 -0.16186707 0.73640007
0.058416195 -0.15906097 0.73900002
0.062379871 -0.15765852 0.73714292
0.10888128 -0.15607874 0.73600006
0.11249392 -0.15779944 0.73640007
0.11662913 -0.15838122 0.73771435
0.06457524 -0.15441906 0.73700005
0.067648262 -0.15308255 0.73733342
0.071706675 -0.15120783 0.73655558
0.10332064 -0.15053906 0.73633337
0.10738149 -0.15257923 0.73736364
0.11120191 -0.1548381 0.73900002
0.073631756 -0.14820191 0.73866671
0.077699751 -0.14723551 0.73681825
0.081777781 -0.14626542 0.73600006
0.088320009 -0.14579812 0.73600006
0.092525721 -0.14579812 0.73600006
0.097739622 -0.14695923 0.73620003
0.10254858 -0.1482016 0.73750007
0.074603811 -0.14498477 0.73900002
0.077616006 -0.14426477 0.73820007
0.082609877 -0.14325784 0.73736364
0.087579399 -0.14336833 0.7372728
0.09227705 -0.14288762 0.73809087
0.096739821 -0.14426479 0.73820007
0.078228578 -0.23116192 0.74000001
0.081047624 -0.23116192 0.74000001
0.093028575 -0.23116192 0.74000001
0.074234925 -0.22599368 0.74000001
0.077584624 -0.22786096 0.74161547
0.082637504 -0.22813548 0.74162495
0.087572657 -0.22791861 0.7415455
0.092737369 -0.22760178 0.74164695
0.097370997 -0.22701496 0.7416923
0.10054605 -0.22599368 0.74000001
0.063557148 -0.2210362 0.74150002
0.067542866 -0.22075176 0.74133337
0.072353341 -0.22299276 0.74190003
0.075007625 -0.22360763 0.74300003
0.099066675 -0.22360763 0.74300003
0.10239461 -0.22281671 0.74233335
0.10585715 -0.22088763 0.74100006
0.063685715 -0.21936192 0.74300003
0.066870004 -0.2190081 0.74300003
0.070761912 -0.21936192 0.74300003
0.10794839 -0.21773449 0.74180001
0.11155175 -0.21604574 0.74133343
0.10882667 -0.21482669 0.74200004
0.11155175 -0.21463367 0.74133343
0.061953526 -0.1567242 0.74260008
0.11385588 -0.155727 0.74100006
0.11741271 -0.15702097 0.74266672
0.12029525 -0.15638381 0.74300003
0.063685715 -0.15355334 0.74300003
0.066567242 -0.15179087 0.74200004
0.1092381 -0.15152383 0.74000001
0.11146096 -0.15248039 0.74260008
0.068899535 -0.14839858 0.74200004
0.071646988 -0.14690012 0.74077779
0.10267212 -0.14603785 0.74128574
0.10713106 -0.1479743 0.74200004
0.073380582 -0.14280383 0.74230003
0.077111676 -0.14187071 0.74112499
0.081470482 -0.14151619 0.74000001
0.087390482 -0.14095239 0.74000001
0.093179442 -0.14089678 0.74120003
0.097447418 -0.14169653 0.74144447
0.10245016 -0.1433033 0.74244452
0.10614286 -0.1443543 0.74300003
0.077051908 -0.13961335 0.74225008
0.08300706 -0.13886325 0.74240011
0.087700486 -0.13879953 0.74262506
0.091940962 -0.13918401 0.74260008
0.078757152 -0.22562858 0.74500006
0.082304768 -0.22562858 0.74500006
0.086952388 -0.22555749 0.74633348
0.09152858 -0.22562858 0.74500006
0.073179051 -0.22095716 0.74600005
0.077451877 -0.22272545 0.74661541
0.082599379 -0.22358733 0.74766672
0.087690614 -0.2238052 0.74771434
0.092467494 -0.22375159 0.74685729
0.097530052 -0.2228291 0.74600005
0.1020522 -0.22087429 0.74620008
0.10529143 -0.22054288 0.74700004
0.068015516 -0.21846153 0.74614298
0.072749093 -0.21733768 0.74754554
0.075868577 -0.21834478 0.74800003
0.10286782 -0.21884345 0.74800009
0.10609144 -0.21716644 0.74762511
0.058478482 -0.15765144 0.7470001
0.061100956 -0.15559334 0.74600005
0.117646 -0.15564138 0.74671435
0.059840005 -0.15387429 0.74800003
0.062427931 -0.15235704 0.74677783
0.065276198 -0.15041906 0.74500006
0.11307811 -0.15171658 0.74580008
0.11693002 -0.15288095 0.74750006
0.063639365 -0.14793779 0.74800009
0.067180812 -0.14683619 0.74676937
0.10941334 -0.14706764 0.74600005
0.11195715 -0.14848381 0.74716675
0.068847947 -0.14291906 0.74783343
0.071635053 -0.14184801 0.74620003
0.099333338 -0.14048572 0.74500006
0.10236382 -0.14131735 0.74640006
0.10668458 -0.14309905 0.74680007
0.073212959 -0.13873449 0.74780005
0.077920154 -0.13745394 0.74692321
0.082210243 -0.13618691 0.74575001
0.087880284 -0.13618097 0.74585718
0.092262387 -0.13670215 0.74662501
0.097200222 -0.13844891 0.74677777
0.10258286 -0.13962668 0.74800003
0.079786673 -0.13392763 0.74800003
0.0826362 -0.13392763 0.74800003
0.086998656 -0.1339505 0.74700004
0.091184765 -0.13392763 0.74800003
0.078571431 -0.2207143 0.75000006
0.082252391 -0.22100766 0.75100005
0.087511197 -0.22172786 0.75162506
0.092334554 -0.22191398 0.75209099
0.097160012 -0.22152437 0.75171435
0.10000001 -0.22000001 0.75000006
0.077743962 -0.21747538 0.75185722
0.082676336 -0.21760166 0.75300014
0.08677429 -0.21801147 0.75300002
0.098965719 -0.21872859 0.75300002
0.10215365 -0.2171763 0.75066674
0.077348575 -0.21485716 0.75200003
0.083905719 -0.21370858 0.75300002
0.086057149 -0.21370858 0.75300002
0.10241525 -0.21414098 0.75200003
0.05724318 -0.15599114 0.75133342
0.057896875 -0.15323566 0.75185722
0.060357146 -0.15107143 0.75000006
0.1175543 -0.15073144 0.75080007
0.058727622 -0.14896762 0.75200003
0.061310481 -0.14711049 0.75075001
0.11298722 -0.1466977 0.75085723
0.11695702 -0.14762613 0.75142866
0.06366232 -0.14329144 0.75228584
0.066884242 -0.14171219 0.75066668
0.070000008 -0.14000002 0.75000006
0.10766827 -0.14180604 0.75200003
0.11213183 -0.14453755 0.75280005
0.11689429 -0.14486286 0.75300002
0.068367623 -0.13864763 0.75300002
0.072073862 -0.13746774 0.75177777
0.076428577 -0.13571429 0.75000006
0.094285719 -0.13571429 0.75000006
0.097584009 -0.13650286 0.75120002
0.10254893 -0.13729371 0.75154549
0.10646048 -0.13800381 0.75275004
0.074125245 -0.13356858 0.75200003
0.077313811 -0.13243413 0.75166667
0.082243018 -0.1315878 0.75091672
0.087244295 -0.13140167 0.750875
0.092339054 -0.13242112 0.75158346
0.09753143 -0.13446428 0.75300002
0.10212115 -0.134536 0.75300002
0.088208579 -0.12908572 0.75300002
0.090360008 -0.12908572 0.75300002
0.092757151 -0.22002858 0.75500005
0.097071439 -0.22002858 0.75500005
0.079095244 -0.21571431 0.75500005
0.081252389 -0.21571431 0.75500005
0.088442862 -0.2171524 0.75500005
0.092399441 -0.21746878 0.75560009
0.097236194 -0.21649146 0.75628585
0.10080001 -0.21599811 0.75600004
0.079095244 -0.21427621 0.75500005
0.081252389 -0.21427621 0.75500005
0.088442862 -0.21427621 0.75500005
0.092120014 -0.21446542 0.75566673
0.098900959 -0.21368383 0.75800002
0.10106667 -0.21368383 0.75800002
0.054647624 -0.1553143 0.75500005
0.054252069 -0.15195207 0.7561667
0.056675818 -0.15219049 0.75520009
0.054720007 -0.14688002 0.75600004
0.057447799 -0.14735065 0.75572735
0.060400005 -0.14524762 0.75500005
0.058320001 -0.14400001 0.75600004
0.06210205 -0.14209335 0.75571436
0.10929525 -0.14093335 0.75500005
0.11243069 -0.1420161 0.75566673
0.11568382 -0.1427341 0.75540012
0.064405084 -0.13818097 0.75699997
0.067310065 -0.13685904 0.75544453
0.070946038 -0.13566034 0.75500005
0.10850502 -0.13693453 0.75575006
0.11107557 -0.13848256 0.7573334
0.068111241 -0.13362591 0.75760001
0.072267823 -0.13230039 0.75580007
0.094195247 -0.13086668 0.75500005
0.09779048 -0.13212499 0.75500005
0.10283754 -0.1323221 0.75510007
0.10691749 -0.13262446 0.75683343
0.07425715 -0.12977144 0.75700003
0.077682242 -0.12774858 0.7564168
0.082662866 -0.12759328 0.7560668
0.087489009 -0.12690963 0.75636363
0.092529848 -0.12745175 0.75608337
0.09726382 -0.12824343 0.75650001
0.10215077 -0.12871674 0.75685722
0.1053981 -0.12994286 0.75800002
0.058808576 -0.14230096 0.76233339
0.060906671 -0.14211367 0.76133341
0.11436191 -0.14041905 0.76000005
0.11580953 -0.14041905 0.76000005
0.062624447 -0.13782573 0.76166672
0.11298905 -0.13797668 0.76050007
0.11596191 -0.1391543 0.76100004
0.063779049 -0.13408096 0.76100004
0.0671122 -0.13205068 0.7610001
0.071657151 -0.13028572 0.76000005
0.10818413 -0.13088319 0.76066673
0.11105417 -0.13322233 0.76142865
0.069214612 -0.12874922 0.76233339
0.072485931 -0.12757547 0.7611112
0.075791754 -0.12648067 0.76033342
0.09774667 -0.1263462 0.76025003
0.10272001 -0.12664637 0.76133341
0.10690382 -0.12864526 0.76100004
0.11045334 -0.12934667 0.76300001
0.074120007 -0.12498668 0.76300001
0.077946946 -0.12417661 0.76185721
0.082833782 -0.12279741 0.76172727
0.087442465 -0.12277022 0.76150012
0.092326842 -0.1228189 0.76233339
0.097128332 -0.1236331 0.76250005
0.10173334 -0.12498668 0.76300001
0.088653341 -0.11917334 0.76300001
0.056977145 -0.14025144 0.76700002
0.058729716 -0.13805829 0.76700002
0.061604291 -0.13669573 0.76550007
0.11365715 -0.13624287 0.76500005
0.11671335 -0.13753383 0.76712507
0.059977148 -0.13458286 0.76800001
0.063033812 -0.13264573 0.76737505
0.065657146 -0.13058382 0.76600003
0.11292858 -0.13187143 0.76500005
0.11590223 -0.13172922 0.76700008
0.067645244 -0.12714033 0.76650012
0.072128579 -0.1253143 0.76500005
0.10491429 -0.1253143 0.76500005
0.10807104 -0.12705469 0.76671439
0.11234476 -0.12936763 0.76600003
0.1168762 -0.12856382 0.76700002
0.068022862 -0.12434287 0.76800001
0.072627626 -0.12304344 0.76720011
0.077149391 -0.1221875 0.76628572
0.080628574 -0.12142858 0.76500005
0.093985721 -0.12094287 0.76500005
0.098057628 -0.1213862 0.76550007
0.10203405 -0.12284072 0.76662505
0.10532572 -0.12434287 0.76800001
0.077897146 -0.11958858 0.76800001
0.082761921 -0.11849681 0.76718187
0.087657787 -0.11784826 0.76700002
0.09231209 -0.11791474 0.76646155
0.097085454 -0.11858913 0.76728588
0.10166858 -0.1199543 0.76800001
0.057200003 -0.13640001 0.77000004
0.11880001 -0.13640001 0.77000004
0.12026668 -0.13640001 0.77000004
0.058008574 -0.13437334 0.77100003
0.061202861 -0.13170955 0.77116674
0.11821333 -0.13376002 0.77000004
0.12026668 -0.13420001 0.77000004
0.063188009 -0.12755354 0.77150005
0.11280096 -0.12719296 0.77109998
0.11586668 -0.12760001 0.7700001
0.064742863 -0.12433524 0.77250004
0.067792863 -0.12253952 0.77162504
0.072172701 -0.12085968 0.77066672
0.10413334 -0.12100001 0.77000004
0.10733163 -0.12276782 0.7719
0.11038096 -0.12362604 0.77266669
0.073178813 -0.11822715 0.77225006
0.077298842 -0.11709101 0.77055562
0.081766672 -0.11623333 0.77000004
0.086533338 -0.11586668 0.7700001
0.093866676 -0.11586668 0.77000004
0.098303691 -0.11674777 0.77028579
0.10290455 -0.11760317 0.77177781
0.10601144 -0.11926287 0.77300006
0.077790797 -0.11435493 0.77300012
0.082400009 -0.11403525 0.77250004
0.088002257 -0.11327898 0.77236378
0.092343949 -0.11354015 0.77128577
0.097188339 -0.11372191 0.77162498
0.10233048 -0.11447763 0.77300006
0.057767835 -0.13183218 0.77766675
0.057817776 -0.12749843 0.77833343
0.060850289 -0.12731241 0.7754001
0.11366668 -0.1254762 0.77500004
0.11647905 -0.12612382 0.77900004
0.058534287 -0.12448001 0.778
0.063124053 -0.12291763 0.77750003
0.066049531 -0.12174796 0.77633333
0.10952001 -0.12136001 0.77700001
0.11277684 -0.1228927 0.77733344
0.067763664 -0.11810361 0.77730781
0.07187175 -0.11617653 0.7753334
0.10782167 -0.11799144 0.77675003
0.11114287 -0.11929239 0.778
0.072751194 -0.11273596 0.77750003
0.077304207 -0.11203849 0.77600002
0.082701594 -0.11150001 0.7753334
0.086800002 -0.11130477 0.77500004
0.093295239 -0.11130476 0.77500004
0.097874671 -0.11147621 0.77620006
0.10203175 -0.11262827 0.77633333
0.10575493 -0.11366095 0.77833337
0.077966861 -0.10939238 0.77820003
0.082607903 -0.10887349 0.77842867
0.087236471 -0.10862124 0.77814287
0.092189997 -0.10866357 0.77750003
0.097931437 -0.10980191 0.77900004
0.05338667 -0.13701335 0.78400004
0.055857148 -0.1370362 0.78200006
0.05364028 -0.1326177 0.78228581
0.055112384 -0.13405715 0.78200006
0.054297145 -0.12942287 0.78100002
0.055657148 -0.1267162 0.78266668
0.059733339 -0.12394667 0.78400004
0.061634291 -0.12177906 0.78160006
0.11400255 -0.12094097 0.78066671
0.11740573 -0.12261563 0.78220004
0.063030213 -0.11797062 0.78257149
0.065922551 -0.11648002 0.78066671
0.1092 -0.11662858 0.78000003
0.1126508 -0.11787239 0.78333342
0.11797335 -0.11946668 0.7840001
0.063616 -0.113792 0.78400004
0.067626089 -0.11290228 0.78230774
0.070706666 -0.11089811 0.78150004
0.10338953 -0.11082667 0.78100002
0.1075397 -0.11250541 0.78233337
0.11050668 -0.11498667 0.78400004
0.07359191 -0.10842952 0.78250003
0.077243336 -0.10702429 0.78175008
0.082534768 -0.10633049 0.78075004
0.08795429 -0.10608001 0.78000003
0.092728898 -0.10661208 0.78100008
0.097539812 -0.10721754 0.78180009
0.10207565 -0.10825308 0.78314286
0.078349531 -0.10372001 0.78350008
0.08258763 -0.10346666 0.78299999
0.087202124 -0.10311703 0.78333336
0.09250921 -0.10444446 0.78333342
0.096320003 -0.10453334 0.78400004
0.059011437 -0.12352636 0.78766674
0.060038101 -0.12082668 0.78800005
0.060762547 -0.11702412 0.78766674
0.11328381 -0.11577906 0.78600001
0.11697556 -0.11772382 0.78733337
0.12022858 -0.11722287 0.78900003
0.061893098 -0.11234834 0.78775007
0.065874293 -0.11078858 0.78600001
0.10852382 -0.11152255 0.78766674
0.11155191 -0.11305381 0.78875005
0.06383048 -0.10963906 0.78850007
0.067740716 -0.10827239 0.78812504
0.07138025 -0.10678858 0.78687507
0.10310781 -0.10610439 0.78680009
0.10731222 -0.1075839 0.78845459
0.073526867 -0.10383773 0.78780001
0.077178486 -0.1022524 0.78830004
0.082126483 -0.10100954 0.78680003
0.087821715 -0.10100953 0.78680009
0.092711814 -0.10186134 0.78760004
0.09769962 -0.10235029 0.78790009
0.10190668 -0.10319184 0.7884286
0.078900002 -0.099188581 0.78900003
0.082621917 -0.098395251 0.78866673
0.086919747 -0.098079182 0.78871435
0.091924772 -0.098687619 0.78900003
0.057253338 -0.12505335 0.79100001
0.057913907 -0.12186134 0.79180002
0.05845667 -0.11804525 0.792
0.11676668 -0.11601334 0.79100001
0.058908574 -0.1147962 0.79300004
0.060419053 -0.11177524 0.79300004
0.11405271 -0.11229303 0.79133332
0.11778455 -0.11325356 0.79277784
0.12083811 -0.11404096 0.79300004
0.063697621 -0.10854762 0.79149997
0.067465246 -0.10591 0.79149997
0.10948445 -0.10596889 0.79100007
0.11251701 -0.10841987 0.79214299
0.11706191 -0.10875429 0.79300004
0.068920009 -0.10363176 0.79233336
0.071847625 -0.10199367 0.79133332
0.075333342 -0.10094667 0.79100001
0.10245334 -0.10094668 0.79100007
0.10706434 -0.10253885 0.79166663
0.11102001 -0.10422286 0.79300004
0.07350985 -0.099187955 0.7930001
0.077632576 -0.097529724 0.79139996
0.082044199 -0.095920011 0.79180002
0.088140011 -0.096426673 0.79100001
0.092446998 -0.09671779 0.79133332
0.097540326 -0.09804213 0.79188895
0.10271239 -0.099691436 0.7930001
0.083620004 -0.094920009 0.79100001
0.087386668 -0.094920009 0.79100007
0.054039191 -0.12196817 0.79757148
0.056028575 -0.12265715 0.79500002
0.056650799 -0.11886795 0.79666674
0.11992953 -0.11689334 0.79700005
0.12144763 -0.11689334 0.79700005
0.059280004 -0.11400001 0.79800004
0.060800005 -0.11096001 0.79800004
0.11811429 -0.11054286 0.79500002
0.062801532 -0.10739887 0.79640007
0.06511429 -0.10600001 0.79500002
0.11357144 -0.10675715 0.79500002
0.11720083 -0.10723566 0.79614288
0.063800007 -0.10405429 0.79750001
0.067259215 -0.10215318 0.79650009
0.10930286 -0.10019429 0.79700005
0.11229208 -0.10217377 0.79666668
0.11670429 -0.10265906 0.79699999
0.068877466 -0.097745717 0.79766673
0.072440006 -0.097202979 0.796
0.076282546 -0.095984772 0.79566669
0.093128577 -0.095400006 0.79500002
0.097794294 -0.095898576 0.796
0.10268064 -0.097115554 0.79666668
0.10723429 -0.098886356 0.79666674
0.11096001 -0.098800004 0.79800004
0.072960004 -0.09424001 0.79800004
0.077503502 -0.093460321 0.79783338
0.082470484 -0.092926994 0.79688889
0.087466836 -0.092432566 0.7967273
0.092617154 -0.092615671 0.79711115
0.097028308 -0.093120553 0.79771435
0.10108 -0.09424001 0.79800004
0.088160008 -0.089680009 0.79800004
0.053274296 -0.1178162 0.80200005
0.056796957 -0.11665143 0.80159998
0.053600006 -0.11332572 0.80400008
0.05794286 -0.11299852 0.80288887
0.059626676 -0.10702097 0.80266666
0.06125715 -0.10697144 0.80000001
0.059725717 -0.10413715 0.80400002
0.062401433 -0.10209429 0.80150002
0.065523811 -0.10057144 0.80000001
0.11428572 -0.10057144 0.80000001
0.11657143 -0.10057144 0.80000001
0.063062862 -0.098880768 0.80360001
0.066649526 -0.097176515 0.80133343
0.10802795 -0.096588582 0.80066675
0.11297715 -0.09792953 0.8033334
0.11638858 -0.099542864 0.80400002
0.067795925 -0.093602188 0.80371433
0.07219398 -0.092055887 0.8021667
0.077415518 -0.090718374 0.80142862
0.080862865 -0.090779051 0.801
0.09840858 -0.090779051 0.801
0.10242706 -0.09189143 0.80140013
0.10708319 -0.092820011 0.80216664
0.11102858 -0.094182864 0.80400002
0.073508576 -0.088057145 0.80400002
0.077570379 -0.087777354 0.80377775
0.082647972 -0.08764676 0.80218196
0.087342136 -0.087809823 0.80123091
0.09271457 -0.087585308 0.80171436
0.097761914 -0.087508574 0.80320007
0.10184 -0.088822864 0.80400002
0.084228575 -0.084228575 0.80400002
0.087291442 -0.084228575 0.80400008
0.091885716 -0.084228575 0.80400008
0.056420006 -0.11207239 0.80600005
0.057990484 -0.1079181 0.80650002
0.058923177 -0.10221906 0.80700004
0.059179053 -0.0983762 0.80700004
0.062124874 -0.096261173 0.80644453
0.11360763 -0.095184766 0.80600005
0.11720244 -0.097364865 0.80672735
0.12004572 -0.096960008 0.80800003
0.064640008 -0.093881913 0.80800003
0.066969149 -0.091545157 0.8064
0.10900191 -0.090579055 0.80600005
0.11195557 -0.092227936 0.8070001
0.068402857 -0.08838477 0.80700004
0.071768165 -0.087350205 0.8065716
0.076761916 -0.085973345 0.80600011
0.10294668 -0.087324455 0.80666673
0.10731963 -0.088560775 0.80720007
0.073874287 -0.084647626 0.80800003
0.077624768 -0.084029846 0.8070001
0.082620956 -0.083004765 0.8070001
0.087617151 -0.082236193 0.8070001
0.091944389 -0.082410678 0.80720007
0.097261503 -0.083868302 0.80685729
0.10080762 -0.0838781 0.80800003
0.056382861 -0.11122286 0.81100005
0.056148574 -0.1074051 0.81133336
0.054133337 -0.10053334 0.81200004
0.056483272 -0.10237715 0.81085724
0.053813338 -0.097560003 0.81300002
0.056743406 -0.097149938 0.81142867
0.063005716 -0.092964292 0.81174999
0.11417144 -0.091800004 0.81000006
0.11731668 -0.092962392 0.81174999
0.12034287 -0.094114289 0.81000006
0.064960003 -0.089706674 0.81200004
0.067480646 -0.087314926 0.81133336
0.10491429 -0.086400002 0.81000006
0.1079581 -0.086303242 0.8120001
0.1118792 -0.088219322 0.81257159
0.11706096 -0.089927629 0.81400001
0.069771431 -0.08295048 0.81400001
0.072536111 -0.082514986 0.8118183
0.077030756 -0.08144436 0.81114286
0.082095243 -0.080808893 0.81066674
0.087942861 -0.080228582 0.81000012
0.092957154 -0.080614291 0.81000006
0.097320005 -0.081099048 0.81100005
0.10267277 -0.082414106 0.81180012
0.10651658 -0.082982861 0.81280005
0.11008382 -0.083725721 0.81400001
0.072872385 -0.079074293 0.81400001
0.077911437 -0.078686669 0.81400001
0.08217524 -0.07829906 0.81400007
0.087547153 -0.07825049 0.81350005
0.092953026 -0.078234293 0.81333339
0.097292386 -0.078686669 0.81400001
0.10078096 -0.079074293 0.81400001
0.058616515 -0.094407618 0.81700009
0.06193563 -0.09150324 0.81700003
0.063881904 -0.088031434 0.81800008
0.066570669 -0.086170293 0.81660002
0.11306896 -0.086664766 0.81540006
0.11694406 -0.086976431 0.81725001
0.12012001 -0.085800007 0.81900007
0.067898512 -0.082816876 0.81814301
0.10783191 -0.081359528 0.81750005
0.11244724 -0.083248004 0.81540006
0.1174635 -0.083311111 0.81500006
0.07285355 -0.077871323 0.81766671
0.077345908 -0.076724961 0.81540006
0.082276195 -0.076066673 0.81500006
0.086933337 -0.076066673 0.81500006
0.092366673 -0.076066673 0.81500006
0.098159246 -0.076724961 0.81540006
0.10293597 -0.077637389 0.81725007
0.10595049 -0.078682862 0.81800008
0.078293815 -0.07439857 0.81800002
0.082604297 -0.07344643 0.81825012
0.087217368 -0.073198944 0.81766677
0.092216775 -0.073366664 0.81780005
0.096940652 -0.073809527 0.81866682
0.10140001 -0.074880004 0.81900007
0.056297146 -0.095392384 0.82100004
0.058477461 -0.092935883 0.82233334
0.061137147 -0.090921909 0.82300001
0.062366676 -0.087680005 0.82200003
0.064272389 -0.083083823 0.82300007
0.066201277 -0.081839375 0.82100004
0.11305477 -0.081758574 0.82150006
0.11633715 -0.082426675 0.82166672
0.0675212 -0.078480244 0.82200003
0.071344011 -0.07603772 0.82140011
0.075062864 -0.075062864 0.82100004
0.10399334 -0.075062864 0.82100004
0.10826858 -0.077132396 0.82140011
0.11173334 -0.078055561 0.82233334
0.07250239 -0.073286198 0.82300001
0.077578001 -0.072186887 0.82188892
0.08293239 -0.070805244 0.82150006
0.087573342 -0.070371434 0.82100004
0.092264771 -0.070371434 0.82100004
0.097556829 -0.071471117 0.82166672
0.10153035 -0.072456613 0.82185721
0.10555302 -0.073155567 0.82300007
0.079948574 -0.06897524 0.82300001
0.083083823 -0.06897524 0.82300007
0.088014103 -0.068281151 0.8222
0.092489533 -0.06897524 0.82300007
0.095624767 -0.06897524 0.82300001
0.053687621 -0.096321911 0.82900006
0.055133335 -0.096089527 0.82700002
0.053010892 -0.092712663 0.82900012
0.056486145 -0.0921636 0.82633334
0.053687621 -0.088426672 0.82900006
0.057717465 -0.087365456 0.82793337
0.061285719 -0.086428575 0.82500005
0.058157831 -0.082730077 0.82842869
0.062160194 -0.082146287 0.82620001
0.11471429 -0.080142863 0.82500005
0.11817145 -0.080771431 0.82499999
0.12100001 -0.080142863 0.82500005
0.064015619 -0.077575624 0.8278001
0.067218572 -0.075867146 0.82550007
0.11419696 -0.076759629 0.82580006
0.11747493 -0.07761652 0.82600009
0.068315566 -0.073043816 0.82766676
0.072076574 -0.071445718 0.82620013
0.076214291 -0.070714287 0.82500005
0.10292858 -0.070714287 0.82500005
0.10746795 -0.071819052 0.82566679
0.11207359 -0.073073097 0.82725006
0.11649176 -0.072576515 0.82833338
0.069478102 -0.069478102 0.82900006
0.072577149 -0.068632707 0.82833338
0.077206559 -0.067752168 0.82722229
0.082248174 -0.066966534 0.82585728
0.087140195 -0.066378288 0.82580006
0.092789851 -0.066839054 0.82566679
0.097713575 -0.067435011 0.82574999
0.10219453 -0.067930721 0.82699996
0.10691667 -0.069041431 0.82850003
0.11053334 -0.069478102 0.82900006
0.11606 -0.069478102 0.82900006
0.078162864 -0.064740956 0.82900006
0.082346283 -0.06404686 0.82820004
0.087425716 -0.064584769 0.82700002
0.092826359 -0.063899368 0.82833338
0.097538672 -0.0640781 0.82860005
0.053817146 -0.08626572 0.83100003
0.056191429 -0.082308576 0.83100003
0.057913337 -0.079333335 0.83300006
0.061821338 -0.077670485 0.83220005
0.063943498 -0.073984772 0.83233345
0.066257916 -0.071965337 0.83220005
0.11317429 -0.071228579 0.83100003
0.06847772 -0.068477713 0.83220005
0.07259848 -0.065941341 0.83220005
0.10459429 -0.06576667 0.83200002
0.10776477 -0.067352384 0.83200002
0.11424001 -0.069813341 0.83300006
0.074394293 -0.06489715 0.83100003
0.077892803 -0.062721364 0.83214295
0.082010955 -0.062201433 0.83200008
0.087360248 -0.062002622 0.83200002
0.092557885 -0.061235983 0.83144444
0.098216519 -0.061516508 0.83166671
0.10221715 -0.064181909 0.83200008
0.093613341 -0.058706671 0.83300006
0.09599334 -0.058706671 0.83300006
0.056461908 -0.081114292 0.83500004
0.056927145 -0.077228576 0.83600003
0.0604381 -0.077138104 0.83500004
0.057972278 -0.072507732 0.83766669
0.061611857 -0.072411641 0.8365556
0.063512765 -0.067979053 0.83780003
0.066895247 -0.066894487 0.83619994
0.10815239 -0.065739691 0.83500004
0.11239666 -0.067555957 0.83700007
0.11594287 -0.067543492 0.83766669
0.068102226 -0.063048571 0.83800006
0.072676368 -0.061963648 0.83609098
0.076873027 -0.060968261 0.83500004
0.082704768 -0.060438104 0.83500004
0.085885718 -0.0604381 0.83500004
0.10299674 -0.061615512 0.83557147
0.10730968 -0.061968986 0.83728582
0.11071366 -0.063340329 0.83833337
0.068718098 -0.059129529 0.83900005
0.072625093 -0.057462227 0.83800006
0.078119583 -0.057392597 0.83700001
0.082880855 -0.057376936 0.83677775
0.087638728 -0.057362113 0.8365556
0.092103578 -0.057091668 0.8355
0.09738069 -0.056879465 0.8361429
0.10186172 -0.058433909 0.83820003
0.10547429 -0.059129529 0.83900005
0.073512383 -0.05433524 0.83900005
0.077507623 -0.05433524 0.83900005
0.08310096 -0.054335244 0.83900011
0.087895244 -0.054335244 0.83900011
0.092280768 -0.053644191 0.83820003
0.096342228 -0.053759366 0.83833337
0.058539048 -0.068160951 0.84200001
0.061746672 -0.067359053 0.84200001
0.11373524 -0.065678097 0.84100002
0.1170762 -0.067358099 0.84200001
0.12014286 -0.068881907 0.84100002
0.063642547 -0.063642547 0.84233344
0.066518098 -0.061709523 0.84150004
0.11231239 -0.06257461 0.84233332
0.06737034 -0.057746947 0.84214288
0.10298429 -0.05650048 0.84150004
0.10747348 -0.057745855 0.84214288
0.11079429 -0.059411433 0.84300005
0.069045722 -0.05459429 0.84300005
0.072171435 -0.053192072 0.84200001
0.076951757 -0.052102543 0.8416667
0.082521915 -0.052077144 0.84125
0.088139683 -0.052082226 0.84133339
0.093310967 -0.051661432 0.84100002
0.059552386 -0.065990478 0.84500003
0.061161909 -0.065990478 0.84500003
0.11830001 -0.066795245 0.84500003
0.059763815 -0.064609528 0.84800005
0.062537529 -0.062537529 0.84619999
0.11347143 -0.061966673 0.84500003
0.064495243 -0.058850482 0.84650004
0.065990478 -0.056333337 0.84500003
