# .PCD v0.7 - Point Cloud Data file format
VERSION 0.7
FIELDS x y z
SIZE 4 4 4
TYPE F F F
COUNT 1 1 1
WIDTH 703
HEIGHT 1
VIEWPOINT 0 0 0 1 0 0 0
POINTS 703
DATA ascii
0.4234629 0.29867432 1.074
0.42550859 0.29867432 1.074
0.45414859 0.29867432 1.074
0.45687622 0.29799244 1.0740001
0.46233147 0.29867432 1.0740001
0.46744573 0.29867432 1.074
0.47460574 0.29867432 1.074
0.47665146 0.29867432 1.074
0.48278862 0.29867432 1.0740001
0.48790288 0.29867432 1.074
0.49199432 0.29867432 1.074
0.49710864 0.29765147 1.074
0.4260667 0.2936267 1.0780001
0.43222669 0.2936267 1.0780001
0.43633336 0.2936267 1.0780001
0.44352004 0.2936267 1.0780001
0.44814003 0.29311335 1.0780001
0.45241782 0.29294226 1.0780001
0.45789337 0.29260001 1.0780001
0.4630267 0.2936267 1.0780001
0.47774228 0.29294226 1.0780001
0.4825334 0.29260004 1.0780001
0.48766667 0.29260004 1.0780001
0.49280006 0.29260004 1.0780001
0.49759114 0.29294226 1.0780001
0.35625336 0.29978669 1.0780001
0.36549336 0.29978669 1.0780001
0.39424002 0.29978669 1.0780001
0.39766225 0.29910225 1.0780001
0.40245336 0.29876003 1.0780001
0.40758669 0.29978669 1.0780001
0.41323337 0.29927337 1.0780001
0.41785336 0.29876003 1.0780001
0.42196006 0.29773337 1.0780001
0.4273867 0.29714674 1.0780001
0.43222666 0.29773337 1.0780001
0.43736002 0.29773337 1.0780001
0.44249338 0.29773337 1.0780001
0.44762665 0.29773337 1.0780001
0.45276004 0.29773337 1.0780001
0.45789337 0.29650137 1.0780001
0.4630267 0.29670668 1.0780001
0.46713334 0.29670671 1.0780001
0.47252336 0.29747668 1.0780001
0.47740006 0.29670668 1.0780001
0.48224005 0.29714671 1.0780001
0.4876667 0.29670668 1.0780001
0.4928 0.29670671 1.0780001
0.49793336 0.29568002 1.0780001
0.48799431 0.28826669 1.0810001
0.49417147 0.28826669 1.0810001
0.49726003 0.28826669 1.0810001
0.40357336 0.29341429 1.0810001
0.40717667 0.29392907 1.0810001
0.41283908 0.29444382 1.0810001
0.41695717 0.29341429 1.0810001
0.42210478 0.29444382 1.0810001
0.42759559 0.29169843 1.0810001
0.43188527 0.29289955 1.0810001
0.43754765 0.29238477 1.0810001
0.44228345 0.29320839 1.0810002
0.4478429 0.29238477 1.0810001
0.45196098 0.29032573 1.0810001
0.45659381 0.29084048 1.0810001
0.4625994 0.29101211 1.0810001
0.46781564 0.29320839 1.0810002
0.47255147 0.29341429 1.0810001
0.47728729 0.29197297 1.0810002
0.48284671 0.29032573 1.0810001
0.48696479 0.29032573 1.0810001
0.4921124 0.29032573 1.0810001
0.49726003 0.29032573 1.0810001
0.35724479 0.29856193 1.0810001
0.3623924 0.29856193 1.0810001
0.36719689 0.29787558 1.0810001
0.37268767 0.29856193 1.0810001
0.37783527 0.29856193 1.0810001
0.38092384 0.29856193 1.0810001
0.39327812 0.29753241 1.0810001
0.39698443 0.29732653 1.0810002
0.40254384 0.29650289 1.0810001
0.40810329 0.29732651 1.0810002
0.41283908 0.29753241 1.0810001
0.41695717 0.29650289 1.0810001
0.42004573 0.29650289 1.0810001
0.48493716 0.27977145 1.0880001
0.48700956 0.27977145 1.0880001
0.37199241 0.28391621 1.0880001
0.37510097 0.28391621 1.0880001
0.46317717 0.28391621 1.0880001
0.46732193 0.28391621 1.0880001
0.47208843 0.28308725 1.0880002
0.47802925 0.28322542 1.0880001
0.48286483 0.28288004 1.0880002
0.48839664 0.2829307 1.0874001
0.49253592 0.28253463 1.0880001
0.49737144 0.28288004 1.0880002
0.36370289 0.28806096 1.0880001
0.36819309 0.2873702 1.0880001
0.37199241 0.2870248 1.0880001
0.37665528 0.28754288 1.0880001
0.38235432 0.28806096 1.0880001
0.38712081 0.28723201 1.0880002
0.39271623 0.28806096 1.0880001
0.39582479 0.28806096 1.0880001
0.40411431 0.28806096 1.0880001
0.4061867 0.28806096 1.0880001
0.41240382 0.28806096 1.0880001
0.41751394 0.28882441 1.0862001
0.42271277 0.28856993 1.0868
0.42785868 0.28882441 1.0862001
0.43223435 0.28815541 1.0868
0.43718621 0.28869715 1.0865
0.44234139 0.28882441 1.0862001
0.44757688 0.28783241 1.0871429
0.45272306 0.28801417 1.0867144
0.4572289 0.28779429 1.0870001
0.46192148 0.28750262 1.0868751
0.46685752 0.28748652 1.0874001
0.47250292 0.2870248 1.0880002
0.47815269 0.28771892 1.0867144
0.48231328 0.2870841 1.0854287
0.48747501 0.28700835 1.085
0.49290007 0.28726667 1.085
0.49703336 0.28623334 1.085
0.36292571 0.29246476 1.0880002
0.36785585 0.29215404 1.0867144
0.37243921 0.2917437 1.0862859
0.37776551 0.29190966 1.0880002
0.38217816 0.29207051 1.0875001
0.3875353 0.29220575 1.0880002
0.39300439 0.29238588 1.0875716
0.39788121 0.29174381 1.0872501
0.40270767 0.29193527 1.0870001
0.40750763 0.29132226 1.0860001
0.41234455 0.29144764 1.0862858
0.41695005 0.29191667 1.085
0.42263335 0.29243335 1.085
0.42642224 0.29208893 1.085
0.43296671 0.29140002 1.085
0.43710002 0.29140002 1.085
0.4422667 0.29140002 1.085
0.44743335 0.29140002 1.085
0.45053336 0.29140002 1.085
0.46818608 0.29097781 1.0860001
0.47239509 0.29064003 1.0868
0.47646034 0.29097781 1.0860001
0.35960004 0.29760003 1.085
0.36227891 0.29652348 1.0856001
0.36786672 0.29636002 1.085
0.37303337 0.29656669 1.085
0.37716669 0.29656669 1.085
0.38262859 0.29700956 1.085
0.38750005 0.29760003 1.085
0.39238483 0.29753909 1.0858573
0.39783335 0.29553336 1.085
0.40196669 0.29553336 1.085
0.4530248 0.27430859 1.0910001
0.45510289 0.27430859 1.0910001
0.37301809 0.27742574 1.0910001
0.44679052 0.27742574 1.0910001
0.45198575 0.27742574 1.0910001
0.45614195 0.27742574 1.0910001
0.46237624 0.27846479 1.0910001
0.46705192 0.27794528 1.0910001
0.4727667 0.27742574 1.0910001
0.47692287 0.27742574 1.0910001
0.48211813 0.27742574 1.0910001
0.48731339 0.27742574 1.0910001
0.49250862 0.27742574 1.0910001
0.49770385 0.27742574 1.0910001
0.36920828 0.28400636 1.0910001
0.37301812 0.28158194 1.0910001
0.37717429 0.28262097 1.0910001
0.38207266 0.28321472 1.0910001
0.38756478 0.28262097 1.0910001
0.39276004 0.28366002 1.0910001
0.39795524 0.28366002 1.0910001
0.41908258 0.28400636 1.0910001
0.42323875 0.28400636 1.0910001
0.42704859 0.28365999 1.0910001
0.43224382 0.28366002 1.0910001
0.43743908 0.28366002 1.0910001
0.44263431 0.28262094 1.0910001
0.44782954 0.28262097 1.0910001
0.45198578 0.28262097 1.0910001
0.45718098 0.28262097 1.0910001
0.46216843 0.28220534 1.0910001
0.46757147 0.28158194 1.0910001
0.4727667 0.28054288 1.0910001
0.47692287 0.28158194 1.0910001
0.48211813 0.28054291 1.0910001
0.49250862 0.28054291 1.0910001
0.49770385 0.28054288 1.0910001
0.36678386 0.28677717 1.0910001
0.37821335 0.28677717 1.0910001
0.38236958 0.2867772 1.0910001
0.39276004 0.2867772 1.0910001
0.3983016 0.28746986 1.0910001
0.40211147 0.2878162 1.0910001
0.40782619 0.28729668 1.0910001
0.41250193 0.28677717 1.0910001
0.41769719 0.2867772 1.0910001
0.42289239 0.28677717 1.0910001
0.42704862 0.28677717 1.0910001
0.43224382 0.28677717 1.0910001
0.43778545 0.28746986 1.0910001
0.44263431 0.2867772 1.0910001
0.4488686 0.28677717 1.0910001
0.44861144 0.26979432 1.098
0.45279431 0.26979432 1.098
0.45697719 0.26874858 1.098
0.47789145 0.26979432 1.098
0.48207432 0.26979432 1.098
0.4873029 0.26979432 1.098
0.49253148 0.26979432 1.098
0.49880576 0.26979432 1.098
0.37436575 0.27397716 1.098
0.37750286 0.27397716 1.098
0.38377717 0.27397716 1.098
0.39109716 0.27397716 1.098
0.44338289 0.27397716 1.098
0.44756576 0.27293146 1.098
0.45301148 0.27243432 1.0960001
0.45788383 0.27278095 1.0960001
0.46220574 0.27293146 1.098
0.46743432 0.27397716 1.098
0.47308117 0.27314061 1.098
0.47789145 0.27293146 1.098
0.48243657 0.27299088 1.0974001
0.48692003 0.27227432 1.0962001
0.49208117 0.27254286 1.0956001
0.49763319 0.27242288 1.0968001
0.37334287 0.2753143 1.095
0.37803432 0.27752572 1.0955002
0.38272983 0.27742535 1.0962858
0.38742954 0.27777812 1.0965002
0.391978 0.27802205 1.0962858
0.39710003 0.27849144 1.09725
0.40260005 0.27816001 1.098
0.40782857 0.27816004 1.098
0.41724002 0.27816001 1.098
0.4226248 0.27768382 1.0975001
0.42815575 0.27882287 1.0965
0.43233287 0.27882287 1.0965
0.43707073 0.27770716 1.09725
0.44257396 0.27765208 1.0960002
0.44686431 0.2768786 1.095
0.45103574 0.2768786 1.095
0.45885718 0.2753143 1.095
0.46177721 0.27698287 1.0950001
0.46720004 0.27614859 1.0950001
0.47206673 0.27600956 1.095
0.47762859 0.2753143 1.095
0.48284286 0.2753143 1.095
0.48701429 0.2753143 1.095
0.4922286 0.2753143 1.095
0.4974429 0.2753143 1.095
0.37960002 0.28157145 1.095
0.38377145 0.28157145 1.095
0.38585716 0.28157145 1.095
0.39315718 0.28157145 1.095
0.39804003 0.28113145 1.0960001
0.40214857 0.28146061 1.0962
0.40770474 0.28225654 1.0976666
0.41326633 0.28276119 1.098
0.41759431 0.28231362 1.096875
0.42261034 0.28146058 1.0962001
0.42734146 0.28124145 1.0957501
0.43278575 0.28157145 1.095
0.43695718 0.28157145 1.095
0.44008574 0.28157145 1.095
0.40358573 0.28574288 1.095
0.40775716 0.28574288 1.095
0.41192859 0.28574288 1.095
0.41610003 0.28574288 1.095
0.4481467 0.2686781 1.102
0.45234478 0.2686781 1.102
0.45654288 0.26762858 1.102
0.46284002 0.2686781 1.102
0.46703812 0.2686781 1.102
0.47123623 0.2686781 1.102
0.47788322 0.26797843 1.102
0.48278099 0.26762858 1.1020001
0.48802859 0.26762858 1.102
0.49222669 0.26762858 1.102
0.49747428 0.26762858 1.1020001
0.3785283 0.27147686 1.102
0.38307622 0.27392572 1.102
0.3876242 0.2735759 1.102
0.39252195 0.27371582 1.1020001
0.39776954 0.27392572 1.102
0.40196764 0.27497527 1.102
0.40721527 0.27413568 1.1020001
0.41246289 0.27392575 1.102
0.41771051 0.27287623 1.1020001
0.42316803 0.27329603 1.1020001
0.42715621 0.27287623 1.1020001
0.43270373 0.27347597 1.1020001
0.43765146 0.27287623 1.1020001
0.44263667 0.27261385 1.1020001
0.44709718 0.27077717 1.102
0.46284002 0.27077717 1.102
0.46703812 0.27182668 1.102
0.47186595 0.27161679 1.1020001
0.47648385 0.27077717 1.102
0.49747431 0.27077717 1.102
0.39776954 0.27707431 1.102
0.40196764 0.27707431 1.102
0.4072153 0.27707431 1.102
0.41281271 0.27777398 1.102
0.41718572 0.27759907 1.102
0.42190859 0.27707431 1.102
0.42820573 0.27707431 1.102
0.43240386 0.27707431 1.102
0.41351241 0.28127241 1.102
0.39219877 0.25911877 1.1090001
0.39571941 0.25911877 1.1090001
0.43867117 0.25911877 1.1090001
0.44254383 0.25876668 1.1090001
0.44641656 0.25911877 1.1090001
0.48267907 0.25982288 1.1090001
0.4872559 0.25911877 1.1090001
0.49218482 0.25876668 1.1090002
0.49746579 0.25771049 1.1090002
0.38867813 0.26404762 1.1090001
0.39184669 0.26299143 1.1090001
0.39712763 0.26299143 1.1090002
0.40135241 0.26299143 1.1090001
0.40663338 0.26404762 1.1090001
0.41402671 0.26404762 1.1090001
0.41719526 0.26404762 1.1090001
0.42300433 0.26351953 1.1090001
0.42775717 0.26299143 1.1090001
0.43198192 0.26299143 1.1090001
0.43726295 0.26299143 1.1090002
0.44285604 0.2630122 1.1082002
0.44824728 0.26278022 1.1090001
0.45310575 0.26404762 1.1090001
0.45755813 0.26304334 1.1070001
0.46236497 0.26239929 1.1074001
0.46751127 0.26263127 1.1066002
0.47231811 0.26251525 1.1070001
0.4781636 0.2624335 1.1072859
0.4830429 0.26204288 1.105
0.48725241 0.26204288 1.105
0.49251434 0.26204288 1.105
0.49777621 0.26204288 1.105
0.38306668 0.26940954 1.105
0.3872762 0.26730481 1.105
0.39253813 0.26730478 1.105
0.3975369 0.26756787 1.105
0.40284413 0.2676248 1.1063335
0.40702942 0.26714125 1.1055715
0.41253331 0.26730481 1.105
0.41779527 0.26730478 1.105
0.42225873 0.26746479 1.1056668
0.42726666 0.26730481 1.105
0.43231812 0.26772574 1.105
0.43752646 0.26719031 1.1054
0.44305238 0.26730478 1.105
0.44705144 0.26688382 1.105
0.4525238 0.2662524 1.105
0.45743498 0.26590163 1.105
0.46199527 0.2662524 1.105
0.4672572 0.2662524 1.105
0.47251907 0.2662524 1.105
0.47707939 0.2666032 1.105
0.4830429 0.26520002 1.105
0.48725241 0.26520002 1.105
0.49251431 0.26520002 1.105
0.49777621 0.26520002 1.105
0.38236511 0.27291748 1.105
0.38727623 0.2715143 1.105
0.39253813 0.2715143 1.105
0.39780006 0.2715143 1.105
0.40306193 0.27256668 1.105
0.40762228 0.2722159 1.105
0.41253337 0.2715143 1.105
0.42305717 0.2715143 1.105
0.43252861 0.2715143 1.105
0.44096002 0.25440001 1.113
0.48972005 0.25440001 1.113
0.49290001 0.25440001 1.113
0.49714005 0.25334001 1.113
0.39785337 0.25722668 1.1130002
0.40174001 0.25864002 1.113
0.42824003 0.25864002 1.113
0.43248004 0.25864002 1.1130002
0.43778002 0.25758001 1.113
0.44202003 0.25652 1.113
0.44785002 0.25705001 1.113
0.45156002 0.25864002 1.113
0.47170001 0.25864002 1.113
0.47806004 0.25864002 1.113
0.48230004 0.25864002 1.113
0.48717603 0.25736803 1.113
0.49290001 0.25652 1.113
0.49608004 0.25652 1.113
0.40333 0.26129001 1.113
0.40774667 0.26217335 1.1130002
0.41234004 0.26288003 1.113
0.41764006 0.26288003 1.1130002
0.42329335 0.26217335 1.1130002
0.42718005 0.26076001 1.113
0.43248004 0.26076001 1.1130002
0.43672004 0.26076001 1.113
0.45297337 0.26146668 1.1130002
0.45686004 0.26182002 1.113
0.46216005 0.26076001 1.1130002
0.46746004 0.26076001 1.113
0.47276005 0.26076001 1.1130002
0.47806004 0.26076001 1.113
0.48124003 0.26076001 1.113
0.40492001 0.26500002 1.113
0.41234004 0.26500002 1.113
0.4719086 0.24870859 1.1160001
0.49954289 0.24870859 1.1160001
0.3996343 0.25296003 1.1160001
0.40282288 0.25296003 1.1160001
0.40601146 0.25296003 1.1160001
0.42833143 0.25296003 1.1160001
0.43258289 0.25296003 1.1160001
0.43683434 0.25296003 1.1160001
0.44214863 0.25296003 1.1160001
0.44746289 0.25296003 1.1160001
0.45277721 0.25296003 1.1160001
0.45809144 0.25296003 1.1160001
0.46234289 0.25296003 1.1160001
0.46765715 0.25210977 1.1160001
0.47297144 0.25189716 1.1160001
0.47828576 0.25296003 1.1160001
0.48395431 0.25225148 1.1160001
0.48785147 0.25189716 1.1160001
0.49210289 0.25189719 1.1160001
0.49688578 0.25136575 1.1160001
0.39857143 0.25508574 1.1160001
0.40282288 0.25614858 1.1160001
0.40707433 0.25721145 1.1160002
0.41238856 0.25827432 1.1160002
0.41770288 0.25721145 1.1160002
0.4219543 0.25827432 1.1160001
0.42726859 0.25721145 1.1160002
0.43258289 0.25614858 1.1160001
0.43648005 0.25579429 1.1160001
0.4421486 0.25508574 1.1160001
0.44746289 0.25508574 1.1160001
0.45348573 0.25650287 1.1160002
0.45809147 0.25721145 1.1160002
0.46234292 0.25721145 1.1160002
0.46765715 0.25721145 1.1160001
0.47297144 0.25614858 1.1160001
0.47701031 0.25678632 1.1160001
0.48253721 0.25614858 1.1160002
0.48785144 0.25508574 1.1160001
0.41238862 0.26146287 1.1160001
0.41770288 0.26146287 1.1160001
0.42195433 0.26146287 1.1160001
0.44278288 0.24385144 1.123
0.44920003 0.24385144 1.123
0.45240861 0.24385144 1.123
0.45722145 0.24331668 1.123
0.46203431 0.24385144 1.123
0.48770291 0.24385145 1.123
0.49305052 0.24385144 1.123
0.49732861 0.24385144 1.123
0.40854162 0.24910986 1.1210001
0.41318068 0.24826321 1.1220001
0.4176248 0.24779622 1.1215
0.42211297 0.24795921 1.1208571
0.42750412 0.2475293 1.1215
0.43238577 0.24768576 1.1210001
0.43750456 0.24798051 1.121125
0.44271651 0.24744359 1.1212858
0.44693336 0.24746668 1.12
0.45200002 0.24773335 1.12
0.45749149 0.24734969 1.1208572
0.46227905 0.24768573 1.1210001
0.46724552 0.24789765 1.12075
0.47245371 0.24708414 1.1215
0.47684154 0.24802478 1.1206001
0.48218888 0.24789765 1.12075
0.48738101 0.24734968 1.1208571
0.49286264 0.24789764 1.12075
0.49759817 0.24772954 1.1212
0.40800002 0.25226671 1.12
0.41280001 0.25280002 1.12
0.41706669 0.25280002 1.12
0.42240006 0.25280005 1.12
0.42737782 0.25244448 1.1200001
0.43200004 0.25173336 1.12
0.43733341 0.25173336 1.1200001
0.44266671 0.25173336 1.12
0.44693339 0.25173336 1.12
0.45226669 0.25173336 1.1200001
0.45760003 0.25173336 1.12
0.46186668 0.25173336 1.12
0.46720004 0.25173336 1.12
0.47786671 0.25280002 1.12
0.48213336 0.25226671 1.12
0.41280001 0.25600001 1.12
0.41600004 0.25600001 1.12
0.42346668 0.25600001 1.12
0.42666671 0.25600001 1.12
0.48729336 0.23828001 1.1270001
0.41323337 0.24472001 1.1270001
0.41788447 0.24400446 1.1270001
0.42146227 0.24400446 1.1270001
0.42772338 0.24418333 1.1270001
0.4321956 0.24400446 1.1270001
0.43648896 0.24400446 1.1270001
0.44178405 0.24343203 1.1270001
0.44758004 0.24364668 1.1270001
0.45187336 0.24257335 1.1270001
0.45724002 0.24128537 1.1270001
0.4626067 0.24150002 1.1270001
0.46690002 0.24364668 1.1270001
0.47226673 0.24386135 1.1270001
0.47763336 0.24364668 1.1270001
0.48192671 0.24364668 1.1270001
0.48729336 0.24221557 1.1270001
0.49266005 0.24150002 1.1270001
0.49659559 0.24185781 1.1270001
0.41216004 0.24686669 1.1270001
0.48085338 0.24686669 1.1270001
0.41904002 0.22896002 1.1340001
0.42200142 0.22772858 1.13325
0.42552003 0.22680001 1.1340001
0.47844005 0.22896002 1.1340001
0.49464002 0.22896002 1.1340001
0.49788004 0.22788002 1.1340001
0.41867051 0.2330724 1.1330001
0.42116284 0.23266289 1.131
0.427248 0.23241602 1.1340001
0.43308002 0.23220003 1.1340001
0.43740004 0.23328002 1.1340001
0.44280002 0.23328003 1.1340001
0.44820005 0.23328002 1.1340001
0.45360002 0.23328002 1.1340001
0.45684004 0.23328002 1.1340001
0.46278006 0.23274001 1.1340001
0.46764004 0.23220001 1.1340001
0.47196007 0.23220001 1.1340001
0.47731358 0.23285429 1.13325
0.48315087 0.23272346 1.1334001
0.48746857 0.23272346 1.1334
0.49242356 0.23285431 1.13325
0.49786431 0.23316216 1.1321251
0.41362289 0.23912573 1.131
0.41713002 0.23820573 1.1317501
0.42180917 0.23826401 1.131
0.42766646 0.23717144 1.13325
0.43231624 0.23717907 1.1320001
0.4373658 0.23763674 1.1327143
0.44263002 0.23709287 1.1328751
0.4476077 0.23728383 1.1325001
0.45246863 0.23763676 1.1327143
0.45739925 0.23732902 1.1327144
0.4621568 0.23693064 1.1322858
0.46721801 0.23745717 1.1318573
0.47226197 0.2373886 1.1330001
0.47651622 0.23753905 1.1320001
0.48261002 0.23739645 1.1317501
0.48773003 0.23712716 1.1317501
0.49225432 0.23804858 1.131
0.49764007 0.2380486 1.131
0.41362289 0.24235716 1.131
0.41685432 0.24235716 1.131
0.42277861 0.24181859 1.131
0.42762572 0.24235716 1.131
0.4319343 0.24128002 1.131
0.43731999 0.24214172 1.131
0.44270575 0.24128002 1.131
0.44701433 0.24128002 1.131
0.45240006 0.24128002 1.131
0.46855718 0.24128002 1.131
0.47322482 0.24199812 1.131
0.47717431 0.24128002 1.131
0.48256004 0.24128002 1.131
0.48686859 0.24128002 1.131
0.4997943 0.24128002 1.131
0.49855241 0.22326478 1.138
0.42485335 0.2254324 1.138
0.42810479 0.22976764 1.138
0.43280134 0.22904509 1.138
0.43677527 0.22976764 1.138
0.44327813 0.22976764 1.138
0.44761336 0.22976764 1.138
0.45194858 0.22976764 1.138
0.45736766 0.22976765 1.138
0.46278667 0.22976764 1.138
0.46712196 0.22976764 1.138
0.47297451 0.22890058 1.138
0.47796005 0.22868383 1.138
0.48229527 0.22868383 1.138
0.48728082 0.22890058 1.138
0.49313337 0.22760002 1.138
0.49710736 0.22615492 1.138
0.43135622 0.23193525 1.138
0.43785909 0.23193525 1.138
0.44219431 0.23193525 1.138
0.44761336 0.23193525 1.138
0.45230985 0.23265779 1.138
0.45736766 0.23193525 1.138
0.46278667 0.23193525 1.138
0.48942861 0.22404954 1.1420001
0.493054 0.22332446 1.1420001
0.49704191 0.22296193 1.1420001
0.42852193 0.22622478 1.1420001
0.43178481 0.22731239 1.1420001
0.43765792 0.22709487 1.1420001
0.44266099 0.22840002 1.1420001
0.44701147 0.22840002 1.1420001
0.45244953 0.22731239 1.1420002
0.45788765 0.22731239 1.1420001
0.46223813 0.22731239 1.1420001
0.46767625 0.22731239 1.1420002
0.4727518 0.22694986 1.1420001
0.47782731 0.22694986 1.1420001
0.48181528 0.22622478 1.1420001
0.48670956 0.22676858 1.1420001
0.49160385 0.2273124 1.1420001
0.44157335 0.23057525 1.1420001
0.43438861 0.2095543 1.146
0.43657145 0.2095543 1.146
0.44202858 0.20628002 1.146
0.45403433 0.21392001 1.146
0.45294291 0.2171943 1.146
0.45694479 0.21755812 1.1460001
0.48241147 0.21828572 1.146
0.48896003 0.21828572 1.146
0.49223432 0.21828572 1.146
0.49725491 0.21741259 1.146
0.43329716 0.22483429 1.146
0.4376629 0.22483429 1.146
0.44202858 0.22374287 1.146
0.44775862 0.22292431 1.146
0.45294291 0.22265145 1.146
0.45730862 0.22265145 1.146
0.46276575 0.22265144 1.146
0.46822286 0.22265145 1.146
0.47258863 0.22265147 1.146
0.47673604 0.22308801 1.146
0.48241144 0.22265145 1.146
0.48786864 0.22265145 1.146
0.49223432 0.22156 1.146
0.49769148 0.22046858 1.1460001
0.44312003 0.22701716 1.146
0.44748577 0.22701716 1.1460001
0.46778864 0.20424573 1.1530001
0.48206383 0.20424573 1.153
0.48755431 0.20424573 1.153
0.49240196 0.20398001 1.1515
0.49743718 0.20424573 1.153
0.44028574 0.20809525 1.1500001
0.44795242 0.20700002 1.1500001
0.45233336 0.20700002 1.1500001
0.45671433 0.20700002 1.1500001
0.46229813 0.20754001 1.153
0.46758574 0.20745048 1.1525
0.47767144 0.20754002 1.153
0.4816978 0.20790605 1.1530001
0.48755431 0.20754002 1.153
0.49304479 0.20754001 1.153
0.49743718 0.20754001 1.153
0.4337143 0.21357144 1.1500001
0.43700004 0.21357144 1.1500001
0.44247618 0.21247621 1.1500001
0.44795245 0.21247622 1.1500001
0.45233339 0.21247622 1.1500001
0.45693341 0.21203811 1.1500001
0.4623681 0.21295646 1.151125
0.46754506 0.21232004 1.1508572
0.47286862 0.21284384 1.1520001
0.47725311 0.21294586 1.1508573
0.48247012 0.21247926 1.1524
0.48768604 0.21232301 1.1525714
0.49218959 0.21265906 1.151
0.49752569 0.21259813 1.1506666
0.4337143 0.2179524 1.1500001
0.43700004 0.21795239 1.1500001
0.44247621 0.21795242 1.1500001
0.44795242 0.2179524 1.1500001
0.45123813 0.2179524 1.1500001
0.4626286 0.21773334 1.1500001
0.46766669 0.2179524 1.1500001
0.47204766 0.2179524 1.1500001
0.47752386 0.2179524 1.1500001
0.48276669 0.21699715 1.15075
0.48741564 0.21740726 1.1506001
0.49176192 0.21685715 1.1500001
0.49504766 0.21685715 1.1500001
0.4337143 0.22233334 1.1500001
0.43700004 0.22233336 1.1500001
0.44192857 0.22178572 1.1500001
0.44685718 0.22123811 1.1500001
0.4797143 0.22123811 1.1500001
0.46500385 0.2049543 1.1570001
0.47381908 0.2049543 1.1570001
0.47712481 0.2049543 1.1570001
0.47381908 0.20826001 1.1570001
0.4760229 0.20826001 1.1570001
0.48483813 0.2071581 1.1570001
