# .PCD v0.7 - Point Cloud Data file format
VERSION 0.7
FIELDS x y z rgb
SIZE 4 4 4 4
TYPE F F F F
COUNT 1 1 1 1
WIDTH 584
HEIGHT 1
VIEWPOINT 0 0 0 1 0 0 0
POINTS 584
DATA ascii
0.032769527 -0.080973975 0.74800009 2.2040158e-38
0.03633143 -0.080499053 0.74800003 2.2683006e-38
0.029207623 -0.077649534 0.74800003 1.5925712e-38
0.032769524 -0.077649534 0.74800009 1.731414e-38
0.03668762 -0.077293336 0.74800003 1.6761692e-38
0.032769524 -0.074800007 0.74800003 1.6931135e-38
0.0374 -0.074443817 0.74800003 1.6369376e-38
0.040605716 -0.074800007 0.74800003 1.4901398e-38
0.019362858 -0.081037149 0.75300002 1.8313051e-38
0.022204341 -0.082375348 0.75211114 1.6953251e-38
0.027082648 -0.081728138 0.75055557 2.065365e-38
0.030714288 -0.08214286 0.75000006 2.341769e-38
0.037652068 -0.081739686 0.75066674 2.3234019e-38
0.042283338 -0.081700489 0.75250006 2.3325854e-38
0.045897149 -0.08247143 0.75300002 2.341769e-38
0.019362858 -0.078885719 0.75300002 1.9236419e-38
0.022311779 -0.0774775 0.75136369 1.886907e-38
0.026653484 -0.076993413 0.75015396 1.7208475e-38
0.03871429 -0.078142874 0.75000006 1.8711799e-38
0.042314637 -0.077413514 0.75072736 1.7134741e-38
0.046825286 -0.076650575 0.75218183 1.5650237e-38
0.050917145 -0.075300008 0.75300002 1.6113967e-38
0.022923019 -0.072350964 0.75216669 2.0620049e-38
0.027183972 -0.072254136 0.7511667 1.9791341e-38
0.032142859 -0.072142862 0.75000006 1.8869047e-38
0.037207793 -0.072012991 0.75000012 1.8499533e-38
0.042181596 -0.072206989 0.75066674 1.785597e-38
0.047300957 -0.072383337 0.75250006 1.8130438e-38
0.050917145 -0.07243143 0.75300002 1.8223695e-38
0.023665715 -0.06956286 0.75300002 2.0256647e-38
0.027959049 -0.068464056 0.75275004 1.9606614e-38
0.032253414 -0.067373261 0.75258338 1.905308e-38
0.037190717 -0.06723132 0.75100005 1.9142743e-38
0.042209368 -0.067246199 0.7511667 1.8777912e-38
0.047163751 -0.067232199 0.75260007 1.8776512e-38
0.038725719 -0.063825719 0.75300002 1.7579037e-38
0.042670004 -0.063467145 0.75300002 1.6841458e-38
0.045658104 -0.06334763 0.75300002 1.6380456e-38
0.013716191 -0.090238102 0.75800002 1.6932715e-38
0.017181335 -0.090815626 0.75800002 2.0660471e-38
0.032485716 -0.090238102 0.75800002 2.3142183e-38
0.038621906 -0.090599053 0.75800002 2.2680848e-38
0.041870479 -0.090238102 0.75800002 2.2773763e-38
0.012988256 -0.087312713 0.75766671 1.785488e-38
0.01710806 -0.087315239 0.75576925 1.7689325e-38
0.022323707 -0.087134279 0.75611115 2.2683005e-38
0.027331343 -0.08710555 0.75699997 2.341769e-38
0.032428574 -0.087198101 0.75666666 2.3417689e-38
0.037451513 -0.087149605 0.75625008 2.3233659e-38
0.042486884 -0.087133445 0.75611115 2.2957435e-38
0.047700439 -0.08719828 0.75781816 2.1667074e-38
0.052699052 -0.087170005 0.75799996 2.2498616e-38
0.057733096 -0.086600251 0.75774997 2.2957434e-38
0.061361909 -0.085906669 0.75800002 1.8713249e-38
0.012128314 -0.082414389 0.75727272 1.9419673e-38
0.017066495 -0.08285109 0.75527281 1.8220822e-38
0.027588889 -0.084202871 0.75566673 2.2866677e-38
0.032357149 -0.084128581 0.75500005 2.341769e-38
0.037390478 -0.084128574 0.75500005 2.341769e-38
0.042423815 -0.084128581 0.75500005 2.3325854e-38
0.047826957 -0.082834393 0.75630003 2.2498257e-38
0.05258318 -0.082838424 0.75633335 2.1763215e-38
0.057796124 -0.082620755 0.75638467 1.8441695e-38
0.061789211 -0.082224771 0.7573334 1.7251782e-38
0.013081906 -0.077567354 0.75714284 1.9330008e-38
0.01695626 -0.077488236 0.75535721 1.9605183e-38
0.020852383 -0.075500004 0.75500005 1.9883907e-38
0.048463818 -0.079239056 0.75500005 2.0188374e-38
0.052621219 -0.077853255 0.75500005 1.4997705e-38
0.057453025 -0.077608965 0.75593346 1.6972683e-38
0.061361909 -0.077965721 0.75800002 1.4841106e-38
0.013716191 -0.072912388 0.75800008 1.7394277e-38
0.017081635 -0.07234858 0.75642866 1.8960904e-38
0.020852383 -0.072623812 0.75500005 2.0711902e-38
0.052901369 -0.072623819 0.75500005 1.7672365e-38
0.057780527 -0.072512679 0.75615394 1.4664216e-38
0.018498309 -0.067828044 0.75677776 1.6102504e-38
0.022169961 -0.067426413 0.75536364 1.766947e-38
0.026604762 -0.066511907 0.75500005 1.794604e-38
0.049614288 -0.069747627 0.75500005 1.886942e-38
0.05249048 -0.067590483 0.75500005 1.7857111e-38
0.057448011 -0.067523688 0.75586683 1.5205857e-38
0.022724288 -0.063846201 0.75750005 1.6009552e-38
0.027365081 -0.062652864 0.7561667 1.600988e-38
0.03237598 -0.062593341 0.75544453 1.6194624e-38
0.037107524 -0.062277626 0.75510007 1.5918787e-38
0.042136196 -0.06169429 0.75500005 1.5364522e-38
0.048037674 -0.06226455 0.75533342 1.5550024e-38
0.05252159 -0.062593333 0.75544453 1.5274547e-38
0.056475244 -0.063202858 0.75700009 1.3823956e-38
0.028128257 -0.0598654 0.7573334 1.5642944e-38
0.03244286 -0.05911715 0.75699997 1.5831985e-38
0.03748953 -0.05911715 0.75699997 1.5920226e-38
0.042544223 -0.058819056 0.7571429 1.5647574e-38
0.047102541 -0.059357788 0.75699997 1.564076e-38
0.051977146 -0.059918098 0.75800002 1.5089395e-38
0.013080001 -0.097373344 0.76300001 1.8527415e-38
0.017366324 -0.09752547 0.76263636 2.1117135e-38
0.022526667 -0.095920011 0.76300001 2.341769e-38
0.027371112 -0.09616223 0.76300001 2.3325854e-38
0.03246735 -0.096989535 0.76242864 2.2865236e-38
0.03778667 -0.096646674 0.76300001 2.2774123e-38
0.042146668 -0.095920011 0.76300001 2.3142183e-38
0.047524001 -0.095774673 0.76300001 2.2222032e-38
0.050866671 -0.095193341 0.76300001 2.2681571e-38
0.064673334 -0.095920011 0.76300001 1.9833952e-38
0.066126674 -0.095920011 0.76300001 2.0748647e-38
0.012565239 -0.092065886 0.76116675 1.7039578e-38
0.017467514 -0.093614615 0.76066679 2.1763216e-38
0.022457778 -0.092005096 0.76066673 2.341769e-38
0.027525639 -0.091995023 0.7605834 2.341769e-38
0.03273743 -0.092709251 0.76050013 2.2589731e-38
0.037308738 -0.093333185 0.76066673 2.2130195e-38
0.042943951 -0.092407361 0.76057154 2.2958152e-38
0.047374289 -0.09185221 0.76060009 2.3141823e-38
0.052218195 -0.092105828 0.76150006 2.323366e-38
0.056680005 -0.090833336 0.76300001 2.341769e-38
0.063177623 -0.091862857 0.76250005 2.0103357e-38
0.066963136 -0.091803685 0.76071441 1.8163996e-38
0.0094466675 -0.085020006 0.76300001 1.7672281e-38
0.010861905 -0.087620005 0.76033342 1.8498112e-38
0.028228574 -0.089028575 0.76000005 2.341769e-38
0.047047623 -0.089028575 0.76000005 2.3417689e-38
0.052838098 -0.089028575 0.76000005 2.341769e-38
0.057180956 -0.089028582 0.76000011 2.341769e-38
0.06307181 -0.087718301 0.76120013 1.8541073e-38
0.067083813 -0.088840961 0.7615 1.6504891e-38
0.0090554766 -0.081871197 0.76075006 1.8409472e-38
0.063907437 -0.082166865 0.76080006 1.7154928e-38
0.066126674 -0.08138667 0.76300001 1.5495429e-38
0.010861905 -0.077480957 0.76033342 1.8039623e-38
0.063456886 -0.077328168 0.76085722 1.3011917e-38
0.067372397 -0.077338099 0.76300007 1.5036961e-38
0.070486672 -0.076300003 0.76300001 1.5123313e-38
0.01183672 -0.072233759 0.7610001 1.5919133e-38
0.063027307 -0.072444446 0.76066673 1.4117152e-38
0.06758 -0.072666675 0.76300001 1.3646088e-38
0.070486672 -0.07484667 0.76300001 1.4578759e-38
0.013434286 -0.067898102 0.76250005 1.5643273e-38
0.015791431 -0.067077152 0.76060003 1.5642189e-38
0.063055135 -0.067402221 0.76100004 1.2721981e-38
0.067490168 -0.068216838 0.76200002 1.4469305e-38
0.018320359 -0.06330727 0.76187509 1.6100279e-38
0.022289643 -0.061432265 0.76112509 1.5819431e-38
0.025333336 -0.060076196 0.76000005 1.5369261e-38
0.054285716 -0.060076196 0.76000005 1.4905756e-38
0.057607051 -0.061378863 0.76179999 1.4273063e-38
0.060745083 -0.064132385 0.76233339 1.3827231e-38
0.023253335 -0.058860004 0.76300001 1.6406802e-38
0.02755159 -0.057280324 0.76133341 1.6768768e-38
0.032592863 -0.056493811 0.76050007 1.6954268e-38
0.037638098 -0.05645714 0.76000011 1.6955717e-38
0.042727619 -0.056341719 0.7604 1.6405791e-38
0.047645357 -0.057064645 0.76087505 1.5937919e-38
0.05155953 -0.058094766 0.76250005 1.5185905e-38
0.055953339 -0.058860004 0.76300001 1.4723157e-38
0.028703336 -0.054136671 0.76300001 1.5188461e-38
0.032657146 -0.053701907 0.76200002 1.3905977e-38
0.037737146 -0.053701907 0.76200008 1.4175744e-38
0.042836513 -0.053725719 0.76233339 1.5368889e-38
0.046264451 -0.054015558 0.76300001 1.5649445e-38
0.013879049 -0.11030191 0.76700002 1.5029651e-38
0.017858369 -0.11226436 0.76757157 1.7057617e-38
0.021699049 -0.11288382 0.76800001 2.0104742e-38
0.013879049 -0.10811049 0.76700002 1.53999e-38
0.015346668 -0.10742605 0.76733339 1.8631437e-38
0.013501192 -0.10253358 0.76625001 1.8722195e-38
0.017543335 -0.10209002 0.7675001 2.0199497e-38
0.022669684 -0.1009154 0.76783341 2.341769e-38
0.02778524 -0.10090453 0.76775002 2.3325496e-38
0.032527145 -0.10123715 0.76749998 2.2957792e-38
0.037594289 -0.10110477 0.7665 2.3325496e-38
0.042374883 -0.10082228 0.76712507 2.2865599e-38
0.04723791 -0.10076477 0.76780003 2.3325854e-38
0.050468575 -0.10020572 0.76800001 2.341769e-38
0.065828577 -0.10093715 0.76800001 1.9732743e-38
0.010957143 -0.095692389 0.76700002 1.5379818e-38
0.018942859 -0.099814296 0.76500005 2.2222035e-38
0.022585716 -0.098357156 0.76500005 2.341769e-38
0.02841429 -0.098357156 0.76500005 2.3325854e-38
0.033514291 -0.099814296 0.76500005 2.2957434e-38
0.036865719 -0.098940007 0.76500005 2.3049989e-38
0.043005086 -0.097671434 0.76533335 2.3141823e-38
0.046992857 -0.097992867 0.76500005 2.3141823e-38
0.052595239 -0.09715382 0.76700008 2.323366e-38
0.057490289 -0.096402287 0.76800007 2.341769e-38
0.062562391 -0.096645236 0.76683331 2.0382091e-38
0.065786198 -0.098678574 0.76750004 2.0012921e-38
0.0095085725 -0.09289144 0.76800001 1.5647716e-38
0.010971429 -0.093622863 0.76800001 1.6479262e-38
0.05464286 -0.093985721 0.76500005 2.341769e-38
0.057884358 -0.093136877 0.7665714 2.341769e-38
0.061339289 -0.093471199 0.76675004 2.2314588e-38
0.0081928046 -0.087538414 0.76666671 1.4812182e-38
0.06808345 -0.086700365 0.76662505 1.6325519e-38
0.070902392 -0.086251907 0.76750004 1.5308058e-38
0.0065668034 -0.082257971 0.76628578 1.6113649e-38
0.06832695 -0.082721226 0.76671433 1.5220271e-38
0.071923822 -0.082895242 0.76800007 1.6694243e-38
0.0080280956 -0.07737954 0.7665 1.5739787e-38
0.068576194 -0.079518102 0.76600003 1.4672485e-38
0.071680009 -0.07972572 0.76800001 1.6413326e-38
0.0084586404 -0.072579458 0.76757151 1.5463195e-38
0.0095085725 -0.069485717 0.76800001 1.5735503e-38
0.01216889 -0.066930801 0.76666665 1.5827316e-38
0.063551433 -0.065012388 0.76700002 1.3904285e-38
0.066428579 -0.065698579 0.7665 1.3722008e-38
0.013897143 -0.063634291 0.76800001 1.5735126e-38
0.016777689 -0.062009532 0.76600003 1.5730111e-38
0.059014291 -0.060471434 0.76500005 1.4727889e-38
0.061847936 -0.062090479 0.76700008 1.4265073e-38
0.067757145 -0.064842865 0.76500005 1.4649733e-38
0.018639049 -0.058841433 0.76750004 1.7228634e-38
0.022418099 -0.057246946 0.76642871 1.6860653e-38
0.053295784 -0.057048988 0.76657158 1.5287114e-38
0.057475246 -0.058060002 0.76779997 1.4727786e-38
0.060708575 -0.059245717 0.76800001 1.4543781e-38
0.023639051 -0.05434572 0.7676667 1.5277421e-38
0.027545372 -0.052103125 0.76663643 1.3174819e-38
0.032814927 -0.051043816 0.76566672 9.1440947e-39
0.037205718 -0.051065721 0.76600003 8.8642876e-39
0.042319406 -0.051073935 0.76612496 1.2253956e-38
0.047750372 -0.051963922 0.76611114 1.4825816e-38
0.051904764 -0.053366102 0.76760012 1.5570961e-38
0.033645719 -0.049005717 0.76800001 7.9455669e-39
0.037302859 -0.049005717 0.76800001 7.5750019e-39
0.042422861 -0.049005717 0.76800001 8.4905234e-39
0.047542863 -0.049005717 0.76800001 9.3211291e-39
0.018333334 -0.11073335 0.7700001 1.9915341e-38
0.022293653 -0.11146318 0.77166671 2.2130555e-38
0.018333336 -0.10780001 0.77000004 2.1023497e-38
0.022787429 -0.10731734 0.77179998 2.1759262e-38
0.027008848 -0.10624886 0.77242863 2.341733e-38
0.031626672 -0.10601906 0.77228576 2.3049988e-38
0.037497144 -0.10513906 0.77200001 2.3325854e-38
0.042533338 -0.10706668 0.77000004 2.3325854e-38
0.047852382 -0.10527524 0.77300006 2.341769e-38
0.061103813 -0.10527524 0.77300006 2.3416973e-38
0.017600002 -0.10437779 0.7700001 2.000865e-38
0.022366667 -0.10376666 0.77000004 2.2774839e-38
0.027133336 -0.10340001 0.7700001 2.341769e-38
0.032266669 -0.10340001 0.77000004 2.3049629e-38
0.037400004 -0.10340001 0.7700001 2.3325854e-38
0.043266669 -0.10413334 0.7700001 2.3141825e-38
0.048096195 -0.10316762 0.77100003 2.341769e-38
0.05213429 -0.10182224 0.77100009 2.341769e-38
0.057330713 -0.10143025 0.77174997 2.3233659e-38
0.062458206 -0.10214053 0.77155566 2.2314942e-38
0.065436192 -0.10366858 0.77200001 2.0562526e-38
0.053533338 -0.099000007 0.77000004 2.341769e-38
0.057640005 -0.098706678 0.77000004 2.341769e-38
0.061355561 -0.098511122 0.7700001 2.2678335e-38
0.073577784 -0.082377784 0.7700001 1.6781021e-38
0.0030841907 -0.076826669 0.77120006 1.4660853e-38
0.0051333336 -0.077733338 0.77000004 1.3815622e-38
0.072600007 -0.078466669 0.77000004 1.6874292e-38
0.0031860319 -0.073768899 0.77200001 1.4657282e-38
0.0057274289 -0.07239905 0.77100009 1.4369457e-38
0.0036761907 -0.067641906 0.77200001 1.5389081e-38
0.0073482539 -0.067978904 0.77166677 1.5279557e-38
0.011014286 -0.066084765 0.77100003 1.6194649e-38
0.012734446 -0.062454768 0.77150005 1.5367439e-38
0.015400001 -0.060866669 0.77000004 1.517913e-38
0.063882858 -0.06167905 0.77100003 1.4723851e-38
0.066358417 -0.062684454 0.7713334 1.4087885e-38
0.01398762 -0.059631433 0.77300006 1.6378734e-38
0.017256271 -0.056667544 0.77108347 1.6860646e-38
0.021266667 -0.055000003 0.77000004 1.5092007e-38
0.058511592 -0.056061752 0.77116674 1.5193091e-38
0.06224972 -0.058423053 0.77260005 1.4634912e-38
0.019502621 -0.05262024 0.77275002 1.5287089e-38
0.022578573 -0.051950004 0.77100003 1.5280931e-38
0.025666669 -0.050600003 0.77000004 1.2718147e-38
0.05304445 -0.051088892 0.7700001 1.2165946e-38
0.056184091 -0.052401774 0.7718572 1.4939331e-38
0.023803493 -0.048833974 0.77300012 1.4275767e-38
0.027214924 -0.047810059 0.77233344 1.226043e-38
0.032010764 -0.047427338 0.77090001 1.1064752e-38
0.037448578 -0.046993338 0.77100009 1.2347233e-38
0.042588573 -0.046993334 0.77100003 1.2810441e-38
0.047791433 -0.047054611 0.77200007 6.1822107e-39
0.052066669 -0.049133342 0.7700001 3.7826441e-39
0.055142861 -0.049260955 0.77200001 4.6379294e-39
0.033864766 -0.044907622 0.77300006 1.5288106e-38
0.037545718 -0.044907622 0.77300012 1.3909211e-38
0.041962862 -0.044907622 0.77300012 1.1902244e-38
0.027334288 -0.11598065 0.77566671 2.0841626e-38
0.030340003 -0.11618001 0.77700001 2.2222394e-38
0.037837148 -0.11796287 0.77900004 2.3233959e-38
0.042288572 -0.11722096 0.77900004 2.3140698e-38
0.046680003 -0.11706953 0.77800006 2.2679374e-38
0.024357146 -0.11292857 0.77500004 2.1117128e-38
0.027349526 -0.11308963 0.77611113 2.1486271e-38
0.031432793 -0.11228614 0.77785712 2.2957794e-38
0.037837148 -0.11054382 0.77900004 2.2958154e-38
0.042585339 -0.11113735 0.77900004 2.2406422e-38
0.047427975 -0.11264442 0.77812523 2.2498257e-38
0.052155245 -0.11182328 0.7775715 2.3141465e-38
0.024357144 -0.10997619 0.77500004 2.130007e-38
0.027604764 -0.10938572 0.77500004 2.2404977e-38
0.032997467 -0.10834731 0.77566671 2.2865958e-38
0.03770826 -0.10794859 0.77633333 2.3141825e-38
0.040700004 -0.10804 0.77700001 2.3234019e-38
0.047744051 -0.10789095 0.77725005 2.341733e-38
0.052633531 -0.10748591 0.7762 2.323366e-38
0.05744363 -0.10765112 0.77526671 2.2774481e-38
0.062738098 -0.10628572 0.77500004 2.3048543e-38
0.053142861 -0.10407144 0.77500004 2.341769e-38
0.057571433 -0.10407144 0.77500004 2.2958152e-38
0.0066473028 -0.065746993 0.77566671 1.5094449e-38
0.0081413342 -0.06291467 0.77719998 1.5462123e-38
0.01107143 -0.062000003 0.77500004 1.5828035e-38
0.068150803 -0.062246036 0.77500004 1.4837708e-38
0.012578477 -0.057718862 0.77700007 1.6399657e-38
0.063132003 -0.0566261 0.7762 1.4822927e-38
0.066409849 -0.059496831 0.77766669 1.4731813e-38
0.014096191 -0.053417146 0.77900004 4.518145e-39
0.016801668 -0.052253574 0.77550006 8.0207437e-39
0.05925696 -0.052162863 0.77580005 1.2902722e-38
0.061499052 -0.053347621 0.778 7.4786809e-39
0.018498732 -0.048839368 0.77700007 9.8660745e-39
0.022125978 -0.046607018 0.77681822 1.4924532e-38
0.027309528 -0.045023814 0.77500004 1.1703457e-38
0.031000003 -0.045023814 0.77500004 1.5377066e-38
0.047270004 -0.04505286 0.7755 1.0589241e-38
0.052540846 -0.046617888 0.77700001 2.9517932e-39
0.056683242 -0.048394479 0.77700001 1.1161135e-38
0.024482859 -0.043772385 0.77900004 1.8424552e-40
0.027802859 -0.043373335 0.77850002 7.3865133e-39
0.03256651 -0.042186834 0.77716672 1.3648178e-38
0.03771884 -0.042154185 0.7765556 1.0605807e-38
0.042180002 -0.042177465 0.77700001 1.13351e-38
0.047420956 -0.042974293 0.778 1.2357131e-38
0.051191431 -0.043772385 0.77900004 7.7145853e-39
0.036353335 -0.039320953 0.77900004 3.5024782e-39
0.03356364 -0.11716884 0.78000009 2.2312053e-38
0.037724763 -0.11688811 0.78050005 2.2038332e-38
0.042413972 -0.1153397 0.78133339 2.3141462e-38
0.034320004 -0.11246858 0.78000003 2.3049269e-38
0.037919372 -0.11301081 0.78066671 2.2956352e-38
0.042023811 -0.11343049 0.78100002 2.2587935e-38
0.0037238097 -0.066283815 0.78200006 1.4743711e-38
0.0037269844 -0.063357465 0.78266668 1.4467148e-38
0.0062000006 -0.061265405 0.78133339 1.5375006e-38
0.0086952392 -0.057891428 0.78266668 1.5739442e-38
0.011142858 -0.055714291 0.78000003 1.3277987e-38
0.064628579 -0.055714291 0.78000003 1.5194955e-38
0.067937866 -0.057140242 0.78175002 1.2624288e-38
0.071680002 -0.056746673 0.78400004 6.6456748e-39
0.0097066676 -0.054506671 0.78400004 1.0506088e-38
0.01247024 -0.052301198 0.78175002 1.8494645e-39
0.063661508 -0.05260627 0.78114295 9.4929465e-39
0.06788826 -0.053713657 0.78333342 7.7364707e-39
0.070933335 -0.054506671 0.78400004 2.9408897e-39
0.016920818 -0.047150481 0.78228581 1.3743998e-38
0.05758515 -0.046573337 0.78120005 1.2545482e-38
0.062041432 -0.048998099 0.78250003 5.8073578e-39
0.066283815 -0.049899049 0.78200006 1.3923238e-38
0.018666668 -0.044053335 0.78400004 1.3029133e-38
0.022138011 -0.042314637 0.78200006 1.0418166e-38
0.027216002 -0.041493338 0.78080004 8.4034327e-40
0.047574766 -0.040883332 0.78050005 6.926977e-39
0.0528781 -0.042449258 0.78200001 4.6116354e-39
0.056000005 -0.044053335 0.78400004 9.4072585e-39
0.023769252 -0.038051158 0.78342861 1.1602335e-38
0.027584603 -0.037275717 0.78283346 2.3936112e-39
0.032247037 -0.03739956 0.78184628 1.033854e-38
0.037463948 -0.036930069 0.78228581 4.7172134e-39
0.042469852 -0.037250794 0.78233337 1.0049381e-38
0.046641912 -0.03785884 0.78288889 3.7876705e-39
0.05002667 -0.038826667 0.78400004 1.5397315e-38
0.028373335 -0.033600003 0.78400004 7.2670147e-39
0.032106668 -0.033600003 0.7840001 1.2540806e-38
0.0037428574 -0.060634289 0.78600001 1.492958e-38
0.0030049211 -0.057847466 0.78883338 1.254149e-38
0.0062487307 -0.057250004 0.78750008 1.6304888e-38
0.008253905 -0.05253334 0.78800005 1.1232439e-38
0.01199143 -0.050218098 0.78700006 9.3765084e-41
0.068120003 -0.051277146 0.78600001 1.2262232e-38
0.0093928576 -0.047715716 0.78900003 8.1831486e-39
0.012759049 -0.047285818 0.78811115 5.7219921e-39
0.01572 -0.045662861 0.78600001 1.1919953e-38
0.059137147 -0.045662861 0.78600001 1.0151299e-38
0.061617147 -0.046588574 0.78900003 5.084554e-39
0.068120003 -0.048657145 0.78600001 1.567393e-38
0.013776191 -0.043833338 0.78900003 3.7937493e-40
0.017060954 -0.042562146 0.78750002 1.1994466e-38
0.054784767 -0.041276194 0.78800005 9.0589574e-39
0.057472575 -0.043065719 0.78780001 1.1056668e-38
0.018034287 -0.039825715 0.78900003 1.3656183e-38
0.021558693 -0.03711798 0.78737509 8.1313188e-39
0.048199367 -0.03571175 0.78666675 1.20791e-38
0.052637309 -0.03763175 0.7876668 1.4373145e-38
0.056357145 -0.039825715 0.78900003 1.5668603e-38
0.02325302 -0.033757146 0.78766674 7.9340314e-39
0.027402146 -0.032655001 0.78825003 8.9488167e-39
0.032687146 -0.031935718 0.78900003 1.465769e-38
0.037305541 -0.032393858 0.78772736 1.271043e-38
0.042768732 -0.03301286 0.78783339 1.4831255e-38
0.046934765 -0.033417143 0.78850007 1.475236e-38
0.050345719 -0.033814289 0.78900003 1.6482088e-38
0.0033923814 -0.053519528 0.79149997 9.4939512e-39
0.0056500002 -0.052733336 0.79100001 1.6298809e-38
0.0073860954 -0.047181912 0.79140007 1.4364538e-38
0.06344001 -0.046824764 0.79300004 6.8426833e-39
0.066460952 -0.048335239 0.79300004 1.3011426e-38
0.0090504773 -0.044502862 0.79200006 1.1495367e-38
0.012319366 -0.042490795 0.792 4.6507555e-40
0.059174292 -0.041458573 0.79149997 1.4473598e-38
0.061174288 -0.043803811 0.79300004 1.0243482e-38
0.014313335 -0.03992667 0.79100001 8.5330669e-40
0.017560683 -0.037814286 0.79185712 9.5877317e-39
0.020340001 -0.035406668 0.79100001 4.0092971e-40
0.054240003 -0.035406668 0.79100001 1.575427e-38
0.057160575 -0.037854671 0.79180002 1.5764697e-38
0.022887938 -0.032951433 0.79233336 2.5827444e-39
0.02791905 -0.030938733 0.79233336 1.3186191e-38
0.031640001 -0.030886669 0.79100001 1.5574562e-38
0.03992667 -0.030886669 0.79100001 1.6493083e-38
0.042940002 -0.030886671 0.79100007 1.6769124e-38
0.047786098 -0.031504955 0.79140002 1.6779183e-38
0.052045718 -0.032684766 0.79200006 1.6129111e-38
0.055132385 -0.033985715 0.79300004 1.6035842e-38
0.028926034 -0.028926034 0.79233336 1.6843711e-38
0.032643676 -0.02833347 0.79185712 1.6285435e-38
0.03710106 -0.028222965 0.79144442 1.7046771e-38
0.042570479 -0.02855932 0.79214293 1.6498637e-38
0.047202386 -0.029076668 0.79300004 1.6130578e-38
0.0015142858 -0.056028575 0.79500002 7.2759508e-39
0.0027761906 -0.051233336 0.79500002 1.3824205e-38
0.0053000003 -0.050728574 0.79500002 1.6482116e-38
0.0037952387 -0.047820002 0.79700011 1.5287138e-38
0.0053133341 -0.047820002 0.79700011 1.6020426e-38
0.064357147 -0.046185717 0.79500002 9.1410608e-39
0.067385718 -0.046185717 0.79500002 1.3466655e-38
0.0081730168 -0.042554609 0.79633331 1.3446866e-38
0.012114286 -0.040128574 0.79500002 3.3098039e-39
0.063289337 -0.042191435 0.79680002 1.1070642e-38
0.067029953 -0.042745084 0.79677778 1.3559215e-38
0.0093733342 -0.038253337 0.79800004 1.4270162e-38
0.012897144 -0.037176508 0.79666668 5.7147221e-39
0.016418098 -0.036120322 0.79566669 1.0439388e-38
0.059131432 -0.037145719 0.796 1.6501476e-38
0.061560005 -0.038000003 0.79800004 1.2169766e-38
0.013680001 -0.034200002 0.79800004 8.6582112e-39
0.017459894 -0.032642119 0.79711115 1.5398818e-38
0.022245083 -0.031600952 0.79633331 1.0039311e-38
0.053000003 -0.031042859 0.79500002 1.6407857e-38
0.057687938 -0.033397462 0.79700005 1.5763907e-38
0.017784001 -0.029032001 0.79800004 1.6498368e-38
0.022393417 -0.027706429 0.79708338 1.7323041e-38
0.027054921 -0.026674923 0.79650009 1.7032397e-38
0.032303434 -0.025629142 0.79619998 1.6197161e-38
0.038662858 -0.025774287 0.796 1.7238751e-38
0.042467386 -0.025782619 0.79624999 1.659228e-38
0.047556039 -0.026559208 0.7968334 1.6126622e-38
0.051979765 -0.029214049 0.79675007 1.6591884e-38
0.027360002 -0.023560002 0.79800004 1.8152766e-38
0.032680001 -0.023560002 0.79800004 1.8246007e-38
0.036871817 -0.024124382 0.79660004 1.7232621e-38
0.041800003 -0.023560002 0.79800004 1.714619e-38
0.0068828575 -0.041296192 0.80300003 1.6014271e-38
0.0089028589 -0.036377147 0.80133337 1.6018247e-38
0.063278578 -0.036975238 0.80050004 1.1163869e-38
0.066917144 -0.037857145 0.80300003 1.4381767e-38
0.0099295247 -0.034371432 0.80200005 1.6019302e-38
0.012755648 -0.032383405 0.80142868 1.5199327e-38
0.057142865 -0.0312381 0.80000007 1.6040162e-38
0.062690243 -0.033255957 0.80274999 1.2172242e-38
0.013907812 -0.028579051 0.80240005 1.5928576e-38
0.017329525 -0.02626776 0.80114293 1.5385914e-38
0.020571429 -0.02514286 0.80000001 1.4658769e-38
0.049523812 -0.025904763 0.80000001 1.6590134e-38
0.05286143 -0.026524289 0.80150008 1.6684084e-38
0.057183571 -0.028495001 0.80324996 1.6126923e-38
0.018616511 -0.023206985 0.8033334 1.5379092e-38
0.02234786 -0.02234643 0.80225003 1.4651604e-38
0.027462859 -0.021359051 0.801 1.5023258e-38
0.032802857 -0.021359049 0.80100006 1.5851223e-38
0.037380002 -0.021359049 0.80100006 1.685455e-38
0.042416055 -0.021697147 0.80142862 1.7324837e-38
0.047079731 -0.02261007 0.80285722 1.6866695e-38
0.051302861 -0.023737144 0.80400002 1.7324805e-38
0.027893879 -0.018486533 0.80400002 1.5932608e-38
0.032925721 -0.018377144 0.80400002 1.5749985e-38
0.037137143 -0.018760001 0.80400002 1.637693e-38
0.042114288 -0.019142859 0.80400008 1.6848794e-38
0.0053733336 -0.042986669 0.80600005 1.5463281e-38
0.0069142859 -0.037643176 0.80666673 1.5827358e-38
0.0094673019 -0.033007622 0.80600011 1.6379775e-38
0.06294477 -0.031472381 0.80600005 1.2902208e-38
0.012547938 -0.02714413 0.80666679 1.6104629e-38
0.057571433 -0.025843177 0.80600011 1.6017171e-38
0.060717147 -0.029204763 0.80700004 1.3447513e-38
0.014620953 -0.023855239 0.80800003 1.7023721e-38
0.017364955 -0.02197524 0.80680001 1.6564211e-38
0.020725716 -0.020725716 0.80600005 1.739871e-38
0.048360005 -0.021237463 0.80600011 1.6672974e-38
0.052601095 -0.022291427 0.80714297 1.6489306e-38
0.056175243 -0.023855239 0.80800003 1.6293085e-38
0.019238096 -0.019238096 0.80800003 1.7021169e-38
0.022800319 -0.01818889 0.8070001 1.6657856e-38
0.027186288 -0.016435049 0.8064 1.6930436e-38
0.033007622 -0.016120002 0.80600011 1.6386975e-38
0.037976384 -0.016758097 0.80720007 1.6195721e-38
0.04186048 -0.01728143 0.80650002 1.6290154e-38
0.046587434 -0.018603429 0.80720007 1.6391731e-38
0.050019052 -0.019238096 0.80800003 1.6667881e-38
0.027937144 -0.014095875 0.80733341 1.7114089e-38
0.031858288 -0.014313144 0.80800003 1.6929371e-38
0.036167622 -0.014620953 0.80800003 1.6654935e-38
-0.00077523815 -0.045739051 0.81400001 1.4656574e-38
0.002008762 -0.046222862 0.81160003 1.4746221e-38
-0.00077523815 -0.043413334 0.81400001 1.3276534e-38
0.002318942 -0.042543702 0.8122223 1.4563266e-38
0.0054000001 -0.040885717 0.81000006 1.5359935e-38
0.0025159526 -0.038145483 0.81325006 1.4924455e-38
0.0054000001 -0.037799999 0.81000012 1.5185926e-38
0.0038761906 -0.034885716 0.81400001 1.537599e-38
0.0071417997 -0.032608468 0.81311119 1.5828752e-38
0.010028572 -0.030085716 0.81000006 1.6101015e-38
0.063415244 -0.030160002 0.81200004 1.3817735e-38
0.065895244 -0.030234288 0.81400001 1.327002e-38
0.0085276198 -0.028683811 0.81400001 1.6377963e-38
0.010445239 -0.026696667 0.8125 1.6287186e-38
0.059546672 -0.025520002 0.81200004 1.6021798e-38
0.062485084 -0.027110478 0.81333339 1.5102025e-38
0.012951905 -0.022232382 0.8120001 1.6563789e-38
0.0162 -0.020828573 0.81000006 1.647051e-38
0.054000005 -0.020828573 0.81000006 1.6029796e-38
0.058022052 -0.022434017 0.81228578 1.6310671e-38
0.014212701 -0.018864129 0.81400001 1.6837503e-38
0.017597383 -0.017597383 0.81225002 1.7113353e-38
0.021342859 -0.016714288 0.81000012 1.7113709e-38
0.043200001 -0.0162 0.81000006 1.6760485e-38
0.047501907 -0.016605716 0.81100005 1.6762666e-38
0.052216433 -0.017984049 0.81225002 1.667371e-38
0.05581715 -0.018605717 0.81400001 1.6863858e-38
0.018581906 -0.01471143 0.81300002 1.7663995e-38
0.022654969 -0.01359211 0.81228584 1.7297027e-38
0.026528258 -0.012619684 0.81133342 1.7205924e-38
0.032500479 -0.011992859 0.8125 1.6930794e-38
0.038097862 -0.012955001 0.81225008 1.6838602e-38
0.04256868 -0.013155767 0.81266671 1.7131818e-38
0.046734609 -0.01368381 0.81333339 1.7132558e-38
-0.00077619054 -0.041138098 0.81500006 1.2720091e-38
-0.00077682547 -0.038063176 0.81566668 1.2262721e-38
0.0012987303 -0.035560321 0.81766671 1.4010474e-38
0.0032721907 -0.031948768 0.81820005 1.6022513e-38
0.0054400004 -0.031086668 0.81600004 1.6012789e-38
0.0033768255 -0.028316511 0.81833339 1.6571733e-38
0.0068069054 -0.027037859 0.81700003 1.6750353e-38
0.064423814 -0.026390478 0.81500006 1.4553202e-38
0.065976195 -0.028719049 0.81500006 1.3452977e-38
0.0075336518 -0.023120321 0.81833351 1.732339e-38
0.010098731 -0.02252667 0.81566668 1.6669617e-38
0.059913337 -0.021008573 0.81700003 1.6393935e-38
0.06306085 -0.022574924 0.81744456 1.4463159e-38
0.0085800001 -0.0195 0.81900007 1.6795057e-38
0.012062144 -0.017706668 0.81725001 1.7027346e-38
0.053557146 -0.0163 0.81500006 1.6862773e-38
0.057343494 -0.017383492 0.8173334 1.6678026e-38
0.062205005 -0.01833 0.81900012 1.4274492e-38
0.014801906 -0.014021906 0.81800008 1.7205542e-38
0.017906666 -0.012455239 0.81750011 1.720591e-38
0.022252765 -0.010736953 0.81700003 1.7481431e-38
0.02716667 -0.010090477 0.81500006 1.7298486e-38
0.033376195 -0.010090477 0.81500006 1.7024021e-38
0.038033336 -0.010090477 0.81500006 1.711409e-38
0.042690478 -0.010090477 0.81500006 1.7122431e-38
0.047924452 -0.011138415 0.81599998 1.7503124e-38
0.051834673 -0.012761335 0.81720012 1.7135055e-38
0.056160003 -0.014820001 0.81900007 1.6671148e-38
-0.00078190479 -0.035185717 0.82100004 1.1341865e-38
-0.00078285718 -0.032879051 0.82200003 1.0699005e-38
0.0011728572 -0.032058097 0.82100004 1.4109159e-38
0.0023471429 -0.026991431 0.82150006 1.5564137e-38
0.0033914289 -0.023736192 0.82166672 1.5112512e-38
0.0062552383 -0.021893336 0.82100004 1.7149507e-38
0.0073063499 -0.017743811 0.82200003 1.4843887e-38
0.010164763 -0.016420001 0.82100004 1.6756231e-38
0.062291753 -0.017462542 0.82100004 1.3537256e-38
0.061063811 -0.014874287 0.82200003 1.2980816e-38
0.00078666676 -0.026745716 0.82600003 1.336663e-38
