# .PCD v0.7 - Point Cloud Data file format
VERSION 0.7
FIELDS x y z
SIZE 4 4 4
TYPE F F F
COUNT 1 1 1
WIDTH 584
HEIGHT 1
VIEWPOINT 0 0 0 1 0 0 0
POINTS 584
DATA ascii
0.038000003 -0.082080007 0.79800004
0.041040003 -0.082839996 0.79800004
0.037378184 -0.07731273 0.79800004
0.042408004 -0.077368006 0.7980001
0.047728006 -0.077064 0.79799998
0.050920002 -0.076760009 0.79800004
0.038760003 -0.073720008 0.79800004
0.029862858 -0.086525723 0.80400002
0.033691429 -0.086525723 0.80400002
0.037760954 -0.086584769 0.801
0.041549049 -0.086530961 0.80049998
0.029315241 -0.082595252 0.80299997
0.032787941 -0.082355246 0.80066675
0.036571428 -0.083047628 0.80000007
0.044190481 -0.082285717 0.80000007
0.047790863 -0.082452573 0.8016001
0.052637145 -0.080863819 0.801
0.057286568 -0.081729732 0.80199999
0.062022865 -0.081931435 0.80399996
0.028450001 -0.076953813 0.80200005
0.032761909 -0.07695239 0.80000007
0.053333342 -0.07695239 0.80000007
0.057191748 -0.07701651 0.80066675
0.06156382 -0.077091433 0.80371433
0.028716465 -0.072831303 0.80257148
0.032779686 -0.072420329 0.80044448
0.037142858 -0.072190486 0.80000007
0.042666674 -0.07238096 0.80000013
0.048 -0.072380953 0.80000007
0.052571431 -0.07238096 0.80000007
0.057191748 -0.072441272 0.80066669
0.06156382 -0.072935253 0.80371433
0.029250288 -0.068454862 0.80400002
0.03302858 -0.067739435 0.8028
0.037353653 -0.067846358 0.80044448
0.04266667 -0.067809537 0.80000013
0.048 -0.06780953 0.80000007
0.052601062 -0.067846358 0.80044448
0.057438623 -0.067436539 0.8021819
0.061429769 -0.067935482 0.80374998
0.037698783 -0.063922457 0.80314291
0.042416357 -0.063050963 0.80250001
0.047548961 -0.062529542 0.80266678
0.052746672 -0.063447624 0.80266672
0.056788195 -0.063521914 0.80360001
0.045177147 -0.058960006 0.80400002
0.038476191 -0.090034291 0.80800003
0.048480004 -0.090034291 0.80800003
0.051997833 -0.090913758 0.80800003
0.057201277 -0.091060326 0.80800003
0.022501193 -0.086737394 0.80775005
0.027173718 -0.08689449 0.80600017
0.032623813 -0.087892383 0.80600005
0.036845718 -0.0882762 0.80600005
0.047395878 -0.087105721 0.8070001
0.052373342 -0.086777844 0.80763638
0.057853103 -0.086684532 0.80725008
0.062228579 -0.086813979 0.80666679
0.065992773 -0.086606108 0.80760002
0.022296509 -0.082271121 0.80733341
0.026428033 -0.081915937 0.80600011
0.052965723 -0.083670482 0.80600011
0.066439465 -0.082031846 0.80714297
0.019238096 -0.077721909 0.80800003
0.022278097 -0.077593662 0.80666673
0.025715239 -0.077913336 0.80600005
0.063712388 -0.078297146 0.80600005
0.066876203 -0.077636823 0.8071112
0.070026681 -0.077721909 0.80800003
0.019238096 -0.074643813 0.80800003
0.02259524 -0.072552204 0.8070001
0.025945527 -0.072616771 0.80600005
0.063712388 -0.072156191 0.80600005
0.067053907 -0.072742671 0.80740005
0.070026673 -0.073104769 0.80800003
0.023855239 -0.068487622 0.80800003
0.027046099 -0.067309715 0.80680007
0.032240003 -0.065247625 0.80600005
0.063328579 -0.066399053 0.80600005
0.066022322 -0.067998372 0.80742866
0.028472383 -0.063870482 0.80800003
0.032278415 -0.062253654 0.80700004
0.03730629 -0.061256003 0.80600005
0.040683813 -0.060641907 0.80600005
0.052965716 -0.060641907 0.80600011
0.057878483 -0.061256003 0.80600005
0.062263709 -0.062262017 0.80711114
0.065409526 -0.063870482 0.80800003
0.033602543 -0.058227308 0.80800003
0.037685506 -0.057681698 0.80755562
0.042253967 -0.057617784 0.80666679
0.047388572 -0.057633657 0.806889
0.052198309 -0.057836402 0.80733341
0.057329528 -0.058868576 0.80800003
0.060792387 -0.059253339 0.80800003
0.042323813 -0.054636195 0.80800003
0.046940953 -0.054636195 0.80800003
0.050019052 -0.054636195 0.80800003
0.052974608 -0.10052255 0.81400001
0.055041909 -0.10000572 0.81400001
0.052410912 -0.09715376 0.8125456
0.057367623 -0.096646354 0.81400007
0.061760642 -0.095871113 0.81400001
0.018864129 -0.091219686 0.81400001
0.022647077 -0.091586404 0.8120001
0.027074074 -0.092054397 0.8122223
0.032486193 -0.092048109 0.81216681
0.037672386 -0.092470758 0.8120001
0.052920002 -0.092725724 0.81000006
0.058138736 -0.092095569 0.81033337
0.06260699 -0.091977574 0.81155568
0.067372911 -0.092153445 0.81311119
0.071063496 -0.091219686 0.81400001
0.017789418 -0.087411009 0.8122223
0.020828573 -0.088714294 0.81000006
0.045739051 -0.089152388 0.81400001
0.051685717 -0.088714294 0.81000006
0.05631429 -0.088714294 0.81000006
0.068271428 -0.087557152 0.81000006
0.071961075 -0.087434925 0.81244451
0.075585723 -0.087989531 0.81400001
0.014729525 -0.081400007 0.81400001
0.017770372 -0.082679585 0.81133336
0.068657145 -0.083314285 0.81000006
0.071902446 -0.082724445 0.81177777
0.075585723 -0.082562864 0.81400001
0.014729525 -0.078299053 0.81400001
0.017001906 -0.077284291 0.81150001
0.072727896 -0.07758233 0.81114298
0.075973339 -0.077523813 0.81400007
0.017989049 -0.072157152 0.8125
0.020828573 -0.070971429 0.81000006
0.071797147 -0.072258867 0.8106001
0.075973347 -0.072097152 0.81400007
0.019380953 -0.068996198 0.81400001
0.022231905 -0.067085713 0.8120001
0.025457144 -0.065571435 0.81000006
0.068356201 -0.066809535 0.81099999
0.07109753 -0.067688771 0.8132
0.023400381 -0.063072763 0.8136
0.026855242 -0.062407624 0.81150001
0.067051753 -0.062666357 0.81233335
0.070546672 -0.064344764 0.81400001
0.024032382 -0.059693336 0.81400001
0.027462224 -0.057938416 0.8135556
0.031020956 -0.057073746 0.81142867
0.054000005 -0.05631429 0.81000006
0.058444768 -0.056639686 0.81100005
0.062686294 -0.057266861 0.81260014
0.066412076 -0.059176512 0.81400001
0.032832652 -0.054059874 0.81257159
0.03785101 -0.0532999 0.81111115
0.042533334 -0.051810801 0.81200004
0.047160428 -0.051796623 0.81177777
0.052398097 -0.052633118 0.81184632
0.057579268 -0.053102229 0.81333339
0.061243813 -0.053491432 0.81400001
0.044188574 -0.048840005 0.81400001
0.048064768 -0.048840005 0.81400001
0.036660001 -0.10062001 0.81900007
0.057580955 -0.1003743 0.81700003
0.022995241 -0.096271433 0.81850004
0.027455648 -0.096819468 0.81700015
0.032402165 -0.096926682 0.81536365
0.03776915 -0.097300015 0.8160001
0.041340001 -0.098280005 0.81900007
0.058602381 -0.097411908 0.81500006
0.063467309 -0.097662225 0.8160001
0.067694291 -0.097264446 0.81700003
0.07196831 -0.097108729 0.81757146
0.017898096 -0.092985243 0.81700003
0.021733334 -0.093919054 0.81500006
0.072762862 -0.092960954 0.81566668
0.075724766 -0.092036195 0.81550002
0.01413962 -0.087484382 0.81580001
0.077774286 -0.087399058 0.81500006
0.01319524 -0.083052397 0.81500012
0.077774286 -0.08336287 0.81500006
0.012896954 -0.077538483 0.81580013
0.013676328 -0.072608851 0.81728584
0.0163 -0.070633337 0.81500006
0.014820001 -0.068640009 0.81900007
0.01767881 -0.067417383 0.81599998
0.073395245 -0.067180954 0.81550002
0.076160006 -0.068387628 0.81599998
0.018301191 -0.063082144 0.81775004
0.021345239 -0.062483337 0.81500006
0.069165722 -0.062170483 0.81600004
0.072190374 -0.062331967 0.81700009
0.022546289 -0.057536572 0.81640005
0.026131749 -0.055626988 0.81500006
0.064423814 -0.055109527 0.81500006
0.067889765 -0.057189051 0.81700003
0.070980005 -0.058500003 0.81900007
0.024120955 -0.053688575 0.81700003
0.027752064 -0.052649211 0.81700009
0.032300819 -0.051392522 0.81585717
0.037278574 -0.050483335 0.81550002
0.057438098 -0.050452385 0.81500006
0.063182622 -0.051905006 0.81650001
0.066219047 -0.052974291 0.81800008
0.032349527 -0.048720006 0.81850004
0.037576716 -0.047624677 0.81736374
0.042535715 -0.047195718 0.81575
0.047192793 -0.046968304 0.81614292
0.052118629 -0.047448784 0.81677788
0.057126474 -0.047629144 0.81720012
0.061620008 -0.048620008 0.81900012
0.039780002 -0.044460002 0.81900007
0.042900007 -0.044460006 0.81900012
0.046800002 -0.044460002 0.81900007
0.050700005 -0.044460002 0.81900007
0.019595239 -0.10581429 0.82300001
0.024298096 -0.10581429 0.82300001
0.066623814 -0.10581429 0.82300001
0.019595239 -0.10189524 0.82300001
0.022929661 -0.10212532 0.8221429
0.027389526 -0.10173081 0.82166672
0.031685717 -0.10131905 0.82150006
0.038866989 -0.10147016 0.82166672
0.041491434 -0.10177238 0.82200003
0.056826193 -0.10307095 0.82300001
0.062552385 -0.10086572 0.82100004
0.067845143 -0.10262991 0.82260001
0.07309024 -0.10248311 0.82300001
0.019579368 -0.097898111 0.82233334
0.022383049 -0.098772399 0.82180005
0.026584763 -0.099301912 0.82100004
0.074461907 -0.099543817 0.82300001
0.012850205 -0.067825451 0.82128584
0.077873722 -0.065964393 0.82260001
0.014880318 -0.063435882 0.82233334
0.017221905 -0.061062861 0.82200003
0.074371427 -0.061061911 0.82200003
0.075937152 -0.064193338 0.82200003
0.019056827 -0.058215559 0.82233334
0.021111431 -0.055515241 0.82100004
0.069589525 -0.055515241 0.82100004
0.073023818 -0.05696905 0.82225001
0.023757145 -0.052471429 0.82233334
0.026345082 -0.051386353 0.82166672
0.068370476 -0.052451432 0.82200003
0.071326673 -0.054082859 0.82300001
0.027851569 -0.047985449 0.8221429
0.031760193 -0.046780385 0.82140011
0.035185717 -0.046132386 0.82100004
0.062603183 -0.047212385 0.82166672
0.065840006 -0.048596196 0.82300001
0.029000955 -0.044677146 0.82300001
0.032433338 -0.044028383 0.82260001
0.037359226 -0.042908836 0.82190913
0.043057151 -0.042273339 0.82200003
0.04796939 -0.042601231 0.82185721
0.052630957 -0.042847142 0.82175004
0.05714127 -0.043050054 0.82188892
0.060826987 -0.044118416 0.82233334
0.038798574 -0.039582383 0.82300001
0.043109529 -0.039190479 0.82300007
0.047420479 -0.039582383 0.82300001
0.06316191 -0.11132286 0.82900006
0.065530479 -0.11132286 0.82900006
0.022637146 -0.10806954 0.82675004
0.027419765 -0.10810049 0.82850009
0.032370478 -0.1057962 0.82900006
0.037897147 -0.10658572 0.82900006
0.040726032 -0.10694065 0.82766676
0.057820551 -0.10764015 0.82842863
0.062236939 -0.10793408 0.82722229
0.067657232 -0.1078098 0.82518184
0.072694607 -0.10733461 0.82666671
0.019642858 -0.1045 0.82500005
0.022000002 -0.1045 0.82500005
0.027523493 -0.10458445 0.82566679
0.03223905 -0.10353684 0.82566679
0.036945716 -0.10360783 0.82539999
0.040857144 -0.1045 0.82500005
0.058283813 -0.10475334 0.82700002
0.062120959 -0.10379874 0.82566679
0.065214291 -0.1045 0.82500005
0.071500003 -0.1045 0.82500005
0.013357144 -0.065214291 0.82500005
0.01311143 -0.062145405 0.82600009
0.078148097 -0.062006198 0.8267501
0.014964763 -0.059071433 0.82700002
0.016936429 -0.05692191 0.82725006
0.076399051 -0.059071433 0.82700002
0.01867016 -0.053380638 0.82833338
0.021884764 -0.052428383 0.82660007
0.069928579 -0.051071431 0.82500005
0.073172659 -0.052714154 0.82614291
0.019738097 -0.049740002 0.82900006
0.023188761 -0.047640383 0.82820004
0.025928574 -0.047142863 0.82500005
0.06760069 -0.047126401 0.82671428
0.071014762 -0.048920479 0.82850003
0.024475239 -0.043423813 0.82900006
0.02757962 -0.042549714 0.82740003
0.032043949 -0.041264355 0.82642871
0.035357144 -0.040071432 0.82500005
0.05264286 -0.040071435 0.82500005
0.057357147 -0.040071435 0.82500005
0.062505089 -0.041871853 0.82611108
0.066240326 -0.043370165 0.82800007
0.028422859 -0.03868667 0.82900006
0.032584358 -0.037545443 0.82871431
0.036997359 -0.036996085 0.82655555
0.042479999 -0.036185719 0.82600009
0.048212145 -0.036797859 0.82650012
0.052727945 -0.036986984 0.8263334
0.057527941 -0.037035871 0.82744449
0.061270799 -0.03812921 0.82833338
0.03868667 -0.033949528 0.82900006
0.041844767 -0.033949532 0.82900012
0.047371432 -0.033949528 0.82900006
0.052898102 -0.033949532 0.82900012
0.038080003 -0.11503334 0.83300006
0.040460002 -0.11503334 0.83300006
0.059500005 -0.11503334 0.83300006
0.06108667 -0.11503334 0.83300006
0.023742858 -0.11238286 0.83100003
0.0277 -0.11238287 0.83100003
0.032475457 -0.1116818 0.83166671
0.037256826 -0.11177175 0.83233345
0.042118192 -0.11224028 0.83154553
0.047485717 -0.11159145 0.83100003
0.053067412 -0.11168013 0.83166665
0.057576437 -0.1117893 0.83099997
0.061467625 -0.11264667 0.83100003
0.029282859 -0.10842572 0.83100003
0.03284429 -0.10803001 0.83100003
0.03614191 -0.1078981 0.83100003
0.043000959 -0.1078981 0.83100003
0.047485717 -0.10842572 0.83100003
0.053109527 -0.10859969 0.83233345
0.012662858 -0.057774298 0.83100003
0.013454286 -0.053025719 0.83100003
0.016092382 -0.052498102 0.83100003
0.075977147 -0.051442862 0.83100003
0.013470476 -0.049128577 0.83200002
0.017207189 -0.048164591 0.83154553
0.021368572 -0.045902863 0.83100003
0.072271436 -0.046936471 0.83128572
0.07606858 -0.04912667 0.83200008
0.023374762 -0.042391907 0.83200002
0.026117144 -0.040362861 0.83100003
0.067937724 -0.041332006 0.83140004
0.071135566 -0.043104451 0.83300006
0.024593335 -0.038873337 0.83300006
0.027501363 -0.036782183 0.83185726
0.031657144 -0.035614289 0.83100003
0.063076198 -0.036683813 0.83133334
0.066322863 -0.038313337 0.83233345
0.029353335 -0.034113336 0.83300006
0.032827623 -0.03346229 0.83260012
0.037031908 -0.032279052 0.83174998
0.041945722 -0.031657144 0.83100003
0.047485717 -0.031657144 0.83099997
0.053025719 -0.031657144 0.83100003
0.056879431 -0.032795623 0.8318001
0.038873337 -0.029353335 0.83300006
0.042364001 -0.028718669 0.83300012
0.047600005 -0.028560003 0.83300012
0.052725717 -0.02893905 0.8325001
0.019129526 -0.045437146 0.83700001
0.073957145 -0.045328576 0.83500004
0.076572858 -0.04626143 0.83749998
0.019564763 -0.042722858 0.83850002
0.022292383 -0.041400954 0.83600003
0.072895057 -0.041949909 0.83740008
0.023362543 -0.037436515 0.83633339
0.068207622 -0.036889531 0.83599997
0.071472384 -0.037931431 0.83850002
0.024770478 -0.03356 0.83900005
0.027889933 -0.032670617 0.83671439
0.032245241 -0.03144905 0.83599997
0.059280958 -0.032225717 0.8355
0.062992707 -0.032690272 0.83722234
0.066320956 -0.03356 0.83900005
0.029564764 -0.029564764 0.83900005
0.032725822 -0.027935769 0.83811116
0.037210003 -0.027658574 0.83574998
0.041750003 -0.026640479 0.83500004
0.046919055 -0.02624286 0.83500004
0.052670289 -0.026891623 0.83540004
0.057901528 -0.027752763 0.83740008
0.062059373 -0.029032066 0.83900011
0.034359049 -0.024770478 0.83900005
0.037524767 -0.02395175 0.83833337
0.042282224 -0.023134286 0.83766663
0.047068894 -0.023134286 0.83766669
0.051661428 -0.023336191 0.83775002
0.057188988 -0.024085579 0.83900011
0.047143813 -0.019976191 0.83900011
0.050340004 -0.019976191 0.83900005
0.013616191 -0.045654289 0.84100002
0.016019048 -0.045654289 0.84100002
0.079482861 -0.046565719 0.84300005
0.08108858 -0.046565719 0.84300005
0.013616191 -0.044052385 0.84100002
0.01663881 -0.042299766 0.84200001
0.074488573 -0.040848576 0.84100002
0.076841347 -0.042831432 0.84219998
0.018465716 -0.039340004 0.84300005
0.020693908 -0.037376579 0.84219998
0.073883243 -0.037341524 0.84140009
0.076271437 -0.038537145 0.84300005
0.023799686 -0.032889843 0.84233332
0.02643143 -0.031237144 0.84100002
0.068402551 -0.032864448 0.8416667
0.028333016 -0.028066669 0.84200001
0.063595623 -0.027712954 0.84100002
0.066049211 -0.028076511 0.84233344
0.029705716 -0.024888573 0.84300005
0.032882437 -0.022722224 0.84211111
0.037673973 -0.020840636 0.8416667
0.04245048 -0.020023812 0.84100002
0.053172387 -0.020573653 0.8416667
0.056958418 -0.020857144 0.84233344
0.061440956 -0.023581145 0.84219998
0.065031432 -0.024888573 0.84300005
0.037734289 -0.018465716 0.84300011
0.042482864 -0.01843651 0.8416667
0.047622293 -0.017797142 0.84180003
0.051754288 -0.018053334 0.84249997
0.055397145 -0.018465716 0.84300005
0.079671435 -0.049090479 0.84500003
0.081280954 -0.049090479 0.84500003
0.013144447 -0.042652383 0.84500003
0.079269052 -0.042250004 0.84500003
0.081280962 -0.042652383 0.84500003
0.01308343 -0.037635054 0.84800005
0.016705597 -0.037638694 0.84537506
0.078521781 -0.037593883 0.84500015
0.081280954 -0.038628574 0.84500003
0.013729525 -0.033920005 0.84800005
0.016949048 -0.033899527 0.84750003
0.021485081 -0.033033337 0.84600008
0.072157972 -0.032797962 0.8458572
0.077046864 -0.034404576 0.84800005
0.024184287 -0.029022859 0.84650004
0.026050162 -0.027125081 0.84600008
0.068131432 -0.02721867 0.84560007
0.071150355 -0.028251568 0.84757155
0.028216098 -0.022571335 0.8465001
0.032190479 -0.020119049 0.84500003
0.062540799 -0.021203971 0.84549999
0.066570006 -0.022390001 0.8472501
0.029881908 -0.01857524 0.84800005
0.033387434 -0.017902857 0.84680003
0.037554286 -0.01655619 0.84800005
0.042700958 -0.016114287 0.84600008
0.047078576 -0.015692858 0.84500003
0.052631434 -0.015934287 0.84500009
0.057441436 -0.016726667 0.84650004
0.061776768 -0.017902859 0.84680003
0.04401524 -0.012518096 0.84800005
0.04761143 -0.012103493 0.84733337
0.052264497 -0.012575785 0.84800011
0.056533337 -0.013729525 0.84800005
0.013810476 -0.030869525 0.85300004
0.017032064 -0.030821275 0.85166669
0.020261906 -0.030797144 0.85100007
0.076754928 -0.03161905 0.85133338
0.080142863 -0.033190478 0.85000002
0.013826667 -0.026840001 0.85400003
0.017051641 -0.026797676 0.8526668
0.021698838 -0.026921693 0.85088897
0.025095239 -0.025095239 0.85000002
0.073123053 -0.026426671 0.85120004
0.075640008 -0.026840001 0.85400003
0.018706668 -0.023586668 0.85400003
0.022484448 -0.022483811 0.85333341
0.025529524 -0.021477144 0.85100007
0.068809532 -0.02104762 0.85000002
0.071277335 -0.022241905 0.8524
0.027327305 -0.017587621 0.85233343
0.031864766 -0.015933335 0.85066676
0.038857147 -0.015380953 0.85000002
0.062775716 -0.015794761 0.85049999
0.066929534 -0.017281091 0.85257155
0.070760004 -0.018706668 0.85400003
0.028466668 -0.013826667 0.85400003
0.03248778 -0.012181747 0.85283345
0.038116828 -0.012163388 0.85155559
0.041972961 -0.011828953 0.85080004
0.053428575 -0.01052381 0.85000002
0.057746671 -0.011687349 0.85057145
0.062350474 -0.01238762 0.85300004
0.065880008 -0.013826667 0.85400003
0.034973335 -0.0089466674 0.85400003
0.038633332 -0.0085400008 0.85400003
0.043061376 -0.0073111118 0.85311121
0.047892384 -0.0081158737 0.85233343
0.052866668 -0.0073200008 0.85400003
0.057702228 -0.0081263501 0.85333341
0.061000004 -0.0089466674 0.85400003
0.046360005 -0.0040666671 0.85400003
0.079078101 -0.030979048 0.85600007
0.080708578 -0.030979048 0.85600007
0.078262866 -0.02690286 0.85600007
0.080708578 -0.02690286 0.85600013
0.016304763 -0.023641907 0.85600007
0.020940319 -0.020940319 0.85666674
0.073779061 -0.02160381 0.85600007
0.077529311 -0.022033865 0.85688889
0.080897145 -0.022880003 0.85800004
0.023274764 -0.017557621 0.85750002
0.025835557 -0.016045082 0.85666674
0.0693762 -0.016322859 0.85700005
0.07298553 -0.017796952 0.85720009
0.077507943 -0.017132066 0.85666668
0.0272054 -0.012242859 0.85700005
0.064403817 -0.010598096 0.85600007
0.067446351 -0.012238096 0.85666674
0.028055241 -0.00844381 0.85800004
0.031819053 -0.0073415879 0.85666668
0.037151568 -0.0064054425 0.85600007
0.048099052 -0.005706667 0.85600013
0.057881914 -0.005706667 0.85600013
0.062857151 -0.0073458506 0.85714293
0.066188574 -0.0081714289 0.85800004
0.033502858 -0.0040857145 0.85800004
0.037543815 -0.0035361906 0.85700005
0.043053336 -0.0028557144 0.85699999
0.048597556 -0.0024462589 0.85657144
0.053045925 -0.0024469842 0.85688889
0.057636958 -0.0034281907 0.85720009
0.061285719 -0.0040857145 0.85800004
0.016419049 -0.022165716 0.86200005
0.021331906 -0.01723 0.86150002
0.072895244 -0.015561907 0.86000001
0.023789208 -0.012303494 0.86133337
0.025390478 -0.011466667 0.86000001
0.069700003 -0.011479048 0.86100006
0.071970165 -0.01340889 0.86200011
0.026648574 -0.0073809531 0.86100006
0.064704768 -0.0057333335 0.86000001
0.06804496 -0.0073782862 0.86080009
0.028733335 -0.0041047623 0.86200005
0.032265399 -0.0024603177 0.86133337
0.0364681 -0.0012290478 0.86049998
0.041771434 -0.00081904768 0.86000001
0.046685718 -0.00081904768 0.86000001
0.058561906 -0.0012285716 0.86000001
0.063171983 -0.0024606804 0.86142862
0.066497147 -0.0032838099 0.86200005
0.042689525 0.00082095241 0.86200005
0.047733717 0.0011485716 0.86120003
0.051690001 0.0016414288 0.86150002
0.056645721 0.00082095241 0.86200011
0.017711904 -0.021007145 0.86500007
0.0173 -0.0173 0.86500013
0.020595239 -0.015652383 0.86500007
0.018483493 -0.013517778 0.86900008
0.021434924 -0.012366033 0.86566675
0.07368248 -0.012032573 0.86540002
0.077932388 -0.013345716 0.86500007
0.02286127 -0.0079869851 0.86766672
0.026361905 -0.005766667 0.86500007
0.07179144 -0.0074265315 0.86642867
0.027268257 -0.0035812701 0.86766672
0.030516192 -0.0016485716 0.86600006
0.067419246 -0.001812762 0.86540002
0.071208954 -0.0031380956 0.86740011
0.033932384 0.00082761911 0.86900002
0.037194394 0.0024813758 0.86788893
0.041832794 0.0029470751 0.86614299
0.046670292 0.0034638096 0.86580008
0.052311905 0.003707143 0.86500007
0.056931116 0.0033015874 0.86633343
0.061740484 0.0022733335 0.86725008
0.066209525 0.00082761911 0.86900002
0.017973017 -0.011336826 0.87100005
0.075486675 -0.01078381 0.87100005
0.019079048 -0.0091247624 0.87100005
0.021591429 -0.0066447621 0.87200004
0.073997147 -0.0058200005 0.87300003
0.024111429 -0.0041571432 0.87300003
0.027437145 -0.0024942858 0.87300003
0.072833344 -0.0019393652 0.87233341
0.077500008 -0.010833334 0.87500006
0.018653017 -0.0075171432 0.87700003
0.020833334 -0.0058333338 0.87500006
0.076093338 -0.0083619049 0.87800002
