# .PCD v0.7 - Point Cloud Data file format
VERSION 0.7
FIELDS x y z
SIZE 4 4 4
TYPE F F F
COUNT 1 1 1
WIDTH 524
HEIGHT 1
VIEWPOINT 0 0 0 1 0 0 0
POINTS 524
DATA ascii
-0.057460003 -0.14586002 0.66300005
-0.042305715 -0.14586002 0.66300005
-0.057039052 -0.14417621 0.66300005
-0.051903434 -0.14207144 0.66300005
-0.048367437 -0.14207144 0.66300005
-0.043147624 -0.1433343 0.66300005
-0.039148573 -0.14459716 0.66300005
-0.052566431 -0.13765144 0.66300005
-0.049161229 -0.13810247 0.66300005
-0.05430286 -0.13449429 0.66300005
-0.050183814 -0.15055144 0.66700006
-0.047642864 -0.15055144 0.66700006
-0.056766436 -0.14699596 0.66600001
-0.051699854 -0.14689957 0.66638464
-0.047524452 -0.1470075 0.66533339
-0.043193337 -0.14642668 0.66500002
-0.039900001 -0.1463 0.66500002
-0.060347628 -0.1416581 0.66700006
-0.057025649 -0.14189965 0.66584617
-0.053200003 -0.1425 0.66500002
-0.046233337 -0.14250001 0.66500002
-0.042952761 -0.14241582 0.6652
-0.038658943 -0.14217198 0.66544443
-0.056001589 -0.13862763 0.6656667
-0.052588984 -0.13694845 0.66528577
-0.047002383 -0.13693124 0.66564292
-0.042905081 -0.13780351 0.6657778
-0.038897905 -0.13924839 0.6652
-0.050931837 -0.13354599 0.6672858
-0.047245461 -0.13306019 0.66790915
-0.043897144 -0.13359906 0.66800004
-0.051200002 -0.16064002 0.67200005
-0.059697147 -0.15598287 0.67400002
-0.051333576 -0.15785071 0.67375004
-0.047573205 -0.15726601 0.67242855
-0.043649528 -0.15790859 0.67400002
-0.05732429 -0.15179476 0.67250007
-0.05242921 -0.15301038 0.67222226
-0.047262743 -0.15328608 0.67062503
-0.05431905 -0.14889811 0.671
-0.061774187 -0.13684233 0.67177784
-0.05849598 -0.13767272 0.67166668
-0.065895475 -0.13306977 0.67175007
-0.06357798 -0.13372251 0.67262495
-0.053025533 -0.13166098 0.6724
-0.04684972 -0.13110381 0.67020005
-0.042284288 -0.13102454 0.67275
-0.039156195 -0.13030668 0.67400002
-0.052075874 -0.12799557 0.67366666
-0.047430787 -0.1275923 0.6725263
-0.042889684 -0.12792081 0.67383325
-0.037872385 -0.12825258 0.67400002
-0.046720002 -0.12480001 0.67200005
-0.057440951 -0.16134891 0.67766678
-0.054000005 -0.1607143 0.67500001
-0.046491429 -0.16078287 0.67800003
-0.043940954 -0.16154811 0.6785
-0.057441514 -0.15740247 0.67641675
-0.054053657 -0.15765557 0.67566675
-0.057485402 -0.15358001 0.67566675
-0.054000005 -0.15267858 0.67500001
-0.057920717 -0.13579358 0.67575008
-0.054723814 -0.13584381 0.67600006
-0.065024763 -0.13069335 0.67600006
-0.062245913 -0.13196819 0.6766001
-0.057848256 -0.13283189 0.67640001
-0.054723814 -0.1345562 0.67600006
-0.037285715 -0.1305 0.67500001
-0.065024763 -0.12940572 0.67600006
-0.06201905 -0.12855971 0.6783334
-0.05740612 -0.12770866 0.67725003
-0.053357147 -0.12642859 0.67500007
-0.041565716 -0.12598287 0.67560005
-0.037293125 -0.1273416 0.67644453
-0.052425425 -0.12331191 0.67790002
-0.047751375 -0.12260352 0.67756259
-0.043439601 -0.12348805 0.67785716
-0.038770955 -0.12471477 0.67850006
-0.04720667 -0.11963334 0.67900002
-0.062398575 -0.12631635 0.68250006
-0.059193335 -0.12554191 0.68300003
-0.036333099 -0.12586786 0.68125004
-0.034150001 -0.1271681 0.68300003
-0.061234295 -0.12312 0.68400002
-0.057177775 -0.12250859 0.68222213
-0.052789684 -0.12093794 0.68150008
-0.042126194 -0.12184048 0.68049997
-0.037730537 -0.1223003 0.68306243
-0.034525715 -0.12181716 0.68400002
-0.056891434 -0.11877716 0.68400002
-0.051723447 -0.11751468 0.68346161
-0.047588192 -0.11756065 0.68199998
-0.043005046 -0.11716437 0.68235296
-0.037758157 -0.1171815 0.68356246
-0.034525715 -0.11856001 0.68400002
-0.050811432 -0.11400001 0.68400002
-0.047293719 -0.11347886 0.68400002
-0.042994291 -0.11334857 0.68400002
-0.038173717 -0.11373943 0.68400002
-0.062720001 -0.12609334 0.68600005
-0.031768363 -0.1271489 0.6870001
-0.029485717 -0.12711525 0.68800002
-0.063429333 -0.12201772 0.68660003
-0.032259271 -0.12275289 0.68700004
-0.061811645 -0.11801419 0.68800002
-0.057771813 -0.11671907 0.68619996
-0.053791117 -0.11607557 0.68600005
-0.033222333 -0.11769789 0.6870001
-0.06102572 -0.11417715 0.68900001
-0.057636134 -0.11264842 0.68768764
-0.052497286 -0.11218599 0.68657148
-0.047280956 -0.11133812 0.68633336
-0.042486988 -0.11112034 0.68633336
-0.037779659 -0.11179196 0.68718195
-0.034202665 -0.11361753 0.68800008
-0.056213658 -0.10914636 0.68900001
-0.052438814 -0.10880835 0.68825006
-0.047177143 -0.10876857 0.68800008
-0.042339623 -0.1091941 0.68820012
-0.03871524 -0.10958382 0.68900001
-0.028283812 -0.12563556 0.69066668
-0.067270406 -0.12216183 0.6906364
-0.027770484 -0.12227397 0.69100004
-0.024402384 -0.12135382 0.6925
-0.066547245 -0.11777619 0.69320011
-0.063437387 -0.11602738 0.69025004
-0.031376351 -0.11672874 0.69116676
-0.027717324 -0.11746839 0.69293743
-0.023996986 -0.11800587 0.69350004
-0.065434292 -0.11434477 0.69400001
-0.062570587 -0.11218456 0.69155556
-0.032428335 -0.11191263 0.69258332
-0.027750557 -0.11298199 0.69375008
-0.024431748 -0.11291366 0.69333333
-0.060969528 -0.10807176 0.69333339
-0.057836436 -0.10755058 0.69141674
-0.052571431 -0.10645716 0.69000006
-0.047314286 -0.10645716 0.69000006
-0.041893948 -0.10703681 0.69027281
-0.03688604 -0.10740656 0.69246674
-0.033683334 -0.10798644 0.69350004
-0.052597571 -0.1040926 0.69322228
-0.047277488 -0.10312335 0.69221431
-0.042227682 -0.10293019 0.6928125
-0.037654202 -0.10311395 0.69363648
-0.067514285 -0.11649525 0.69500005
-0.067008406 -0.11240184 0.69536376
-0.063542858 -0.1105381 0.69500005
-0.027800003 -0.1105381 0.69500005
-0.024490478 -0.1105381 0.69500005
-0.06684164 -0.1085573 0.69685721
-0.062627815 -0.10734115 0.69660008
-0.058332384 -0.10539429 0.69600004
-0.031565718 -0.10683779 0.69533342
-0.028727731 -0.10833874 0.69788891
-0.024596192 -0.10968572 0.69800001
-0.060493339 -0.10436763 0.69800001
-0.057079531 -0.10260886 0.69690007
-0.052807625 -0.10141567 0.69600004
-0.049051434 -0.10075334 0.6960001
-0.035807386 -0.10145216 0.69625008
-0.032976355 -0.103357 0.69716668
-0.051629841 -0.098606363 0.69800007
-0.047523528 -0.098626398 0.69690007
-0.042884417 -0.098853946 0.69663644
-0.03839048 -0.099947624 0.69500005
-0.066888899 -0.10644445 0.70000005
-0.06400001 -0.10600001 0.70000005
-0.026861429 -0.10694643 0.70074999
-0.024710717 -0.10685501 0.70125002
-0.065741591 -0.10362667 0.70200008
-0.062589705 -0.10326277 0.70118177
-0.058354527 -0.10103596 0.70025003
-0.035333335 -0.10066667 0.70000005
-0.031534713 -0.10188074 0.70122224
-0.028170794 -0.10354308 0.70244449
-0.024137145 -0.10392382 0.70400006
-0.056854006 -0.098320864 0.70230001
-0.052486677 -0.096778788 0.70081824
-0.047333341 -0.096000008 0.70000005
-0.042207517 -0.09650699 0.70100003
-0.03758692 -0.097780079 0.70226681
-0.033351239 -0.098982863 0.70320004
-0.051626675 -0.094537154 0.70400012
-0.047603812 -0.094537154 0.70400012
-0.042847145 -0.094402857 0.70300001
-0.03888762 -0.094537146 0.70400006
-0.06612096 -0.10140248 0.70700002
-0.062783055 -0.10069352 0.7058
-0.030214287 -0.10004286 0.70500004
-0.027297908 -0.1012602 0.70600003
-0.024240002 -0.10167143 0.70700002
-0.065405719 -0.099120006 0.708
-0.061846294 -0.098226868 0.70740002
-0.05871677 -0.097143821 0.70539999
-0.035585716 -0.096014291 0.70500004
-0.031865545 -0.097189873 0.70645458
-0.028517462 -0.09857779 0.70733333
-0.056457337 -0.093915246 0.70740002
-0.052483179 -0.092516363 0.70649999
-0.047280092 -0.092052042 0.70645446
-0.042658579 -0.092314005 0.70649999
-0.037830856 -0.093161337 0.7068001
-0.03366667 -0.094940007 0.70700002
-0.051582862 -0.089342862 0.708
-0.046911024 -0.089102052 0.70800006
-0.043828573 -0.089680009 0.708
-0.026371431 -0.10075239 0.71000004
-0.066406511 -0.09757477 0.71150005
-0.062843286 -0.096559063 0.71122229
-0.058828574 -0.095342867 0.71000004
-0.030471431 -0.095477149 0.71100003
-0.026928918 -0.097544171 0.71172738
-0.023393337 -0.097981915 0.71200001
-0.061819188 -0.093648575 0.7132858
-0.057828814 -0.091913342 0.71224999
-0.054771431 -0.09128572 0.71000004
-0.037048846 -0.09102653 0.71100008
-0.032877285 -0.092524506 0.71285719
-0.029240001 -0.094520003 0.71400005
-0.055533342 -0.087720007 0.71400011
-0.052873097 -0.08721485 0.71175003
-0.047588367 -0.086831547 0.71044445
-0.041963432 -0.087315567 0.71146685
-0.037860002 -0.08747144 0.71284628
-0.034000002 -0.089080006 0.71400005
-0.051429525 -0.084053658 0.7136668
-0.047566671 -0.084260479 0.71350008
-0.043489527 -0.084260479 0.71350002
-0.068641596 -0.096005403 0.71833342
-0.025720321 -0.095826358 0.71700001
-0.023466988 -0.095915876 0.71766675
-0.066298738 -0.09363842 0.71766675
-0.06314262 -0.091982156 0.71675003
-0.059325717 -0.09069334 0.71600002
-0.030685715 -0.091375247 0.71600002
-0.027673811 -0.09281826 0.71750009
-0.023250477 -0.094364762 0.71800005
-0.06145772 -0.088558294 0.71860003
-0.057943817 -0.087083504 0.71716666
-0.036140956 -0.085238099 0.71600002
-0.032558437 -0.087051503 0.71649998
-0.029081905 -0.0886143 0.71850008
-0.055870797 -0.08369112 0.71833342
-0.052775621 -0.081622101 0.71780008
-0.047822222 -0.081295893 0.71733332
-0.042093623 -0.082408302 0.71750003
-0.03759725 -0.082713872 0.71777779
-0.033993654 -0.083273657 0.71866673
-0.067885719 -0.095314294 0.72000003
-0.066653498 -0.091618888 0.7215001
-0.025394924 -0.091283187 0.72066677
-0.024022225 -0.091283187 0.72066677
-0.065414287 -0.088825718 0.72300005
-0.063088983 -0.087223679 0.72114295
-0.027405823 -0.087565191 0.72144449
-0.061885718 -0.084577151 0.72200006
-0.057972938 -0.083085313 0.72100013
-0.042514287 -0.080228575 0.72000003
-0.037750479 -0.080302864 0.72066677
-0.032272194 -0.081712954 0.72100013
-0.029135875 -0.083048895 0.72266674
-0.050677784 -0.078653656 0.72233343
-0.047747433 -0.078569151 0.72240013
-0.042553719 -0.078910291 0.72300005
-0.036880549 -0.078579873 0.72285724
-0.07012286 -0.090951435 0.72900003
-0.068734288 -0.091645718 0.72900003
-0.07012286 -0.089562863 0.72900003
-0.065595239 -0.087000005 0.72500002
-0.025559366 -0.086348578 0.72533339
-0.023917144 -0.087508395 0.7258001
-0.065844052 -0.083168335 0.72775006
-0.062504388 -0.082875244 0.72760004
-0.057754528 -0.081270248 0.72625005
-0.027152114 -0.082641639 0.72571433
-0.057291225 -0.078263715 0.72866672
-0.052956637 -0.077115759 0.72646153
-0.047473744 -0.076292805 0.72542852
-0.042883039 -0.076536193 0.72518176
-0.037527308 -0.076205619 0.72522217
-0.032650478 -0.077694476 0.72663635
-0.029813336 -0.079733342 0.72800004
-0.051706906 -0.073915958 0.72875005
-0.046992905 -0.072980091 0.72854555
-0.042307146 -0.072997384 0.72825009
-0.037985716 -0.073117994 0.72811115
-0.034020003 -0.074288577 0.72900003
-0.070315242 -0.092593342 0.73100001
-0.020971429 -0.090177149 0.73400003
-0.068087436 -0.088694677 0.73100001
-0.021847758 -0.08769457 0.73328578
-0.065011434 -0.080390483 0.73400003
-0.062813722 -0.08064077 0.73119998
-0.026644958 -0.081051059 0.7324
-0.024433335 -0.083770484 0.73300004
-0.061893571 -0.077582859 0.73225003
-0.058712065 -0.076348893 0.73100007
-0.030715238 -0.076092385 0.73300004
-0.028884003 -0.078283243 0.73260003
-0.056833055 -0.073029436 0.73310012
-0.052726675 -0.071926676 0.73166662
-0.047758669 -0.070593715 0.73100001
-0.042467624 -0.070663333 0.73100001
-0.036912248 -0.071138375 0.73128575
-0.033136431 -0.072551198 0.73250002
-0.052428573 -0.069205716 0.73400009
-0.04689249 -0.067972913 0.73244447
-0.042583816 -0.068412386 0.73300004
-0.038179055 -0.068676829 0.73333335
-0.021028573 -0.08621715 0.73600006
-0.022144698 -0.082567692 0.73650014
-0.018951429 -0.082122862 0.73700011
-0.065277152 -0.077909529 0.73700011
-0.062413018 -0.075503185 0.73633337
-0.030140955 -0.07500191 0.73600006
-0.027053865 -0.076639265 0.73677784
-0.023181362 -0.078572944 0.73757148
-0.061479766 -0.072720245 0.73775005
-0.058756005 -0.071656577 0.73620003
-0.030862387 -0.072247148 0.73650002
-0.02758643 -0.072569288 0.73800004
-0.05642461 -0.068597943 0.73750007
-0.052467622 -0.066855483 0.73699999
-0.048375379 -0.066002324 0.73614293
-0.042373341 -0.065814704 0.73628581
-0.037323076 -0.066464238 0.73633337
-0.032865632 -0.067964166 0.73709089
-0.047155242 -0.064046673 0.73900002
-0.042932387 -0.064046673 0.73900002
-0.066471912 -0.075664289 0.74250007
-0.064133339 -0.075409532 0.74000001
-0.022042966 -0.076642543 0.74133337
-0.066415109 -0.072480425 0.74300009
-0.06371361 -0.071789801 0.74214292
-0.026129048 -0.070617624 0.74150002
-0.023157859 -0.073365718 0.74250007
-0.060914289 -0.06826248 0.74200004
-0.057880484 -0.067291275 0.74116677
-0.054413337 -0.065720007 0.74200004
-0.031150479 -0.066388577 0.74000001
-0.02768762 -0.067645714 0.7420001
-0.055901907 -0.064393334 0.74300003
-0.05192937 -0.062760159 0.74183339
-0.04731831 -0.061441489 0.74155551
-0.042166598 -0.061593708 0.74076915
-0.037432145 -0.062150087 0.74158335
-0.033085506 -0.063263915 0.74266672
-0.046702862 -0.058732383 0.74300003
-0.042137556 -0.058103271 0.74271435
-0.037857622 -0.058378577 0.74300003
-0.022450479 -0.071013749 0.74671435
-0.066162862 -0.068297148 0.74700004
-0.063008428 -0.067508742 0.74616671
-0.058890481 -0.065985717 0.74500006
-0.022758096 -0.067570314 0.74683344
-0.060552385 -0.064114287 0.74800003
-0.057734724 -0.062387366 0.74672735
-0.053605717 -0.060704768 0.74550009
-0.031964224 -0.061190352 0.7458573
-0.027874719 -0.062798023 0.7470001
-0.024356766 -0.063669525 0.74780005
-0.051934835 -0.058234431 0.7470001
-0.047877558 -0.057228848 0.74714297
-0.043066096 -0.056426484 0.74620003
-0.037381526 -0.056710292 0.74620003
-0.032918181 -0.057754558 0.7470001
-0.029207621 -0.059127621 0.74800003
-0.04203048 -0.054853342 0.74800003
-0.038112383 -0.054497145 0.74800003
-0.03490667 -0.054853339 0.74800003
-0.063095242 -0.065476201 0.75000012
-0.021470003 -0.06513001 0.75150001
-0.019362858 -0.065260008 0.75300002
-0.065000013 -0.06214286 0.75000012
-0.062321428 -0.061964288 0.75000006
-0.025714288 -0.06071429 0.75000006
-0.02217048 -0.06318 0.75100011
-0.019362858 -0.063825719 0.75300002
-0.065173335 -0.059443813 0.75200003
-0.062308572 -0.059443813 0.75200003
-0.056825988 -0.057474982 0.75181818
-0.052666038 -0.056001272 0.75066674
-0.047857147 -0.055000003 0.75000012
-0.045000002 -0.055000003 0.75000006
-0.031806193 -0.055393815 0.75050002
-0.027757717 -0.057519432 0.75120002
-0.052351438 -0.053785723 0.75300002
-0.04693393 -0.052486315 0.75237501
-0.042518482 -0.052395243 0.75160009
-0.037216857 -0.052245628 0.75150007
-0.032532576 -0.053169142 0.7524001
-0.02940286 -0.053785719 0.75300002
-0.062386192 -0.05806683 0.75583339
-0.059400007 -0.056518573 0.75600004
-0.02575524 -0.056546863 0.75540012
-0.023801908 -0.056979053 0.7573334
-0.055781674 -0.052902147 0.75575006
-0.052513972 -0.05179397 0.75533342
-0.049134925 -0.051531754 0.75500005
-0.035233337 -0.051052384 0.75500005
-0.032007862 -0.051428813 0.75525004
-0.027380193 -0.052601147 0.75660008
-0.023822859 -0.054142863 0.75800002
-0.052304287 -0.049417622 0.75750005
-0.047340523 -0.048386753 0.75627279
-0.042364419 -0.047731519 0.75627279
-0.037629459 -0.048045576 0.75646162
-0.032655239 -0.048723813 0.7571429
-0.028837144 -0.049745716 0.75700003
-0.022285715 -0.061422385 0.76100004
-0.019577144 -0.061629847 0.76133335
-0.062247626 -0.055733338 0.76000005
-0.021761905 -0.057305083 0.76166677
-0.019585714 -0.057305083 0.76166672
-0.061184339 -0.052476194 0.76177788
-0.058084767 -0.05187089 0.76100004
-0.025350001 -0.050699528 0.76050007
-0.023207463 -0.052215718 0.76150006
-0.056885563 -0.048411593 0.76249999
-0.052762646 -0.04680011 0.7612223
-0.047771435 -0.045961909 0.76000005
-0.044152383 -0.045600004 0.76000005
-0.036914289 -0.045600008 0.76000011
-0.032324005 -0.046239048 0.76100004
-0.028494017 -0.047972385 0.76157153
-0.051593341 -0.044326674 0.76300001
-0.046974763 -0.042983338 0.7617501
-0.042779688 -0.042777784 0.76133335
-0.03796741 -0.043287199 0.76177788
-0.032670163 -0.044287942 0.76233339
-0.043600004 -0.039966669 0.76300001
-0.063551433 -0.053324766 0.76700002
-0.021453908 -0.052099623 0.76620001
-0.019705717 -0.053277146 0.76633334
-0.060957149 -0.048328575 0.76500005
-0.057921432 -0.046264287 0.76500005
-0.026510954 -0.046942066 0.76616669
-0.023639049 -0.048496827 0.7676667
-0.052019686 -0.042117465 0.76688898
-0.047753334 -0.040461909 0.76550007
-0.040800005 -0.040071432 0.76500005
-0.037188891 -0.040834926 0.76566672
-0.032861698 -0.041623179 0.76677787
-0.028504232 -0.043284763 0.76744449
-0.051200002 -0.038765717 0.76800001
-0.047511913 -0.038009048 0.7675001
-0.042366669 -0.037983812 0.76700008
-0.037655953 -0.038387381 0.76775002
-0.033645719 -0.038765717 0.76800001
-0.019066669 -0.050600003 0.77000004
-0.022263495 -0.047217783 0.77066672
-0.019842859 -0.047767945 0.77166671
-0.056773514 -0.042461477 0.77236378
-0.053672384 -0.040438097 0.77200001
-0.026933337 -0.041395921 0.77028579
-0.022941431 -0.043089431 0.77210009
-0.05521429 -0.039018098 0.77300006
-0.051921714 -0.037212003 0.77220005
-0.04775048 -0.035995558 0.7713334
-0.042533338 -0.035933334 0.77000004
-0.03710667 -0.036520004 0.77000004
-0.031989336 -0.037125338 0.77039999
-0.027511621 -0.038399242 0.77240008
-0.047832385 -0.034586035 0.77266669
-0.042203814 -0.034261718 0.77200001
-0.037877385 -0.034199286 0.77225006
-0.033099368 -0.034571111 0.77233338
-0.05978572 -0.045023814 0.77500004
-0.019190477 -0.045023814 0.77500004
-0.05978572 -0.042071432 0.77500004
-0.022142859 -0.040595241 0.77500004
-0.018901363 -0.042344358 0.7761429
-0.057127863 -0.037529767 0.77650005
-0.053880956 -0.036904763 0.77500004
-0.026957147 -0.036559049 0.77550006
-0.022948574 -0.038495559 0.77733338
-0.019240003 -0.039220002 0.77700001
-0.051508259 -0.034255557 0.77633345
-0.047154184 -0.032340217 0.77766663
-0.042337857 -0.031612623 0.77650005
-0.037530717 -0.0316131 0.77649999
-0.032761477 -0.032221563 0.77700013
-0.028414924 -0.034345083 0.77833337
-0.036353335 -0.028934287 0.77900004
-0.034127623 -0.028934287 0.77900004
-0.056000005 -0.035093337 0.78400004
-0.054506671 -0.035093337 0.78400004
-0.022022588 -0.036279459 0.78200012
-0.018619049 -0.037236191 0.78200006
-0.052607939 -0.032009844 0.7816667
-0.048285719 -0.030457145 0.78000009
-0.030457145 -0.031200003 0.78000003
-0.027351908 -0.032375239 0.78150004
-0.024235239 -0.033555239 0.78299999
-0.051973976 -0.028597465 0.78333342
-0.047354478 -0.027845144 0.78180003
-0.04242773 -0.02753884 0.78155559
-0.037774179 -0.027193017 0.78111118
-0.032170374 -0.027374182 0.78155565
-0.028493717 -0.02789562 0.78319997
-0.041813336 -0.024640001 0.78400004
-0.036820643 -0.024131749 0.78366673
-0.032106668 -0.024640001 0.7840001
-0.05778667 -0.035272382 0.78800005
-0.020262858 -0.035272382 0.78800005
-0.056715004 -0.032676429 0.78875005
-0.054715242 -0.031479049 0.78700006
-0.026200002 -0.03069143 0.78600001
-0.022126788 -0.0320675 0.78762507
-0.052990802 -0.027244765 0.78733337
-0.048657145 -0.026200002 0.78600001
-0.026607621 -0.027357144 0.78700006
-0.023273546 -0.027778732 0.78833342
-0.050825402 -0.024285717 0.78866673
-0.059663814 -0.035496194 0.79300004
-0.018880954 -0.035496194 0.79300004
-0.058080003 -0.031679049 0.79200006
-0.020340001 -0.030886669 0.79100001
-0.018880954 -0.032475241 0.7930001
-0.056571431 -0.028661907 0.79200006
-0.054993335 -0.026366668 0.79100001
-0.061328575 -0.035585716 0.79500002
-0.059814289 -0.032557145 0.79500002
