# .PCD v0.7 - Point Cloud Data file format
VERSION 0.7
FIELDS x y z
SIZE 4 4 4
TYPE F F F
COUNT 1 1 1
WIDTH 510
HEIGHT 1
VIEWPOINT 0 0 0 1 0 0 0
POINTS 510
DATA ascii
-0.057775714 -0.14301857 0.66300005
-0.053040005 -0.14207144 0.66300005
-0.047988575 -0.14181887 0.66300005
-0.04819905 -0.13828287 0.66300005
-0.050971434 -0.15100287 0.66900003
-0.045237146 -0.15100287 0.66900003
-0.041626673 -0.15142764 0.66900009
-0.057010837 -0.14569417 0.66512501
-0.051755562 -0.14721064 0.66816676
-0.047029823 -0.14744745 0.6673125
-0.042026609 -0.14733011 0.66660011
-0.038251311 -0.14665751 0.66662502
-0.03430286 -0.14546953 0.66700006
-0.056889962 -0.14127144 0.66572732
-0.052480876 -0.1421304 0.66525
-0.046233337 -0.14376667 0.66500002
-0.042359404 -0.14263502 0.66637498
-0.037536193 -0.14250574 0.6680001
-0.034684002 -0.14267449 0.66700006
-0.056573443 -0.1380782 0.66744447
-0.052165408 -0.13711499 0.66633344
-0.046824574 -0.1362842 0.66619998
-0.042964008 -0.13916343 0.66539997
-0.037591431 -0.13953429 0.66900003
-0.052245717 -0.13443716 0.66900003
-0.047785714 -0.1340124 0.66900003
-0.046217147 -0.15694572 0.67400002
-0.042376257 -0.15734351 0.67213327
-0.039098099 -0.15639335 0.67300004
-0.051813334 -0.15309843 0.67166662
-0.04747083 -0.15287085 0.6710909
-0.042581588 -0.15350857 0.67066669
-0.038981907 -0.15337144 0.671
-0.057455432 -0.13653468 0.67180002
-0.056003053 -0.1334042 0.6728
-0.052556831 -0.13251698 0.67133337
-0.047287777 -0.13241671 0.67169237
-0.044291433 -0.1328743 0.67400002
-0.052104257 -0.12792777 0.67319995
-0.048414025 -0.12788036 0.67290908
-0.057145715 -0.16110572 0.67800003
-0.054455243 -0.16121335 0.67800009
-0.04564286 -0.16007143 0.67500001
-0.057720348 -0.15723941 0.67664295
-0.053017221 -0.15748172 0.67650002
-0.048224766 -0.15753362 0.67514294
-0.05978572 -0.15492858 0.67500001
-0.058500003 -0.13564287 0.67500001
-0.061161913 -0.13198096 0.67600006
-0.058443889 -0.13222136 0.67558348
-0.045744289 -0.13272715 0.67650002
-0.042656109 -0.13194753 0.67581826
-0.038133971 -0.1312089 0.67866671
-0.061311118 -0.12907906 0.67766666
-0.057305809 -0.12792331 0.67745459
-0.054020241 -0.12604645 0.67524999
-0.046387214 -0.12666968 0.67514294
-0.042552862 -0.1276619 0.67699999
-0.037606034 -0.12806804 0.67846668
-0.051975716 -0.12277802 0.67710006
-0.048063897 -0.12311566 0.67741674
-0.043029722 -0.12443773 0.67840004
-0.038800001 -0.12480667 0.67900002
-0.033092067 -0.13042668 0.68133342
-0.061225884 -0.12699477 0.68150008
-0.058110721 -0.12563597 0.68175006
-0.035697624 -0.12591381 0.68150002
-0.032654513 -0.12787035 0.68261552
-0.029314287 -0.12702858 0.68400002
-0.060582861 -0.12377144 0.68400002
-0.057118714 -0.1224582 0.68288225
-0.053936832 -0.12151968 0.68233335
-0.047106668 -0.12100636 0.68066669
-0.04271315 -0.12190808 0.68160009
-0.037675798 -0.12243727 0.68276471
-0.034475241 -0.12424096 0.68300003
-0.056868508 -0.11739408 0.68392318
-0.052008841 -0.11737805 0.68261105
-0.04762511 -0.11743749 0.68235713
-0.042915717 -0.11704217 0.68274993
-0.03776494 -0.11720317 0.68368751
-0.05602286 -0.11400001 0.68400002
-0.052114286 -0.11334857 0.68400002
-0.047554284 -0.11334859 0.68400002
-0.042994291 -0.11334858 0.68400002
-0.038434289 -0.11334857 0.68400002
-0.063373342 -0.12609336 0.68600005
-0.031852763 -0.12597278 0.68820006
-0.063066676 -0.12257986 0.68671435
-0.032622099 -0.12233029 0.68786675
-0.062196277 -0.11784168 0.68741673
-0.059453338 -0.11694668 0.68600005
-0.033628762 -0.11777144 0.6870001
-0.061871119 -0.11390287 0.6886667
-0.057765171 -0.11225526 0.68700004
-0.052276552 -0.11108679 0.68612504
-0.047040001 -0.11106667 0.68599999
-0.042476669 -0.11109351 0.68616676
-0.037528481 -0.11166982 0.68650001
-0.034182478 -0.11328991 0.68760008
-0.056432385 -0.10958382 0.68900001
-0.052420244 -0.10876857 0.68800002
-0.047168218 -0.10874869 0.68787509
-0.04237175 -0.10898732 0.68800008
-0.038059048 -0.10958382 0.68900001
-0.066968173 -0.12743865 0.69228578
-0.064020008 -0.1287 0.69300002
-0.028283812 -0.12629335 0.69066668
-0.067544185 -0.12238873 0.69061548
-0.028094145 -0.12225297 0.69099998
-0.066548586 -0.11727937 0.69183338
-0.031361431 -0.11667255 0.69083345
-0.027719647 -0.11747868 0.69299996
-0.024420002 -0.11748001 0.69300002
-0.066402152 -0.1139731 0.69375002
-0.063071027 -0.11175756 0.69085723
-0.032435954 -0.11204898 0.6927501
-0.027759999 -0.11302286 0.69400012
-0.02445524 -0.11236191 0.69400001
-0.06181867 -0.10900497 0.69200009
-0.057847291 -0.1076043 0.69135725
-0.052600358 -0.10651466 0.69037503
-0.047314286 -0.10645716 0.69000006
-0.0418001 -0.10686678 0.69010007
-0.037025787 -0.10740635 0.69250005
-0.034293812 -0.10947953 0.6925
-0.05264771 -0.10379386 0.69336367
-0.047481969 -0.10287388 0.69243753
-0.042216782 -0.10290204 0.69262499
-0.038146861 -0.10361926 0.69300002
-0.046266671 -0.099803813 0.69400001
-0.069500007 -0.11649525 0.69500005
-0.067207865 -0.11190215 0.69525009
-0.027818576 -0.11061762 0.69550002
-0.024560954 -0.1108562 0.69700003
-0.067013346 -0.10881239 0.69666672
-0.062441234 -0.10735281 0.69642866
-0.058332384 -0.10539429 0.69600004
-0.035080954 -0.10590477 0.69500005
-0.032374892 -0.10725714 0.69636375
-0.028917145 -0.10935334 0.69800001
-0.060493339 -0.10436763 0.69800001
-0.057087626 -0.10262343 0.69700003
-0.053016037 -0.10117064 0.69583338
-0.040492382 -0.10023525 0.69700003
-0.037139885 -0.10213369 0.69637507
-0.033878572 -0.1036281 0.69749999
-0.051556509 -0.099348895 0.69700003
-0.047829699 -0.098371707 0.69663644
-0.043128479 -0.098730385 0.69670004
-0.026000002 -0.11000001 0.70000005
-0.024666669 -0.11000001 0.70000005
-0.066000007 -0.10666667 0.70000005
-0.063666672 -0.10633334 0.70000005
-0.027772315 -0.10689314 0.70150006
-0.024745956 -0.10700691 0.70225
-0.065741591 -0.10362667 0.70200008
-0.062657952 -0.1029529 0.70161545
-0.058354527 -0.10103596 0.70025003
-0.036345955 -0.10103595 0.70025003
-0.031921759 -0.10286184 0.7016924
-0.028139526 -0.10385001 0.70350003
-0.061013337 -0.099900961 0.70400006
-0.057217941 -0.098260179 0.70266676
-0.052434128 -0.096960336 0.7013334
-0.047640573 -0.095948391 0.70060003
-0.042194605 -0.096476518 0.70077783
-0.037590545 -0.097789146 0.70233345
-0.033380002 -0.099068008 0.70380008
-0.051626675 -0.094537154 0.70400012
-0.047603812 -0.094537154 0.70400012
-0.042864051 -0.094436437 0.70325005
-0.03888762 -0.094537146 0.70400006
-0.065793023 -0.10127175 0.70733333
-0.063114285 -0.10004286 0.70500004
-0.030214287 -0.1007143 0.70500004
-0.027588258 -0.10205726 0.7065556
-0.024205716 -0.10354573 0.70599997
-0.065405719 -0.099120006 0.708
-0.061946671 -0.098081276 0.70700002
-0.058414292 -0.096461914 0.7050001
-0.035585716 -0.096014291 0.70500004
-0.031865545 -0.097189881 0.70645458
-0.02897381 -0.098375723 0.70749998
-0.05678476 -0.09404128 0.70700002
-0.052641395 -0.092391878 0.70653844
-0.047285896 -0.092063732 0.70654541
-0.042658575 -0.092314005 0.70649999
-0.037707623 -0.093591914 0.70700002
-0.033874925 -0.09444572 0.70666671
-0.051650286 -0.089140587 0.708
-0.046911024 -0.089102052 0.70800006
-0.066942863 -0.10075239 0.71000004
-0.02549397 -0.10129779 0.71066666
-0.023280635 -0.101487 0.71200007
-0.066551246 -0.097995818 0.71160001
-0.062838927 -0.09637323 0.71137506
-0.030557144 -0.09574572 0.71300006
-0.02720201 -0.098187625 0.71211118
-0.023120001 -0.099960007 0.71400005
-0.06182877 -0.093896963 0.71340007
-0.057808571 -0.091880724 0.71200007
-0.037637908 -0.091116957 0.71080005
-0.032995328 -0.092452131 0.71236372
-0.055760004 -0.088400006 0.71400005
-0.052747339 -0.087323539 0.71190006
-0.047814384 -0.086684875 0.71110004
-0.042446014 -0.087861098 0.71092314
-0.037815243 -0.087663732 0.71254557
-0.034680001 -0.088400006 0.71400005
-0.046717383 -0.08375071 0.71350008
-0.042076718 -0.083720349 0.71363652
-0.038705718 -0.084880956 0.71300006
-0.067945719 -0.095940486 0.71700007
-0.026245987 -0.096300416 0.71714294
-0.023227938 -0.097692065 0.71733344
-0.066948049 -0.093087308 0.7181111
-0.062933236 -0.092282586 0.71670002
-0.059325717 -0.09069334 0.71600002
-0.031037383 -0.091747865 0.71625006
-0.028558575 -0.093371198 0.71825004
-0.065737151 -0.087649524 0.71899998
-0.062123075 -0.088126689 0.71855557
-0.057754226 -0.08707466 0.71730769
-0.053188577 -0.085238099 0.71600002
-0.036822863 -0.085238099 0.71600002
-0.03263187 -0.087390274 0.71730781
-0.029444763 -0.089703813 0.71900004
-0.056835245 -0.084225729 0.71900004
-0.052494574 -0.082431152 0.71769994
-0.048646312 -0.081756547 0.71687502
-0.042438101 -0.081464767 0.71640009
-0.037883498 -0.082523711 0.71744448
-0.034922861 -0.083540961 0.71900004
-0.046883054 -0.079413339 0.71760005
-0.042337149 -0.079894289 0.71700001
-0.023314288 -0.095314294 0.72000003
-0.067885719 -0.091200009 0.72000003
-0.026165174 -0.091823414 0.72028583
-0.023370955 -0.092106909 0.72175008
-0.067885719 -0.089828581 0.72000003
-0.062857151 -0.086171433 0.72000003
-0.030857146 -0.085714288 0.72000003
-0.027913421 -0.087987542 0.72127283
-0.023181906 -0.088366672 0.72300005
-0.065384135 -0.083278105 0.72266674
-0.062332578 -0.084073149 0.72240013
-0.057936303 -0.082665823 0.72133338
-0.053560957 -0.080340005 0.72100008
-0.036392383 -0.080682859 0.72100008
-0.032848954 -0.082879625 0.72160006
-0.029608574 -0.084005713 0.72300005
-0.050677784 -0.078653656 0.72233343
-0.047614019 -0.077260546 0.72157156
-0.042793337 -0.077775158 0.72154558
-0.038202144 -0.078814052 0.72275007
-0.02614267 -0.086174294 0.72620004
-0.024244446 -0.086584769 0.72733343
-0.062529691 -0.08214207 0.72683334
-0.057336509 -0.08082287 0.72533339
-0.031531751 -0.081246041 0.72500008
-0.027993714 -0.082736962 0.72760004
-0.060402863 -0.079842865 0.72900003
-0.057269718 -0.07792896 0.72800004
-0.052945361 -0.077099495 0.72630775
-0.047686037 -0.075331122 0.7256667
-0.042407621 -0.075558864 0.7252
-0.036953099 -0.076783903 0.72524995
-0.032853905 -0.077908009 0.72780007
-0.029854288 -0.079842865 0.72900003
-0.051765528 -0.073692389 0.72860003
-0.047170117 -0.073530599 0.72837508
-0.042329647 -0.073035367 0.72862506
-0.037657145 -0.072980098 0.72854555
-0.034020003 -0.074288577 0.72900003
-0.022293335 -0.086386196 0.73150003
-0.065011434 -0.080390483 0.73400003
-0.063375004 -0.080785483 0.73124999
-0.02662305 -0.080984958 0.73180002
-0.023559526 -0.082898341 0.7330001
-0.061708167 -0.077656738 0.73271435
-0.059176195 -0.076580957 0.73100001
-0.030919684 -0.07648731 0.73233336
-0.028380796 -0.078401431 0.73283339
-0.060817149 -0.0747981 0.73400003
-0.057031866 -0.07301715 0.73272735
-0.052790716 -0.071780004 0.73175001
-0.047357623 -0.071035475 0.73124999
-0.042467624 -0.070663333 0.73100001
-0.037186291 -0.07061296 0.73119998
-0.032924343 -0.072591864 0.73211122
-0.051660001 -0.069111437 0.73300004
-0.047172483 -0.06796544 0.73270005
-0.042564448 -0.067683175 0.73266673
-0.037891258 -0.067849711 0.73309094
-0.034253336 -0.069205716 0.73400003
-0.021449145 -0.081170291 0.73600006
-0.065994456 -0.077928104 0.73716676
-0.063522384 -0.076155238 0.73700005
-0.030140955 -0.07500191 0.73600006
-0.027184881 -0.076292746 0.73662502
-0.022903144 -0.078124858 0.73770005
-0.061796512 -0.072327942 0.73733342
-0.058549765 -0.071170717 0.73625004
-0.030718097 -0.071956575 0.73640007
-0.02757762 -0.072544292 0.73774999
-0.024633335 -0.073196195 0.73900002
-0.061231434 -0.069677144 0.73900002
-0.057184007 -0.06926439 0.73760003
-0.052666668 -0.067177363 0.73733336
-0.048143338 -0.065670647 0.73616672
-0.042758103 -0.065188579 0.73600006
-0.037461147 -0.065522097 0.73660004
-0.032733597 -0.067573257 0.73700005
-0.047389846 -0.063577473 0.73900002
-0.042209208 -0.06354858 0.73866671
-0.021170478 -0.083980009 0.74100006
-0.019080002 -0.083386675 0.74200004
-0.0663381 -0.075511433 0.74100006
-0.02186667 -0.076182231 0.74066675
-0.066456519 -0.072818741 0.74233341
-0.06424167 -0.072004527 0.74125004
-0.026076192 -0.071180955 0.74000001
-0.022859368 -0.072504453 0.74233341
-0.066516198 -0.068639055 0.74300003
-0.062487055 -0.067575052 0.74220008
-0.057633333 -0.067041382 0.741
-0.054413337 -0.065720007 0.74200004
-0.030657142 -0.066600002 0.74000001
-0.027838383 -0.068112098 0.74190009
-0.056609526 -0.063685715 0.74300003
-0.052309193 -0.062203337 0.74221426
-0.04751211 -0.061027765 0.74142861
-0.04234229 -0.061113715 0.74099994
-0.037411116 -0.062114447 0.74116671
-0.032971781 -0.06292329 0.74236369
-0.047410481 -0.058732383 0.74300003
-0.042457145 -0.058732383 0.74300003
-0.038211431 -0.058732383 0.74300003
-0.065985717 -0.070242859 0.74500006
-0.022704763 -0.070242859 0.74500006
-0.060309529 -0.065985717 0.74500006
-0.026252383 -0.066695243 0.74500006
-0.02297247 -0.067755856 0.74745464
-0.060471434 -0.064740002 0.74700004
-0.057962622 -0.061872385 0.74675006
-0.054633338 -0.060309529 0.74500006
-0.031661145 -0.060909528 0.74540013
-0.027874028 -0.06279818 0.74700004
-0.024933334 -0.064114287 0.74800003
-0.052086551 -0.058128934 0.74662507
-0.047634762 -0.0568754 0.74650002
-0.042628571 -0.056837145 0.74600011
-0.037459459 -0.057151981 0.74614298
-0.032922771 -0.057761043 0.747091
-0.029207621 -0.059127621 0.74800003
-0.046304766 -0.054853339 0.74800003
-0.04274286 -0.054853339 0.74800003
-0.037756197 -0.054853342 0.74800003
-0.062391434 -0.065260008 0.75300002
-0.022142857 -0.065000013 0.75000012
-0.061255004 -0.062686428 0.75225002
-0.025476193 -0.061190482 0.75000012
-0.022155557 -0.062180534 0.75044447
-0.019285716 -0.061428577 0.75000006
-0.056874003 -0.057731718 0.75209999
-0.052484959 -0.055630099 0.75080007
-0.04857143 -0.055000003 0.75000006
-0.035000004 -0.055000003 0.75000006
-0.031806193 -0.055393815 0.75050002
-0.027479051 -0.057820957 0.75139999
-0.05199286 -0.053427145 0.75300002
-0.047287717 -0.05230182 0.75229996
-0.04251286 -0.052388292 0.75150001
-0.037225403 -0.052256834 0.75166672
-0.032505717 -0.053126674 0.7518
-0.063360006 -0.061920006 0.75600004
-0.065693341 -0.059196196 0.75800002
-0.062604673 -0.058131337 0.75730002
-0.058833908 -0.056244195 0.75520009
-0.026364192 -0.056045718 0.75640005
-0.022695716 -0.059077624 0.75650001
-0.056881372 -0.053177152 0.7560001
-0.052792389 -0.051641148 0.75520009
-0.049614288 -0.051052384 0.75500005
-0.032018576 -0.051445719 0.75550008
-0.028389145 -0.0534661 0.75660002
-0.05558667 -0.04981143 0.75800002
-0.052269526 -0.049384765 0.75700003
-0.047352467 -0.048398361 0.75645459
-0.04249873 -0.048259366 0.75633335
-0.037728768 -0.048526477 0.75600004
-0.032791667 -0.049368337 0.75674999
-0.063695244 -0.055733338 0.76000005
-0.022299763 -0.057294764 0.76150006
-0.019620001 -0.057406675 0.76300001
-0.060977142 -0.052576005 0.7604
-0.058285955 -0.051406909 0.76025003
-0.026815047 -0.051602095 0.7610001
-0.023373527 -0.053280957 0.76220006
-0.060840003 -0.049250957 0.76050001
-0.057313576 -0.048968811 0.76175004
-0.052571308 -0.046950117 0.76137507
-0.047771432 -0.045961909 0.76000005
-0.042704768 -0.045600008 0.76000011
-0.037171435 -0.046102546 0.76033342
-0.032432385 -0.04692762 0.76100004
-0.029400716 -0.048637386 0.76225001
-0.050866671 -0.04432667 0.76300001
-0.04689391 -0.043698858 0.76220006
-0.042823818 -0.042822123 0.76211119
-0.038027242 -0.043106295 0.76200008
-0.033426668 -0.04432667 0.76300001
-0.041420002 -0.039966669 0.76300001
-0.022109207 -0.051994607 0.76533335
-0.019697145 -0.053983815 0.76600003
-0.060590006 -0.046718575 0.7665
-0.057670005 -0.046718579 0.76650012
-0.054857146 -0.046080004 0.76800001
-0.027153229 -0.047094185 0.76600003
-0.023639051 -0.048496827 0.7676667
-0.051886138 -0.042141169 0.76733339
-0.047619458 -0.041157693 0.76585728
-0.042500004 -0.040071435 0.76500005
-0.036903813 -0.040696193 0.76580006
-0.032857146 -0.04210392 0.76666671
-0.028718235 -0.043547623 0.76757151
-0.050468575 -0.038765717 0.76800001
-0.047225907 -0.038160384 0.7676
-0.042349212 -0.037236191 0.76666665
-0.037483267 -0.037691977 0.76742864
-0.033645719 -0.038765717 0.76800001
-0.021266667 -0.050600003 0.77000004
-0.019800002 -0.050600003 0.77000004
-0.022277303 -0.047248419 0.77116674
-0.019851431 -0.047788575 0.77200007
-0.061103813 -0.04417143 0.77300006
-0.057006191 -0.043274283 0.77233332
-0.053672384 -0.040438097 0.77200001
-0.030800002 -0.040333334 0.77000004
-0.026796311 -0.041846313 0.77087504
-0.022994407 -0.043597739 0.77262503
-0.051881146 -0.03777067 0.77160001
-0.048096195 -0.03634667 0.77100003
-0.036666669 -0.035933334 0.77000004
-0.032026764 -0.037168097 0.77130002
-0.028208256 -0.038510483 0.77266669
-0.047086194 -0.034578573 0.77250004
-0.042533338 -0.034466669 0.77000004
-0.037790861 -0.033967242 0.77200001
-0.033864766 -0.034600955 0.77300006
-0.01847524 -0.045450956 0.77600002
-0.061261907 -0.040595241 0.77500004
-0.058678579 -0.04096429 0.77500004
-0.022511907 -0.04096429 0.77500004
-0.018901363 -0.042344365 0.7761429
-0.060094289 -0.037837144 0.77900004
-0.057165954 -0.038294051 0.77700001
-0.053388894 -0.036658734 0.77500004
-0.026851431 -0.037198097 0.77600002
-0.02267867 -0.038983811 0.77820003
-0.018547621 -0.039320953 0.77900004
-0.051652003 -0.033593718 0.77700001
-0.047370326 -0.032194607 0.77716678
-0.042155877 -0.031799689 0.7765556
-0.037473608 -0.031349801 0.77585721
-0.032502491 -0.032386892 0.77700019
-0.028414924 -0.034345083 0.77833337
-0.037837144 -0.028934289 0.77900004
-0.034127623 -0.028934287 0.77900004
-0.060171433 -0.036400001 0.78000003
-0.05730905 -0.03572429 0.78150004
-0.054367624 -0.035003811 0.78200006
-0.022335811 -0.036482859 0.78179997
-0.018619049 -0.037982859 0.78200006
-0.055928577 -0.032810479 0.78300005
-0.053330164 -0.031500321 0.78133339
-0.049771432 -0.030457145 0.78000003
-0.030457145 -0.030457145 0.78000003
-0.027216511 -0.032179471 0.78177786
-0.024142224 -0.033102226 0.7840001
-0.052178413 -0.028075557 0.78266668
-0.047439139 -0.027676711 0.78163636
-0.042404018 -0.027523177 0.78111118
-0.037515651 -0.026674831 0.78114295
-0.032170374 -0.027374182 0.78155553
-0.028354764 -0.028354764 0.78350008
-0.047040001 -0.024640001 0.7840001
-0.04218667 -0.024266668 0.78400004
-0.037333339 -0.024640001 0.78400004
-0.032853335 -0.024640001 0.78400004
-0.060865719 -0.035317145 0.78900003
-0.059137147 -0.03518286 0.78600001
-0.057768814 -0.032635003 0.78775007
-0.022753334 -0.031756829 0.78766674
-0.056285717 -0.029268574 0.78800005
-0.053240009 -0.026744764 0.78733337
-0.02711162 -0.027111623 0.78640002
-0.023697009 -0.027986534 0.78814292
-0.050633527 -0.022987429 0.78880006
-0.047253337 -0.021749845 0.78755558
-0.042917505 -0.021550834 0.78712511
-0.037467781 -0.021730317 0.78683347
-0.020340001 -0.035406668 0.79100001
-0.061097145 -0.03318762 0.79200006
-0.059061274 -0.031414926 0.79166669
-0.020391431 -0.032475241 0.7930001
-0.057049848 -0.027895559 0.79166669
-0.054993335 -0.026366668 0.79100001
-0.063080005 -0.035720002 0.79800004
