# .PCD v0.7 - Point Cloud Data file format
VERSION 0.7
FIELDS x y z
SIZE 4 4 4
TYPE F F F
COUNT 1 1 1
WIDTH 454
HEIGHT 1
VIEWPOINT 0 0 0 1 0 0 0
POINTS 454
DATA ascii
0.24699262 -0.016220002 0.57249999
0.25092003 -0.015853334 0.574
0.24756812 -0.014209049 0.57383335
0.25344002 -0.015908573 0.57600003
0.24373144 -0.014888573 0.57900006
0.247564 -0.013059914 0.57800007
0.25230747 -0.012488158 0.57673919
0.25563359 -0.011932621 0.57599998
0.25350326 -0.0083727622 0.57840008
0.25655288 -0.0087893661 0.57683343
0.24342494 -0.012324084 0.58071434
0.24694547 -0.011509784 0.58054543
0.24371432 -0.008960763 0.58080006
0.24756391 -0.0075289542 0.5814001
0.25175211 -0.0071028583 0.58076924
0.2574988 -0.0064256191 0.58170003
0.24911591 -0.0042555556 0.58300006
0.25228128 -0.004046395 0.58328575
0.25584763 -0.0038933335 0.58400005
0.23886406 -0.015699763 0.58875006
0.24024002 -0.01568 0.588
0.2388261 -0.012449882 0.58762503
0.24024002 -0.010640001 0.588
0.23952669 -0.0076663494 0.58900011
0.24248211 -0.0066581555 0.58868754
0.24664004 -0.0060000005 0.58800006
0.25851429 -0.0050142859 0.58500004
0.26278573 -0.0050142864 0.58500004
0.24314168 -0.0021433616 0.58864707
0.2478053 -0.0021497246 0.58763164
0.25275388 -0.0015722077 0.58609092
0.2577678 -0.001883512 0.58631253
0.26265419 -0.0024416668 0.58662498
0.26637363 -0.0021218096 0.58709997
0.24356556 0.0014584763 0.58900005
0.24719027 0.0022426196 0.58854997
0.25247347 0.0022394285 0.58780003
0.25746369 0.0022389879 0.58768749
0.26162073 0.0020892641 0.5884546
0.24794096 0.0050485716 0.58900005
0.2529029 0.0050468571 0.58880007
0.25719228 0.0055269399 0.58871436
0.26084286 0.0050485716 0.58900005
0.23699094 -0.016957778 0.59220004
0.23728001 -0.012414047 0.59250003
0.24074668 -0.01296762 0.59200001
0.23785639 -0.0075226203 0.5924167
0.24069858 -0.005061429 0.5905
0.23844939 -0.0027287304 0.59283334
0.24062026 -0.0022500001 0.59100008
0.23929715 0.001697143 0.59400004
0.24163999 0.0024614539 0.59157902
0.26437622 0.0022476192 0.59000003
0.26617429 0.002249286 0.59025007
0.24318834 0.0066480958 0.59261113
0.24735896 0.007832191 0.59149998
0.25250098 0.0077876765 0.59141183
0.25766045 0.0082325097 0.59200007
0.26251757 0.0074627451 0.59188241
0.26656878 0.007144127 0.59216666
0.2449543 0.010748572 0.59400004
0.24811845 0.010919048 0.59300005
0.25217822 0.011760348 0.59309095
0.25705269 0.011225716 0.59357148
0.26079431 0.010748572 0.59400004
0.23452134 -0.016271049 0.59740001
0.23574644 -0.016454048 0.59575003
0.2340731 -0.011961191 0.59800005
0.23573771 -0.012913198 0.59685725
0.23334602 -0.0072761909 0.59736842
0.23560342 -0.0068839467 0.59528577
0.23369133 -0.0024398637 0.59785718
0.23655222 -0.001907879 0.59563649
0.23445831 0.0019390479 0.59840006
0.23709781 0.0024424763 0.59630007
0.23779584 0.0064776191 0.59787512
0.24145223 0.0081447624 0.59653336
0.26463336 0.0096333344 0.59500003
0.26576668 0.0096333344 0.59500003
0.24323186 0.011141769 0.5977143
0.24753955 0.012914217 0.59692872
0.25236535 0.014025171 0.59585714
0.25774446 0.013426774 0.59566671
0.262685 0.0127466 0.59664291
0.26647526 0.012350737 0.59681827
0.25246561 0.015554129 0.59750009
0.25609589 0.015757464 0.59800005
0.26298958 0.015402859 0.5990001
0.26584193 0.015402858 0.59900004
0.23398066 -0.015853018 0.60166669
0.23287681 -0.012670331 0.60261548
0.23143457 -0.0074586668 0.60240006
0.23158133 -0.0021615387 0.60223085
0.23293707 0.0021799367 0.60213339
0.23390451 0.0065753851 0.60230774
0.23680565 0.0089692865 0.60108334
0.23794247 0.011976736 0.60285723
0.24204707 0.013098223 0.60140008
0.24552384 0.013904763 0.60000002
0.24338058 0.016310478 0.6030001
0.24762535 0.017037537 0.6021176
0.25234416 0.017766986 0.60173339
0.25779104 0.017764157 0.60163641
0.26211524 0.017466668 0.60125005
0.26596683 0.017731702 0.60057145
0.25367999 0.020133335 0.60400003
0.2577067 0.020133335 0.60400003
0.26275638 0.020285558 0.60283339
0.26568794 0.020437781 0.60166669
0.22951287 -0.011533334 0.60549998
0.2311794 -0.013067938 0.60533333
0.22951289 -0.0074966671 0.60549998
0.2310524 -0.0097952392 0.60500002
0.22902158 -0.0020208335 0.606875
0.23056811 -0.0017314288 0.60600001
0.22891466 0.0015929763 0.60812509
0.23109092 0.0025025399 0.60611117
0.2330102 0.0077402862 0.60650003
0.23435791 0.011446286 0.60700005
0.23690698 0.013800319 0.60655564
0.23859519 0.016878018 0.6075834
0.24190678 0.01797458 0.60576928
0.24603336 0.019014288 0.60500002
0.24290478 0.021507431 0.60813338
0.24750797 0.022557026 0.60720837
0.25242257 0.022789672 0.60694736
0.25754368 0.02315137 0.60768747
0.26276484 0.022878999 0.60727775
0.26506001 0.024940001 0.60900003
0.22906287 0.0034980953 0.61199999
0.2306224 0.0040766671 0.61150002
0.22915035 0.0067625856 0.61357147
0.23207301 0.0076526054 0.61252946
0.2337825 0.012842144 0.61291665
0.23567145 0.013965715 0.611
0.23425964 0.016474858 0.61340004
0.23688738 0.01791551 0.61242855
0.23855472 0.020943811 0.61328578
0.24162701 0.022873972 0.61233336
0.2439643 0.02548651 0.61283338
0.24760143 0.026942572 0.61229998
0.25263539 0.02687704 0.61199999
0.25740352 0.027306322 0.61236364
0.26245543 0.027097896 0.6127857
0.2665067 0.027469527 0.61366671
0.22938669 0.0093876198 0.61600006
0.23095858 0.0099652391 0.61550003
0.23180223 0.012682192 0.61650002
0.23319191 0.017908257 0.61650008
0.23425096 0.021189049 0.61800003
0.23727454 0.022766309 0.61687505
0.24072859 0.024014287 0.61500001
0.23853596 0.025999596 0.61842859
0.24226683 0.027067944 0.61693341
0.2469361 0.029034643 0.61587507
0.25236458 0.029242225 0.61544448
0.25781196 0.029732859 0.61616671
0.26250598 0.029883575 0.61524999
0.26631498 0.029590717 0.61524999
0.24406287 0.030065717 0.61900002
0.24767689 0.031033609 0.6181429
0.25275946 0.032611623 0.61806673
0.25713009 0.032470137 0.61781824
0.2626304 0.03227026 0.61776924
0.26627198 0.032445926 0.61688894
0.25172669 0.035960954 0.61900002
0.25526384 0.035960954 0.61900002
0.22870232 0.013274832 0.62142867
0.23119263 0.01375643 0.62125003
0.22921908 0.016975241 0.62320006
0.23193145 0.017625974 0.6225456
0.23417763 0.022331273 0.62250006
0.23557669 0.024268098 0.62150002
0.23474288 0.025554288 0.62400001
0.23760523 0.027566081 0.62192315
0.2409143 0.028933335 0.62
0.23910406 0.031187858 0.62375003
0.24234886 0.031912543 0.62252945
0.24738359 0.03307151 0.62191677
0.25183544 0.034691051 0.62160003
0.25887048 0.033765718 0.62200004
0.26191619 0.034409147 0.62080002
0.26512381 0.034838099 0.62
0.24336001 0.035360001 0.62400001
0.24774699 0.035985723 0.62283343
0.253122 0.037197147 0.62211114
0.25719324 0.037202731 0.62285721
0.26148573 0.035062861 0.62400001
0.26512381 0.03601905 0.62
0.23084669 0.019684765 0.62633336
0.22990002 0.020900002 0.62700003
0.23249215 0.022757977 0.62675005
0.23386955 0.026171623 0.6274001
0.23610409 0.028054018 0.62671435
0.23749024 0.03198994 0.62700009
0.24066812 0.033955716 0.62550002
0.23956415 0.035705082 0.62833333
0.24214013 0.037183307 0.62633342
0.2476183 0.038608953 0.62559998
0.25235662 0.039407212 0.62557149
0.25755429 0.039348572 0.62600005
0.26253927 0.037445515 0.62550002
0.26587978 0.037813097 0.62524998
0.2438124 0.040136192 0.62900001
0.24735281 0.040613201 0.62842864
0.25259763 0.041301433 0.62849998
0.2578705 0.040340003 0.62750006
0.26335391 0.040286101 0.62760007
0.26615241 0.040072385 0.62800002
0.23052953 0.019862859 0.63200003
0.23158786 0.023821669 0.63325
0.23354413 0.027461365 0.63271427
0.2356213 0.029076513 0.63166666
0.23488192 0.031398095 0.634
0.23645493 0.033110797 0.63211113
0.23841104 0.037039567 0.63276923
0.24110858 0.039082542 0.63133335
0.2397124 0.040455241 0.634
0.2429442 0.04117012 0.63337505
0.24716339 0.042931434 0.63215393
0.25260001 0.043303337 0.63150001
0.25751609 0.042894889 0.63212496
0.26237369 0.04269255 0.6328333
0.2654531 0.043088812 0.63275003
0.24863076 0.045934968 0.63342851
0.2523481 0.04662909 0.63330764
0.25661796 0.046054766 0.63350004
0.22943145 0.021300001 0.63900006
0.2323831 0.022813097 0.63875008
0.22943145 0.026777145 0.63900006
0.23246072 0.027961474 0.63700008
0.23380645 0.03253556 0.63655555
0.2352524 0.033866666 0.63500005
0.23423621 0.037066668 0.63800001
0.23624042 0.038094372 0.63658345
0.23811525 0.041406434 0.63700002
0.24195132 0.043395095 0.63623095
0.26065239 0.044147622 0.63500005
0.24385595 0.046173472 0.63671434
0.24717042 0.047719769 0.63558346
0.25339529 0.048985716 0.63500011
0.25838751 0.048013691 0.63612509
0.26246038 0.046786238 0.6364547
0.26600787 0.046986859 0.63740003
0.24873239 0.050353337 0.63700002
0.2521233 0.051046245 0.63722229
0.2560797 0.050811112 0.6376667
0.22930001 0.023173969 0.64033341
0.23147604 0.023168098 0.64016676
0.22904764 0.028708575 0.64133334
0.23121527 0.028847894 0.64057148
0.22928573 0.031182859 0.64200002
0.23173203 0.032985121 0.64137501
0.23340628 0.037139323 0.64228576
0.23503335 0.038460001 0.64100003
0.23785776 0.043080598 0.64162505
0.23984794 0.046337467 0.64300007
0.24272041 0.047793634 0.64146161
0.24663144 0.049448576 0.64100003
0.26331431 0.049371433 0.64000005
0.26636192 0.049371433 0.64000005
0.24472001 0.050906669 0.64400005
0.24744044 0.051446564 0.64222229
0.25250936 0.053440165 0.64250004
0.25799403 0.052648716 0.64171433
0.26263735 0.052600782 0.64176482
0.26674166 0.052298006 0.6415
0.26379591 0.056018732 0.64166665
0.22901383 0.0323954 0.64583337
0.22948383 0.035068575 0.64600003
0.23207431 0.037439488 0.64636368
0.23527144 0.039928574 0.64500004
0.23362549 0.040684048 0.64725
0.23635256 0.043374609 0.64599997
0.23796256 0.04754021 0.64707148
0.2413924 0.049311619 0.64560002
0.24292794 0.052547839 0.64676923
0.24690764 0.053889848 0.64544445
0.25198004 0.054425716 0.64500004
0.25820479 0.054671433 0.6450001
0.26107144 0.054671433 0.64500004
0.24811909 0.056484766 0.64700001
0.25244337 0.056646671 0.64649999
0.25702351 0.056455877 0.64666671
0.26290897 0.056833934 0.64687496
0.2307575 0.037840322 0.65133339
0.23231004 0.042322978 0.65112501
0.23369147 0.047005039 0.65185714
0.23616669 0.047976192 0.65000004
0.2344581 0.050374288 0.65300006
0.2374786 0.052084923 0.65105563
0.24142858 0.053238101 0.65000004
0.23889652 0.055735879 0.65266675
0.24248123 0.056091528 0.65150005
0.24704468 0.058165621 0.65110004
0.25257146 0.058809526 0.65000004
0.25805452 0.058598097 0.65040004
0.26219749 0.058426987 0.6503334
0.24850701 0.060677789 0.65233338
0.25252005 0.06147556 0.65200007
0.25681275 0.06133179 0.652125
0.26289302 0.060774505 0.65188891
0.23053716 0.039360002 0.65600002
0.22932479 0.043485716 0.65700006
0.23092763 0.042884197 0.65640002
0.22866288 0.045607623 0.65600002
0.2318743 0.047500715 0.65625006
0.23401669 0.051309053 0.65700001
0.23574992 0.053404387 0.6566
0.23830575 0.057232384 0.65675002
0.24197674 0.058777571 0.65577781
0.24515715 0.059261907 0.65500003
0.24318168 0.06150024 0.65725005
0.24682142 0.062967688 0.65633339
0.25164479 0.064002864 0.65500003
0.25754192 0.064042099 0.65540004
0.26191884 0.063331194 0.65675002
0.26570666 0.063293338 0.65800005
0.24837834 0.066088341 0.65775001
0.25216192 0.066326678 0.65700001
0.25660747 0.066343345 0.65716672
0.26215559 0.065800004 0.65800011
0.26508 0.065800004 0.65800005
0.2297762 0.042178098 0.66100001
0.23012382 0.04350286 0.66200006
0.23096359 0.048648812 0.66125005
0.23328723 0.052981734 0.66154546
0.2357143 0.054685719 0.66000003
0.23426002 0.056197148 0.66300005
0.23664001 0.057902064 0.66083336
0.23878901 0.062375877 0.66155559
0.2419371 0.063644424 0.66045457
0.2665143 0.064742863 0.66000003
0.23931144 0.065037146 0.66300005
0.24314694 0.066967152 0.66210002
0.24736799 0.0679233 0.66090918
0.2530686 0.068618096 0.66100001
0.2575897 0.068915084 0.66183341
0.2625978 0.067802861 0.66122228
0.2660867 0.06762334 0.66050005
0.24815145 0.070088573 0.66300005
0.25257146 0.070088573 0.66300005
0.25699145 0.070720002 0.66300005
0.2626743 0.070088573 0.66300005
0.23250763 0.053009715 0.6674
0.2338665 0.056721717 0.66619998
0.2356708 0.059077144 0.667
0.23739322 0.062288459 0.66737503
0.23920667 0.065527625 0.66800004
0.24156991 0.06824965 0.66662502
0.24319474 0.071512379 0.66711116
0.24717733 0.072347 0.66633338
0.25222969 0.073050492 0.66607696
0.25731584 0.072922103 0.66580003
0.26254672 0.072645172 0.66657144
0.2665799 0.072002001 0.66549999
0.25740573 0.075820006 0.66900003
0.26489431 0.076863818 0.66700006
0.26624525 0.07665953 0.6680001
0.22976002 0.049280003 0.67200005
0.23211072 0.047445957 0.67324996
0.22956002 0.052320641 0.67266673
0.23160453 0.052500956 0.67225003
0.22916001 0.055845719 0.67400002
0.23277263 0.057276718 0.6716364
0.23418145 0.062065881 0.6718334
0.23603882 0.063083813 0.67075002
0.23754454 0.067642629 0.67162496
0.24056192 0.068914294 0.67000002
0.23911658 0.07159467 0.6724
0.24214189 0.073385142 0.67120004
0.24694288 0.07465715 0.67000002
0.26225716 0.07465715 0.67000002
0.24353114 0.075769857 0.67233342
0.2478267 0.077146493 0.67145461
0.25260407 0.077316433 0.67091674
0.25743622 0.077622645 0.67111111
0.26264775 0.077325493 0.671
0.26584381 0.078602865 0.671
0.25330159 0.08015874 0.67333335
0.25804573 0.080238104 0.67400002
0.26298431 0.080178581 0.6735
0.22950001 0.049500003 0.67500001
0.23078573 0.046928577 0.67500007
0.22950001 0.050785717 0.67500001
0.23207144 0.05464286 0.67500001
0.22984001 0.05794286 0.67600006
0.23202842 0.058543339 0.67550009
0.23349507 0.062651239 0.67540002
0.23470795 0.067121908 0.67766666
0.23598193 0.06898953 0.67700005
0.23739141 0.072254658 0.67692322
0.23936448 0.076053977 0.67866671
0.24256581 0.077274688 0.67708337
0.2460231 0.079217866 0.67624998
0.24755293 0.081275664 0.67788887
0.25212684 0.082524918 0.67653859
0.25725216 0.0831047 0.67641675
0.2624698 0.083125487 0.67658341
0.26559398 0.083094299 0.67633337
0.25414002 0.086006671 0.67900002
0.25672668 0.086006671 0.67900002
0.2299543 0.059280004 0.68400002
0.23125716 0.059280004 0.68400002
0.22969376 0.062928006 0.68400002
0.2322977 0.062552929 0.68214291
0.22409144 0.069702864 0.68400002
0.22865145 0.06840001 0.68400002
0.23269834 0.067600481 0.6825
0.23372585 0.072053932 0.68312502
0.23596381 0.073253974 0.68066669
0.23829672 0.077701807 0.68177778
0.24141479 0.079391912 0.68050003
0.23852351 0.080520958 0.68366671
0.24231684 0.082506299 0.68213332
0.24751082 0.083583817 0.68033338
0.2512762 0.0848381 0.68000001
0.24342099 0.08597444 0.68314296
0.24725908 0.086597927 0.68272734
0.25220782 0.087616116 0.68236369
0.25773367 0.086995244 0.68166673
0.26284838 0.087402478 0.68180007
0.26565275 0.087688267 0.68200004
0.22825955 0.06306953 0.68625003
0.22778881 0.067818686 0.68623084
0.23062669 0.067946672 0.68600005
0.22866669 0.071213335 0.68600005
0.23210287 0.072246671 0.68650007
0.2345743 0.075352386 0.68800002
0.23649406 0.077474393 0.68744451
0.2380266 0.082687393 0.68725008
0.23885335 0.085960954 0.68900001
0.24212943 0.087363929 0.68712497
0.2470493 0.089539289 0.68625003
0.25153333 0.089506671 0.68600005
0.25848788 0.089212626 0.68625003
0.26152337 0.089571908 0.68650007
0.24851477 0.091472387 0.68850005
0.25230762 0.091915809 0.68740004
0.25782901 0.091621645 0.68785727
0.26267067 0.0913141 0.68780005
0.26590669 0.090813339 0.68600005
0.22935049 0.074687622 0.69400001
0.23211391 0.074209526 0.69200003
0.23321286 0.077914037 0.69213343
0.2359143 0.079514287 0.69000006
0.23412503 0.082216673 0.69200003
0.23624554 0.083218865 0.69020003
0.23764756 0.087447882 0.69227272
0.24152097 0.088842861 0.6910001
0.23299716 0.07368286 0.69700003
0.23122637 0.077518418 0.69566673
0.23279582 0.082639627 0.69640011
0.23266669 0.074000008 0.70000005
