# .PCD v0.7 - Point Cloud Data file format
VERSION 0.7
FIELDS x y z
SIZE 4 4 4
TYPE F F F
COUNT 1 1 1
WIDTH 531
HEIGHT 1
VIEWPOINT 0 0 0 1 0 0 0
POINTS 531
DATA ascii
-0.066194296 -0.28123432 0.76800001
-0.062171429 -0.28086859 0.76800007
-0.058075435 -0.28072232 0.76800007
-0.061440006 -0.2786743 0.76800001
-0.072146669 -0.28343335 0.77300006
-0.068363652 -0.28079957 0.77183336
-0.059631433 -0.28048858 0.77300006
-0.080244765 -0.27680764 0.77300006
-0.078772388 -0.27754384 0.77300012
-0.06627728 -0.27802342 0.77200007
-0.062953152 -0.27807698 0.77039999
-0.056892004 -0.27916977 0.77180004
-0.080244765 -0.27312669 0.77300012
-0.080660008 -0.28268003 0.77700001
-0.077355251 -0.28256196 0.77600002
-0.073309809 -0.28237242 0.77528584
-0.080452383 -0.27973813 0.77500004
-0.07703016 -0.27735758 0.77522224
-0.072368689 -0.27765706 0.77537495
-0.06785167 -0.27620953 0.77650005
-0.06255357 -0.2766012 0.77500004
-0.057753634 -0.27706778 0.77515388
-0.077450477 -0.27241185 0.77600002
-0.072732657 -0.27303663 0.77814305
-0.066893339 -0.27257192 0.77825004
-0.062873974 -0.2722016 0.77666664
-0.057646912 -0.27196836 0.77600002
-0.053915717 -0.27179286 0.7755
-0.0782381 -0.26866668 0.77500004
-0.062320005 -0.26931146 0.77900004
-0.057387624 -0.26842192 0.77750003
-0.053280003 -0.26862001 0.77700001
-0.072149523 -0.27074572 0.78100002
-0.06842953 -0.27111715 0.78100002
-0.076363109 -0.26819643 0.78225005
-0.072225243 -0.26751733 0.78316677
-0.067853637 -0.26722363 0.78292322
-0.063057788 -0.26711813 0.78200006
-0.057048768 -0.26796386 0.78200006
-0.053622864 -0.26811239 0.78200001
-0.066453338 -0.26357335 0.78400004
-0.064362668 -0.26208001 0.78400004
-0.063466668 -0.25909334 0.78400004
-0.080801919 -0.26541716 0.78800005
-0.077429667 -0.26634151 0.78714293
-0.074108578 -0.26574287 0.78600001
-0.06138286 -0.26649144 0.78600001
-0.058856908 -0.26653835 0.78725004
-0.075846195 -0.2643348 0.78850007
-0.072652221 -0.26283923 0.78790921
-0.068498574 -0.26229855 0.78690016
-0.061837018 -0.26332083 0.78771436
-0.071886674 -0.25874195 0.78900003
-0.067978859 -0.2591469 0.78780001
-0.082320958 -0.26508859 0.79300004
-0.057398099 -0.26886478 0.79300004
-0.080606669 -0.26442 0.79100001
-0.077826992 -0.26263142 0.79166669
-0.074580006 -0.26140669 0.79100001
-0.061573654 -0.26112354 0.79166669
-0.059626196 -0.26265574 0.79250002
-0.076214924 -0.25882763 0.79233336
-0.07269448 -0.25729606 0.79179996
-0.066925466 -0.25749326 0.79118186
-0.062691689 -0.25755301 0.79136366
-0.059286192 -0.25715858 0.79300004
-0.071747623 -0.25451526 0.7930001
-0.066976741 -0.25334466 0.79271436
-0.062632069 -0.25279209 0.79233342
-0.059663814 -0.25300479 0.7930001
-0.062684767 -0.24998383 0.79300004
-0.059663814 -0.24998383 0.79300004
-0.055271432 -0.27030003 0.79500002
-0.052329212 -0.27075338 0.79633343
-0.056666434 -0.26741791 0.79600006
-0.05226035 -0.26751351 0.79736364
-0.048704904 -0.26695442 0.79728574
-0.082542606 -0.26224202 0.79645455
-0.079600006 -0.26078385 0.796
-0.056750569 -0.26265725 0.79645455
-0.052572098 -0.26240507 0.79769999
-0.047873337 -0.26216352 0.79788888
-0.044333339 -0.26118672 0.79800004
-0.081907623 -0.25787905 0.79780006
-0.078253545 -0.25716215 0.79600006
-0.074957147 -0.25591433 0.79500002
-0.056879688 -0.25743845 0.79633331
-0.052440006 -0.25764003 0.79799998
-0.048640002 -0.25840002 0.79800004
-0.081320003 -0.25460002 0.79800004
-0.077627115 -0.25202006 0.79753339
-0.072159529 -0.25211719 0.79616666
-0.067723237 -0.25134611 0.79540008
-0.062842861 -0.25061432 0.79500002
-0.056902867 -0.25265715 0.79666668
-0.053960003 -0.25232002 0.79800004
-0.076928891 -0.24733779 0.79799998
-0.072342776 -0.24727269 0.79789996
-0.067604847 -0.24762976 0.79758334
-0.062968493 -0.24731883 0.79658335
-0.057667978 -0.24737063 0.79675001
-0.053960003 -0.24852002 0.79800004
-0.066880003 -0.24396002 0.79800004
-0.062320005 -0.24320003 0.79800004
-0.057847355 -0.2430041 0.79771429
-0.086095244 -0.26133335 0.80000001
-0.086892709 -0.25838035 0.80266678
-0.084239058 -0.25754952 0.80166674
-0.051809527 -0.25523812 0.80000001
-0.046954118 -0.25711101 0.80109096
-0.043820199 -0.25849372 0.8016001
-0.086832009 -0.25222632 0.80400002
-0.083431445 -0.25257775 0.80220002
-0.051830798 -0.25229496 0.80033338
-0.048809532 -0.25299892 0.80257148
-0.086525723 -0.24885716 0.80400002
-0.082204774 -0.24737082 0.80166674
-0.078476198 -0.24609526 0.80000001
-0.052421715 -0.24759661 0.80240005
-0.07710629 -0.24444802 0.80159998
-0.072504953 -0.24337249 0.8029092
-0.068132572 -0.24243127 0.80200005
-0.062936194 -0.24144335 0.80100006
-0.057008769 -0.24194133 0.80240005
-0.053720005 -0.2441632 0.80200005
-0.065851435 -0.23966859 0.80400002
-0.062226675 -0.23921335 0.80333328
-0.091346674 -0.26022288 0.80600005
-0.089043818 -0.2609905 0.80600005
-0.090690479 -0.25747049 0.80700004
-0.088787943 -0.25715241 0.80600011
-0.045289528 -0.25561717 0.80600005
-0.043754287 -0.25561717 0.80600005
-0.090547316 -0.25291684 0.80800003
-0.0882762 -0.25331432 0.80600005
-0.047088809 -0.25236118 0.80725008
-0.043862861 -0.25214732 0.80800003
-0.087032706 -0.24727462 0.80633342
-0.083670482 -0.24640574 0.80600005
-0.049329147 -0.24787927 0.80680007
-0.085205719 -0.2448705 0.80600005
-0.081724137 -0.24414828 0.8070001
-0.077444449 -0.24257758 0.80688894
-0.073353812 -0.24079764 0.80650008
-0.069085717 -0.24026477 0.80600005
-0.057187621 -0.24064858 0.80600005
-0.053038314 -0.24264468 0.8071112
-0.049895242 -0.2448705 0.80600005
-0.076182865 -0.23932192 0.80800003
-0.072174162 -0.2378335 0.80742866
-0.067356542 -0.23738703 0.80618191
-0.062045448 -0.23709038 0.80714297
-0.058062386 -0.23878905 0.80750006
-0.054636195 -0.23932192 0.80800003
-0.066948578 -0.23470478 0.80800003
-0.063100956 -0.23470478 0.80800003
-0.046028577 -0.2517429 0.81000012
-0.043048888 -0.25391114 0.81200004
-0.046885718 -0.24727885 0.81240004
-0.044188574 -0.24730098 0.81400001
-0.087057345 -0.24245544 0.8118
-0.082999378 -0.24195854 0.81111115
-0.079457149 -0.24145716 0.81000006
-0.05071969 -0.24201113 0.81100005
-0.047438815 -0.24261883 0.81325006
-0.044188574 -0.24342477 0.81400001
-0.086755559 -0.23780191 0.81333339
-0.082927413 -0.23793271 0.81377786
-0.07775034 -0.23776823 0.8120001
-0.072668582 -0.23621145 0.81000006
-0.060942862 -0.23528573 0.81000006
-0.057734765 -0.23692715 0.81100005
-0.052886039 -0.23799464 0.81266677
-0.075973339 -0.23489715 0.81400001
-0.071635351 -0.23279135 0.81266677
-0.067280009 -0.23199716 0.81200016
-0.062407818 -0.23217545 0.81099999
-0.05769657 -0.23239666 0.81276941
-0.053457625 -0.23436525 0.81350005
-0.067445718 -0.22869526 0.81400001
-0.063041911 -0.22908917 0.81320012
-0.042690478 -0.2460524 0.81500006
-0.045851432 -0.24091335 0.81600004
-0.043761592 -0.24210891 0.81566668
-0.086157151 -0.23518573 0.81500006
-0.083186984 -0.23557049 0.81633341
-0.079171434 -0.23518573 0.81500006
-0.050514288 -0.23625049 0.81600004
-0.047956299 -0.23805115 0.81655562
-0.086031437 -0.23240286 0.8175
-0.08235646 -0.23304984 0.81790918
-0.077016354 -0.23182175 0.81683344
-0.073485717 -0.23095097 0.81650007
-0.055885717 -0.23052859 0.81500006
-0.05234699 -0.23214701 0.81766677
-0.077220008 -0.22854003 0.81900012
-0.071867868 -0.22786956 0.81800008
-0.067750372 -0.22660881 0.81766677
-0.06251388 -0.22663064 0.81614292
-0.057587355 -0.22757474 0.81714308
-0.053820003 -0.22854002 0.81900007
-0.067080006 -0.22386001 0.81900007
-0.062732145 -0.22404359 0.81825012
-0.058500003 -0.22386001 0.81900007
-0.043786671 -0.24004477 0.82100004
-0.047070671 -0.23629165 0.82100004
-0.043893334 -0.23827812 0.82300001
-0.085227624 -0.23066191 0.82100004
-0.082100004 -0.23066191 0.82100004
-0.050823811 -0.23144382 0.82100004
-0.048295557 -0.23312414 0.82233334
-0.085227624 -0.2283162 0.82100004
-0.082150005 -0.22786739 0.82150006
-0.077440642 -0.22684413 0.82133335
-0.07375969 -0.22649178 0.82100004
-0.055515241 -0.22597049 0.82100004
-0.052733339 -0.22790322 0.82233334
-0.049380004 -0.2296562 0.82300001
-0.076552078 -0.22443083 0.82300007
-0.072835878 -0.22398731 0.82233334
-0.06841667 -0.22323382 0.82100004
-0.061770476 -0.22245191 0.82100004
-0.056934766 -0.22284999 0.82175004
-0.054082859 -0.22416955 0.82300001
-0.043214291 -0.23650001 0.82500005
-0.046985716 -0.23147145 0.82499999
-0.043528572 -0.23288575 0.82499993
-0.08270096 -0.22643955 0.82700008
-0.079357147 -0.22550002 0.82500005
-0.051464289 -0.22667859 0.82500005
-0.04804362 -0.22730532 0.82700008
-0.043353342 -0.2285943 0.8276667
-0.077279046 -0.22276954 0.82800001
-0.072798513 -0.22154385 0.82700008
-0.067571431 -0.22157145 0.82499993
-0.062385716 -0.22141428 0.82499999
-0.057402223 -0.22096413 0.82566679
-0.052795626 -0.22221373 0.82740003
-0.049173653 -0.22378066 0.82833338
-0.07018286 -0.21922192 0.82800007
-0.06685143 -0.21869622 0.82824999
-0.062305927 -0.21846236 0.82811111
-0.05757302 -0.21846236 0.82811117
-0.054477148 -0.21790859 0.82900006
-0.082506672 -0.22610001 0.83300006
-0.045675244 -0.22626573 0.83166671
-0.042788573 -0.22662 0.83200008
-0.080920011 -0.22372001 0.83300006
-0.077886671 -0.22151336 0.83166671
-0.051442862 -0.22080858 0.83100003
-0.048029527 -0.22302917 0.83220005
-0.076069526 -0.21948954 0.83200002
-0.072094291 -0.2178663 0.83185714
-0.067667142 -0.21645573 0.83100003
-0.062522858 -0.21606001 0.83100003
-0.05777429 -0.21606001 0.83100003
-0.053102292 -0.21795641 0.83220005
-0.067433342 -0.21499334 0.83300006
-0.062673345 -0.21499334 0.83300006
-0.057913341 -0.21499334 0.83300006
-0.086030804 -0.2266632 0.83900011
-0.083500005 -0.2250524 0.83500004
-0.042147622 -0.2250524 0.83500004
-0.087324493 -0.22339089 0.83900011
-0.082050763 -0.22225051 0.83642858
-0.078728579 -0.22028096 0.83500004
-0.050100002 -0.22028096 0.83500004
-0.046761431 -0.22187096 0.83574998
-0.042248577 -0.22240287 0.83699995
-0.080703817 -0.21973811 0.83900005
-0.077304028 -0.21756096 0.83677787
-0.072764292 -0.21590716 0.83500004
-0.051720481 -0.21683192 0.8355
-0.047055561 -0.21773514 0.83744442
-0.042928196 -0.21846497 0.83780003
-0.0771081 -0.2145443 0.83900005
-0.072426938 -0.21234782 0.8373636
-0.067649215 -0.21249685 0.83566666
-0.062828667 -0.21225466 0.83700001
-0.057599057 -0.21204633 0.83766669
-0.052169144 -0.21314764 0.83760005
-0.048170477 -0.21424034 0.83833337
-0.07111524 -0.20855144 0.83900005
-0.067694865 -0.20803182 0.83820009
-0.063537285 -0.20772396 0.83842868
-0.057531431 -0.20855144 0.83900005
-0.086708575 -0.22158858 0.84300005
-0.08356604 -0.2207959 0.84100002
-0.086507246 -0.21779297 0.84260005
-0.082520328 -0.21711546 0.84122229
-0.045654289 -0.2154562 0.84100002
-0.042250797 -0.21740097 0.84233344
-0.039340004 -0.2175743 0.84300005
-0.085701913 -0.2138543 0.84100002
-0.082628898 -0.21258762 0.84233338
-0.07796286 -0.21224049 0.84175003
-0.074488573 -0.21065049 0.84100002
-0.052061908 -0.21065049 0.84100002
-0.04757937 -0.21250413 0.84200001
-0.044157147 -0.21436287 0.84300005
-0.082694292 -0.20954573 0.84300005
-0.077556014 -0.20890343 0.84300005
-0.073152862 -0.2074305 0.84175003
-0.068881907 -0.20584477 0.84100002
-0.061673339 -0.20648554 0.84100002
-0.056867626 -0.20664573 0.84100002
-0.052370477 -0.20807858 0.84275001
-0.04897429 -0.20954573 0.84300005
-0.071989529 -0.20419335 0.84300011
-0.06813556 -0.20360254 0.8416667
-0.062492147 -0.20350216 0.84125
-0.05721239 -0.20351227 0.84271425
-0.053791434 -0.20472859 0.84300005
-0.041042861 -0.21648097 0.84500003
-0.039433338 -0.21648097 0.84500003
-0.082890481 -0.21004286 0.84500003
-0.046314526 -0.21143645 0.84575003
-0.042927217 -0.21324588 0.8458572
-0.039433338 -0.21487144 0.84500003
-0.082041331 -0.20743828 0.84619999
-0.078412257 -0.20667702 0.84628576
-0.074842863 -0.20521429 0.84500003
-0.051236518 -0.20575081 0.84500003
-0.047786791 -0.20748323 0.84687507
-0.04441905 -0.20917335 0.84800005
-0.075108573 -0.20432763 0.84800005
-0.0717481 -0.20315859 0.84650004
-0.066913813 -0.20154619 0.84650004
-0.062076669 -0.20154619 0.84650004
-0.056333337 -0.20199525 0.84500003
-0.052432388 -0.20327906 0.84700006
-0.042161278 -0.21161591 0.85133338
-0.039760001 -0.21097144 0.85200006
-0.085200012 -0.20610097 0.852
-0.082408108 -0.20581669 0.85250008
-0.046142861 -0.20642859 0.85000002
-0.043233335 -0.20723809 0.85250008
-0.039280001 -0.20777905 0.85333341
-0.085400008 -0.20414668 0.85400003
-0.081740007 -0.20374002 0.85400003
-0.077125937 -0.20323133 0.85244453
-0.072583951 -0.20177361 0.85085714
-0.057543814 -0.20099716 0.85100001
-0.05272096 -0.20115462 0.85166669
-0.047883019 -0.20289353 0.85216677
-0.044191115 -0.20360446 0.85400003
-0.071603432 -0.19889258 0.85240012
-0.067321919 -0.19790795 0.85166681
-0.062443025 -0.19786969 0.85150015
-0.057921097 -0.1979048 0.85314292
-0.053273335 -0.19886002 0.85400003
-0.062626675 -0.19438669 0.85400003
-0.059373338 -0.19438668 0.85400003
-0.041577145 -0.20625526 0.85600007
-0.039131433 -0.20625526 0.85600007
-0.085733339 -0.20167622 0.85733336
-0.082682461 -0.20163159 0.85714293
-0.078354292 -0.20078191 0.85699999
-0.042428814 -0.20215121 0.85675001
-0.038986292 -0.20341448 0.85640013
-0.076480001 -0.19895494 0.85733336
-0.072640963 -0.19697303 0.85700005
-0.056838736 -0.19608065 0.85666674
-0.052848097 -0.19649668 0.85699999
-0.048359051 -0.19853716 0.85699999
-0.044890478 -0.19914953 0.85700005
-0.071091436 -0.19366287 0.85800004
-0.067743815 -0.1942524 0.85700005
-0.062846676 -0.19262001 0.85700005
-0.058243811 -0.19323938 0.85733336
-0.054748576 -0.19366287 0.85800004
-0.082723811 -0.20066668 0.86000001
-0.040952384 -0.20066668 0.86000001
-0.038495239 -0.20066668 0.86000001
-0.086000003 -0.19902858 0.86000001
-0.082787938 -0.19754222 0.86066675
-0.078095242 -0.19705254 0.86057156
-0.073714286 -0.1957524 0.86000001
-0.046958737 -0.19629845 0.86000007
-0.042074833 -0.19818643 0.86142862
-0.038584765 -0.19867049 0.86200005
-0.077169523 -0.19456573 0.86200005
-0.073036514 -0.19312225 0.86166668
-0.068034291 -0.19180511 0.86066675
-0.063066676 -0.19083813 0.86000001
-0.057742864 -0.19124763 0.86000001
-0.052718312 -0.19221081 0.86044449
-0.047982626 -0.19337074 0.86125004
-0.066497147 -0.18964002 0.86200005
-0.062884964 -0.18898325 0.86200011
-0.056828149 -0.18836296 0.86200005
-0.052376766 -0.18865487 0.86200011
-0.082380958 -0.19524287 0.86500007
-0.079909526 -0.19524287 0.86500007
-0.0417221 -0.19608249 0.86580008
-0.038719051 -0.19689049 0.86500007
-0.081704289 -0.19298622 0.86875004
-0.077340282 -0.19234465 0.86785722
-0.072659999 -0.19095907 0.86500007
-0.068376198 -0.19030002 0.86500007
-0.046460953 -0.19161908 0.86600012
-0.042727303 -0.19323781 0.86833334
-0.075226672 -0.18847907 0.86800003
-0.071856834 -0.1874835 0.86722231
-0.066814706 -0.18724373 0.86611122
-0.0615713 -0.18659526 0.86528593
-0.057254769 -0.18576907 0.86500007
-0.051445857 -0.18683062 0.86528587
-0.047615103 -0.18798192 0.86842859
-0.071175247 -0.18455906 0.86900002
-0.06703715 -0.18455908 0.86900008
-0.062023818 -0.18276222 0.86833334
-0.057018094 -0.18262108 0.86766672
-0.052422285 -0.18372707 0.8682
-0.048829526 -0.18455906 0.86900002
-0.038158096 -0.19659716 0.87100005
-0.041348387 -0.19146268 0.87180007
-0.037375767 -0.19352435 0.8721112
-0.034088574 -0.19206001 0.87300003
-0.080463812 -0.18996097 0.87100005
-0.077548392 -0.18880592 0.87180007
-0.045658734 -0.18678448 0.87166679
-0.042923495 -0.18775812 0.87233341
-0.07200259 -0.18279256 0.87185729
-0.067226149 -0.18175758 0.87144458
-0.062214285 -0.18000668 0.87100005
-0.057237148 -0.18000668 0.87100005
-0.052319363 -0.18159716 0.8720001
-0.047679812 -0.18357658 0.87220001
-0.065682858 -0.17875716 0.87300003
-0.061940383 -0.17784706 0.87180007
-0.057334766 -0.17823906 0.87250006
-0.082500003 -0.19083335 0.87500006
-0.037583813 -0.19126955 0.87700003
-0.034283813 -0.19148763 0.87800002
-0.086127624 -0.18814287 0.87800002
-0.082702868 -0.18795758 0.87714297
-0.077941909 -0.186756 0.87620002
-0.042083338 -0.18708335 0.87500006
-0.037499998 -0.18750001 0.87500006
-0.033500001 -0.18783335 0.87500012
-0.077216193 -0.1840643 0.87650007
-0.073460482 -0.18197954 0.87650001
-0.050833337 -0.18083334 0.87500006
-0.047198098 -0.18162401 0.87560004
-0.042580325 -0.18284573 0.87666672
-0.037572064 -0.18284573 0.87666672
-0.033611115 -0.18361112 0.87500012
-0.071076192 -0.17978096 0.87800002
-0.067853697 -0.17766988 0.87687504
-0.062916674 -0.17625001 0.87500006
-0.05761829 -0.17686172 0.87680006
-0.052579369 -0.17776857 0.87633336
-0.048220322 -0.17866604 0.87800014
-0.043481909 -0.17978096 0.87800002
-0.037544765 -0.17937145 0.87600005
-0.066895247 -0.17476381 0.87800002
-0.062714294 -0.17476383 0.87800002
-0.057362672 -0.17409486 0.87800008
-0.052680004 -0.17392763 0.87800002
-0.081853978 -0.18577778 0.88000005
-0.082152769 -0.18261527 0.88200009
-0.078263581 -0.18191408 0.88125002
-0.074031755 -0.18074922 0.88000005
-0.041066669 -0.18019049 0.88000005
-0.077925719 -0.17857106 0.88360006
-0.073082127 -0.17723916 0.88199997
-0.069561906 -0.17516191 0.88000005
-0.052800003 -0.17516191 0.88000005
-0.047230162 -0.17634574 0.88033342
-0.043012619 -0.17729738 0.88125002
-0.03864 -0.17807811 0.88200003
-0.07156191 -0.1742743 0.88400006
-0.068058416 -0.1722417 0.88222229
-0.062905617 -0.17193885 0.88066673
-0.058068041 -0.17133063 0.88000011
-0.052814528 -0.17164835 0.88025004
-0.048102144 -0.17245787 0.88225007
-0.044620954 -0.1742743 0.88400006
-0.067352384 -0.16922286 0.88400006
-0.062882453 -0.16796546 0.88371432
-0.057931218 -0.16707493 0.88155562
-0.052919585 -0.16715832 0.88200009
-0.049111113 -0.16866159 0.88400006
-0.058091432 -0.16417144 0.88400006
-0.053040005 -0.16417144 0.88400006
-0.078058742 -0.1761235 0.8876667
-0.041440003 -0.17590763 0.88800001
-0.038057148 -0.17590764 0.88800001
-0.075928204 -0.17366953 0.88780004
-0.072704136 -0.17245969 0.8876667
-0.046461906 -0.17148668 0.88700002
-0.043635514 -0.17272885 0.88842857
-0.070115246 -0.16895239 0.88700002
-0.067023098 -0.1663931 0.88800001
-0.063357145 -0.16641811 0.88700002
-0.047714155 -0.16730301 0.8878572
-0.061712705 -0.16428795 0.8876667
-0.056726672 -0.16340667 0.88900012
-0.052435242 -0.16322286 0.88800001
-0.049313974 -0.16372478 0.8876667
-0.080614291 -0.17395715 0.89100003
-0.077611439 -0.17203544 0.89160007
-0.073825717 -0.17056286 0.89100003
-0.041648574 -0.17170002 0.89250004
-0.039034288 -0.17395715 0.89100003
-0.075777151 -0.16943429 0.89400005
-0.071885146 -0.16773203 0.89220011
-0.045640957 -0.16641049 0.89300007
-0.044198573 -0.16915001 0.89250004
-0.066054299 -0.16357431 0.89300007
-0.062083822 -0.16272289 0.89300007
-0.056919049 -0.1614086 0.89200008
-0.051790953 -0.16131859 0.8915
-0.047601432 -0.16319859 0.89250004
-0.055342861 -0.15921715 0.89400005
-0.052788578 -0.15921715 0.89400005
-0.079537146 -0.17190287 0.89800006
-0.040151432 -0.17085621 0.89700007
-0.038485717 -0.17361334 0.89800006
-0.076885723 -0.16829336 0.89700001
-0.07362286 -0.16620575 0.89680004
-0.042730164 -0.16750097 0.89733338
-0.071502224 -0.16379811 0.89733338
-0.068058744 -0.16259843 0.89700007
-0.063146666 -0.16128001 0.89600003
-0.0463981 -0.16253841 0.89666671
-0.081700005 -0.17286001 0.90300006
-0.079980008 -0.17114002 0.90300006
-0.038657144 -0.17180859 0.90200007
-0.077313341 -0.16665429 0.90200007
