# .PCD v0.7 - Point Cloud Data file format
VERSION 0.7
FIELDS x y z
SIZE 4 4 4
TYPE F F F
COUNT 1 1 1
WIDTH 792
HEIGHT 1
VIEWPOINT 0 0 0 1 0 0 0
POINTS 792
DATA ascii
0.0084600011 -0.21745335 0.65800005
0.012565082 -0.21777906 0.65746665
0.016413907 -0.21713698 0.65780008
0.0077885725 -0.21306671 0.65800011
0.012524584 -0.21292414 0.65756243
0.015658733 -0.21316668 0.65766668
0.0086480007 -0.20918134 0.65800005
0.012844844 -0.20834039 0.65791667
0.014098256 -0.22767764 0.66283339
0.01630939 -0.22679895 0.6622858
-0.0020745581 -0.22158396 0.66285723
0.0021033336 -0.22146462 0.66250008
0.007560953 -0.22181623 0.66166669
0.012801906 -0.22222289 0.66100007
0.017619288 -0.22150905 0.66075003
-0.0067352392 -0.21636955 0.66300011
-0.0026506672 -0.21714096 0.66240007
0.002641143 -0.21749221 0.66040003
0.0062871436 -0.21816972 0.66016674
0.017988762 -0.21774326 0.66040003
0.022033336 -0.21718572 0.66100007
-0.0056828577 -0.2140543 0.66300005
-0.0025250001 -0.21231453 0.66250008
0.0025145242 -0.21253763 0.66025001
0.0056571434 -0.21120001 0.66000003
0.017998541 -0.21239841 0.6607334
0.021841466 -0.21246199 0.66107696
-0.0011363811 -0.2084343 0.66280001
0.0023775664 -0.20746085 0.66122228
0.0072734701 -0.207249 0.66000003
0.012107024 -0.20675965 0.660375
0.017195171 -0.20785384 0.66164291
0.021468572 -0.20837143 0.66300005
0.0034074287 -0.20433278 0.6626001
0.0075669535 -0.203926 0.66210008
0.012442686 -0.20384164 0.66227287
0.0038228575 -0.23000859 0.66900003
0.0078314301 -0.23016667 0.667
0.010782857 -0.23024572 0.66600001
-0.0010619049 -0.22661048 0.66900003
0.0027197406 -0.22715972 0.66845465
0.0076197288 -0.2273666 0.66685718
0.0118155 -0.2272685 0.66572732
-0.0057000006 -0.22103335 0.66500002
-0.0031668574 -0.22236727 0.6652
0.0027447622 -0.22367875 0.66533339
0.0076000006 -0.22420001 0.66500002
0.013300001 -0.22483335 0.66500002
0.017733335 -0.22483335 0.66500002
0.021581907 -0.22216716 0.66649997
-0.0065444447 -0.21807781 0.66500008
-0.0060166675 -0.2128 0.66500002
-0.005722858 -0.20919971 0.66766667
-0.0029794876 -0.20760325 0.66630775
0.018803652 -0.20619857 0.66550004
0.02147105 -0.20670497 0.667
-0.0012695239 -0.20304573 0.66624999
0.0024257703 -0.20192248 0.66611761
0.0076204771 -0.20166732 0.66678584
0.012844104 -0.20144823 0.66661543
0.017250478 -0.20317879 0.66728574
0.021025715 -0.20452288 0.66900003
0.0076385718 -0.19927669 0.66850007
0.012094922 -0.19922701 0.66833341
0.00063809525 -0.22907621 0.67000002
-0.0064104768 -0.20702636 0.67300004
-0.0044766669 -0.20592621 0.67150003
0.022971429 -0.20610477 0.67000002
-0.0062050801 -0.20433971 0.67400002
-0.0028530739 -0.20254883 0.67245454
0.0012785716 -0.20017096 0.67150003
0.018852381 -0.20129906 0.671
0.02238176 -0.20271426 0.67146158
0.025034288 -0.20220001 0.67400002
-0.00064190483 -0.19963239 0.67400002
0.0029597622 -0.19778787 0.67237496
0.0078470763 -0.19697362 0.67057151
0.012917985 -0.1973747 0.67223531
0.016760819 -0.19882724 0.67314285
0.0034852915 -0.19227599 0.67222226
0.0072291167 -0.19303553 0.67242855
0.011768255 -0.19406924 0.67400002
0.0044933334 -0.18872002 0.67400002
0.0064190482 -0.18936191 0.67400002
-0.0090023819 -0.20640782 0.67516673
-0.007655133 -0.20291038 0.67588896
-0.0038571432 -0.2012143 0.67500001
0.023803335 -0.20071954 0.67550004
0.026481112 -0.20151255 0.67816675
-0.0064314296 -0.19874065 0.67533338
-0.0026861629 -0.19759397 0.67529416
0.00064285717 -0.19671431 0.67500001
0.01864286 -0.19735716 0.67500013
0.022522699 -0.19776605 0.67566675
0.026123574 -0.19801643 0.67725003
-0.001072381 -0.19402415 0.67533338
0.0016714287 -0.19298573 0.67500001
0.0088942861 -0.19137964 0.67659998
0.012803471 -0.19270799 0.67707145
0.017837552 -0.19337596 0.67585731
0.021728573 -0.19375716 0.67500001
0.0027857143 -0.18921432 0.67500007
0.0076551032 -0.18878438 0.67785716
0.011963335 -0.18915001 0.67900002
0.014463494 -0.19191113 0.68000001
0.0045888894 -0.18289874 0.68833339
0.0078572799 -0.182735 0.68771434
0.011984975 -0.18210626 0.68644452
0.0045933337 -0.17914002 0.68900001
0.0085201906 -0.17879961 0.68820012
0.0129155 -0.17754632 0.6874547
0.01664512 -0.17751607 0.68875009
0.013117144 -0.17249398 0.68866676
0.016404763 -0.1738905 0.68900001
0.021216828 -0.17345303 0.68900001
0.01312381 -0.16995335 0.68900001
-0.00065809529 -0.17636953 0.69100004
0.0028942858 -0.17671295 0.69080001
0.0073746038 -0.17647937 0.69000006
0.011176826 -0.17685685 0.69033337
0.019057143 -0.17545715 0.69000006
0.02037143 -0.17545715 0.69000006
-0.00065952376 -0.17279381 0.69250005
0.0026320836 -0.17243648 0.69106251
0.0078869052 -0.17220227 0.69012511
0.011171429 -0.17217144 0.69000006
0.017257292 -0.17190695 0.69076937
0.020951813 -0.17169698 0.69180006
-0.00066000002 -0.16962001 0.69300002
0.0026355956 -0.16742729 0.69212496
0.0079102982 -0.16741163 0.6920625
0.012401213 -0.16757543 0.69199997
0.017217144 -0.16805027 0.69323081
0.020748002 -0.16822954 0.69380003
0.0024234923 -0.16457716 0.69400001
0.008328001 -0.16431277 0.69400001
0.012888571 -0.16424668 0.69400001
0.016854286 -0.16424668 0.69400001
-0.0026476192 -0.17010954 0.69500005
0.023897145 -0.17059906 0.69700003
-0.0013285716 -0.16794382 0.69700003
0.013900001 -0.16613811 0.69500005
0.016988892 -0.1665794 0.69500005
0.022798507 -0.16772042 0.69528586
0.0027506123 -0.16383743 0.69728577
0.0081168497 -0.16198368 0.69684619
0.012328573 -0.16173507 0.6960001
0.015885714 -0.16216668 0.69500011
0.012630477 -0.1588781 0.69800001
-0.0069797281 -0.17180696 0.70271432
-0.0046733338 -0.17024286 0.70100003
-0.0072329878 -0.16730261 0.70190918
-0.003336085 -0.16743937 0.70044452
-0.0066952389 -0.16336381 0.70300001
-0.0040057148 -0.16490191 0.70100003
0.0033395241 -0.16195288 0.70125008
0.0060000005 -0.16133335 0.70000005
0.0046816668 -0.15783644 0.70225
0.0073452396 -0.15759304 0.70116675
0.010577825 -0.15752396 0.70042866
0.023004217 -0.15625429 0.70157152
0.02611143 -0.15599906 0.70300001
-0.00067047623 -0.15219811 0.70400012
0.0031079655 -0.15217862 0.70390916
0.0073609534 -0.15257812 0.7026667
0.011886033 -0.1521122 0.70113349
0.017673813 -0.15169232 0.70290005
0.022584016 -0.15301506 0.70335728
0.026148573 -0.15420954 0.70400006
0.0029053967 -0.14862223 0.70400006
0.0074893516 -0.14753437 0.70327282
0.012048929 -0.14726728 0.70287502
0.016752575 -0.1480905 0.70360011
0.014080001 -0.14415239 0.70400006
-0.010071429 -0.16651429 0.70500004
-0.0087285722 -0.16584286 0.70500004
0.030763177 -0.16684002 0.70733333
-0.011452382 -0.16233729 0.70728576
-0.0087409532 -0.16338667 0.70600003
0.030342858 -0.16250287 0.708
-0.011309419 -0.15840742 0.7077778
-0.0074148416 -0.15772757 0.70775008
-0.0030996194 -0.15688553 0.70760006
0.0020185718 -0.15617701 0.70683336
0.028390858 -0.15648611 0.70640004
0.031647239 -0.15715753 0.70700008
-0.010384001 -0.15252344 0.708
-0.0074097626 -0.15222709 0.70725
-0.0033590482 -0.15223184 0.70539999
0.0013428573 -0.15375715 0.70500004
0.023969844 -0.15076542 0.70566672
0.027736887 -0.15202798 0.70718187
0.031227306 -0.1534397 0.70766675
-0.010114286 -0.14901716 0.708
-0.0072205453 -0.14796397 0.70757145
-0.0026449529 -0.14775963 0.70586663
0.0023982315 -0.14633457 0.70528579
0.0060428577 -0.14570001 0.70500004
0.018585399 -0.14666414 0.70533341
0.022834415 -0.1478992 0.70653331
0.026962144 -0.14829025 0.70774996
-0.0016857143 -0.14463429 0.708
0.0030324606 -0.14342533 0.70758337
0.0074070636 -0.14276168 0.7070834
0.011970987 -0.14244874 0.7062
0.017498571 -0.14266908 0.70662498
0.021572225 -0.14358875 0.70783341
0.012137143 -0.13957715 0.708
0.016182858 -0.13957715 0.708
-0.022038233 -0.166306 0.71357149
-0.018347781 -0.1658043 0.71350002
-0.014260001 -0.16500859 0.71300006
0.029076193 -0.16634287 0.71000004
0.032766946 -0.16654029 0.7104286
0.037197977 -0.16628394 0.71337509
0.041091435 -0.16640574 0.71400011
-0.022042723 -0.16264872 0.71371436
-0.017644923 -0.16217905 0.71250004
-0.013523811 -0.16160953 0.71000004
-0.0081142867 -0.16160953 0.71000004
0.029076193 -0.16228572 0.71000004
0.032664083 -0.16244803 0.71028584
0.037354924 -0.16231832 0.71311122
0.041310001 -0.16252001 0.71400011
-0.02174524 -0.15764953 0.71350008
-0.017636964 -0.15735938 0.71218765
-0.013359763 -0.15710002 0.71025002
0.03448572 -0.15755239 0.71000004
0.037463468 -0.15768391 0.71281832
0.04102667 -0.15889335 0.71400011
-0.021080002 -0.15436001 0.71400005
-0.017288793 -0.15245453 0.71292317
-0.012986754 -0.15243958 0.71081817
0.033289924 -0.15188597 0.71091676
0.036800481 -0.1526264 0.7129001
-0.011807906 -0.1481982 0.7125001
-0.0077156201 -0.14604515 0.71060002
-0.0047333338 -0.14538096 0.71000004
0.023666669 -0.14538096 0.71000004
0.027746351 -0.14669704 0.71055555
0.031753909 -0.14804117 0.71240008
0.036040001 -0.14892001 0.71400005
-0.0069594048 -0.14308275 0.71287513
-0.0028472387 -0.14218211 0.71160012
0.0018365989 -0.14102191 0.71042866
0.023001587 -0.14184064 0.71033335
0.026752308 -0.14271891 0.71176934
-0.0023118097 -0.13908897 0.71380001
0.0030529366 -0.13810328 0.71258348
0.0075807795 -0.13847795 0.71181822
0.012207383 -0.13766709 0.71208346
0.01783075 -0.13809335 0.71228582
0.022204168 -0.13881323 0.71187502
0.025124764 -0.13920477 0.71300006
-0.023877781 -0.16168669 0.71633339
0.043869212 -0.16252065 0.71600002
-0.023891669 -0.15700024 0.71675003
0.042971086 -0.15681544 0.71618193
-0.021995051 -0.15313792 0.71720004
-0.019320637 -0.15115556 0.71600002
0.038868573 -0.15206477 0.71600002
0.041708663 -0.15309067 0.7179091
-0.016748335 -0.14935978 0.71775007
-0.012590613 -0.14648232 0.71728575
0.033460952 -0.14647192 0.71700007
0.0374345 -0.1473816 0.71755558
0.042044383 -0.14941506 0.71900004
-0.010606667 -0.14335716 0.71850008
-0.0084315883 -0.14174144 0.7178334
0.028760001 -0.14174572 0.71900004
0.031819049 -0.14404191 0.71850008
-0.0061485721 -0.13868254 0.71733344
-0.0027327624 -0.13729124 0.71720004
0.0023215241 -0.13612343 0.71680003
0.0071647624 -0.13613477 0.71650004
0.01227881 -0.13574645 0.71625006
0.017729525 -0.13569906 0.71600002
0.022550954 -0.13666588 0.71750009
0.02597921 -0.13809636 0.7178334
0.0041085719 -0.13489811 0.71900004
0.0078747626 -0.13455573 0.71900004
0.012313096 -0.13407262 0.71825004
0.017482042 -0.13409676 0.71785718
0.021912381 -0.13489811 0.71900004
-0.022362858 -0.15275621 0.72250009
-0.019968573 -0.15079716 0.72300005
0.044114288 -0.15245716 0.72000003
-0.021345716 -0.1473543 0.72300005
-0.018023366 -0.14706682 0.72226679
-0.014400001 -0.14605716 0.72000003
0.039085716 -0.14811429 0.72000003
0.040457144 -0.1474286 0.72000003
-0.015837144 -0.14391144 0.72300005
-0.012771144 -0.14280602 0.72090018
0.029485716 -0.14057145 0.72000003
0.032628573 -0.14253192 0.72125006
0.037092146 -0.14390549 0.72125006
-0.01101 -0.13968334 0.72250009
-0.0075602732 -0.13776219 0.72171438
-0.0031588573 -0.1355101 0.7208001
0.0013714286 -0.13508572 0.72000003
0.024000002 -0.13508572 0.72000003
0.027873971 -0.13722974 0.72166675
0.030964289 -0.13899477 0.72250009
-0.0017895241 -0.13364629 0.7226001
0.0030252382 -0.13300279 0.72210014
0.0075585726 -0.13192925 0.7215001
0.012297576 -0.13127646 0.72100008
0.018096933 -0.13216954 0.72155559
0.02269667 -0.13342811 0.72216672
0.026165716 -0.13427144 0.72300005
-0.022785716 -0.1512143 0.72500002
-0.022785716 -0.14845239 0.72500008
-0.020051429 -0.14381716 0.72600001
-0.017400434 -0.14215544 0.72554541
-0.013819048 -0.14095382 0.72550005
0.033388577 -0.14069144 0.72533339
0.037284236 -0.14198224 0.72644454
0.04096286 -0.14232858 0.72900003
-0.017138097 -0.13799906 0.72814298
-0.012189238 -0.13807897 0.72710007
-0.0084424773 -0.13604514 0.72659999
0.029690478 -0.13671429 0.72500002
0.03272162 -0.13725992 0.72790003
0.03710572 -0.13734043 0.72728574
-0.0065850001 -0.13376549 0.72775006
-0.002996614 -0.13236912 0.72599995
0.0023030161 -0.13105032 0.72549999
0.0062142862 -0.1305 0.72500002
0.013119048 -0.1305 0.72500002
0.017278414 -0.13062 0.7256667
0.022427075 -0.13129756 0.726143
0.027383719 -0.13290887 0.72610003
-0.0011568256 -0.12930922 0.72866672
0.0029616456 -0.12837552 0.72790909
0.007612858 -0.12775838 0.72670001
0.01245643 -0.12801501 0.72658336
0.017330002 -0.12892938 0.72783339
0.021515952 -0.12943977 0.72874999
0.038986668 -0.14132668 0.73100001
0.041075241 -0.14132668 0.73100001
-0.016012382 -0.13714953 0.73100001
-0.013011271 -0.13637604 0.7318334
0.032720953 -0.13575715 0.73100001
0.041075241 -0.1399343 0.73100001
-0.010942223 -0.13432764 0.73333335
-0.0076711117 -0.13251558 0.73233336
-0.0041800002 -0.13097286 0.73150003
0.022974288 -0.13018763 0.73100001
0.028111909 -0.13149667 0.7318334
0.03248686 -0.13399011 0.73200005
0.036948577 -0.13454857 0.73200005
-0.0027947621 -0.12847891 0.73316669
0.0024897964 -0.12598233 0.73200005
0.0076580956 -0.12601048 0.73100001
0.013014605 -0.12571684 0.73200005
0.017600359 -0.12633394 0.73187506
0.022264177 -0.12709293 0.73230773
0.026528575 -0.12914763 0.73300004
0.0048866672 -0.12426001 0.73300004
0.0076790485 -0.12426001 0.73300004
0.011169525 -0.12426001 0.73300004
0.016529525 -0.12408382 0.73333335
-0.01614381 -0.13616954 0.73700005
-0.014019049 -0.13528381 0.73600006
-0.01614381 -0.13406383 0.73700005
-0.012797335 -0.13375543 0.7384001
-0.0084311906 -0.13138834 0.73775005
0.032028865 -0.13190565 0.73750001
0.037500955 -0.13353144 0.73600006
-0.0067977784 -0.1291489 0.7383334
-0.0023406353 -0.12681082 0.73700011
0.00070095243 -0.12547049 0.73600006
0.02384905 -0.12555572 0.73650002
0.027387304 -0.12827176 0.73733342
-0.0011730159 -0.12410509 0.73900002
0.0030005195 -0.12265214 0.73745459
0.0077244448 -0.12148254 0.73733342
0.01283973 -0.1218758 0.73728585
0.017565001 -0.12225382 0.73774999
0.020852065 -0.12393652 0.73800009
-0.011439049 -0.13175602 0.74140006
-0.0091619054 -0.13038096 0.74000001
0.034094606 -0.13096827 0.74066675
0.037264761 -0.13192452 0.74175
-0.010614286 -0.12949429 0.74300003
-0.0076029771 -0.12712964 0.74262506
-0.0045876191 -0.12632191 0.74100006
0.024733335 -0.12508 0.74200004
0.027740957 -0.12599103 0.74142867
0.031314924 -0.12831876 0.74166673
0.037857622 -0.12914048 0.74300003
-0.0028904765 -0.12243438 0.7415455
0.0017623811 -0.12094811 0.74050003
0.018323811 -0.1205143 0.74000001
0.022378625 -0.12272382 0.74200004
0.026889525 -0.12383334 0.74300003
-0.0011790479 -0.11906223 0.74266672
0.0030189611 -0.11815508 0.74209094
0.0077698422 -0.11795841 0.74166673
0.012711271 -0.11793192 0.74150008
0.017468711 -0.11843906 0.74214298
0.020520953 -0.11958763 0.74300003
-0.013801715 -0.13076058 0.74700004
-0.012100274 -0.12800451 0.74728578
-0.0092238104 -0.12629524 0.74500006
0.033411242 -0.1272423 0.74640006
0.036994286 -0.12805715 0.74700004
-0.0075059268 -0.12284478 0.74655563
-0.0049666669 -0.12132858 0.74500006
0.02449524 -0.12140906 0.74550003
0.027536072 -0.1220437 0.74612504
0.031093653 -0.1241362 0.74766672
-0.006411429 -0.11896763 0.74800003
-0.0031269528 -0.11809553 0.74610001
0.0024158098 -0.11612248 0.74620008
0.0078047626 -0.1156524 0.74500006
0.01278143 -0.11573 0.74550009
0.018050477 -0.1164063 0.74620003
0.022511829 -0.11800326 0.74641669
0.026322858 -0.11880858 0.74700004
-0.00071238098 -0.11469334 0.74800003
0.0042742859 -0.11469334 0.74800003
0.0078361919 -0.11469334 0.74800003
0.012507756 -0.11399511 0.74742866
0.017809525 -0.11469334 0.74800003
-0.016481526 -0.12626021 0.7524001
-0.013214286 -0.12625 0.75000006
0.03357143 -0.12500001 0.75000006
0.036773719 -0.12577145 0.75120008
-0.016476404 -0.12250391 0.7522223
-0.01238939 -0.12297063 0.75257152
-0.0088301599 -0.12146001 0.75166672
0.029285716 -0.12142858 0.75000006
0.032234974 -0.12249103 0.75214297
0.035140004 -0.12406572 0.75300002
-0.016494287 -0.11976287 0.75300002
-0.0064491439 -0.11766057 0.7524001
-0.0028619049 -0.11586858 0.75100005
0.0014285715 -0.11500001 0.75000006
0.022500001 -0.11535715 0.75000006
0.027197145 -0.1177343 0.75150001
-0.0014338096 -0.11395001 0.75250006
0.0026257145 -0.11291842 0.75200003
0.0071587311 -0.11239016 0.75166678
0.012172858 -0.11170049 0.75183338
0.016984936 -0.11251584 0.75163633
0.022182859 -0.11305715 0.75133342
0.025100002 -0.11402572 0.75300002
0.0086057149 -0.10972287 0.75300002
0.011474287 -0.10972287 0.75300002
-0.017976191 -0.12727144 0.75500005
-0.015120001 -0.12024001 0.75600004
-0.011945905 -0.12075162 0.75560009
-0.0093476195 -0.12008096 0.75500005
0.03272786 -0.12048025 0.7552501
0.037465923 -0.12217043 0.75650012
-0.015120001 -0.11808001 0.75600004
-0.012272382 -0.1191143 0.75800008
-0.0079215243 -0.11736038 0.75600004
0.028383622 -0.11655734 0.75640005
0.032082859 -0.1185962 0.75699997
-0.0050466666 -0.11390953 0.75700003
-0.0021612698 -0.11214413 0.75644445
0.0016785715 -0.1110462 0.75550008
0.0057523814 -0.11001429 0.75500005
0.013661906 -0.11001429 0.75500005
0.017693715 -0.11033106 0.75520009
0.022305241 -0.11080621 0.75550008
0.026929524 -0.11262494 0.75672734
-0.0007219048 -0.10900763 0.75800002
0.0024525716 -0.10837258 0.75760001
0.0073992205 -0.10744806 0.75627279
0.0122418 -0.1072943 0.75611115
0.017284764 -0.10730271 0.75616682
0.022147484 -0.10785307 0.7571429
0.025988573 -0.10900763 0.75800002
0.0086628571 -0.10467619 0.75800002
0.012260954 -0.10386223 0.7573334
0.017315239 -0.10388525 0.75749999
0.020935239 -0.10467619 0.75800002
-0.011964048 -0.11781263 0.76125002
-0.0082626669 -0.1158162 0.7610001
0.032801311 -0.11652322 0.76112503
0.037479475 -0.11872201 0.76166677
-0.006292223 -0.11251096 0.76216674
-0.0036190478 -0.11074287 0.76000005
0.029324049 -0.11186501 0.76025003
0.031589527 -0.11292191 0.76250005
-0.0050866669 -0.10900001 0.76300001
-0.0021771432 -0.10737582 0.76180005
0.0019662587 -0.10610505 0.76085728
0.0050666672 -0.10640001 0.76000005
0.023413654 -0.1059635 0.76033342
0.027277812 -0.1075083 0.76170009
0.0021800003 -0.10391334 0.76300001
0.0071995617 -0.10286126 0.76184618
0.012320001 -0.10146604 0.7610001
0.017380834 -0.10138322 0.76037508
0.022323601 -0.10274795 0.76155561
0.02591778 -0.10342889 0.76300001
-0.012402858 -0.11672382 0.76600003
0.037468765 -0.1164863 0.76540005
0.040123813 -0.11672287 0.76600003
-0.011459048 -0.11434668 0.76800001
-0.0085710716 -0.11177988 0.76587498
0.033365007 -0.11176144 0.76575005
0.037084285 -0.11344358 0.76725006
0.040228575 -0.11410287 0.76800001
-0.0065734698 -0.10734082 0.76671433
-0.0036428573 -0.10564286 0.76500005
0.029162383 -0.10644048 0.76550001
0.031437781 -0.1074727 0.7676667
-0.0056053973 -0.10406128 0.7676667
-0.0020580089 -0.10242702 0.76672739
0.0021885715 -0.10140191 0.76600003
0.0055958736 -0.10047399 0.76633334
0.023002144 -0.10040691 0.76674998
0.027827935 -0.10246477 0.76666671
0.0021942859 -0.098742865 0.76800001
0.0077893655 -0.097860806 0.76683342
0.012401748 -0.097753987 0.76600003
0.0173149 -0.098148927 0.76664293
0.022370288 -0.098106287 0.7676
0.013165715 -0.094354294 0.76800001
0.015360001 -0.094354294 0.76800001
-0.016186191 -0.11550716 0.77250004
-0.01395143 -0.11601619 0.77100003
-0.015936827 -0.11352032 0.77233338
-0.012490613 -0.11240736 0.77142864
0.037817147 -0.11124477 0.77100003
0.041173335 -0.1117562 0.77200001
-0.011626096 -0.1084581 0.77260005
-0.0092499051 -0.10702973 0.77080005
0.03368504 -0.10755851 0.77128577
0.036899623 -0.10863905 0.77180004
0.041173335 -0.10955048 0.77200001
-0.0072024763 -0.10243809 0.77160001
-0.0036666668 -0.10046668 0.77000004
0.027866669 -0.10046668 0.77000004
0.032045241 -0.10230412 0.77170008
-0.0062009534 -0.098051034 0.77242863
-0.0022029632 -0.097644664 0.77088886
0.0022 -0.096800014 0.7700001
0.0058666673 -0.096066676 0.77000004
0.019066669 -0.096066676 0.77000004
0.023115715 -0.096495725 0.7705
0.027177041 -0.097686678 0.77122223
0.030900002 -0.098585248 0.77250004
-0.0051533338 -0.09496858 0.77300006
-0.0020233335 -0.093619049 0.77249998
0.0022066669 -0.093414925 0.77233332
0.007523078 -0.09316615 0.77215385
0.012348572 -0.092173539 0.77179998
0.017635923 -0.092586808 0.77157152
0.022599457 -0.093864493 0.77257144
0.026257463 -0.094477788 0.77300012
0.01398762 -0.089079052 0.77300006
0.015460001 -0.089079052 0.77300006
-0.017199526 -0.1115181 0.77675003
-0.014023811 -0.11145239 0.77500004
-0.01668286 -0.10861905 0.77850002
-0.013200409 -0.1071811 0.7761429
0.034690477 -0.10554763 0.77500004
0.038136195 -0.10700913 0.77642858
0.042288579 -0.10831811 0.77900004
-0.012167484 -0.10314655 0.77757144
-0.0095952386 -0.10185716 0.77500004
0.034690477 -0.10259525 0.77500004
0.037418574 -0.10299144 0.778
-0.011114286 -0.099286675 0.778
-0.0086907148 -0.097061202 0.77650005
0.028785717 -0.095214292 0.77500004
0.032905199 -0.097364947 0.77718192
-0.006173016 -0.093072072 0.77766675
-0.0025871431 -0.091271907 0.77600002
0.002214286 -0.090785727 0.77500004
0.0066428576 -0.090785727 0.77500004
0.019928573 -0.090785719 0.77500004
0.023200573 -0.091469906 0.77580005
0.027557146 -0.092284285 0.77675003
0.030769527 -0.09304858 0.77850002
-0.0016680954 -0.088015251 0.77825004
0.0022173019 -0.087224618 0.77616668
0.0073928572 -0.087234065 0.77625
0.012431084 -0.087014467 0.77609098
0.017575754 -0.087306604 0.77638477
0.022414727 -0.087434508 0.77853864
0.027126288 -0.089084767 0.77820003
0.030418098 -0.089770481 0.77900004
0.0022257145 -0.083835244 0.77900004
0.0079754768 -0.082907863 0.77900004
0.012601588 -0.08227969 0.77833337
0.017054498 -0.082303613 0.77855569
0.02003143 -0.083835244 0.77900004
0.016321907 -0.079383813 0.77900004
-0.020108573 -0.11096953 0.78200006
-0.020640638 -0.10867112 0.78333342
-0.017305238 -0.10624477 0.7815001
0.042342864 -0.10622858 0.78000009
-0.01568 -0.10378668 0.78400004
-0.013742858 -0.10140001 0.78000003
0.038703337 -0.10122239 0.78150004
0.042023811 -0.10338669 0.78100008
-0.011917144 -0.097563818 0.78200001
0.037520003 -0.097646564 0.78266668
0.041813336 -0.099306673 0.78400004
-0.011200001 -0.094826676 0.78400004
-0.0085242344 -0.091769107 0.78200001
0.03286422 -0.091995664 0.78171438
0.035933882 -0.093298785 0.78371435
-0.0061533339 -0.087806195 0.78299999
-0.0033466669 -0.086652383 0.78100002
0.024514288 -0.085428581 0.78000003
0.027729258 -0.08658424 0.78085726
0.031493716 -0.087912001 0.78360003
-0.0019409525 -0.083732963 0.78360003
0.0022317462 -0.081852704 0.78133339
0.006314286 -0.081342861 0.78000003
0.022563465 -0.082589455 0.78254545
0.027253335 -0.084000006 0.78400004
0.0032355557 -0.079395562 0.7840001
0.0078242868 -0.078124292 0.78250015
0.012639366 -0.078065395 0.78066671
0.017124049 -0.077428341 0.78175002
0.02065778 -0.079395562 0.7840001
-0.020960001 -0.10629715 0.78600001
-0.021787144 -0.10367509 0.78883338
-0.017514445 -0.10283573 0.7881667
0.043417145 -0.10180572 0.78600001
0.045662861 -0.10180572 0.78600001
-0.015770001 -0.099125251 0.78850007
-0.013747938 -0.096978739 0.78733337
0.03967429 -0.095817149 0.78600001
0.042829532 -0.096889339 0.78620017
0.045691911 -0.097374767 0.78650004
-0.011846858 -0.092515431 0.78720003
0.038389523 -0.091945238 0.7865001
0.041776508 -0.093309216 0.78800005
-0.02179143 -0.086414292 0.78900003
-0.011266667 -0.087879382 0.78866673
-0.0091424761 -0.087371819 0.78680009
0.032937147 -0.086834297 0.78600001
0.037312727 -0.087921917 0.78781825
-0.0070989016 -0.082922645 0.78769237
-0.0024639459 -0.081284091 0.78714293
0.00074857147 -0.080097146 0.78600001
0.023954287 -0.080097146 0.78600001
0.027884286 -0.081407145 0.78600001
0.032101735 -0.082670048 0.78718185
0.035294764 -0.084106192 0.78850007
-0.0018783336 -0.078499287 0.78875005
0.002249524 -0.077241644 0.78742862
0.0063628578 -0.075980008 0.78600001
0.012725716 -0.07560572 0.78600001
0.017989526 -0.075701907 0.78700006
0.022703724 -0.077107705 0.78745461
0.027785242 -0.07809858 0.78850007
0.03154048 -0.078850001 0.78850007
0.0037571432 -0.074391432 0.78900003
0.0078064771 -0.073113725 0.78820008
0.012768891 -0.072857141 0.78866673
0.01706218 -0.073291034 0.78871435
0.022092002 -0.074090861 0.78900003
-0.021846667 -0.10094668 0.79100001
-0.017703336 -0.10132334 0.79100001
-0.021470344 -0.097641505 0.7930001
-0.01753143 -0.097083814 0.79175001
-0.021146668 -0.092894301 0.7930001
-0.01735796 -0.093042046 0.79242867
-0.013945716 -0.092340961 0.79149997
0.043497782 -0.092273653 0.792
0.046626478 -0.093101151 0.79220003
-0.021119051 -0.087120488 0.79200006
-0.012446191 -0.087497152 0.79200006
0.038420003 -0.085628897 0.79100007
0.042006671 -0.088287942 0.79233336
-0.0113 -0.083620004 0.79100001
-0.0092911115 -0.081108898 0.79100007
0.033900004 -0.080606669 0.79100001
0.036980547 -0.0822611 0.79242867
-0.0069558728 -0.078014925 0.79188895
-0.0025643811 -0.07676629 0.79180002
0.00075333338 -0.07608667 0.79100001
0.027873335 -0.07608667 0.79100007
0.032124002 -0.077368967 0.79180002
0.035496194 -0.079300009 0.79300004
-0.005286667 -0.074768573 0.79300004
-0.0018876191 -0.074343815 0.79250002
0.0022632657 -0.073177837 0.79214293
0.0070333341 -0.070591763 0.79133338
0.012806668 -0.070060007 0.79100007
0.017628003 -0.070662677 0.79100001
0.022622859 -0.071637906 0.79180002
0.027920954 -0.073950484 0.79233336
0.030964764 -0.074768573 0.79300004
0.00830762 -0.068726674 0.7930001
0.012839048 -0.068726674 0.7930001
0.016615238 -0.068726674 0.79300004
0.020391431 -0.068726674 0.79300004
-0.021957144 -0.091109537 0.79500002
-0.017423049 -0.091053903 0.79540008
-0.014385715 -0.090100005 0.79500002
-0.020442858 -0.085557148 0.79500002
-0.01744286 -0.087215766 0.79633331
-0.014025239 -0.08680144 0.796
0.043589797 -0.086855106 0.79500002
-0.020442858 -0.084042862 0.79500002
-0.017475238 -0.083730862 0.79780006
-0.013090715 -0.08252047 0.79675001
0.038614288 -0.08101429 0.79500002
0.041900318 -0.083038107 0.79666668
-0.012483674 -0.078482859 0.79785717
-0.009258667 -0.076340578 0.79680002
0.034128577 -0.076598421 0.79633343
0.037020318 -0.077495672 0.79688889
0.040280003 -0.079040006 0.79800004
-0.0063989116 -0.072988853 0.79714292
-0.0024657145 -0.071873106 0.79650009
0.0018933334 -0.070837148 0.79550004
0.024985716 -0.07041429 0.79500002
0.028056987 -0.071275406 0.79616678
0.032634288 -0.073179595 0.79685718
0.035720002 -0.073720008 0.79800004
-0.00152 -0.069160007 0.79800004
0.0025824765 -0.068517342 0.79760003
0.0075885719 -0.067153573 0.79675007
0.012887619 -0.066711441 0.79600012
0.017674696 -0.067120418 0.79700005
0.022201907 -0.067363814 0.79699999
0.026203811 -0.068736672 0.79750001
0.0091200005 -0.064600006 0.79800004
0.012920002 -0.064600006 0.79800004
0.017480001 -0.064600006 0.79800004
0.020520002 -0.064600006 0.79800004
-0.017269842 -0.081269845 0.80000007
0.042920642 -0.080507949 0.80000007
-0.016761906 -0.077714294 0.80000001
-0.013561904 -0.076342858 0.80000001
0.038857147 -0.076190479 0.80000001
0.042028256 -0.07743144 0.80233335
-0.012994288 -0.074151121 0.80266666
-0.0086906683 -0.072112381 0.80039996
0.032790478 -0.070916198 0.80066669
0.037595239 -0.072324291 0.80150008
0.040582858 -0.072742864 0.80400008
-0.0058558732 -0.068997465 0.80200005
-0.0022914289 -0.0669581 0.80199999
0.0017815875 -0.066194922 0.80199999
0.0053333337 -0.066285722 0.80000001
0.02806942 -0.067073025 0.80133337
0.032362543 -0.068544134 0.80266678
0.035988573 -0.069680005 0.80400002
0.0038238098 -0.064239055 0.80300003
0.0075532282 -0.063224345 0.80200005
0.012984764 -0.061866038 0.80200005
0.01756233 -0.061849315 0.80177784
0.022263896 -0.06235151 0.80109096
0.026325444 -0.063462868 0.80285716
0.04221905 -0.07599429 0.80600005
-0.013065716 -0.072244763 0.80700004
-0.0092219049 -0.070707619 0.80700004
0.042323813 -0.074643813 0.80800003
-0.0058952384 -0.066893339 0.80733341
-0.0038380956 -0.065247625 0.80600005
0.029937144 -0.065247625 0.80600005
0.033432383 -0.066864766 0.80700004
0.038380954 -0.069853336 0.80600005
-0.0053866669 -0.063870482 0.80800003
-0.0019992383 -0.063191622 0.80720007
0.0021133334 -0.06206096 0.8070001
0.0072182859 -0.060979057 0.8064
0.026912382 -0.061255243 0.80733341
0.03001143 -0.063100956 0.80800003
0.0076952381 -0.059253339 0.80800003
0.01306803 -0.058311027 0.80714297
0.017454695 -0.058070756 0.80685729
0.021987049 -0.058579054 0.80720007
-0.010828571 -0.070373341 0.81200004
-0.010078096 -0.068996198 0.81400001
-0.0078845723 -0.066936009 0.81160015
0.033985715 -0.065652385 0.81100005
0.037459046 -0.068354286 0.81099999
-0.0069714296 -0.063775241 0.81333339
-0.0027023812 -0.061366193 0.81050003
0.028613335 -0.061093338 0.81200004
0.031726196 -0.063064292 0.81250006
0.0025135716 -0.058209285 0.81225008
0.018514287 -0.05631429 0.81000006
-0.014023811 -0.07089334 0.81800008
-0.011399684 -0.067612067 0.8160001
0.036570478 -0.066138096 0.81700003
