# .PCD v0.7 - Point Cloud Data file format
VERSION 0.7
FIELDS x y z
SIZE 4 4 4
TYPE F F F
COUNT 1 1 1
WIDTH 776
HEIGHT 1
VIEWPOINT 0 0 0 1 0 0 0
POINTS 776
DATA ascii
0.14909144 -0.19560286 0.66900003
0.13236643 -0.19130215 0.66900009
0.13771389 -0.19105186 0.66900009
0.14272001 -0.19152516 0.66900009
0.14793633 -0.19233498 0.66871434
0.15100287 -0.19241716 0.66900003
0.12875296 -0.18759069 0.66860008
0.13245355 -0.18712567 0.66635716
0.13746801 -0.18735527 0.66640002
0.14254031 -0.18732944 0.66746163
0.14773108 -0.18742788 0.66825002
0.15077716 -0.1876781 0.66800004
0.12914667 -0.1844943 0.66800004
0.1325188 -0.18286119 0.667647
0.13737647 -0.18252888 0.66779995
0.14190124 -0.18298708 0.66814291
0.1475563 -0.18364795 0.66877788
0.15055144 -0.1848543 0.66700006
0.13698572 -0.17903715 0.66900003
0.12838401 -0.20057602 0.67200005
0.13201843 -0.20134413 0.67400002
0.13757965 -0.20243724 0.6723572
0.14198147 -0.20149048 0.67130768
0.14641398 -0.20012128 0.67133331
0.12470715 -0.19697383 0.67150003
0.12788914 -0.19758898 0.67141664
0.13269658 -0.1975743 0.67179996
0.137335 -0.19768691 0.67175001
0.14204201 -0.19758177 0.671
0.14655374 -0.19740728 0.67080003
0.12390608 -0.19288489 0.67062503
0.12766668 -0.19277738 0.67025006
0.13290823 -0.19385774 0.67012507
0.13784912 -0.19389738 0.67044449
0.14293334 -0.19419366 0.67000002
0.14612383 -0.19461906 0.67000002
0.12334873 -0.18775812 0.67215395
0.12674449 -0.18762772 0.67010009
0.12413049 -0.18373811 0.67300004
0.12736502 -0.18237896 0.67168415
0.13123493 -0.18100636 0.67000002
0.14433716 -0.18160193 0.67000002
0.14806563 -0.18125275 0.67012501
0.12901191 -0.17899382 0.67283338
0.13255179 -0.1780163 0.67237496
0.1375902 -0.17731886 0.6715883
0.14223392 -0.17699024 0.67172223
0.14704913 -0.17823075 0.67214286
0.15047462 -0.17864668 0.67233342
0.13435715 -0.20507145 0.67500001
0.1338823 -0.20281754 0.67520005
0.13607144 -0.20335716 0.67500007
0.12124954 -0.18605906 0.67600006
0.12229025 -0.18252377 0.67641675
0.12535715 -0.18064287 0.67500001
0.12440095 -0.17839716 0.67820007
0.12710634 -0.17726882 0.67650008
0.13242859 -0.17550001 0.67500001
0.13628572 -0.17550001 0.67500001
0.14802973 -0.17606631 0.67519999
0.15079145 -0.17610192 0.67566675
0.12839492 -0.17389674 0.67822224
0.13288656 -0.1725198 0.67733335
0.13752086 -0.17227559 0.67722219
0.14234509 -0.17232543 0.67663157
0.14741743 -0.17310885 0.67754555
0.15109716 -0.17304906 0.67800003
0.13386001 -0.16878001 0.67900002
0.13515334 -0.16878001 0.67900002
0.12153652 -0.18111748 0.68000001
0.12274699 -0.17747113 0.68133342
0.12387144 -0.17278089 0.68227279
0.12719354 -0.17171143 0.6814
0.13060318 -0.17075557 0.68000001
0.14377144 -0.17032382 0.68000001
0.1480889 -0.17075557 0.68000001
0.15154287 -0.17032382 0.68000001
0.12368144 -0.16924715 0.68350005
0.12752973 -0.16878229 0.68320006
0.13256785 -0.16774324 0.68207699
0.13764137 -0.16750436 0.6817143
0.14241855 -0.16761832 0.68200016
0.14745507 -0.16774473 0.68286669
0.15117906 -0.16775835 0.68274999
0.13875429 -0.16481143 0.68400002
0.14238125 -0.16361476 0.68390006
0.14765716 -0.16394287 0.68400002
0.15100116 -0.16376916 0.68400002
0.12840687 -0.16715391 0.68720001
0.13185224 -0.16606715 0.68650007
0.13661239 -0.16537367 0.68633342
0.14700001 -0.16529335 0.68600005
0.13357002 -0.16434525 0.6875
0.13724929 -0.16339287 0.68625003
0.14046668 -0.16333336 0.68600005
0.14765334 -0.16333336 0.68600005
0.13208573 -0.16625716 0.69000006
0.13208573 -0.16494286 0.69000006
0.1240381 -0.16024382 0.70400006
0.12587048 -0.16001619 0.70300001
0.12390453 -0.15773073 0.70325005
0.12670425 -0.15699038 0.70144451
0.13018572 -0.15555525 0.70100003
0.12484477 -0.15288477 0.70100009
0.12739289 -0.152162 0.70146167
0.13179444 -0.15190232 0.70042861
0.14884573 -0.15085715 0.70400006
0.12386192 -0.14930382 0.70300001
0.1281381 -0.14823668 0.70350003
0.13245633 -0.14745672 0.7031334
0.1368389 -0.14621383 0.70316672
0.14884573 -0.1495162 0.70400006
0.12940191 -0.14415239 0.70400006
0.13267562 -0.14276707 0.70276928
0.13699107 -0.14201394 0.70337504
0.1330581 -0.13810632 0.70315385
0.13695483 -0.13769872 0.70300001
0.13390477 -0.13457429 0.70300001
0.13591334 -0.13457429 0.70300001
0.12204573 -0.16520001 0.708
0.12252998 -0.16270302 0.70661533
0.12555715 -0.16248572 0.70500004
0.11867429 -0.15980573 0.708
0.12217012 -0.1571795 0.70692307
0.15362859 -0.15093382 0.70749998
0.15778287 -0.15104 0.70800006
0.16182858 -0.15104002 0.708
0.12327705 -0.1475289 0.70733339
0.12700215 -0.14718643 0.70650005
0.14234287 -0.14570001 0.70500004
0.14808303 -0.14718398 0.70783329
0.15220527 -0.14774668 0.70738465
0.15759897 -0.14779118 0.70800012
0.16196345 -0.1479383 0.708
0.12384382 -0.1440724 0.70800006
0.12714396 -0.14389172 0.70742857
0.13898572 -0.1430143 0.7050001
0.14244358 -0.14244334 0.70549995
0.1476393 -0.14298618 0.70727283
0.15226841 -0.14283507 0.70743752
0.1564343 -0.14362286 0.70800006
0.14226307 -0.13876249 0.70660007
0.14852265 -0.1384193 0.70725
0.15220955 -0.1380662 0.70716661
0.13890287 -0.13013715 0.708
0.15193906 -0.1328343 0.70800006
0.13418287 -0.12744001 0.70800006
0.13752207 -0.12740985 0.70783341
0.14092574 -0.12744001 0.70800006
0.15036573 -0.12744001 0.708
0.13418287 -0.12474287 0.708
0.13784328 -0.12416492 0.70800006
0.14092572 -0.12474287 0.708
0.11900952 -0.1629619 0.71000004
0.1192122 -0.15791126 0.71040004
0.11815429 -0.15074858 0.71300006
0.12019144 -0.15006953 0.71300006
0.1142762 -0.14605716 0.71000004
0.11787763 -0.14701034 0.71133339
0.1210381 -0.14740953 0.71000004
0.16093335 -0.14605716 0.71000004
0.11798953 -0.14375621 0.71200001
0.12120667 -0.1435543 0.71100008
0.12807737 -0.1324545 0.71322232
0.13156268 -0.13210438 0.71280003
0.14306501 -0.1308893 0.71025002
0.14548334 -0.13127382 0.7105
0.1529543 -0.13104574 0.71000004
0.15807962 -0.13143812 0.71360004
0.162248 -0.13205601 0.71400005
0.12797602 -0.128112 0.71400017
0.13234045 -0.12752505 0.71327287
0.14342847 -0.12719059 0.71037501
0.14778532 -0.12744769 0.71181262
0.15257853 -0.12732191 0.71145457
0.15773275 -0.12781788 0.71387506
0.16184001 -0.12852001 0.71400011
0.12852 -0.1224 0.71400017
0.13293049 -0.12234077 0.71286684
0.13742691 -0.12150343 0.71141672
0.1427345 -0.12189817 0.71221441
0.14774016 -0.12242135 0.71300018
0.15235177 -0.12199708 0.7127859
0.15713882 -0.12269692 0.71375012
0.12920001 -0.11900001 0.71400005
0.13260001 -0.11832001 0.71400011
0.13723177 -0.11752953 0.71333349
0.14220519 -0.11788689 0.71366674
0.14824001 -0.11900001 0.71400005
0.15232001 -0.11854668 0.71400011
0.15572001 -0.11900001 0.71400005
0.13804001 -0.11492001 0.71400005
0.14212 -0.11492001 0.71400005
0.12478858 -0.13024382 0.71600002
0.12888001 -0.13092571 0.71600002
0.16433907 -0.13092571 0.71600002
0.16794801 -0.13126458 0.71860009
0.11983334 -0.12942001 0.71900004
0.12292676 -0.12748533 0.71775007
0.12778898 -0.12724344 0.71600002
0.16348787 -0.12730882 0.71675003
0.16654931 -0.12728965 0.71899998
0.12349166 -0.12307202 0.71761543
0.1261524 -0.12274286 0.71600002
0.15888382 -0.12069715 0.71600002
0.16183792 -0.12291314 0.71700001
0.16502763 -0.12325715 0.71900004
0.12348541 -0.11937684 0.71900004
0.1274154 -0.11784208 0.71800005
0.13220498 -0.11627652 0.7167778
0.13706288 -0.11524191 0.71600002
0.14297271 -0.11569652 0.71600002
0.14731804 -0.11687759 0.71638465
0.15261398 -0.11652593 0.71644449
0.15727906 -0.1178358 0.7175715
0.16091906 -0.11983334 0.71900004
0.13261557 -0.11435525 0.71900004
0.1375089 -0.11356445 0.71833342
0.14238071 -0.11363073 0.71875
0.14790858 -0.11367049 0.71899998
0.15133239 -0.11367048 0.71900004
0.11499144 -0.13151716 0.72300005
0.11711548 -0.1315431 0.72125006
0.16662858 -0.13234286 0.72000003
0.17190477 -0.13133524 0.72200006
0.11499143 -0.12876287 0.72300005
0.11750017 -0.12780732 0.7215001
0.12 -0.12685715 0.72000003
0.16909716 -0.12713143 0.72000003
0.17142858 -0.12754285 0.72000003
0.11817731 -0.12368461 0.7228334
0.12080259 -0.1219792 0.72128588
0.16411334 -0.12085239 0.72100008
0.16780791 -0.12200464 0.72085732
0.17142859 -0.12274288 0.72000003
0.1233922 -0.11789048 0.7222001
0.12594287 -0.11634286 0.72000003
0.15876542 -0.11706826 0.72166675
0.16198343 -0.11836735 0.72200006
0.16732287 -0.11912286 0.72300005
0.17155604 -0.11910366 0.7215001
0.12463143 -0.11499143 0.72300005
0.12817395 -0.11391227 0.72162503
0.13255103 -0.11230181 0.72181833
0.1370836 -0.11145059 0.72088891
0.14272667 -0.11116239 0.72050011
0.1474286 -0.11108573 0.72000003
0.15279257 -0.11207699 0.72050011
0.15711543 -0.11399414 0.72250009
0.13840288 -0.10948287 0.72300005
0.14273071 -0.109025 0.7222501
0.14694272 -0.10880613 0.72242868
0.15206954 -0.10906286 0.72250009
0.10862001 -0.13704668 0.72800004
0.11216389 -0.13706374 0.72625005
0.11276572 -0.13285145 0.72716677
0.11530953 -0.13464287 0.72500002
0.11286867 -0.12741217 0.72708333
0.11530953 -0.12704763 0.72500002
0.11338601 -0.12289348 0.72785723
0.11675429 -0.12228154 0.72539997
0.11440001 -0.11994667 0.72800004
0.11811356 -0.11811356 0.72723085
0.12200022 -0.1169325 0.72555554
0.16309716 -0.11649653 0.72666669
0.16681753 -0.11789181 0.72560006
0.17146826 -0.11761113 0.72500008
0.1232097 -0.1135008 0.72816676
0.1265301 -0.11214858 0.72599995
0.1305 -0.11116667 0.72500002
0.15856762 -0.11200953 0.72600007
0.16183835 -0.11280048 0.72775006
0.12847652 -0.10861429 0.72744447
0.13260064 -0.10817409 0.72678578
0.13725296 -0.10746898 0.7272501
0.1423524 -0.10712399 0.72654551
0.1478143 -0.10687961 0.72671437
0.15225503 -0.1073912 0.72750002
0.15647858 -0.10939477 0.727
0.14580001 -0.10483715 0.72900003
0.10721334 -0.13575715 0.73100001
0.10778559 -0.13222615 0.73161548
0.1106943 -0.13158001 0.73100007
0.1078169 -0.1274654 0.73209095
0.1106943 -0.12740287 0.73100007
0.10913145 -0.12338363 0.73360008
0.1118118 -0.12227775 0.73262501
0.11487143 -0.11904858 0.73100001
0.11686641 -0.1164675 0.7322858
0.1682456 -0.11630872 0.73128575
0.17117029 -0.11657371 0.73119998
0.11953715 -0.11324573 0.73400003
0.12211747 -0.11236 0.73177779
0.16406192 -0.11192935 0.73180002
0.16773501 -0.11243439 0.73245466
0.1710308 -0.11347906 0.73100007
0.12478858 -0.10945144 0.73200005
0.1268497 -0.10780017 0.73183334
0.13236573 -0.10519667 0.73150003
0.13784572 -0.10512477 0.73100001
0.14271906 -0.10512477 0.73100007
0.14908716 -0.10519667 0.73150003
0.15297025 -0.10558072 0.73175007
0.15714762 -0.10712232 0.73242867
0.16086732 -0.10871874 0.73333335
0.16847049 -0.10975049 0.73400009
0.13310318 -0.10355018 0.73300004
0.13746256 -0.10326986 0.73266667
0.14233752 -0.10326442 0.73262507
0.14732191 -0.10303691 0.73225003
0.15225399 -0.10336446 0.73333335
0.11132763 -0.1204581 0.73750001
0.11417501 -0.11874119 0.73775005
0.11659382 -0.11589286 0.73750007
0.11779144 -0.11357652 0.73766679
0.12163445 -0.11064176 0.73683345
0.16413477 -0.11012429 0.73650002
0.16612573 -0.11004953 0.73600006
0.12335096 -0.10859096 0.73800004
0.12724844 -0.10643128 0.73683333
0.1592243 -0.10661668 0.73650002
0.16263622 -0.10745335 0.73742861
0.16786383 -0.10792406 0.73824996
0.17056286 -0.10809334 0.73700005
0.12857786 -0.10433834 0.73775005
0.13246562 -0.10207178 0.73787504
0.1373513 -0.1012321 0.73742872
0.14219552 -0.10105129 0.73757154
0.14741443 -0.10091484 0.73657149
0.15215583 -0.10129601 0.73760003
0.15737669 -0.10327687 0.73769999
0.16117239 -0.10486762 0.73900002
0.11332651 -0.11756875 0.7421667
0.11518668 -0.11518668 0.74200004
0.11789405 -0.11189263 0.74125004
0.11942668 -0.10953334 0.74200004
0.12217095 -0.10781032 0.74150008
0.12549368 -0.10571715 0.74166673
0.16388765 -0.10557397 0.74066675
0.16736715 -0.10592715 0.74150008
0.12757418 -0.10266013 0.74212509
0.13108701 -0.10143238 0.74133337
0.15434286 -0.10078096 0.74000001
0.15751652 -0.10100794 0.74166673
0.1621716 -0.10300684 0.74250007
0.16770573 -0.1036662 0.74300003
0.12949429 -0.099774294 0.74300003
0.13276237 -0.099572867 0.74150008
0.13801548 -0.099185482 0.74125004
0.14262536 -0.09884917 0.74137503
0.14737049 -0.098056965 0.74180001
0.15239675 -0.099071845 0.74228579
0.11375096 -0.11588524 0.74650002
0.11469334 -0.11469334 0.74800003
0.11655691 -0.11300262 0.74625009
0.11872905 -0.10948524 0.74650002
0.12183925 -0.10705563 0.74640006
0.12406345 -0.1035522 0.74780005
0.12672906 -0.10114621 0.74616671
0.1575143 -0.10004286 0.74500006
0.16250059 -0.10136687 0.74640006
0.16636288 -0.10237572 0.74650002
0.12894095 -0.099020958 0.74800003
0.13247065 -0.097558111 0.74672729
0.13740535 -0.097334109 0.74600011
0.14242655 -0.096540824 0.74614292
0.14758097 -0.095785722 0.74500006
0.1527524 -0.096623823 0.74600005
0.15687987 -0.097705454 0.7472859
0.13820192 -0.094746672 0.74800003
0.1424762 -0.094746672 0.74800003
0.14746287 -0.094746672 0.74800003
0.15244953 -0.094746672 0.74800003
0.11357144 -0.11500001 0.75000006
0.11402572 -0.11402572 0.75300002
0.11634073 -0.11240549 0.75175005
0.11812574 -0.10810287 0.75171435
0.12163073 -0.10588929 0.75125003
0.12281982 -0.10275657 0.7524001
0.12500001 -0.10071429 0.75000006
0.16357143 -0.10071429 0.75000006
0.16702096 -0.10107239 0.75266671
0.12803811 -0.097958103 0.75200009
0.13196096 -0.095483817 0.75100005
0.13571429 -0.095000006 0.75000006
0.15842859 -0.095857151 0.75000006
0.16243207 -0.097314611 0.75133336
0.16590287 -0.097935252 0.75280005
0.13356827 -0.093426041 0.75266671
0.1375536 -0.092418335 0.75225008
0.14245874 -0.092345715 0.75166661
0.14717029 -0.092624001 0.75160009
0.15218134 -0.093197338 0.75160003
0.15766668 -0.093166187 0.7525
0.16237929 -0.093555957 0.75275004
0.16637716 -0.093945719 0.75300002
0.13984287 -0.08964286 0.75300002
0.11442953 -0.11155017 0.75566673
0.11624604 -0.11097302 0.75500005
0.11716477 -0.10707601 0.75660002
0.12008096 -0.10570001 0.75500005
0.11911429 -0.10395429 0.75800002
0.12182192 -0.10166445 0.75588894
0.17136002 -0.10008001 0.75600004
0.12440826 -0.098419689 0.75800008
0.12687573 -0.096655719 0.75550008
0.16848749 -0.097555526 0.75557154
0.17166224 -0.09737017 0.7573334
0.12808858 -0.093482867 0.75700009
0.1317433 -0.092081994 0.75590914
0.14884287 -0.091319054 0.75500005
0.1529105 -0.091630869 0.75520009
0.15768002 -0.091440007 0.75600004
0.16234365 -0.091633536 0.75760001
0.16920002 -0.094320007 0.75600004
0.13427697 -0.08898782 0.75720006
0.13770054 -0.088066064 0.75627279
0.14257315 -0.087846331 0.75607151
0.14729534 -0.088087022 0.75645459
0.15225863 -0.08898329 0.75688887
0.15750585 -0.089311026 0.7571429
0.11653334 -0.10640001 0.76000005
0.11807049 -0.10316709 0.76057154
0.12103525 -0.10074191 0.76100004
0.11990001 -0.099553339 0.76300001
0.12225772 -0.097167626 0.76140004
0.12521906 -0.096266672 0.76000005
0.12393429 -0.094943814 0.76100004
0.12731838 -0.092510492 0.76142865
0.1637962 -0.090595245 0.76100004
0.16692744 -0.092672199 0.76140004
0.12973239 -0.08914572 0.76100004
0.1324781 -0.087108232 0.76163644
0.1360762 -0.086133339 0.76000005
0.14910477 -0.086133339 0.76000005
0.15313643 -0.08652357 0.76025003
0.15758489 -0.086497508 0.76162505
0.1621142 -0.087713555 0.7625556
0.13761334 -0.084741436 0.76050007
0.1431063 -0.084238105 0.76120001
0.14725588 -0.084144771 0.76166672
0.1523415 -0.083952069 0.76211113
0.15582383 -0.084797151 0.76100004
0.11802858 -0.10127144 0.76500005
0.11813267 -0.097940825 0.76500005
0.1202143 -0.096900009 0.76500005
0.12321557 -0.093040325 0.76655561
0.12652859 -0.091557145 0.76500005
0.16893241 -0.092122227 0.76566672
0.17020096 -0.091309533 0.76700002
0.1281016 -0.088185407 0.76666671
0.13090001 -0.085728578 0.76500005
0.16344288 -0.085728578 0.76500005
0.16664732 -0.088066667 0.76633334
0.17020096 -0.089848578 0.76700002
0.13338344 -0.083420001 0.76700002
0.13734841 -0.082302175 0.76600009
0.14258249 -0.082079433 0.76539999
0.14790002 -0.08160001 0.76500005
0.15235181 -0.081496589 0.76540005
0.157536 -0.082413532 0.7658
0.1621463 -0.083192766 0.7676
0.13860571 -0.079360008 0.76800001
0.14278422 -0.078651167 0.76771438
0.14768445 -0.078228258 0.7676667
0.15231495 -0.078715876 0.7676667
0.15652573 -0.07972572 0.76800001
0.1223642 -0.091514669 0.77120006
0.12540001 -0.090200007 0.77000004
0.12400787 -0.08794596 0.77275002
0.12648636 -0.0868527 0.77066672
0.16890135 -0.087017909 0.77040005
0.17204574 -0.087493345 0.77200001
0.12828699 -0.084134609 0.77266669
0.13171963 -0.082177535 0.77179998
0.16324325 -0.081252769 0.77140003
0.16658501 -0.083475955 0.77225006
0.17153239 -0.084661916 0.77300012
0.13418049 -0.078669049 0.77200007
0.13723508 -0.0774322 0.77139997
0.14200437 -0.076189935 0.77028579
0.14740001 -0.075533345 0.7700001
0.1530886 -0.076543808 0.77033341
0.15763934 -0.077422574 0.77130002
0.16091287 -0.079352863 0.77150005
0.13914001 -0.074355245 0.77300006
0.14263502 -0.073523335 0.77199996
0.14748876 -0.072640002 0.77200001
0.15203559 -0.072983213 0.77212501
0.155827 -0.073864453 0.77300012
0.1207562 -0.091951437 0.77550006
0.12254763 -0.087190248 0.77750003
0.12431811 -0.084358096 0.77700007
0.12718175 -0.082388498 0.77681822
0.13064286 -0.080452383 0.77500004
0.16803117 -0.081747353 0.77528584
0.17207526 -0.081974722 0.77544445
0.17538001 -0.080660008 0.77700001
0.12917314 -0.078156009 0.77860004
0.13227406 -0.077513576 0.77700001
0.13507144 -0.076023817 0.77500004
0.16254656 -0.077317156 0.77528578
0.16760457 -0.077799626 0.77800006
0.17218231 -0.078452766 0.77860004
0.17583144 -0.079383813 0.77900004
0.13379017 -0.07443779 0.77900004
0.13751543 -0.072888426 0.77700013
0.14229104 -0.070880964 0.77642864
0.14771287 -0.070164293 0.77550006
0.15335287 -0.070578583 0.77600002
0.15775478 -0.072125003 0.77675003
0.16202734 -0.073763132 0.77785724
0.16618669 -0.074932389 0.77900004
0.14244571 -0.068997145 0.77900004
0.14800668 -0.067948893 0.77833337
0.15142667 -0.068493336 0.77749997
0.15654191 -0.068997145 0.77900004
0.12021334 -0.090346672 0.78400004
0.12086763 -0.087770477 0.78100002
0.12366795 -0.082526356 0.78066671
0.12554286 -0.080971435 0.78000003
0.12469334 -0.079146668 0.78400004
0.12718752 -0.077371225 0.78200006
0.13074286 -0.075028576 0.78000003
0.16884477 -0.075867623 0.78100002
0.17284344 -0.076668955 0.78160006
0.17605716 -0.078000002 0.78000003
0.12867557 -0.073422223 0.7840001
0.13242443 -0.072138704 0.78236371
0.13668573 -0.07057143 0.78000003
0.1597143 -0.07057143 0.78000003
0.16315047 -0.071238101 0.78080004
0.16714698 -0.072767943 0.78233337
0.17098668 -0.073920004 0.78400004
0.13315557 -0.068942234 0.7840001
0.13739708 -0.067986846 0.78290915
0.14246613 -0.067035928 0.78085721
0.14643572 -0.066528097 0.78049999
0.15273982 -0.066776387 0.78080004
0.15714669 -0.067027949 0.78200006
0.16139176 -0.068385407 0.78333342
0.16576001 -0.069440007 0.78400004
0.13962668 -0.064960003 0.78400004
0.14253207 -0.063429847 0.78355557
0.14742893 -0.063512743 0.78290915
0.15222986 -0.063227512 0.7831111
0.15724802 -0.064362668 0.78400004
0.11927526 -0.08776667 0.78766674
0.12067334 -0.08694382 0.78700006
0.12299254 -0.082245044 0.78814292
0.12398572 -0.078148574 0.78900003
0.1255105 -0.076104775 0.78600001
0.17441715 -0.07560572 0.78600001
0.17688763 -0.076450482 0.78700006
0.12700263 -0.072493576 0.78675008
0.16942668 -0.071613342 0.78600001
0.17254117 -0.072403245 0.78700006
0.17658573 -0.073640004 0.78900003
0.12902097 -0.068317018 0.78828585
0.13229451 -0.066854075 0.78677779
0.13661429 -0.065500006 0.78600001
0.16293906 -0.066123813 0.78600001
0.16740106 -0.067048669 0.78750008
0.1720051 -0.069853336 0.78866673
0.13400477 -0.063370481 0.78900003
0.13778563 -0.062381823 0.78745461
0.14231764 -0.060672861 0.78650004
0.1474686 -0.060634293 0.78600001
0.15345715 -0.061233144 0.78600001
0.1583347 -0.061769798 0.78685725
0.16280849 -0.062271118 0.78777778
0.16649652 -0.063343495 0.78866673
0.13901429 -0.059362862 0.78900003
0.14263257 -0.058269423 0.78777778
0.14750573 -0.05762 0.78780007
0.15234733 -0.057785194 0.78800005
0.15666878 -0.058731623 0.78860009
0.16080573 -0.059362862 0.78900003
0.14803146 -0.054854289 0.78900003
0.15178859 -0.054854289 0.78900003
0.11842287 -0.085987628 0.79200006
0.12068477 -0.085234292 0.79200006
0.12068477 -0.082217149 0.79200006
0.12227852 -0.077893756 0.79185712
0.12415811 -0.07358858 0.79250002
0.12596571 -0.070901908 0.79200006
0.17710859 -0.070842862 0.79133338
0.18050192 -0.070237145 0.79300004
0.12772477 -0.06713143 0.79200006
0.17217164 -0.067751043 0.79220003
0.12864225 -0.063691758 0.7930001
0.13211103 -0.062243707 0.79166669
0.16809954 -0.062188573 0.79149997
0.13302596 -0.058304526 0.79250008
0.13727908 -0.057001092 0.79200011
0.14162669 -0.056500003 0.79100001
0.15782335 -0.056876671 0.79100001
0.16256444 -0.057112128 0.79190916
0.16640413 -0.058656834 0.7930001
0.13820858 -0.053621911 0.7930001
0.14274834 -0.053741671 0.79200006
0.14761411 -0.052772392 0.79160005
0.15292963 -0.052163381 0.79172736
0.15753488 -0.053264577 0.79220009
0.16136922 -0.053118419 0.7930001
0.1169662 -0.085826196 0.79750001
0.11476 -0.082080007 0.79800004
0.11756848 -0.082678534 0.79644454
0.11476 -0.079800002 0.79800004
0.11784338 -0.077664331 0.79736364
0.12084 -0.07651858 0.79550004
0.11856 -0.073720008 0.79800004
0.12258353 -0.072367154 0.79650003
0.12346119 -0.067998342 0.79775006
0.12581791 -0.067234293 0.79680002
0.17360382 -0.066711433 0.796
0.17738922 -0.067563809 0.79711103
0.18134874 -0.067118898 0.79783338
0.12729515 -0.06228086 0.79750001
0.17267327 -0.06226448 0.79730004
0.17664573 -0.063297153 0.79800004
0.18012001 -0.064600006 0.79800004
0.12949316 -0.057837911 0.79700005
0.13165735 -0.056510668 0.79540008
0.16786644 -0.056839287 0.79575002
0.17147097 -0.057747465 0.79783338
0.12996002 -0.053960003 0.79800004
0.13316953 -0.053297907 0.79720008
0.13709688 -0.051911023 0.79657149
0.14210621 -0.051329058 0.79650009
0.14688572 -0.050728574 0.79500002
0.15900001 -0.050728574 0.79500002
0.16356383 -0.05182318 0.79633343
0.16778588 -0.053143971 0.79716671
0.13908 -0.049400002 0.79800004
0.14284968 -0.048883017 0.79783338
0.14763254 -0.048487213 0.79728574
0.15247285 -0.047977861 0.79649997
0.15702525 -0.048547786 0.79650009
0.1607997 -0.048872702 0.79766673
0.11380763 -0.076380953 0.80200005
0.11542858 -0.076571435 0.80000001
0.11770549 -0.072303101 0.80125004
0.12114286 -0.070857145 0.80000001
0.11900477 -0.069420002 0.801
0.12144381 -0.067213818 0.80199999
0.12337863 -0.062664129 0.80133337
0.12571429 -0.060952388 0.80000001
0.17813335 -0.061104771 0.80000001
0.1822338 -0.062268406 0.80000013
0.12435096 -0.057774767 0.80350006
0.12720525 -0.057022385 0.801
0.17409526 -0.056761906 0.80000001
0.17752382 -0.057142861 0.80000007
0.18107937 -0.058158737 0.80000007
0.12805258 -0.053699054 0.80319995
0.13248496 -0.05168267 0.80039996
0.16761905 -0.051047623 0.80000001
0.17277947 -0.052671533 0.80155557
0.1779689 -0.053466037 0.80200005
0.1338889 -0.048198737 0.8033334
0.13736179 -0.04731252 0.8012858
0.14208637 -0.046259686 0.80066675
0.14704764 -0.046476196 0.80000007
0.15123621 -0.046005718 0.80066669
0.1575665 -0.045911621 0.80080003
0.16277222 -0.046612959 0.80240005
0.16711621 -0.048571978 0.80228579
0.13918573 -0.043591432 0.80300003
0.14277357 -0.04300262 0.80274999
0.14734288 -0.042997926 0.80236375
0.15250605 -0.043534607 0.80200011
0.15690699 -0.042861905 0.80366671
0.16080001 -0.043645717 0.80400002
0.11465906 -0.073874295 0.80800003
0.1161981 -0.073104769 0.80800003
0.11835968 -0.067633331 0.8070001
0.1205162 -0.065247625 0.80600005
0.11850667 -0.062331434 0.80800003
0.12113029 -0.061870098 0.80600005
0.12218014 -0.057632659 0.80685729
0.12374001 -0.053799052 0.80700004
0.12701842 -0.052496515 0.80666679
0.1306562 -0.050724767 0.80700004
0.17468192 -0.050019052 0.80800003
0.1771562 -0.051109526 0.80700004
0.18083811 -0.0515581 0.80800003
0.13226053 -0.047729734 0.806889
0.13586858 -0.045289528 0.80600005
0.1677359 -0.045838736 0.80666673
0.17142124 -0.047987763 0.80714297
0.13450001 -0.04303905 0.80700004
0.13729668 -0.042052381 0.80650014
0.14200954 -0.040683813 0.80600011
0.14738287 -0.040683813 0.80600005
0.1527562 -0.040683813 0.80600011
0.15736191 -0.040683813 0.80600011
0.16235921 -0.041823678 0.80685729
0.16659077 -0.042717554 0.80714297
0.14236191 -0.039245717 0.80800003
0.14756477 -0.03868413 0.8070001
0.15224001 -0.038443815 0.80733341
0.15775239 -0.039245717 0.80800003
0.16083048 -0.039245717 0.80800003
0.11494286 -0.070971429 0.81000006
0.11648572 -0.070971429 0.81000006
0.11494286 -0.068657145 0.81000006
0.11665753 -0.066904388 0.81120008
0.11648573 -0.062485717 0.81000012
0.11833715 -0.058782864 0.81000006
0.12111429 -0.05631429 0.81000006
0.12304655 -0.05295347 0.81257159
0.12697762 -0.050559524 0.81050009
0.17897144 -0.050142862 0.81000006
0.11861144 -0.045739051 0.81400001
0.12481334 -0.048840005 0.81400001
0.12783168 -0.047379766 0.81225002
0.13099302 -0.046066038 0.81066674
0.17334287 -0.046104766 0.81133336
0.17695501 -0.047379293 0.81225014
0.18040858 -0.048004765 0.81300002
0.12946478 -0.044188574 0.81400001
0.13247214 -0.042739287 0.81225002
0.13500001 -0.040885717 0.81000006
0.16817144 -0.040885717 0.81000006
0.17226191 -0.042725716 0.81200004
0.17597906 -0.043413334 0.81400001
0.1341162 -0.039537147 0.81400001
0.13799644 -0.03846024 0.81175005
0.14267294 -0.037021775 0.81228584
0.14723001 -0.036710005 0.81150001
0.15197144 -0.036257144 0.81000012
0.15720654 -0.037177145 0.81085724
0.16258524 -0.037651908 0.81099999
0.16748954 -0.038360819 0.81257147
0.17132764 -0.039537147 0.81400001
0.14341907 -0.034885716 0.81400001
0.1480705 -0.034885716 0.81400001
0.1524705 -0.034828573 0.81266677
0.15737334 -0.034885716 0.81400001
0.16202478 -0.034885716 0.81400001
0.12060477 -0.056020956 0.81700003
0.12184744 -0.05182267 0.81700003
0.12306212 -0.047239684 0.81611115
0.12651905 -0.04579524 0.81500006
0.17930001 -0.04579524 0.81500006
0.1808524 -0.04579524 0.81500006
0.12371715 -0.044351432 0.81700003
0.12772648 -0.042747833 0.81611115
0.1311762 -0.041138098 0.81500006
0.17464288 -0.041138098 0.81500006
0.1780581 -0.043000955 0.81500006
0.13270165 -0.038597424 0.81757152
0.13672172 -0.036239814 0.81660002
0.16753493 -0.035992067 0.81566668
0.17224096 -0.038101431 0.81650001
0.17507143 -0.039682861 0.81700003
0.13910857 -0.034193337 0.81600004
0.14239103 -0.03241894 0.81700003
0.14678572 -0.032333743 0.81671435
0.15222463 -0.03280123 0.81728584
0.15745185 -0.032556053 0.81671435
0.16164668 -0.033417143 0.81600004
0.16532858 -0.034928575 0.81500006
0.11884953 -0.056297146 0.82100004
0.11844239 -0.052662387 0.82225001
0.12119525 -0.050823811 0.82100004
0.11911017 -0.048738733 0.82100004
0.12119525 -0.047696196 0.82100004
0.12331106 -0.043402102 0.82260007
0.12604001 -0.042273335 0.82200003
0.12817875 -0.038897462 0.82233334
0.13196397 -0.036314972 0.82128584
0.13526954 -0.035185717 0.82100004
0.12358144 -0.041323815 0.82650006
0.12492858 -0.038500004 0.82500005
