# .PCD v0.7 - Point Cloud Data file format
VERSION 0.7
FIELDS x y z rgb
SIZE 4 4 4 4
TYPE F F F F
COUNT 1 1 1 1
WIDTH 814
HEIGHT 1
VIEWPOINT 0 0 0 1 0 0 0
POINTS 814
DATA ascii
-0.021936191 -0.25545049 0.74300003 7.1176069e-39
-0.012737144 -0.25545049 0.74300003 7.3023541e-39
-0.026889525 -0.25120479 0.74300003 7.027565e-39
-0.022643812 -0.25120479 0.74300003 7.3938308e-39
-0.018398097 -0.25120479 0.74300003 7.3913197e-39
-0.0126684 -0.25239897 0.74272728 6.8417417e-39
-0.0082465094 -0.25186589 0.7421667 6.469348e-39
-0.02706643 -0.24784361 0.74300003 6.0998816e-39
-0.022641726 -0.24764563 0.74293756 5.9162121e-39
-0.017680876 -0.24752831 0.74258339 6.1935122e-39
-0.012578033 -0.24747492 0.74199998 5.4552409e-39
-0.0077774613 -0.24744445 0.74233335 4.6258166e-39
-0.026181906 -0.24412858 0.74300003 4.8088051e-39
-0.022450825 -0.24284203 0.74300003 4.2570733e-39
-0.017685398 -0.24264033 0.74277782 4.254202e-39
-0.012881906 -0.2426028 0.74199992 4.0719673e-39
-0.0077803177 -0.24260384 0.74266672 3.3343813e-39
-0.0049511115 -0.24260382 0.74266672 7.1091837e-39
-0.021936193 -0.23917525 0.74300003 8.4022262e-39
-0.017690478 -0.23917525 0.74300003 4.0708799e-39
-0.012968573 -0.23886786 0.74277782 2.5039214e-39
-0.0077838106 -0.23988287 0.74300003 3.1514151e-39
-0.02759131 -0.25686297 0.74762505 7.4856663e-39
-0.023188192 -0.25618783 0.74680007 7.1172481e-39
-0.017797621 -0.2562862 0.74750012 7.116172e-39
-0.014900001 -0.25613812 0.74500006 7.3016366e-39
-0.032114819 -0.25179189 0.74566674 6.1949415e-39
-0.02828362 -0.25285658 0.74620003 7.1179656e-39
-0.022489209 -0.25399968 0.74566674 7.2090836e-39
-0.017383335 -0.25294524 0.74500006 7.2087249e-39
-0.013480953 -0.25471908 0.74500006 7.0257714e-39
-0.03628286 -0.24544287 0.74700004 6.7383805e-39
-0.032866944 -0.24740669 0.74557143 4.7194709e-39
-0.028617462 -0.24715082 0.74500006 5.7325411e-39
-0.03628286 -0.24402002 0.74700004 6.6461975e-39
-0.032524597 -0.24248505 0.74717659 3.6127843e-39
-0.027936909 -0.24242613 0.74575007 4.2559971e-39
-0.024833335 -0.24123812 0.74500006 6.2857064e-39
-0.027350342 -0.23841867 0.7472859 4.6254915e-39
-0.022909353 -0.23690209 0.74536371 4.4410988e-39
-0.017764131 -0.23662254 0.74611109 3.51986e-39
-0.01260329 -0.23663086 0.74654555 3.2418353e-39
-0.0078257145 -0.2383271 0.74700004 3.4272706e-39
-0.0049777781 -0.23822033 0.74666679 7.5690968e-39
-0.022521589 -0.23383103 0.74677789 3.7020806e-39
-0.018165715 -0.23401716 0.74800003 3.4229798e-39
-0.013060319 -0.23437336 0.74800003 3.7002925e-39
-0.03357143 -0.2407143 0.75000006 3.9826416e-39
-0.035839409 -0.23797204 0.75262511 4.8999007e-39
-0.032218814 -0.23769455 0.75174999 3.7968084e-39
-0.028072383 -0.23610994 0.7502858 3.6088284e-39
-0.012142858 -0.23500001 0.75000006 3.7006513e-39
-0.0071428572 -0.2357143 0.75000006 4.347387e-39
-0.035857148 -0.23450573 0.75300002 5.1754058e-39
-0.031547464 -0.23301956 0.75283337 3.7964384e-39
-0.02731055 -0.23228486 0.75178581 2.9663288e-39
-0.022153333 -0.23153111 0.75033343 3.2407535e-39
-0.017429287 -0.23206979 0.75208342 3.0567126e-39
-0.012647832 -0.23300977 0.75177783 3.2410997e-39
-0.0075971433 -0.23409429 0.75260007 4.440663e-39
-0.027000636 -0.22914478 0.75266671 3.9783102e-39
-0.022182224 -0.2289778 0.75133342 3.3329478e-39
-0.019337144 -0.22846478 0.75200003 3.2411067e-39
-0.035968259 -0.23235431 0.75533342 5.7282181e-39
-0.033090796 -0.23235428 0.75533342 4.2566935e-39
-0.015819049 -0.23081431 0.75500005 3.2418087e-39
-0.011864286 -0.23117384 0.75500005 2.782983e-39
-0.0069967103 -0.23220539 0.75527281 6.0972822e-39
-0.035686668 -0.22890097 0.75699997 6.0033322e-39
-0.032643542 -0.2289097 0.75685722 5.082843e-39
-0.027452817 -0.22714774 0.75672722 4.3470801e-39
-0.022155002 -0.2271286 0.75650001 4.0694268e-39
-0.017158795 -0.22767477 0.75700015 4.3456395e-39
-0.012249286 -0.22769374 0.75658339 3.7020596e-39
-0.0077978587 -0.22768407 0.75575006 6.2805833e-39
-0.028154287 -0.2237905 0.75800002 8.7619536e-39
-0.022379048 -0.2245124 0.75800002 7.6563753e-39
-0.015448763 -0.22277986 0.75800002 8.9517174e-39
-0.012272382 -0.22234669 0.75799996 1.0240273e-38
-0.0085150478 -0.22352763 0.75760001 1.0791987e-38
-0.015160001 -0.21873716 0.75800002 1.5036213e-38
-0.013716191 -0.21873716 0.75800002 1.5129849e-38
-0.031754289 -0.22720079 0.76120001 6.463576e-39
-0.027142858 -0.22546667 0.76000005 7.5652475e-39
-0.022920638 -0.22558734 0.76000011 6.9195446e-39
-0.018819049 -0.22510478 0.76000005 7.1024897e-39
-0.012304762 -0.22510478 0.76000005 7.4719448e-39
-0.0065228576 -0.22830002 0.76100004 9.1360512e-39
-0.026964659 -0.22240318 0.76066673 9.9601128e-39
-0.022447938 -0.22230636 0.76033348 7.7578559e-39
-0.018100744 -0.22227409 0.76022232 7.8460887e-39
-0.0094466675 -0.22090667 0.76300001 1.4117136e-38
-0.026108097 -0.21902144 0.7615 1.4574527e-38
-0.022281907 -0.21877143 0.76171434 1.5128052e-38
-0.018323269 -0.2185252 0.76085728 1.5588678e-38
-0.0072857146 -0.22512859 0.76500005 1.2544742e-38
-0.0065678572 -0.22228357 0.76650006 1.3746879e-38
-0.0036571431 -0.22162287 0.76800001 1.3650687e-38
-0.026185144 -0.21752687 0.76800007 1.6145458e-38
-0.022790002 -0.2164143 0.76574999 1.5960354e-38
-0.017506383 -0.21634714 0.76590002 1.6237301e-38
-0.026185144 -0.21284573 0.76800007 1.5498294e-38
-0.022667728 -0.21278371 0.7677778 1.4945501e-38
-0.017692192 -0.21302705 0.76760006 1.5129171e-38
-0.026087623 -0.20943241 0.76800001 1.6050393e-38
-0.022918098 -0.20894478 0.76800007 1.5867438e-38
-0.018285714 -0.20992002 0.76800001 1.5681257e-38
-0.0066000004 -0.22146669 0.77000004 1.4299357e-38
-0.032053471 -0.21617512 0.77242863 1.5775246e-38
-0.027866669 -0.21633334 0.77000004 1.5683056e-38
-0.036073335 -0.21128668 0.77300006 1.6143302e-38
-0.032347698 -0.21246108 0.77191663 1.5867427e-38
-0.028306669 -0.21281336 0.77000004 1.5774158e-38
-0.016866667 -0.21120003 0.77000004 1.5405033e-38
-0.013960477 -0.21161002 0.77150005 1.5221721e-38
-0.031457264 -0.20842442 0.77262509 1.6236936e-38
-0.027456004 -0.20701373 0.77079999 1.5960711e-38
-0.02248889 -0.20704447 0.7700001 1.6143304e-38
-0.017507486 -0.20726672 0.77057153 1.5958922e-38
-0.013062858 -0.20698667 0.77275002 1.5682337e-38
-0.030772764 -0.20215793 0.77300006 1.715816e-38
-0.027029717 -0.20227356 0.77119994 1.7249995e-38
-0.022738574 -0.20244336 0.77016675 1.743223e-38
-0.017726941 -0.20234707 0.77100009 1.715816e-38
-0.012685953 -0.20207122 0.77225006 1.6786512e-38
-0.0095704766 -0.20318858 0.77300006 1.5774892e-38
-0.03091 -0.19723502 0.77275008 1.6789024e-38
-0.027067337 -0.19756107 0.77229995 1.697449e-38
-0.022648098 -0.1975102 0.77209997 1.7064888e-38
-0.018143494 -0.19761875 0.7723335 1.6974489e-38
-0.013981588 -0.19794922 0.77266669 1.7434744e-38
-0.025766669 -0.1936181 0.77300006 1.6052909e-38
-0.023104193 -0.19410612 0.77260005 1.6144744e-38
-0.028934287 -0.22108763 0.77900004 1.6421682e-38
-0.040700004 -0.21534002 0.77700001 1.6606791e-38
-0.03775556 -0.21716098 0.77733338 1.6420965e-38
-0.034780003 -0.21830001 0.77700001 1.5958916e-38
-0.041995954 -0.21219455 0.77700001 1.5776686e-38
-0.037692197 -0.21269794 0.77600002 1.62355e-38
-0.011809524 -0.21109526 0.77500004 1.5130246e-38
-0.0073988098 -0.21170786 0.77725005 1.5222437e-38
-0.0032149209 -0.21243209 0.77900004 1.4947649e-38
-0.042207148 -0.20733193 0.77750009 1.5777044e-38
-0.037780479 -0.2074205 0.7778334 1.6328412e-38
-0.033430956 -0.20741951 0.77575004 1.6604634e-38
-0.01107143 -0.20814288 0.77500004 1.5313919e-38
-0.0076975236 -0.20745468 0.77740002 1.5130962e-38
-0.041917622 -0.20365286 0.77900004 1.6052549e-38
-0.037651669 -0.2027255 0.77900004 1.7894637e-38
-0.033813231 -0.20312183 0.77744442 1.7618053e-38
-0.011563493 -0.20150003 0.77500004 1.7435104e-38
-0.0076982863 -0.20286365 0.77740008 1.5500101e-38
-0.034084763 -0.1993162 0.778 1.7801005e-38
-0.028084764 -0.19584763 0.77600002 1.6329131e-38
-0.016140001 -0.1964962 0.77740002 1.6697909e-38
-0.012004763 -0.19670619 0.77575004 1.669791e-38
-0.0088904761 -0.19857524 0.778 1.6051473e-38
-0.027496021 -0.19206262 0.77645463 1.5592291e-38
-0.022613717 -0.19126384 0.77600002 1.5407191e-38
-0.01777456 -0.19257566 0.77771443 1.6051116e-38
-0.012711601 -0.19215268 0.77681822 1.5592657e-38
-0.0077070482 -0.1916604 0.77819997 1.4856177e-38
-0.027017012 -0.1878445 0.77871436 1.4947296e-38
-0.022223335 -0.18742049 0.7778334 1.4762911e-38
-0.017647812 -0.18819831 0.77860004 1.4947658e-38
-0.012579577 -0.18721999 0.77700001 1.4671434e-38
-0.0074033337 -0.18734048 0.77750003 1.4395203e-38
-0.026708573 -0.1847343 0.77900004 1.4671075e-38
-0.022370098 -0.18415296 0.77780002 1.4671075e-38
-0.018547621 -0.1847343 0.77900004 1.4670716e-38
-0.012580001 -0.18426001 0.77700001 1.430337e-38
-0.0074033337 -0.18437858 0.77750003 1.4576712e-38
-0.035701908 -0.22091144 0.78100002 1.6423123e-38
-0.031998098 -0.2217505 0.78133339 1.6790816e-38
-0.0059428578 -0.21022859 0.78000003 1.4946929e-38
-0.002737778 -0.21180445 0.7840001 1.4855461e-38
0.003235556 -0.21230224 0.7840001 1.4206042e-38
0.005226667 -0.21205334 0.78400004 1.2905583e-38
-0.0052000005 -0.20874287 0.78000003 1.4946928e-38
-0.0022340743 -0.20796616 0.78266674 1.4853661e-38
0.0020533332 -0.20664002 0.78399998 1.4853283e-38
0.005226667 -0.20608002 0.78400004 1.439189e-38
-0.0057041273 -0.20215493 0.78133339 1.5222445e-38
-0.002235397 -0.20270461 0.78250015 1.4762905e-38
0.0020236736 -0.20255159 0.78314292 1.4578142e-38
0.0059657148 -0.20283526 0.78300005 1.3929113e-38
-0.0069390479 -0.19727241 0.78066671 1.5407548e-38
-0.0022355556 -0.19758585 0.78288895 1.4854742e-38
0.0025291431 -0.1980042 0.78160006 1.4393395e-38
0.0059445249 -0.19766264 0.78025007 1.4483742e-38
-0.037482671 -0.192192 0.78400004 1.5040208e-38
-0.032853335 -0.19040002 0.78400004 1.448991e-38
-0.0059428578 -0.19388573 0.78000003 1.5131668e-38
-0.0022340743 -0.19305821 0.78266674 1.4762908e-38
0.0018666668 -0.19450668 0.78400004 1.4485245e-38
0.0062222229 -0.19438224 0.7840001 1.5129436e-38
-0.042560007 -0.1866667 0.78400004 1.5772713e-38
-0.037333336 -0.18704002 0.78399998 1.4853663e-38
-0.031910099 -0.18742402 0.78280008 1.4855818e-38
-0.02897143 -0.18720001 0.78000003 1.5128819e-38
-0.01620229 -0.18684916 0.78040004 1.4671791e-38
-0.0037261907 -0.18779953 0.78250003 1.4668551e-38
-0.04206223 -0.18343113 0.78400004 2.0471749e-38
-0.037632003 -0.18263468 0.78399998 1.9458344e-38
-0.032106668 -0.18293335 0.78399998 1.6876911e-38
-0.027719621 -0.1828564 0.78240007 1.6140077e-38
-0.022229612 -0.18194947 0.78036374 1.5771656e-38
-0.017133525 -0.18280974 0.78220004 1.5496849e-38
-0.012657665 -0.18296416 0.78181821 1.5590809e-38
-0.0086334711 -0.18301226 0.78342855 1.5496083e-38
-0.036586672 -0.17845334 0.78399998 1.7990014e-38
-0.031774815 -0.17795557 0.78399998 1.7163857e-38
-0.027626667 -0.17770669 0.78400004 1.7345022e-38
-0.022382265 -0.17756346 0.78337502 1.8263381e-38
-0.017472003 -0.17770667 0.78399998 1.8539934e-38
-0.01282909 -0.17791031 0.78399998 1.8628821e-38
-0.0097066676 -0.17920001 0.78400004 1.5934239e-38
-0.026133334 -0.17397335 0.78400004 1.4391638e-38
-0.022400003 -0.17397335 0.78400004 1.4484971e-38
-0.017920002 -0.17397335 0.78400004 1.6322903e-38
-0.01368889 -0.17347559 0.7840001 1.669176e-38
-0.00074857147 -0.2125943 0.78600001 1.4854015e-38
0.0017466669 -0.21134669 0.78600001 1.4668167e-38
0.0052400003 -0.21034859 0.78600001 1.3832932e-38
0.0037428574 -0.20885144 0.78600001 1.4575239e-38
0.0052400003 -0.20885144 0.78600001 1.4481904e-38
-0.051546436 -0.20243596 0.78725004 1.4669626e-38
-0.047377624 -0.20280573 0.78650004 1.5037337e-38
-0.056214288 -0.1963743 0.78700006 1.6604794e-38
-0.052402113 -0.19771317 0.78764302 1.5587956e-38
-0.047205478 -0.19781122 0.78675008 1.4578874e-38
-0.043527626 -0.19737527 0.78800005 1.6328053e-38
0.00074857147 -0.19687431 0.78600001 1.448776e-38
-0.056333333 -0.19303493 0.78866673 1.6778049e-38
-0.052332789 -0.19293027 0.78875005 1.696938e-38
-0.047233123 -0.19268054 0.78722221 1.4669975e-38
-0.042937621 -0.19256239 0.78750002 1.5040564e-38
-0.038551431 -0.19126001 0.78600001 1.4948734e-38
-0.0017495239 -0.19062763 0.78700006 1.4576361e-38
0.0020633335 -0.19249548 0.78800005 1.4944767e-38
0.0052500004 -0.19349858 0.78750002 1.5679732e-38
-0.050345719 -0.18860859 0.78900003 1.6776614e-38
-0.04734648 -0.18773545 0.78660005 1.816537e-38
-0.042668574 -0.1893886 0.78600001 1.4763628e-38
-0.037428573 -0.18864003 0.78600001 1.4671072e-38
-0.0016892857 -0.18717454 0.78850007 1.6511285e-38
0.0007514286 -0.18710573 0.78900003 1.7527136e-38
-0.046363678 -0.18320341 0.787 2.0747982e-38
-0.043186352 -0.18148033 0.78633344 2.0566123e-38
-0.035931431 -0.18489715 0.78600001 1.3750554e-38
-0.0061807148 -0.18226358 0.78675008 1.5765704e-38
-0.0022532276 -0.18254553 0.78877783 1.6042941e-38
-0.042456299 -0.1777454 0.78822225 1.5775346e-38
-0.038854834 -0.17671499 0.78671432 1.5226907e-38
-0.03318667 -0.17741144 0.78600001 1.6512723e-38
-0.01572 -0.17816001 0.78600001 1.9648428e-38
-0.011228573 -0.1759143 0.78600001 2.0754452e-38
-0.0070939925 -0.17716303 0.7874617 1.7792225e-38
-0.0028178575 -0.17790072 0.78900003 1.7059965e-38
-0.036879763 -0.1727666 0.78758347 1.5499119e-38
-0.032339919 -0.17245419 0.78636372 1.5588109e-38
-0.027852468 -0.1720852 0.78654552 1.5408358e-38
-0.022476194 -0.17156699 0.78666675 1.577638e-38
-0.017084574 -0.17189561 0.78680009 1.8171352e-38
-0.01218131 -0.17204131 0.78712511 1.3014983e-38
-0.008406288 -0.1728023 0.78820008 1.5134469e-38
-0.035317145 -0.16907144 0.78900003 1.7523274e-38
-0.031875715 -0.16912431 0.78750002 1.6420071e-38
-0.027400717 -0.16853501 0.78825003 1.6326073e-38
-0.022092002 -0.16877086 0.78900003 1.6140542e-38
-0.01758343 -0.16847029 0.78900003 1.6692958e-38
-0.013958858 -0.16825488 0.78800005 1.3559837e-38
-0.051564135 -0.20701367 0.79233336 1.5034806e-38
-0.049090479 -0.20769049 0.79300004 1.5494709e-38
-0.057253338 -0.19059335 0.79100001 1.5215419e-38
-0.053486671 -0.19097002 0.79100001 1.6590034e-38
0.0032676195 -0.19125621 0.79166669 1.6230406e-38
0.0057800002 -0.19175844 0.79166669 1.6408912e-38
-0.056311436 -0.18826078 0.79260004 1.6226324e-38
-0.052600615 -0.18728876 0.79209095 1.7973343e-38
0.0024507144 -0.18713215 0.79149997 1.7049924e-38
0.0060419049 -0.18805429 0.79300004 1.4095403e-38
-0.050946672 -0.1834062 0.79250002 2.1207178e-38
-0.048141096 -0.18168396 0.7915715 1.8995884e-38
0.0017607409 -0.18259484 0.79188895 1.7425834e-38
-0.04665048 -0.17769277 0.79260004 1.5776026e-38
-0.04398191 -0.17617685 0.79166669 1.5962226e-38
-0.0011300001 -0.17665668 0.79100001 1.4941357e-38
0.0007546033 -0.17733049 0.79233336 9.212415e-39
-0.042571571 -0.1729773 0.79214299 1.6144809e-38
-0.039424449 -0.17150891 0.79100007 1.6973554e-38
-0.0062822229 -0.17215654 0.79166669 1.503726e-38
-0.0032676195 -0.17366318 0.79166669 1.9276085e-38
-0.040782861 -0.16992858 0.79300004 1.8170838e-38
-0.037270669 -0.16885087 0.79220003 1.8077541e-38
-0.032124002 -0.16755907 0.79180002 1.8904412e-38
-0.028203622 -0.16725773 0.79180002 1.8262298e-38
-0.02298405 -0.16691551 0.79124999 1.7434688e-38
-0.016732 -0.16657011 0.79140002 1.3652484e-38
-0.011806985 -0.16730955 0.79133338 1.347341e-38
-0.0089448979 -0.16823497 0.79214299 1.4206615e-38
-0.017326668 -0.16498001 0.79100001 1.3461691e-38
-0.013560001 -0.16498001 0.79100001 1.0250617e-38
0.0037857145 -0.19004287 0.79500002 1.6212677e-38
0.0075819055 -0.1907867 0.796 1.5115652e-38
-0.057375401 -0.1867824 0.79616678 1.5587174e-38
0.0071380958 -0.18788211 0.79740012 1.4382081e-38
-0.056469958 -0.1825764 0.79766661 1.6788598e-38
-0.052814603 -0.18219493 0.796 1.8166488e-38
0.0038000003 -0.18316001 0.79800004 1.2450996e-38
0.0053200005 -0.18468001 0.79800004 1.5389043e-38
-0.056240004 -0.17860001 0.79800004 1.5035731e-38
-0.052051753 -0.17825599 0.7972222 1.6515408e-38
-0.048781119 -0.17692398 0.79616666 1.5684173e-38
0.0022779368 -0.17689382 0.79716676 7.2799992e-39
-0.047178503 -0.17320111 0.79714286 1.5961545e-38
-0.044320956 -0.17160001 0.79550004 1.6973966e-38
-0.0053066667 -0.17132857 0.796 1.4392075e-38
-0.0020858336 -0.17260084 0.79662502 1.5867002e-38
0.00076000002 -0.17404 0.79800004 1.5501522e-38
-0.042167764 -0.16855606 0.79671437 1.9276109e-38
-0.037186194 -0.16695446 0.7968334 2.0473929e-38
-0.033018097 -0.16661002 0.79700005 2.056755e-38
-0.028039049 -0.16595334 0.79566669 2.0932745e-38
-0.022461906 -0.16581431 0.79500002 2.0105865e-38
-0.018928573 -0.1658143 0.79500002 1.8257275e-38
-0.0070757149 -0.16757447 0.79616678 1.4388104e-38
-0.0038000003 -0.16948001 0.79800004 1.4112595e-38
-0.036480002 -0.16492002 0.79800004 1.496129e-38
-0.032680001 -0.16431202 0.79800004 2.0842344e-38
-0.027146842 -0.16350062 0.79781818 1.1168693e-38
-0.022003176 -0.1631251 0.79666662 6.8506595e-39
-0.017885307 -0.16335198 0.79671437 1.6056117e-38
-0.013420953 -0.16383779 0.79766673 1.687323e-38
-0.0098800007 -0.16492002 0.79800004 1.1719684e-38
0.0085916668 -0.18688406 0.80175006 1.4108798e-38
0.011485715 -0.18606858 0.80400002 1.6319662e-38
-0.058666669 -0.18209526 0.80000007 1.3922636e-38
0.0038142861 -0.18155906 0.801 6.5359811e-39
0.0076466678 -0.18270163 0.80266666 9.7832171e-39
0.011485715 -0.18377143 0.80400002 1.6043797e-38
-0.056704447 -0.17698066 0.80100006 1.4569725e-38
-0.053632386 -0.17665462 0.80066669 1.5309416e-38
0.0038190479 -0.17873144 0.80200005 2.5777768e-39
0.0068808175 -0.17875023 0.80257148 9.5066414e-39
-0.052364234 -0.17321292 0.80199999 1.5498458e-38
-0.048987817 -0.17137867 0.80120003 1.3660058e-38
-0.00076380954 -0.17109144 0.80200005 1.4574463e-38
0.002481905 -0.17308429 0.80149996 1.5491039e-38
-0.046782859 -0.16784477 0.80200005 1.7615482e-38
-0.042355653 -0.16648084 0.80028588 1.7341836e-38
-0.038857147 -0.16533335 0.80000001 1.1919952e-38
-0.0062537151 -0.16641298 0.80080003 1.365457e-38
-0.0033015877 -0.16838098 0.80000007 1.4573922e-38
-0.041680954 -0.16404097 0.80300003 4.6206584e-39
-0.037540782 -0.16202287 0.80145454 4.8172802e-39
-0.032773606 -0.16190778 0.80028576 1.8270211e-38
-0.027885718 -0.16106668 0.80000001 6.2833817e-39
-0.022095239 -0.16076192 0.80000007 1.6855252e-39
-0.016922288 -0.16175659 0.80039996 1.4033574e-38
-0.0125483 -0.16181634 0.80200011 1.8541054e-38
-0.0079752384 -0.1637973 0.80314291 1.2362804e-38
-0.035899051 -0.1596362 0.80200005 7.109087e-39
-0.032884765 -0.15906954 0.80299997 9.7965224e-39
-0.027481429 -0.15877238 0.80150008 6.9190345e-39
-0.02191592 -0.1584302 0.80142862 1.0518914e-38
-0.017891431 -0.15918288 0.8028 3.072054e-39
-0.014530477 -0.15906954 0.80300003 1.1091607e-38
-0.056036193 -0.17348191 0.80600005 1.4662624e-38
-0.053940196 -0.1710404 0.80680007 1.5588903e-38
0.00076761912 -0.17117906 0.80600005 1.4483392e-38
-0.052056942 -0.16745292 0.80777782 1.3639226e-38
-0.04788826 -0.16645461 0.80666679 1.651275e-38
-0.0029200003 -0.16735201 0.80680001 1.5036332e-38
-0.0515581 -0.16313906 0.80800003 1.5300159e-38
-0.046017528 -0.16267735 0.80800003 1.9366142e-38
-0.042451188 -0.16192549 0.80675012 7.1019123e-39
-0.010759048 -0.16063145 0.80700004 1.9829641e-38
-0.0078400001 -0.16220878 0.80720007 1.62336e-38
-0.040784765 -0.15929145 0.80800003 1.6047334e-39
-0.037342858 -0.15843926 0.80680007 1.2270257e-38
-0.033048578 -0.15678763 0.8070001 5.3657274e-39
-0.027651433 -0.15669096 0.80650014 8.6657642e-39
-0.022589335 -0.15659545 0.80680007 1.6150417e-38
-0.018061906 -0.15755621 0.80700004 4.9061491e-39
-0.013817144 -0.15812953 0.80600005 1.0529774e-38
-0.031550478 -0.15467429 0.80800003 2.6985015e-39
-0.026933335 -0.15467429 0.80800003 8.3177574e-39
-0.023085715 -0.15467429 0.80800003 9.7033276e-39
-0.00077142863 -0.17048572 0.81000006 1.540408e-38
0.0026289527 -0.17143963 0.81160003 1.4942169e-38
0.0054266672 -0.17132764 0.81400001 1.5769411e-38
-0.053742863 -0.16637145 0.81000012 1.5218326e-38
-0.0010822858 -0.16696648 0.81240004 1.6232043e-38
0.0011628573 -0.1686143 0.81400001 1.558857e-38
-0.051685721 -0.16380002 0.81000012 1.4857868e-38
-0.047500003 -0.16219811 0.81100005 1.9003828e-38
-0.044080004 -0.16008002 0.81200004 1.0881587e-38
-0.011600001 -0.16008002 0.81200004 1.863507e-38
-0.0060259053 -0.16115735 0.81120008 1.5672803e-38
-0.0033536511 -0.163047 0.81266677 1.3292622e-38
-0.042135786 -0.15803511 0.81285727 5.5432411e-39
-0.038088169 -0.15643321 0.81142867 1.1827011e-38
-0.034714289 -0.15505715 0.81000006 8.8763205e-39
-0.020828573 -0.15505715 0.81000006 9.7803865e-39
-0.017249208 -0.15627779 0.81100005 4.8045718e-39
-0.011978256 -0.15701859 0.81150007 8.1327117e-39
-0.0076296609 -0.15803567 0.81285727 1.7988257e-38
-0.036953021 -0.15375558 0.81400001 1.0153095e-38
-0.032474447 -0.15231317 0.8118335 7.6587183e-39
-0.027066667 -0.15234412 0.8120001 3.8945279e-39
-0.022450371 -0.15251176 0.81288898 9.2360983e-39
-0.018131047 -0.15357637 0.81360006 1.1629185e-38
-0.013360716 -0.15277357 0.81325006 8.0239093e-39
-0.053557146 -0.16532858 0.81500006 1.5955175e-38
0.0029107146 -0.16707501 0.81500006 1.5496035e-38
0.0054333336 -0.16843335 0.81500006 1.6504074e-38
-0.048542544 -0.16171716 0.81766671 2.0016181e-38
-0.0014001906 -0.1622303 0.81660002 1.6790049e-38
0.0023325928 -0.16253217 0.81655556 1.5216246e-38
-0.046553336 -0.15834039 0.8174001 1.844525e-38
-0.043936193 -0.15629953 0.81650007 5.8194916e-39
-0.0060691433 -0.15608363 0.81700009 1.7156347e-38
-0.0025606807 -0.15867418 0.8184287 1.6325888e-38
0.0012980953 -0.15924986 0.81833339 1.4843522e-38
-0.041935924 -0.15294464 0.81757152 3.4274345e-39
-0.038089335 -0.15157811 0.81619996 1.2549791e-38
-0.017239429 -0.15143068 0.81540006 1.7340305e-38
-0.010629207 -0.15192415 0.81666672 1.2463738e-38
-0.0081742862 -0.15337668 0.8175 1.2284393e-38
-0.031679597 -0.14905865 0.81700015 1.5678267e-38
-0.027227048 -0.14826632 0.81680006 5.2724443e-39
-0.022714479 -0.14826591 0.81680006 1.3201648e-38
-0.018215431 -0.14930992 0.8174001 1.8724028e-38
-0.014161333 -0.14892516 0.81700003 1.2917543e-38
-0.051525146 -0.16177811 0.8222 1.4761404e-38
-0.049260002 -0.16029048 0.82100004 1.8729057e-38
-0.052291293 -0.15799363 0.82300007 1.549675e-38
-0.048237465 -0.15670477 0.82133341 1.9094223e-38
-0.0020329526 -0.15622458 0.82100004 1.4301899e-38
-0.054082859 -0.15362668 0.82300001 1.770769e-38
-0.04758786 -0.15294501 0.82249999 1.743328e-38
-0.044177625 -0.15208049 0.82100004 1.2036958e-39
-0.0067304769 -0.15230648 0.82180005 1.0799911e-38
-0.0027385717 -0.15383191 0.82200003 1.6048565e-38
-0.046244767 -0.14892381 0.82300001 1.1806179e-38
-0.042871159 -0.14853594 0.82271439 9.5905497e-39
-0.037353612 -0.14751105 0.82200009 1.9002759e-38
-0.03252776 -0.14631687 0.82157147 1.964704e-38
-0.027366668 -0.1462162 0.82100004 1.9635152e-38
-0.021893336 -0.1462162 0.82100004 1.419994e-38
-0.017994763 -0.14649977 0.8215 1.3385328e-38
-0.012411566 -0.14770982 0.82185721 1.0623818e-38
-0.008621905 -0.14970763 0.82300001 7.9041823e-39
-0.031180764 -0.14305316 0.82260001 1.4954422e-38
-0.027403282 -0.14328097 0.82211107 1.2174634e-38
-0.022905715 -0.14350095 0.82225007 1.4667727e-38
-0.018535558 -0.14384224 0.82233334 3.3490445e-39
-0.014856191 -0.1446524 0.82100004 7.3941335e-39
-0.054477148 -0.16658953 0.82900006 1.6594806e-38
-0.055830799 -0.16277556 0.82566679 1.4755566e-38
-0.053854287 -0.16313525 0.82550001 1.5123665e-38
-0.053428575 -0.15635715 0.82500005 1.7334192e-38
-0.051899683 -0.15333748 0.82566679 1.9461581e-38
-0.049016193 -0.15071653 0.82566679 1.9922192e-38
-0.0060238102 -0.15059525 0.82500005 4.62865e-39
-0.0021628572 -0.15158287 0.82574999 1.2277565e-38
-0.047333337 -0.1475216 0.82833338 1.7071338e-38
-0.042628385 -0.14612745 0.82580006 1.7989668e-38
-0.038500004 -0.14535715 0.82500005 1.0736847e-38
-0.011162096 -0.14637049 0.82540005 1.1992364e-38
-0.0072850003 -0.14748071 0.82700008 1.0978141e-38
-0.0026779051 -0.14822991 0.82700008 1.3188323e-38
-0.041285399 -0.14331397 0.82833338 1.1811849e-38
-0.037018944 -0.14255695 0.82700002 6.0190702e-39
-0.032859243 -0.14165393 0.82540005 1.0889472e-38
-0.027520955 -0.14075652 0.82566679 1.1426315e-38
-0.022434287 -0.14129144 0.82650006 1.3093974e-38
-0.017238835 -0.14203313 0.82700008 9.3316178e-39
-0.01272558 -0.14338192 0.82785726 8.8713655e-39
-0.0086847628 -0.14448287 0.82900006 1.5598288e-38
-0.036054924 -0.13921939 0.82900012 1.2817702e-38
-0.032353546 -0.13809176 0.82855558 1.1080018e-38
-0.027611112 -0.1380543 0.82833344 1.2820698e-38
-0.023412701 -0.13863684 0.82866681 1.318873e-38
-0.018948574 -0.13974573 0.82900006 1.079995e-38
-0.046806671 -0.14518002 0.83300006 9.7854662e-39
-0.0055533336 -0.14676668 0.83300006 1.1814843e-38
-0.045147624 -0.14336224 0.83166671 1.4851833e-38
-0.042490795 -0.14119428 0.83133334 1.1622795e-38
-0.038780004 -0.14008287 0.83100003 7.9411668e-39
-0.015828572 -0.14008287 0.83100003 1.8359193e-38
-0.011356827 -0.14130732 0.83200002 1.2552682e-38
-0.041650098 -0.13793354 0.83140004 7.6695826e-39
-0.037417859 -0.13680072 0.83149999 1.227431e-38
-0.032448575 -0.1353343 0.83100003 1.4749181e-38
-0.027700003 -0.1353343 0.83100003 1.4399121e-38
-0.022432383 -0.13644384 0.83133334 1.6882271e-38
-0.017974287 -0.13824891 0.83266675 1.5965005e-38
-0.013486668 -0.13883334 0.83300006 1.1980149e-38
-0.036493335 -0.13407335 0.83300006 1.7883084e-38
-0.032526672 -0.13407335 0.83300006 1.7982834e-38
-0.02737 -0.13367668 0.83300006 1.4587109e-38
-0.023800001 -0.13407335 0.83300006 1.1652692e-38
-0.051814288 -0.15066001 0.83700001 1.9648845e-38
-0.055773534 -0.1475042 0.83900005 1.2735254e-38
-0.051911008 -0.14774466 0.83855563 1.6602803e-38
-0.048683815 -0.14684859 0.83800006 1.0524794e-38
-0.006361905 -0.14552858 0.83500004 1.2900637e-38
-0.0027099052 -0.14676172 0.83660001 1.1452061e-38
-0.050340004 -0.14462763 0.83900005 1.4563364e-38
-0.047505178 -0.14250955 0.83728582 1.4675677e-38
-0.0073721432 -0.14288691 0.83700001 7.2014648e-39
-0.046411846 -0.13809295 0.83814293 1.2455113e-38
-0.04286686 -0.13624477 0.83660001 9.7760761e-39
-0.01697778 -0.13662446 0.83566666 1.0059515e-38
-0.011592912 -0.13726276 0.83633333 7.1921462e-39
-0.0087895244 -0.13823526 0.83900011 1.2271489e-38
-0.04176762 -0.13354701 0.83800006 1.8542856e-38
-0.037643429 -0.13190763 0.83740008 1.2651382e-38
-0.032888848 -0.13189213 0.83642858 1.3751623e-38
-0.027887624 -0.13174 0.8366667 9.6832316e-39
-0.023117568 -0.13205703 0.83700007 4.9884558e-39
-0.017553493 -0.13325381 0.83783334 7.932958e-39
-0.012769207 -0.13328065 0.838 1.614259e-38
-0.036489844 -0.12811399 0.83900011 1.9417302e-39
-0.032426096 -0.12778555 0.8386001 7.3797758e-39
-0.028272573 -0.12778553 0.8386001 1.0973959e-38
-0.029564764 -0.12385239 0.83900005 2.1298991e-38
-0.00080285722 -0.14612001 0.84300005 1.8628538e-38
0.0013380954 -0.14585239 0.84300011 1.6136376e-38
-0.055353336 -0.14359653 0.84233332 1.4391572e-38
-0.052230738 -0.14241238 0.84136379 1.6319034e-38
-0.0061450801 -0.14081176 0.8416667 1.4024629e-38
-0.0028638099 -0.14356422 0.84214288 1.5869208e-38
-0.051382862 -0.13889429 0.84300005 1.6045282e-38
-0.048114292 -0.13712478 0.84200001 8.1380871e-39
-0.006759048 -0.1369196 0.84214288 1.7982105e-38
-0.045654289 -0.13375905 0.84100002 2.2116132e-38
-0.042812765 -0.13132095 0.84180003 9.0672881e-39
-0.020824764 -0.13055524 0.84100002 1.3831958e-38
-0.016860001 -0.13086572 0.84300011 1.9923275e-38
-0.011378476 -0.13157849 0.84140009 1.6038106e-38
-0.0081807626 -0.1326661 0.8422001 1.5013457e-38
-0.042338572 -0.12781668 0.84275001 4.7036363e-39
-0.038178734 -0.12681746 0.84100002 7.0153331e-39
-0.034440953 -0.12574953 0.84100002 1.3934946e-38
-0.02643143 -0.12574953 0.84100002 1.9652435e-38
-0.022683203 -0.12771697 0.84245449 1.8541431e-38
-0.018465716 -0.12926 0.84300005 1.8635787e-38
-0.012364001 -0.12861773 0.84300005 1.6501881e-38
-0.040945716 -0.12444287 0.84300005 2.102314e-38
-0.037378099 -0.12368249 0.84219998 2.0656524e-38
-0.032643676 -0.12312777 0.84185719 2.0561797e-38
-0.028061906 -0.12266953 0.84185719 1.6958279e-38
-0.024888573 -0.12444287 0.84300005 1.8721111e-38
-0.057260957 -0.14242439 0.84680003 1.4112108e-38
-0.002011905 -0.14123572 0.84500003 1.7795573e-38
0.0024142859 -0.14244288 0.84500015 1.5768311e-38
-0.055528574 -0.13922381 0.84500003 1.6772811e-38
-0.052420955 -0.1379063 0.84680003 1.6787546e-38
-0.049090479 -0.13600478 0.84500003 1.3925881e-38
-0.0024146033 -0.13766794 0.8453334 1.6784621e-38
0.0019576873 -0.13812341 0.84671432 1.4938951e-38
-0.050880004 -0.13487239 0.84800005 2.158098e-38
-0.047906291 -0.13226096 0.84680003 9.6082271e-39
-0.006444524 -0.13209596 0.84575003 1.2972902e-38
-0.0027413336 -0.13403544 0.84680003 1.401265e-38
0.0018844446 -0.13433397 0.84800005 1.3371281e-38
-0.046491273 -0.12737668 0.84650004 9.6817813e-39
-0.044261906 -0.12634763 0.84500003 1.1531808e-38
-0.020119049 -0.12634763 0.84500003 1.9923957e-38
-0.016770046 -0.12705369 0.8458184 1.5114383e-38
-0.011669048 -0.12675001 0.84500003 1.7697588e-38
-0.0088523813 -0.12956667 0.84500003 1.389873e-38
-0.046034288 -0.12356573 0.84800005 2.0387119e-38
-0.042728674 -0.12253896 0.84650004 2.1394079e-38
-0.038495626 -0.1216042 0.84560007 1.9549819e-38
-0.033800002 -0.12151906 0.84500003 2.0013283e-38
-0.026557144 -0.12151906 0.84500003 1.6402874e-38
-0.022210069 -0.12244585 0.84585726 1.520039e-38
-0.017283048 -0.12291963 0.84800005 1.2598719e-38
-0.013160637 -0.12434731 0.84600008 1.5673589e-38
-0.041188575 -0.11872001 0.84800005 2.0743275e-38
-0.037459053 -0.11859838 0.84714293 1.6402601e-38
-0.032904577 -0.11822724 0.84680003 1.9077584e-38
-0.027820718 -0.11813977 0.84675014 1.5010174e-38
-0.02259119 -0.11901739 0.84725004 1.3433521e-38
-0.061000004 -0.14558667 0.85400003 1.4563646e-38
-0.058831118 -0.14667112 0.85400003 1.4291742e-38
-0.060857147 -0.14362286 0.85200006 1.4567578e-38
-0.058648258 -0.140807 0.85133332 1.4662733e-38
-0.05718749 -0.13745472 0.85257155 1.4211148e-38
-0.053460479 -0.13607953 0.85049999 1.7992934e-38
-0.061000004 -0.13420001 0.85400003 1.4292842e-38
-0.056526672 -0.13298 0.85400003 6.0951705e-39
-0.052731223 -0.13222796 0.85177785 5.6299044e-39
-0.0056666671 -0.13114287 0.85000002 1.418226e-38
-0.0028442862 -0.13208906 0.85350001 1.6410784e-38
0.00081333338 -0.13420001 0.85400003 1.5030788e-38
-0.052332796 -0.12775323 0.85285729 1.7518647e-38
-0.04900524 -0.1267643 0.85049999 1.6506671e-38
-0.01052381 -0.1254762 0.85000002 1.9723685e-38
-0.0075085722 -0.12767144 0.85250008 1.5201109e-38
-0.051240005 -0.12444001 0.85400003 1.9735661e-38
-0.047891431 -0.12256627 0.8522858 1.8162532e-38
-0.044628575 -0.12090287 0.85200006 1.94641e-38
-0.016595239 -0.12102382 0.85000002 1.3903752e-38
-0.011963097 -0.12228643 0.85175002 1.4838016e-38
-0.0089466674 -0.12362668 0.85400003 1.6591909e-38
-0.046360005 -0.11874668 0.85400003 1.4471488e-38
-0.043197386 -0.11741883 0.85175002 1.6781034e-38
-0.038452383 -0.11616668 0.85000002 1.5671037e-38
-0.034000002 -0.11576191 0.85000002 2.0377709e-38
-0.026714288 -0.11576192 0.85000008 1.7321485e-38
-0.021873653 -0.11666223 0.85066676 1.3996067e-38
-0.017247383 -0.11789262 0.8522501 1.6492069e-38
-0.01300254 -0.11784065 0.85333341 1.8808179e-38
-0.041989844 -0.11404826 0.85333341 1.6384077e-38
-0.037989762 -0.11315595 0.85325009 1.5374283e-38
-0.032712556 -0.11275898 0.85290921 1.6307055e-38
-0.027345611 -0.11326561 0.85288894 1.5201416e-38
-0.022352859 -0.11420619 0.85350007 1.6122278e-38
-0.018706668 -0.11468001 0.85400003 1.8528789e-38
-0.013013334 -0.11468001 0.85400003 1.6885532e-38
-0.061285719 -0.13973144 0.85800004 1.4936031e-38
-0.059581906 -0.13712096 0.85700005 1.0608715e-38
-0.061285719 -0.13237715 0.85800004 1.6512022e-38
-0.058860194 -0.13255773 0.85600007 1.4383323e-38
-0.0024514287 -0.1331943 0.85800004 1.5947685e-38
-0.061285719 -0.12992573 0.85800004 1.7430415e-38
-0.057745583 -0.12867185 0.85742861 2.0748352e-38
-0.054684766 -0.12732477 0.85700005 2.0292048e-38
-0.005706667 -0.12636191 0.85600007 1.725066e-38
-0.0036723809 -0.12854953 0.85699999 1.8718951e-38
-0.05208496 -0.12261906 0.85720009 1.7878671e-38
-0.049787622 -0.12079525 0.85700005 1.7015844e-38
-0.0069350004 -0.12259595 0.85675001 1.7615513e-38
-0.048122291 -0.11793867 0.85640001 1.7047114e-38
-0.015489525 -0.11657906 0.85600007 2.0467658e-38
-0.010598096 -0.11820953 0.85600013 1.8627473e-38
-0.0082791839 -0.11720002 0.85714293 1.1071896e-38
-0.047012068 -0.11440509 0.85600013 1.5375836e-38
-0.043615241 -0.1119835 0.85688889 1.8992963e-38
-0.037990101 -0.11038325 0.85600007 1.6956013e-38
-0.031794287 -0.11005716 0.85600013 1.6677643e-38
-0.02651 -0.11052906 0.85650003 2.0095342e-38
-0.021820001 -0.1115481 0.85650003 2.0197309e-38
-0.016992901 -0.11242219 0.85709089 1.6971611e-38
-0.012240424 -0.1121655 0.85688889 8.2127973e-39
-0.040584765 -0.10813525 0.85800004 2.2313479e-38
-0.036728576 -0.10773619 0.85700005 2.0467709e-38
-0.032070212 -0.10740409 0.85714293 1.9832126e-38
-0.027357621 -0.1082081 0.85750002 1.9742118e-38
-0.02247143 -0.10827143 0.85800004 1.301911e-38
-0.017160002 -0.10868001 0.85800004 7.1828738e-39
-0.013074286 -0.10868001 0.85800004 1.0689496e-38
-0.031868573 -0.10377715 0.85800004 4.2663849e-39
-0.00082095241 -0.13217334 0.86200011 1.6693547e-38
0.00082095241 -0.13381524 0.86200005 1.4478747e-38
-0.062118739 -0.12779494 0.86200011 1.8264104e-38
-0.05825381 -0.12635286 0.86150002 1.9634432e-38
-0.054876193 -0.1253143 0.86000001 1.8444557e-38
-0.0021857144 -0.12710001 0.86100006 1.3566891e-38
0.0016419049 -0.12888953 0.86200005 1.3465677e-38
-0.055414289 -0.12273239 0.86200005 1.5403119e-38
-0.053238098 -0.12121905 0.86000001 1.7785363e-38
-0.0057333335 -0.12040001 0.86000001 9.8471807e-39
-0.0032790478 -0.12218001 0.86100006 9.237693e-39
-0.055003814 -0.11903811 0.86200005 1.6390407e-38
-0.051700003 -0.11762381 0.86166668 1.8625196e-38
-0.0057333335 -0.11712381 0.86000001 9.3137415e-39
-0.0032822224 -0.11735144 0.86166668 1.2551678e-38
-0.050488576 -0.11288096 0.86200005 1.6036189e-38
-0.047735244 -0.11203697 0.86120003 1.7692105e-38
-0.01064762 -0.11220953 0.86000001 7.3475277e-39
-0.0078438111 -0.11251811 0.8605715 1.1811967e-38
-0.046562862 -0.10768715 0.86150002 2.0844138e-38
-0.042350482 -0.10683112 0.86066669 2.0386401e-38
-0.036857147 -0.10565715 0.86000001 1.7076377e-38
-0.031123811 -0.10565715 0.86000001 1.2013587e-38
-0.026700957 -0.10631239 0.86000007 1.2552394e-38
-0.021786669 -0.10631239 0.86000007 5.2514543e-39
-0.017220002 -0.10659906 0.86100006 6.4614699e-39
-0.012058777 -0.10689797 0.86057156 1.6884095e-38
-0.0084761912 -0.10855493 0.86133337 1.6971269e-38
-0.045152385 -0.10426096 0.86200005 1.3387518e-38
-0.041521527 -0.10355581 0.86160004 1.1811243e-38
-0.036705479 -0.10273357 0.86125004 1.097647e-38
-0.031985309 -0.10204736 0.86114293 9.1257657e-39
-0.02705651 -0.10248552 0.86088896 7.8393569e-39
-0.02235762 -0.10276382 0.86150002 1.2916481e-38
-0.018060952 -0.10426096 0.86200005 1.6054699e-38
-0.013135239 -0.10426096 0.86200005 1.7069203e-38
-0.03037524 -0.099335246 0.86200005 1.4950884e-38
-0.027091432 -0.099335246 0.86200011 1.5866727e-38
-0.023807621 -0.099335246 0.86200005 1.6775758e-38
0.0016495239 -0.13196096 0.86600006 1.364326e-38
-0.061882228 -0.12623715 0.86633343 1.908846e-38
-0.00082380959 -0.12604287 0.86500007 7.2890768e-39
0.0021499048 -0.12711143 0.86780006 1.3376704e-38
-0.065381907 -0.12248762 0.86900002 1.6222834e-38
-0.061912704 -0.12299863 0.86677784 1.8627116e-38
-0.057912577 -0.1225884 0.86620009 1.5933243e-38
-0.00082444446 -0.12284224 0.86566675 1.2640637e-38
0.0016549206 -0.12326731 0.86866677 1.3838423e-38
-0.061586667 -0.1182119 0.86800003 1.8069968e-38
-0.057319622 -0.11727639 0.86720008 1.6111516e-38
-0.05272381 -0.11615715 0.86500007 1.6969923e-38
-0.00082507939 -0.11798509 0.86633343 1.7523715e-38
0.0014897144 -0.11636325 0.86900008 6.188808e-39
-0.055984955 -0.11279105 0.86700004 1.8252111e-38
-0.052888572 -0.11253239 0.86500007 1.6763008e-38
-0.005766667 -0.11203811 0.86500007 1.6143673e-38
-0.0026258877 -0.11247212 0.86663646 1.4023193e-38
0.00082761911 -0.11338381 0.86900002 8.0226523e-39
-0.05538667 -0.10911906 0.86800003 1.9463383e-38
-0.051936384 -0.10766249 0.86560011 1.6147166e-38
-0.048604764 -0.10627144 0.86500007 1.5877492e-38
-0.0071549211 -0.10734224 0.8670001 1.4760748e-38
-0.050446033 -0.10337176 0.86833334 9.6832386e-39
-0.047397353 -0.10258318 0.86633343 1.115404e-38
-0.042426191 -0.10174049 0.86500007 3.7027925e-39
-0.038719051 -0.10132858 0.86500007 5.4505648e-39
-0.020595239 -0.10132858 0.86500007 1.9182122e-38
-0.016901668 -0.1022393 0.86575007 1.5866371e-38
-0.012397567 -0.10221662 0.86788887 1.4021762e-38
-0.009093334 -0.10415906 0.86800003 1.1167337e-38
-0.046293337 -0.099199057 0.86800003 1.5867435e-38
-0.04211143 -0.098257467 0.8670001 1.457849e-38
-0.037119899 -0.09815757 0.86611122 1.6419891e-38
-0.03233273 -0.097144857 0.86645466 1.7158164e-38
-0.027440136 -0.096919067 0.86557156 1.6784006e-38
-0.022129785 -0.0971452 0.8664546 1.5132039e-38
-0.018462224 -0.097820327 0.86800003 1.2268631e-38
-0.013241906 -0.098486677 0.86900002 4.696854e-39
-0.026956005 -0.094095439 0.8682 1.2270071e-38
0.003319683 -0.12198605 0.87133348 1.2820653e-38
0.0058111115 -0.12203208 0.87166679 1.4663069e-38
-0.065532386 -0.11862192 0.87100005 1.5757928e-38
-0.063080482 -0.11619952 0.87150007 1.8172949e-38
0.0037400001 -0.11757906 0.87250006 7.8553947e-39
0.0058200005 -0.11723144 0.87300003 1.5858334e-38
-0.062114529 -0.11238597 0.87250006 1.6239764e-38
-0.058481436 -0.11157096 0.87100005 1.8812868e-38
-0.00082952384 -0.11032668 0.87100005 5.7863033e-39
0.0016628572 -0.11307429 0.87300003 5.7991952e-39
-0.057070166 -0.10721334 0.87266672 7.959535e-39
-0.053919051 -0.10534953 0.87100005 1.3305889e-40
-0.0058066673 -0.10617906 0.87100005 8.3903502e-39
-0.0034900957 -0.10753696 0.87260008 3.9642972e-39
-0.055705719 -0.10309716 0.87300003 1.227217e-38
-0.052751705 -0.10182735 0.87128592 1.2173553e-38
-0.01078381 -0.10037239 0.87100005 8.5682787e-39
-0.0077501601 -0.10214858 0.8720001 5.079955e-39
-0.051519528 -0.098051913 0.87250006 1.7524786e-38
-0.047582455 -0.096706003 0.87214297 1.6877635e-38
-0.042338099 -0.095468268 0.87166679 1.6877995e-38
-0.037328579 -0.095395252 0.87100005 1.5956769e-38
-0.01643181 -0.097098105 0.87140006 7.8346709e-39
-0.012214015 -0.096642874 0.8715716 9.0382336e-39
-0.0083107948 -0.097239375 0.87266672 7.0221462e-39
-0.045728575 -0.093951434 0.87300003 1.5327198e-38
-0.04240286 -0.093951434 0.87300003 1.4125444e-38
-0.037400637 -0.093084142 0.87266678 1.1818071e-38
-0.032377042 -0.092146777 0.87166679 8.948919e-39
-0.027384128 -0.091282234 0.87133348 4.6193664e-39
-0.022623811 -0.092362858 0.87175012 9.0364371e-39
-0.017783811 -0.093243249 0.87260008 8.2974497e-39
-0.014134287 -0.093120009 0.87300003 9.4188486e-39
-0.032425717 -0.088962868 0.87300003 8.3828281e-39
-0.027437147 -0.088962868 0.87300003 1.1538584e-38
0.00083333341 -0.11083334 0.87500006 6.6271524e-39
-0.061460003 -0.10745049 0.87800002 1.1165157e-38
-0.05916667 -0.10666667 0.87500006 8.4886583e-39
-0.0013917461 -0.10762097 0.87600005 7.5040654e-40
0.00083619053 -0.10870478 0.87800002 5.1606656e-39
-0.060833339 -0.10333334 0.87500006 1.8078296e-38
-0.057810642 -0.10255763 0.87550008 1.596033e-38
-0.0058333338 -0.10166667 0.87500006 2.8683655e-39
-0.0037592859 -0.10318024 0.87725002 2.0411271e-39
-0.056024764 -0.099506676 0.87800002 1.5239309e-38
-0.052916668 -0.097083338 0.87500006 1.57731e-38
-0.0058333343 -0.097500011 0.87500012 4.3370047e-39
-0.0030636508 -0.097500801 0.87750006 3.6980813e-39
-0.051843815 -0.09448953 0.87800002 1.1355672e-38
-0.047580004 -0.093491912 0.87650007 1.3848858e-38
-0.042549532 -0.091770485 0.87600005 8.9460477e-39
-0.037500001 -0.090833336 0.87500012 8.3878531e-39
-0.020833334 -0.090833336 0.87500006 1.107586e-38
-0.017083334 -0.091250002 0.87500006 7.026814e-39
-0.01203524 -0.092350908 0.87585723 4.1601805e-39
-0.0083566681 -0.092763349 0.87750006 2.7740062e-39
-0.041530799 -0.088914923 0.87800002 2.3173917e-39
-0.037353747 -0.088190481 0.87714297 8.1227569e-39
-0.032555714 -0.086813807 0.87650007 6.8420682e-39
-0.02794167 -0.087156914 0.87575001 5.1004083e-39
-0.022538573 -0.088483334 0.87650007 7.5623902e-39
-0.018396191 -0.089472383 0.87800002 3.6084571e-39
-0.011985398 -0.088914923 0.87800002 1.9503706e-39
-0.064533338 -0.11146668 0.88000005 1.2900282e-38
-0.063695237 -0.10895239 0.88000005 1.1797913e-38
-0.00083809532 -0.1064381 0.88000005 2.1340332e-39
-0.061180957 -0.10140953 0.88000005 1.6519625e-38
-0.059504766 -0.10140953 0.88000005 1.6882302e-38
-0.0015089525 -0.10279734 0.8804 2.7757957e-39
0.00083809532 -0.10140953 0.88000005 8.1222902e-39
-0.061320003 -0.099960007 0.88200003 1.3746598e-38
-0.057885721 -0.097594932 0.88088894 1.190955e-38
-0.054476194 -0.096380956 0.88000005 1.4297277e-38
-0.002514286 -0.099733338 0.88000005 3.5147845e-39
-0.048190478 -0.091771439 0.88000005 9.773649e-39
-0.0058666673 -0.093028575 0.88000005 2.8658319e-39
-0.0083809532 -0.089676194 0.88000005 2.5932009e-39
