# .PCD v0.7 - Point Cloud Data file format
VERSION 0.7
FIELDS x y z
SIZE 4 4 4
TYPE F F F
COUNT 1 1 1
WIDTH 834
HEIGHT 1
VIEWPOINT 0 0 0 1 0 0 0
POINTS 834
DATA ascii
0.048048578 -0.27681714 0.75300002
0.050917145 -0.27681714 0.75300002
0.048048578 -0.27466577 0.75300002
0.038789291 -0.27766073 0.75774997
0.042369179 -0.27680832 0.75636363
0.045300003 -0.27683336 0.75500005
0.053087834 -0.27664235 0.75666666
0.05558667 -0.27865526 0.75800002
0.043724194 -0.27287924 0.75760001
0.047546674 -0.27262139 0.75642866
0.052287389 -0.27260929 0.75725001
0.029066669 -0.28122002 0.76300001
0.032670163 -0.28097433 0.76233339
0.035513334 -0.28048289 0.76100004
0.057943337 -0.28029859 0.76050007
0.060155243 -0.28048289 0.76100004
0.028340003 -0.2775867 0.76300001
0.032685399 -0.27746445 0.7626667
0.036520682 -0.2771686 0.76042867
0.057569813 -0.2769666 0.76130009
0.060572386 -0.27758536 0.76260006
0.029066669 -0.27395335 0.76300001
0.033426668 -0.27395335 0.76300001
0.038112532 -0.27314687 0.76169235
0.042238932 -0.27209845 0.76137507
0.047398288 -0.27091527 0.76100004
0.05287943 -0.27077317 0.76060009
0.056979168 -0.27291226 0.76212507
0.0436 -0.26886669 0.76300001
0.04737867 -0.2678493 0.76300001
0.052028202 -0.26768699 0.76226681
0.055953339 -0.26959336 0.76300001
0.051593337 -0.2579667 0.76300001
0.062657148 -0.27685717 0.76500005
0.033038098 -0.27294424 0.76600009
0.036734603 -0.27174321 0.76633334
0.040800005 -0.27030003 0.76500005
0.058285721 -0.27102858 0.76500005
0.06192857 -0.27248573 0.76500005
0.038109936 -0.26781583 0.76742864
0.041811034 -0.26691738 0.76575005
0.046628572 -0.2659286 0.76500005
0.053717785 -0.26567337 0.76566672
0.057527971 -0.2673299 0.76636368
0.061603677 -0.26799232 0.76614296
0.038765717 -0.26258287 0.76800001
0.042530272 -0.26238838 0.76621431
0.047367148 -0.26234242 0.7651667
0.052483879 -0.26250458 0.76606679
0.057051435 -0.26331431 0.76800001
0.038765717 -0.25892574 0.76800001
0.042580005 -0.25767946 0.76559997
0.047357146 -0.25806004 0.76500005
0.051322706 -0.25757828 0.76616669
0.032511115 -0.27157781 0.7700001
0.035933334 -0.27060002 0.77000004
0.033551645 -0.2676774 0.77144444
0.036245335 -0.2669242 0.77040005
0.059400003 -0.26620001 0.77000004
0.061600003 -0.26620001 0.77000004
0.034110166 -0.2638016 0.77300012
0.037278943 -0.26275408 0.77088892
0.057933338 -0.26163706 0.77000004
0.061355561 -0.26302224 0.7700001
0.036713336 -0.2592029 0.77100003
0.053533338 -0.25813335 0.77000004
0.056100003 -0.25850004 0.77000004
0.031538099 -0.25335795 0.77740002
0.035840005 -0.25610667 0.78400004
0.048533335 -0.25162667 0.78400004
0.053247623 -0.25098288 0.78200001
0.056853335 -0.25205335 0.78400004
0.0616 -0.252 0.78400004
0.043456003 -0.24684802 0.78400004
0.047945283 -0.24717507 0.78109103
0.052660476 -0.2476605 0.78150004
0.057045721 -0.24684329 0.78371435
0.043306671 -0.24266669 0.78400004
0.048003655 -0.24238685 0.78150004
0.052811436 -0.24248034 0.78100008
0.056698419 -0.24246034 0.78333342
0.043057781 -0.23918223 0.7840001
0.047126304 -0.23758551 0.78353858
0.052017774 -0.2376889 0.78400004
0.056597341 -0.23848537 0.78400004
0.042933334 -0.23333335 0.78400004
0.04731353 -0.23224342 0.78360003
0.050524451 -0.23221335 0.7840001
0.043306671 -0.22773334 0.78400004
0.046826672 -0.22816004 0.78400004
0.033814289 -0.25623715 0.78900003
0.036068574 -0.25623715 0.78900003
0.057640001 -0.25526288 0.78600001
0.06138286 -0.25526288 0.78600001
0.039825715 -0.25097716 0.78900003
0.042668574 -0.25152001 0.78600001
0.045662861 -0.25152001 0.78600001
0.059137147 -0.25226861 0.78600001
0.062430859 -0.25196916 0.78600001
0.065125719 -0.25077143 0.78600001
0.039724767 -0.24734382 0.78700006
0.041545719 -0.24815145 0.78600001
0.045662861 -0.24852574 0.78600001
0.059137147 -0.24852574 0.78600001
0.062278781 -0.24879064 0.78785723
0.065291435 -0.24990858 0.78800005
0.03967429 -0.24253716 0.78600001
0.041171432 -0.24253716 0.78600001
0.045662861 -0.24478288 0.78600001
0.03967429 -0.23729716 0.78600001
0.042668574 -0.23711002 0.78600001
0.053148575 -0.23729716 0.78600001
0.058258783 -0.23657146 0.78857148
0.062368579 -0.23594859 0.78900003
0.065374292 -0.23519716 0.78900003
0.03967429 -0.2335543 0.78600001
0.042369146 -0.23190744 0.78600001
0.053496726 -0.23237164 0.78622228
0.057688292 -0.23240259 0.78870004
0.06218072 -0.2323793 0.78900003
0.065875247 -0.23319337 0.78900003
0.042668574 -0.22981146 0.78600001
0.047496576 -0.22609086 0.78660005
0.052230265 -0.22824903 0.78776932
0.057860002 -0.22918573 0.78900003
0.061617147 -0.22918573 0.78900003
0.033230476 -0.25602573 0.79300004
0.036913335 -0.25538 0.79100007
0.032475241 -0.25451526 0.79300004
0.037242286 -0.25270915 0.79159999
0.068726674 -0.25224954 0.79300004
0.070237145 -0.25224954 0.79300004
0.033985715 -0.2492286 0.79300004
0.036581431 -0.24929097 0.792
0.059663814 -0.2454524 0.79300004
0.06215556 -0.24635494 0.79266667
0.067719691 -0.24948035 0.7930001
0.07099238 -0.24847335 0.79300004
0.059663814 -0.24243145 0.7930001
0.062631644 -0.24222846 0.79233336
0.065622859 -0.24137241 0.79200006
0.062526673 -0.23880669 0.79100007
0.067094564 -0.23747255 0.79157144
0.070060007 -0.23654668 0.79100001
0.040027622 -0.23336859 0.79300004
0.064033337 -0.23127335 0.79100001
0.067548893 -0.2322778 0.79100001
0.071610309 -0.23240738 0.79300016
0.048213337 -0.22524668 0.79100001
0.052984446 -0.2257489 0.79100001
0.058021337 -0.22711165 0.79119998
0.062740959 -0.22728288 0.79179996
0.067074612 -0.22760162 0.79133338
0.071316056 -0.22754246 0.7930001
0.044559054 -0.22279525 0.7930001
0.047707383 -0.22232547 0.792
0.051995028 -0.22229621 0.79122221
0.057361752 -0.22265509 0.79250014
0.062495958 -0.22298406 0.7930001
0.066975646 -0.22314601 0.79271436
0.071747623 -0.22430573 0.7930001
0.047552492 -0.21713494 0.79255563
0.052068889 -0.21808033 0.79233342
0.057182323 -0.21783227 0.79300016
0.061929528 -0.21977431 0.79300004
0.048159432 -0.21362381 0.79260004
0.05205344 -0.21349151 0.79211122
0.055132385 -0.21297716 0.79300004
0.034071431 -0.25515717 0.79500002
0.03247799 -0.25215694 0.7972222
0.067385718 -0.25137144 0.79500002
0.071171433 -0.25061432 0.79500002
0.062918097 -0.24840192 0.796
0.067386068 -0.24712895 0.79663634
0.071198672 -0.24699412 0.79700005
0.068483815 -0.24249946 0.79720008
0.070591435 -0.24213621 0.79700011
0.072109528 -0.23834097 0.79700005
0.029640002 -0.23104002 0.79800004
0.03249 -0.23161002 0.79799998
0.037181191 -0.23162526 0.79675001
0.041465338 -0.23132136 0.7974
0.029260002 -0.22686002 0.79800004
0.032680001 -0.22724001 0.79799998
0.036468334 -0.22868787 0.79775
0.043301273 -0.22765112 0.79766667
0.046185717 -0.22638573 0.79500002
0.029133335 -0.22369336 0.79800004
0.03249 -0.22287002 0.79799998
0.042861637 -0.2223441 0.79757148
0.046690479 -0.22184287 0.79500002
0.064357147 -0.22108573 0.79500002
0.067688577 -0.2209343 0.79500002
0.071351439 -0.22240001 0.79700005
0.033440001 -0.21736002 0.79799998
0.037240002 -0.21756728 0.79800004
0.042464055 -0.2176417 0.7962501
0.059057146 -0.21578573 0.79500002
0.062878422 -0.21742065 0.79544443
0.067702174 -0.21731813 0.79709089
0.070680007 -0.21736002 0.79800004
0.033693336 -0.21305335 0.79800004
0.037412263 -0.21269941 0.79762501
0.042495538 -0.21248162 0.79681247
0.047555722 -0.21125144 0.79575002
0.052319847 -0.2107935 0.79616666
0.057823744 -0.21232942 0.79646158
0.062660486 -0.21266572 0.79750001
0.066599056 -0.21397685 0.79766673
0.038760003 -0.20900001 0.79800004
0.044840004 -0.20900001 0.79800004
0.048184004 -0.20839201 0.79800004
0.052060001 -0.20862 0.79800004
0.056620002 -0.20862001 0.79800004
0.060800005 -0.20900001 0.79800004
0.029714288 -0.2529524 0.80000001
0.074089527 -0.25205716 0.80200005
0.075617149 -0.25205716 0.80200005
0.073616192 -0.24754858 0.801
0.076667614 -0.24716572 0.80100006
0.073142871 -0.24304764 0.80000007
0.076540634 -0.24309747 0.80100006
0.029006192 -0.23663287 0.80150002
0.03204 -0.23648478 0.801
0.073904768 -0.24000001 0.80000001
0.076190479 -0.24000001 0.80000001
0.027714606 -0.23216033 0.80100006
0.040380955 -0.23085716 0.80000001
0.023707621 -0.22637048 0.80300003
0.026507622 -0.22771192 0.80100012
0.037841275 -0.2273016 0.80000007
0.040380955 -0.22780953 0.80000007
0.076872662 -0.22755566 0.80371433
0.023737144 -0.2243543 0.80400002
0.027401736 -0.22234342 0.80127287
0.032761909 -0.22095239 0.80000001
0.037333336 -0.22323813 0.80000007
0.040380955 -0.22323811 0.80000007
0.073600009 -0.22201908 0.80000001
0.077231959 -0.22251411 0.80288887
0.082441911 -0.22231241 0.80399996
0.086525723 -0.22205716 0.80400002
0.027760956 -0.21752004 0.80233335
0.0312381 -0.21714287 0.80000007
0.073173657 -0.21723273 0.80033338
0.077204376 -0.21738839 0.80260003
0.08124654 -0.21815051 0.80371433
0.029825717 -0.2141324 0.80300003
0.032249525 -0.21182336 0.80150002
0.036571428 -0.21104763 0.80000001
0.064761907 -0.21104763 0.80000001
0.068205506 -0.2117306 0.80066669
0.072243392 -0.21299133 0.80222225
0.075711429 -0.2141324 0.80300003
0.033862226 -0.20902798 0.80200005
0.037395556 -0.20783536 0.80133337
0.042211723 -0.20765235 0.80138475
0.046742596 -0.20647867 0.80085719
0.052876193 -0.20708573 0.80000001
0.057619594 -0.20662262 0.8005715
0.062616624 -0.2076802 0.80090916
0.067470483 -0.20826414 0.80200005
0.047975659 -0.20387833 0.80244446
0.052630268 -0.20365335 0.80088902
0.057150207 -0.20378913 0.80314285
0.060491432 -0.20444573 0.80400002
0.021793334 -0.23153113 0.80766672
0.083108574 -0.23085716 0.80800003
0.085417151 -0.23085716 0.80800003
0.022301428 -0.22840621 0.80750006
0.079064764 -0.22721526 0.80600005
0.082299054 -0.22751276 0.80760002
0.085930169 -0.22752255 0.80800003
0.023835558 -0.22220764 0.80733341
0.02533143 -0.22184192 0.80600005
0.082902864 -0.22491239 0.80600005
0.085973337 -0.22260953 0.80600005
0.023855239 -0.21931431 0.80800003
0.025843177 -0.21672446 0.80600011
0.079064764 -0.21723621 0.80600005
0.08305639 -0.21692915 0.80600005
0.085589528 -0.21762002 0.80600005
0.023855239 -0.21008001 0.80800003
0.02761299 -0.21231465 0.80745459
0.03001143 -0.21008001 0.80800003
0.074008897 -0.21178161 0.80666673
0.077625722 -0.21314953 0.8070001
0.082404517 -0.21240553 0.80727273
0.085894927 -0.21230003 0.80766672
0.032855716 -0.20770571 0.80700004
0.036619686 -0.20614731 0.80666673
0.06294477 -0.20648953 0.80600005
0.067737907 -0.2062842 0.8064
0.071928993 -0.20831867 0.80714297
0.083226681 -0.20768508 0.80666673
0.085205719 -0.20725715 0.80600005
0.037976384 -0.20433603 0.80720007
0.042276826 -0.20369822 0.8071112
0.047103815 -0.20187429 0.80750006
0.052601103 -0.20129064 0.80714297
0.057642862 -0.20136479 0.8070001
0.062263284 -0.20318604 0.8071112
0.066097148 -0.20443906 0.80700004
0.054636195 -0.19930668 0.80800003
0.059253339 -0.19930668 0.80800003
0.019285716 -0.23142859 0.81000006
0.02237143 -0.23220001 0.81000006
0.019309524 -0.22707811 0.81099999
0.021240002 -0.22630668 0.81100005
0.082542859 -0.22911429 0.81000006
0.019380953 -0.22249335 0.81400001
0.021763269 -0.22238697 0.81200004
0.019380953 -0.21939239 0.81400001
0.022443386 -0.21748425 0.81266671
0.02244995 -0.21272637 0.81288892
0.026485717 -0.21265715 0.81000012
0.07482858 -0.21060002 0.81000006
0.078267626 -0.21111588 0.81100005
0.081000008 -0.21060002 0.81000006
0.024032382 -0.20853907 0.81400001
0.027224761 -0.20760192 0.81254554
0.031253066 -0.20640519 0.81171435
0.07203874 -0.20604382 0.81333339
0.076560006 -0.20918667 0.81200004
0.082075238 -0.20828097 0.81300008
0.033729799 -0.20359974 0.81285721
0.037882123 -0.20178309 0.81177783
0.042480957 -0.20081811 0.81100005
0.048720002 -0.20029335 0.81200004
0.050266668 -0.20029335 0.81200004
0.058000002 -0.20029335 0.81200004
0.062980957 -0.20101069 0.81240004
0.067363337 -0.20286146 0.81299996
0.071321905 -0.20388763 0.81400001
0.03798667 -0.19884859 0.81400001
0.042585716 -0.1982162 0.81300008
0.047075327 -0.19793665 0.81272745
0.052426968 -0.19786727 0.81230783
0.057121668 -0.19808264 0.81325006
0.06201905 -0.1992362 0.81400001
0.051940955 -0.19458477 0.81400001
0.055041909 -0.19458477 0.81400001
0.083828583 -0.23518573 0.81500006
0.086157151 -0.23518573 0.81500006
0.017852383 -0.22587144 0.81500006
0.017852383 -0.22431906 0.81500006
0.019404765 -0.21655717 0.81500006
0.022509525 -0.21034764 0.81500006
0.023082225 -0.20697145 0.81700009
0.025614288 -0.20569049 0.81500006
0.077676378 -0.20739467 0.81560004
0.081114613 -0.20654446 0.81633341
0.027362669 -0.2025709 0.81620008
0.031657621 -0.20179954 0.81575006
0.068304762 -0.20103335 0.81500006
0.072433338 -0.20221268 0.8152858
0.076861434 -0.20333861 0.81725007
0.080970958 -0.20398526 0.81750005
0.03342953 -0.19980732 0.81633341
0.03793072 -0.19705169 0.81700003
0.042421144 -0.19594648 0.81580001
0.059203621 -0.19625698 0.81580013
0.063104577 -0.19692612 0.81599998
0.067694284 -0.19841178 0.81700003
0.072393022 -0.19927335 0.8173334
0.043208573 -0.19425239 0.8175
0.047366351 -0.1941267 0.81533337
0.052319326 -0.19360806 0.8164286
0.056490481 -0.19374421 0.81700003
0.060060006 -0.19422001 0.81900007
0.024239048 -0.20564097 0.82100004
0.024239048 -0.20407715 0.82100004
0.026584763 -0.20094953 0.82100004
0.077847622 -0.20146288 0.8215
0.081189528 -0.20179717 0.82233334
0.027417621 -0.19935811 0.82249999
0.032507621 -0.19935811 0.82249999
0.036403336 -0.1964962 0.82200003
0.068025723 -0.19625811 0.82100004
0.072313339 -0.19709811 0.82233334
0.077205248 -0.19947952 0.82300001
0.039877146 -0.1946943 0.82100004
0.043278813 -0.19211167 0.82249999
0.047747411 -0.1917728 0.82188886
0.052218918 -0.19131826 0.82185721
0.057326671 -0.19154477 0.82175004
0.062002622 -0.19324666 0.8215
0.067324765 -0.19414763 0.82200003
0.048596196 -0.1888981 0.82300001
0.052515239 -0.18889812 0.82300007
0.082634613 -0.20068097 0.8263334
0.028370954 -0.19781096 0.8275001
0.032291293 -0.19769131 0.82700008
0.036251906 -0.19544621 0.82749999
0.073945716 -0.19587812 0.82600003
0.077603094 -0.19735643 0.82725006
0.082543433 -0.19902153 0.82860005
0.038352191 -0.19270764 0.82860005
0.040726032 -0.191807 0.8276667
0.063136958 -0.19161163 0.82660007
0.067245714 -0.19165716 0.82680005
0.071462288 -0.19324593 0.82820004
0.043653529 -0.18896136 0.82740003
0.047435246 -0.18698284 0.82783341
0.052784242 -0.18671335 0.82722223
0.05749651 -0.18745017 0.82700002
0.061780427 -0.18779081 0.82811111
0.065530479 -0.18869621 0.82900006
0.060793336 -0.18395907 0.82900006
0.024593335 -0.19595334 0.83300006
0.028095715 -0.1962743 0.83100003
0.032071434 -0.1959962 0.83150005
0.078351438 -0.1960105 0.83100003
0.081664294 -0.19662812 0.8325001
0.028560001 -0.19436668 0.83300006
0.033055559 -0.19330892 0.83300012
0.036247432 -0.19200058 0.83100003
0.072372004 -0.19145925 0.83140004
0.07636413 -0.19315398 0.83233345
0.037902672 -0.18856363 0.83260012
0.041747894 -0.18724424 0.83157146
0.064105719 -0.18677716 0.83100003
0.067551188 -0.18759547 0.83200002
0.071400002 -0.18960668 0.83300006
0.043633334 -0.18484668 0.83300006
0.047743116 -0.18312286 0.83172739
0.053053658 -0.18291694 0.83144444
0.057820644 -0.1829654 0.83166671
0.062777147 -0.18278573 0.83175004
0.066322863 -0.18416986 0.83233345
0.02624286 -0.19642383 0.83500004
0.083235249 -0.19598702 0.83766669
0.0853962 -0.19633049 0.83800006
0.02471143 -0.1937032 0.83700007
0.027907411 -0.19269134 0.83722228
0.032124765 -0.19142637 0.83633339
0.073957145 -0.19006191 0.83500004
0.077854931 -0.19157875 0.83700001
0.080908008 -0.1932501 0.83780003
0.033383813 -0.18832515 0.8386001
0.036996879 -0.18703578 0.83671439
0.041352384 -0.18529049 0.83500004
0.069185719 -0.18529049 0.83500004
0.072560959 -0.18737705 0.83722228
0.076381907 -0.18869112 0.83833337
0.038330957 -0.18367097 0.83850002
0.042258095 -0.18259293 0.83722228
0.046548575 -0.18102477 0.8355
0.051690482 -0.18051907 0.83500004
0.057394292 -0.18095145 0.83700001
0.062823817 -0.18051907 0.83500004
0.067957386 -0.18234502 0.83700007
0.072271436 -0.1840705 0.83850002
0.043947622 -0.17978573 0.83900005
0.04730681 -0.17840043 0.83785719
0.051855553 -0.17790319 0.83766669
0.057463497 -0.17797397 0.838
0.063025087 -0.17870161 0.83766669
0.066800952 -0.17911017 0.83833337
0.048741907 -0.17499144 0.83900005
0.051938102 -0.17499146 0.83900011
0.055933338 -0.17499144 0.83900005
0.084300004 -0.1950943 0.84300005
0.085905723 -0.1950943 0.84300005
0.024888573 -0.19027716 0.84300005
0.027008574 -0.19066066 0.84233332
0.082498103 -0.19302954 0.84100002
0.029635239 -0.18982573 0.84100002
0.032623496 -0.18691716 0.84233344
0.036042858 -0.18502001 0.84100002
0.076936677 -0.18673192 0.84150004
0.034522861 -0.1838543 0.84300005
0.037703816 -0.18183684 0.84233344
0.041698098 -0.18042859 0.84200001
0.069682859 -0.1802143 0.84100002
0.072973341 -0.18229875 0.84200013
0.042926669 -0.17852953 0.84249997
0.046482384 -0.17631382 0.84150004
0.058469526 -0.17540859 0.84100002
0.062023818 -0.17613278 0.84140009
0.067050211 -0.17731065 0.84242857
0.052185722 -0.17422001 0.84300011
0.057002865 -0.17422001 0.84300011
0.061017148 -0.17422001 0.84300005
0.079671435 -0.19072859 0.84500003
0.082452074 -0.19149081 0.84600008
0.024184287 -0.18945476 0.84650004
0.027633337 -0.18772428 0.84663635
0.031385716 -0.18590002 0.84500003
0.079410478 -0.18743858 0.84650004
0.083037622 -0.18864715 0.8465001
0.028266668 -0.18494478 0.84800005
0.03338743 -0.183392 0.84680003
0.036278576 -0.18058525 0.84650004
0.073856518 -0.18074732 0.84600008
0.0769016 -0.18284224 0.84700012
0.038872387 -0.17855202 0.84680003
0.042526193 -0.17635238 0.84650016
0.068404764 -0.17624287 0.84500003
0.071309261 -0.17752098 0.84671444
0.04361143 -0.17363811 0.84800005
0.047573972 -0.17336316 0.84666669
0.052425597 -0.1719944 0.84687501
0.057250168 -0.17175049 0.84666663
0.0622162 -0.17197792 0.84620017
0.066901274 -0.17329493 0.84633344
0.070262864 -0.17363811 0.84800005
0.054110479 -0.1687924 0.84800005
0.060571432 -0.1687924 0.84800005
0.065417148 -0.1687924 0.84800005
0.085809529 -0.19509526 0.85000002
0.086213335 -0.19438668 0.85400003
0.027253971 -0.18538098 0.85000008
0.082319632 -0.18655431 0.8524
0.085400008 -0.18706667 0.85400003
0.026797464 -0.18352509 0.85266674
0.031832173 -0.18225758 0.85222226
0.077984139 -0.18106352 0.85000008
0.081956409 -0.18257061 0.85200006
0.085400008 -0.18300001 0.85400003
0.034376509 -0.1789251 0.85266674
0.037566353 -0.17702161 0.85133332
0.073184773 -0.17634414 0.8506667
0.077086575 -0.17770076 0.85200006
0.081745148 -0.17892765 0.85320008
0.086213335 -0.17974667 0.85400003
0.039202668 -0.17356534 0.85400003
0.042730618 -0.17219566 0.85114282
0.04776191 -0.17080955 0.85000008
0.052619051 -0.17080954 0.85000002
0.067190483 -0.17080955 0.85000008
0.072421908 -0.17263095 0.85200006
0.075640008 -0.17486668 0.85400003
0.043456513 -0.16813503 0.85377783
0.047921117 -0.16731542 0.85283345
0.052618191 -0.16700228 0.85236377
0.057747047 -0.16756038 0.85160011
0.06279067 -0.1671122 0.85179996
0.067453973 -0.16768552 0.85333341
0.071531907 -0.16907382 0.85350001
0.047986671 -0.16348001 0.85400003
0.052866668 -0.16348001 0.85400003
0.057368007 -0.16397603 0.85320008
0.061494611 -0.16389336 0.85333341
0.086686991 -0.19266795 0.85600013
0.027718097 -0.18098286 0.85600007
0.030979048 -0.18016763 0.85600007
0.032179814 -0.17821716 0.85760003
0.035626035 -0.17595619 0.85666674
0.078262866 -0.1752762 0.85600007
0.082416005 -0.17707124 0.85680008
0.086415246 -0.17853716 0.85600007
0.037408438 -0.17189716 0.8565715
0.074186675 -0.17038478 0.85600007
0.076965079 -0.17269334 0.85666674
0.038359687 -0.16813493 0.85700005
0.041600481 -0.16599762 0.85650003
0.06848 -0.16549334 0.85600007
0.072640963 -0.16704606 0.85700005
0.043614477 -0.16351543 0.85760003
0.048154768 -0.16221668 0.85699999
0.053010479 -0.16147971 0.85633343
0.057905085 -0.1614797 0.85633343
0.06280344 -0.1623082 0.85640001
0.067433529 -0.16343887 0.85720009
0.071091436 -0.16424572 0.85800004
0.053522859 -0.1589343 0.85800004
0.058017146 -0.15934287 0.85800004
0.027912384 -0.17896762 0.86200005
0.031569526 -0.17670955 0.86100006
0.08373715 -0.17650478 0.86200005
0.087020963 -0.17732573 0.86200005
0.032838099 -0.17486286 0.86200005
0.035260003 -0.17219907 0.86100006
0.078963183 -0.17186098 0.86066669
0.082687385 -0.17337596 0.86175007
0.087020963 -0.17322096 0.86200011
0.038584765 -0.1658324 0.86200005
0.074533336 -0.16626668 0.86000001
0.077566147 -0.16798182 0.86133337
0.041626908 -0.16199596 0.8612501
0.045100003 -0.16071907 0.86100006
0.064208895 -0.16093019 0.86066669
0.068282731 -0.16104357 0.86085725
0.073152378 -0.16218615 0.86127281
0.076348573 -0.16336954 0.86200005
0.043510478 -0.15762287 0.86200005
0.047638446 -0.15797716 0.86109096
0.052198946 -0.15641651 0.86088896
0.057892002 -0.15645468 0.86100006
0.063024767 -0.15729803 0.86145467
0.068139054 -0.15762287 0.86200011
0.071970165 -0.15789652 0.86200011
0.052540958 -0.15351811 0.86200005
0.056919374 -0.15297082 0.86200011
0.063213341 -0.15351811 0.86200011
0.024000954 -0.17711049 0.86900002
0.027036875 -0.17723225 0.86785722
0.030480955 -0.17547144 0.86500007
0.028900001 -0.17422573 0.86700004
0.032415923 -0.17293133 0.86642867
0.035423812 -0.17052858 0.86500007
0.083616674 -0.17094047 0.86500007
0.087323815 -0.17052858 0.86500007
0.033906352 -0.16787653 0.86833334
0.036149144 -0.16721088 0.86660004
0.079360329 -0.16613494 0.86500013
0.082444452 -0.16736096 0.86566675
0.086587623 -0.16740477 0.86588895
0.033932384 -0.16386858 0.86900002
0.03736119 -0.16287217 0.86700004
0.040366668 -0.16064286 0.86500007
0.078017473 -0.1623524 0.86533344
0.081528582 -0.16322117 0.8682
0.038316511 -0.1590562 0.86833334
0.041597418 -0.15731852 0.86614299
0.046133336 -0.15570001 0.86500007
0.067552388 -0.15570001 0.86500007
0.073044449 -0.15679844 0.86500013
0.077314973 -0.15757783 0.86757153
0.080279052 -0.15973049 0.86900002
0.042726673 -0.1535432 0.86833346
0.047016192 -0.15259928 0.86611122
0.051664628 -0.15193403 0.86500013
0.057254769 -0.15116905 0.86500007
0.06178572 -0.15158096 0.86500013
0.066954292 -0.15224239 0.86525011
0.071838416 -0.15275589 0.8670001
0.075727142 -0.15352334 0.86900002
0.047482859 -0.14906801 0.86860001
0.05203291 -0.14783861 0.86722231
0.056960113 -0.1477637 0.86677784
0.061810955 -0.14822143 0.86825007
0.066623338 -0.14938524 0.86900002
0.072002873 -0.14979908 0.86900008
0.05710572 -0.14483336 0.86900008
0.023252383 -0.17523049 0.87200004
0.026544765 -0.17502953 0.87100005
0.023280002 -0.17293715 0.87300003
0.027387407 -0.17179866 0.87144458
0.031521909 -0.17088193 0.87100005
0.024111429 -0.1654543 0.87300003
0.027414924 -0.16698952 0.87233341
0.031521909 -0.16673431 0.87100017
0.086270481 -0.16507524 0.87100005
0.028684288 -0.1625443 0.87300003
0.032161668 -0.16164216 0.87150013
0.035669528 -0.16092762 0.87100005
0.083047628 -0.16194192 0.87200004
0.086835243 -0.16328192 0.8725
0.032821909 -0.1582962 0.87250006
0.037352521 -0.15688233 0.8715716
0.078804769 -0.15512097 0.87100005
0.080924764 -0.15728381 0.87150007
0.038522862 -0.15326002 0.87300003
0.04176826 -0.15130731 0.87133348
0.077645585 -0.15161511 0.87128592
0.080648586 -0.15215144 0.87300003
0.042358417 -0.14701258 0.8721112
0.047045853 -0.14635172 0.87100017
0.052260004 -0.14516668 0.87100005
0.062629052 -0.14558145 0.87100005
0.067398816 -0.14661834 0.87100017
0.072242655 -0.1469743 0.871889
0.076739684 -0.14766032 0.87266678
0.042818572 -0.14342144 0.87300003
0.047391433 -0.1421743 0.87300009
0.052353758 -0.14210106 0.87255561
0.057309739 -0.14202826 0.8721112
0.062294081 -0.14202827 0.8721112
0.067086674 -0.14260232 0.87271434
0.071225718 -0.14328288 0.87300003
0.024166668 -0.17083335 0.87500006
0.024166668 -0.16833335 0.87500006
0.024249526 -0.16472954 0.87800002
0.026688812 -0.1626393 0.87575001
0.084166676 -0.16083334 0.87500006
0.087954484 -0.16172059 0.87620002
0.09114477 -0.16138478 0.87800002
0.029166669 -0.15916668 0.87500006
0.032500006 -0.15694445 0.87500012
0.035833336 -0.15583335 0.87500006
0.083615437 -0.15738155 0.87620002
0.087381914 -0.15929429 0.87800002
0.034283813 -0.15469524 0.87800002
0.036985397 -0.15211779 0.87600011
0.08333867 -0.15314706 0.8768
0.038068026 -0.14809935 0.87714297
0.0787016 -0.14655557 0.87600011
0.081668578 -0.14813678 0.8768
0.039300956 -0.14466096 0.87800002
0.042222671 -0.14169431 0.87620002
0.068333335 -0.14083335 0.87500006
0.073097937 -0.14202493 0.87550008
0.077164918 -0.14346367 0.87750006
0.081110485 -0.14466096 0.87800002
0.043710165 -0.13892731 0.87700003
0.047581431 -0.13856906 0.87650007
0.052559048 -0.13849048 0.87600011
0.057767078 -0.13804273 0.87542868
0.06257239 -0.13849048 0.87600011
0.06713976 -0.13886787 0.87575001
0.072686434 -0.13910644 0.87725002
0.024360001 -0.16380002 0.88200003
0.02657905 -0.16087747 0.88133347
0.091352388 -0.1600762 0.88000005
0.02773926 -0.15719791 0.88266671
0.031847619 -0.15588573 0.88000005
0.088209525 -0.1565143 0.88000005
0.091771439 -0.15672383 0.88000005
0.027753655 -0.15223153 0.88311112
0.032733966 -0.15192509 0.88133335
0.084647626 -0.15085715 0.88000005
0.088000007 -0.15169525 0.88000005
0.091352388 -0.15337144 0.88000005
0.028106287 -0.14827619 0.88360006
0.032775242 -0.14707284 0.8824445
0.036038097 -0.14750478 0.88000005
0.08432477 -0.14683239 0.88100004
0.087915003 -0.14708358 0.88125002
0.034518097 -0.14312382 0.88400006
0.037622858 -0.1424807 0.88145459
0.079060324 -0.14219683 0.88000005
0.083066672 -0.14221716 0.88100004
0.086973719 -0.14316192 0.88320011
0.090083815 -0.14228192 0.88400006
0.038727622 -0.1389143 0.88400006
0.042841278 -0.13775747 0.88200009
0.047843181 -0.13597652 0.88133335
0.052800007 -0.13660954 0.88000005
0.056990482 -0.13660954 0.88000005
0.063250288 -0.13606173 0.88080007
0.068172388 -0.13655381 0.88100004
0.073059767 -0.13666977 0.88175005
0.077982642 -0.13835473 0.88044453
0.082041278 -0.13915876 0.88200009
0.085032389 -0.1389143 0.88400006
0.044620954 -0.13386287 0.88400006
0.048281144 -0.13306819 0.88320011
0.052939691 -0.13276699 0.88233328
0.057960004 -0.13271718 0.88199997
0.062627092 -0.13243832 0.88200003
0.068142861 -0.13292 0.88333338
0.072403818 -0.13386287 0.88400006
0.054723814 -0.12881143 0.88400006
0.024525717 -0.16152954 0.88800001
0.024553334 -0.15748 0.88900006
0.024525717 -0.15392096 0.88800001
0.027469525 -0.14664859 0.88750005
0.028765082 -0.14297812 0.88833332
0.032493744 -0.1426603 0.8878572
0.087855242 -0.14107525 0.88700002
0.092416957 -0.14175107 0.88700002
0.028786669 -0.13970001 0.88900006
0.033866666 -0.13970001 0.88900006
0.038480479 -0.13785049 0.88800007
0.04195651 -0.13656984 0.88700002
0.077718101 -0.13600667 0.88700002
0.082428388 -0.13692859 0.88859999
0.087738417 -0.13823652 0.88866663
0.091188386 -0.13821964 0.88819999
0.02904794 -0.13395461 0.88833332
0.039793335 -0.13462001 0.88900006
0.043163814 -0.13315843 0.88866675
0.047755241 -0.13143429 0.88750005
0.066736192 -0.1309381 0.88700002
0.072175816 -0.13167296 0.88740009
0.076770954 -0.13302524 0.88824999
0.081280008 -0.13462001 0.88900006
0.048505403 -0.12831397 0.88833332
0.052804764 -0.12772232 0.88814294
0.057491668 -0.12766549 0.88775003
0.061983101 -0.12756215 0.88849998
0.066870369 -0.12781429 0.88877779
0.071966678 -0.12784667 0.88900006
0.075353339 -0.12954001 0.88900006
0.055880003 -0.12446001 0.88900006
0.023760002 -0.16207716 0.89100003
0.031397145 -0.14001429 0.89100003
0.028876429 -0.13758501 0.89175004
0.033130482 -0.13762192 0.89200008
0.037054293 -0.13718574 0.89100003
0.086554289 -0.13662001 0.89100003
0.03311969 -0.13332415 0.89166665
0.038025081 -0.13275778 0.89166665
0.041648574 -0.13089858 0.89250004
0.078917146 -0.13152859 0.89100003
0.082750797 -0.13219145 0.89166665
0.086875364 -0.13317893 0.89212501
0.043631908 -0.12863192 0.8925001
0.04632429 -0.12664858 0.89250004
0.050065719 -0.12643716 0.89100003
0.077466995 -0.12766255 0.89166665
0.080750003 -0.12919858 0.89250004
0.048477143 -0.12331715 0.89300007
0.051980004 -0.12257377 0.89209092
0.057303216 -0.12224466 0.89137495
0.061817151 -0.12278458 0.89159995
0.067112394 -0.12317906 0.89200002
0.072209522 -0.12317906 0.89200002
0.076260015 -0.12388477 0.89300007
0.056629717 -0.11886858 0.89280003
0.034133337 -0.13056001 0.89600003
0.036775239 -0.13085143 0.89800006
0.036753811 -0.12864144 0.89750004
0.041289844 -0.12671843 0.89700001
0.045226671 -0.12544 0.89600003
0.079360008 -0.12544 0.89600003
0.082878917 -0.12730777 0.89714301
0.086379051 -0.12914096 0.89800006
0.043617144 -0.12400953 0.89800006
0.046701275 -0.12216159 0.89700001
0.050346669 -0.12032001 0.89600003
0.063146666 -0.12032001 0.89600003
0.067563817 -0.12058859 0.89800012
0.071840003 -0.12058858 0.89800006
0.077653341 -0.12259557 0.89600009
0.081247628 -0.12400953 0.89800006
0.048748575 -0.1188781 0.89800006
0.052090801 -0.1187016 0.89666671
0.062340956 -0.1187016 0.89666671
0.06670858 -0.1188781 0.89800006
0.038657144 -0.12713811 0.90200007
0.084951431 -0.12614001 0.90100002
0.086667627 -0.12785619 0.90100002
0.042428002 -0.12315907 0.9018001
0.045479052 -0.12099144 0.90100002
0.074654289 -0.12099144 0.90100002
0.076370478 -0.12099144 0.90100002
0.084093332 -0.12442382 0.90100002
0.043860003 -0.11954001 0.90300006
0.072080001 -0.11927525 0.90100002
0.038049527 -0.12625524 0.90800005
0.036400001 -0.12740001 0.91000003
