# .PCD v0.7 - Point Cloud Data file format
VERSION 0.7
FIELDS x y z
SIZE 4 4 4
TYPE F F F
COUNT 1 1 1
WIDTH 813
HEIGHT 1
VIEWPOINT 0 0 0 1 0 0 0
POINTS 813
DATA ascii
0.038508199 -0.27720687 0.7572
0.042423811 -0.27683336 0.75500005
0.047457144 -0.27683336 0.75500005
0.052698452 -0.2767078 0.75609094
0.05558667 -0.27937716 0.75800002
0.039704766 -0.27360192 0.75800002
0.042517468 -0.27311939 0.75666672
0.047503151 -0.27287859 0.75661552
0.052172706 -0.27312005 0.7573334
0.032700002 -0.28122002 0.76300001
0.035513334 -0.28048289 0.76100004
0.057980955 -0.28048289 0.76100004
0.060155243 -0.28048289 0.76100004
0.029793335 -0.27976668 0.76300001
0.032700002 -0.27802268 0.76300001
0.03608305 -0.27722096 0.7608
0.057458103 -0.27738643 0.76190919
0.060797781 -0.27879781 0.76300001
0.033639051 -0.27419716 0.76233339
0.037941828 -0.27283999 0.76125002
0.042732861 -0.27088237 0.76050007
0.047561117 -0.27088243 0.76050007
0.052877828 -0.27121827 0.76057154
0.056364447 -0.27286765 0.76200002
0.042873334 -0.26959336 0.76300001
0.047353528 -0.26770803 0.76260006
0.052028194 -0.26768702 0.76226681
0.056437783 -0.26910892 0.76300001
0.02987143 -0.28195715 0.76500005
0.029049391 -0.27727199 0.76528573
0.031328574 -0.27612859 0.76500005
0.061928578 -0.2768572 0.76500005
0.029364765 -0.27334231 0.76700002
0.032871433 -0.27295294 0.76700008
0.036726512 -0.27168432 0.76616669
0.040071432 -0.27030003 0.76500005
0.058722865 -0.27234003 0.76500005
0.061928578 -0.27248573 0.76500005
0.028525716 -0.26770288 0.76800001
0.034377147 -0.26989716 0.76800001
0.038269684 -0.26813194 0.76783335
0.042161338 -0.26712674 0.76593345
0.046628572 -0.2659286 0.76500005
0.053717785 -0.26567337 0.76566672
0.057812486 -0.26732573 0.76622218
0.061380003 -0.26744074 0.76725006
0.038765717 -0.26258287 0.76800001
0.04293273 -0.26231927 0.76645464
0.047397785 -0.26251304 0.76566672
0.052478485 -0.26248181 0.76600009
0.056861144 -0.26354575 0.76740009
0.043473471 -0.25782695 0.76628578
0.047522224 -0.25808161 0.7676667
0.051839408 -0.25809655 0.76662505
0.028600002 -0.27060002 0.77000004
0.031240001 -0.27118668 0.77000004
0.035933334 -0.27060002 0.77000004
0.032349333 -0.26735634 0.77080017
0.036520001 -0.26737335 0.77000004
0.059400003 -0.26620001 0.77000004
0.032233745 -0.26364219 0.77171433
0.037336625 -0.26296037 0.77145457
0.040333338 -0.26228893 0.7700001
0.0583 -0.26180002 0.77000004
0.061355561 -0.26302224 0.7700001
0.038256668 -0.25897145 0.77250004
0.041066669 -0.25813335 0.77000004
0.053533338 -0.25813335 0.77000004
0.056100003 -0.25850001 0.77000004
0.034038734 -0.2619575 0.77700007
0.036166668 -0.26054764 0.77500004
0.034780003 -0.25974002 0.77700001
0.036166668 -0.25907144 0.77500004
0.054159053 -0.25002193 0.77900004
0.055642862 -0.25002193 0.77900004
0.049707621 -0.24705431 0.77900004
0.044053335 -0.25088 0.78400004
0.04554667 -0.25162667 0.78400004
0.05749334 -0.25088 0.78400004
0.04254752 -0.24707623 0.78377777
0.047206309 -0.24725384 0.78107703
0.05279221 -0.2468788 0.78272736
0.057288334 -0.24706788 0.78375
0.044053338 -0.24266669 0.7840001
0.047214862 -0.24249373 0.78200001
0.052757252 -0.24258669 0.78266668
0.057972576 -0.2421722 0.78240007
0.047962703 -0.23807764 0.78283334
0.052743677 -0.23771025 0.78314292
0.057280004 -0.2362667 0.78400004
0.062272001 -0.23579736 0.78400004
0.047253337 -0.23264004 0.78400004
0.052586667 -0.23285337 0.78400004
0.056867432 -0.23269144 0.78360003
0.062720001 -0.2325867 0.78399998
0.047786668 -0.22773334 0.78400004
0.054506671 -0.22773334 0.78400004
0.056000005 -0.22848001 0.78400004
0.037120547 -0.2559973 0.78628582
0.033814289 -0.25022572 0.78900003
0.03747461 -0.25259003 0.78700006
0.042240821 -0.25248247 0.78600001
0.058638103 -0.25276765 0.78600001
0.062330008 -0.25081766 0.78850001
0.033020955 -0.24840763 0.78800005
0.037745908 -0.24820307 0.78640014
0.059287623 -0.24840763 0.78800005
0.062525995 -0.24742533 0.78828585
0.065750003 -0.24721999 0.78900003
0.03839102 -0.24371351 0.78600001
0.04216953 -0.24228767 0.78600007
0.054645717 -0.24029145 0.78600001
0.056891438 -0.24228764 0.78600001
0.038322859 -0.23519716 0.78900003
0.042782743 -0.23793823 0.78812504
0.045662861 -0.23729716 0.78600001
0.051838573 -0.23748431 0.78600001
0.057640005 -0.2387943 0.78600001
0.060634289 -0.23729716 0.78600001
0.038460955 -0.23264787 0.78800005
0.042668574 -0.23280573 0.78600007
0.046411432 -0.23130858 0.78600001
0.051950861 -0.23190744 0.78600001
0.058388576 -0.23205715 0.78600001
0.062131435 -0.23130858 0.78600001
0.03907543 -0.22801487 0.78600001
0.042854376 -0.22803156 0.78690922
0.047010288 -0.22741602 0.78600007
0.052290097 -0.22768785 0.78660023
0.057909645 -0.2280768 0.78712511
0.061632387 -0.22881335 0.78600001
0.044334289 -0.22467716 0.78900003
0.047857858 -0.22277334 0.78825009
0.051828858 -0.22293858 0.78870004
0.048842859 -0.21866573 0.78900003
0.033985715 -0.25602573 0.79300004
0.033426356 -0.25258064 0.79166669
0.066780008 -0.25158954 0.79140002
0.070237145 -0.25149429 0.79300004
0.033230476 -0.24771813 0.79300004
0.035873812 -0.2473405 0.79300004
0.061773337 -0.24634002 0.79100001
0.068108894 -0.24755208 0.79166669
0.070992395 -0.24847335 0.7930001
0.032777335 -0.24152517 0.79300004
0.037732005 -0.24194668 0.79240006
0.061773337 -0.24483335 0.79100001
0.06830667 -0.24303192 0.79250002
0.070237145 -0.24243145 0.79300004
0.032447938 -0.23770128 0.79233342
0.037392579 -0.23778212 0.79160005
0.042940002 -0.23880668 0.79100001
0.032393336 -0.2342867 0.79100007
0.035406668 -0.23353335 0.79100001
0.041935559 -0.2257489 0.79100007
0.058308005 -0.22584935 0.79100001
0.043747626 -0.2225143 0.79200006
0.046330001 -0.22185668 0.79100001
0.053988889 -0.22198224 0.79100001
0.058072284 -0.22248393 0.79188889
0.061513338 -0.22227716 0.79250002
0.065705717 -0.22204001 0.79300004
0.04391171 -0.21783228 0.7930001
0.04720553 -0.2171783 0.79180002
0.052527886 -0.21785034 0.79099995
0.057864841 -0.21723789 0.79223084
0.062181275 -0.21876733 0.7930001
0.065705717 -0.21977431 0.79300004
0.04455905 -0.21373239 0.79300004
0.048062861 -0.21339016 0.79266679
0.05233429 -0.21355848 0.79180002
0.056642864 -0.21335478 0.79300004
0.028880002 -0.25004002 0.79800004
0.028843177 -0.24668989 0.79700005
0.032219052 -0.24638048 0.796
0.071990162 -0.24577177 0.79566669
0.075904772 -0.24593145 0.79700005
0.028995622 -0.24243982 0.79700005
0.031042859 -0.24304287 0.79500002
0.071201593 -0.24263939 0.79533339
0.029602859 -0.23910001 0.79700005
0.029640002 -0.22724001 0.79800004
0.031160003 -0.22724001 0.79800004
0.041800003 -0.22572002 0.79800004
0.028880002 -0.22344002 0.79800004
0.031530239 -0.22260977 0.79775006
0.038253337 -0.22217333 0.79800004
0.041380718 -0.22209072 0.79725003
0.064357147 -0.22184287 0.79500002
0.06820064 -0.22202829 0.79566669
0.071688987 -0.22265634 0.79714286
0.032984 -0.217664 0.79799998
0.037240002 -0.21736 0.79800004
0.041157503 -0.21717419 0.79662502
0.06334763 -0.21679525 0.79500002
0.067742102 -0.21765144 0.7974
0.070680007 -0.21736002 0.79800004
0.033693336 -0.21305335 0.79800004
0.037457149 -0.21247429 0.79800004
0.042676784 -0.21233627 0.79692322
0.047535107 -0.21103637 0.79585719
0.052330792 -0.21083748 0.79633343
0.057710133 -0.21187899 0.79636365
0.062755391 -0.21231468 0.79684621
0.067105405 -0.21372351 0.79766673
0.04826 -0.20862 0.79800004
0.052060001 -0.20862 0.79800004
0.056620006 -0.20862 0.79800004
0.060800005 -0.20900001 0.79800004
0.073523819 -0.24266669 0.80000001
0.077049211 -0.242587 0.80100012
0.081116579 -0.24151659 0.80200005
0.072740115 -0.2383727 0.80022228
0.077058837 -0.23728067 0.80111116
0.081333339 -0.23714286 0.80000007
0.073904768 -0.23390478 0.80000001
0.077294864 -0.23341222 0.80039996
0.080761909 -0.23390478 0.80000001
0.023737144 -0.22588573 0.80400002
0.027168164 -0.22706968 0.80200011
0.032761909 -0.22628574 0.80000007
0.037028573 -0.22689524 0.80000001
0.040380955 -0.22704762 0.80000001
0.077337146 -0.22588573 0.80400002
0.027116885 -0.22201595 0.80109096
0.033676196 -0.22323811 0.80000001
0.0368254 -0.22349209 0.80000007
0.040380955 -0.22400001 0.80000001
0.073523819 -0.22133335 0.80000001
0.076975428 -0.22251792 0.80180007
0.082451947 -0.22258323 0.80363637
0.086525723 -0.22205716 0.80400002
0.027945716 -0.21778381 0.80180007
0.031238098 -0.21638095 0.80000001
0.072571434 -0.21733335 0.80000007
0.077375621 -0.21759585 0.8028
0.081690013 -0.21828383 0.8035
0.086525723 -0.21899429 0.80400002
0.029512763 -0.21300688 0.8028
0.03247704 -0.21156783 0.80133337
0.036571428 -0.21104763 0.80000001
0.040380955 -0.21104763 0.80000001
0.068293892 -0.21119729 0.8005715
0.072011672 -0.21297596 0.80224997
0.076093338 -0.21374954 0.80299997
0.032897782 -0.20810096 0.80333328
0.037541337 -0.20800459 0.80120009
0.042577151 -0.20769867 0.80120015
0.047161911 -0.20662262 0.80057156
0.052876193 -0.20708573 0.80000001
0.057619594 -0.20662262 0.8005715
0.062466513 -0.20749733 0.80150002
0.066483818 -0.20831621 0.80240005
0.071211435 -0.20904002 0.80400002
0.043645717 -0.20444573 0.80400002
0.048134051 -0.20399882 0.80224997
0.052650668 -0.20342629 0.80120009
0.056958336 -0.20336169 0.80274999
0.060491432 -0.20444573 0.80400002
0.018622477 -0.23131888 0.80800003
0.022316191 -0.23162667 0.80800003
0.025394287 -0.23085716 0.80800003
0.018468572 -0.22854859 0.80800003
0.02230143 -0.2280224 0.80750006
0.079064764 -0.22721526 0.80600005
0.08220382 -0.22740382 0.80666679
0.085787944 -0.22714797 0.80666673
0.023840478 -0.22302239 0.80750006
0.085973337 -0.22491239 0.80600005
0.023855239 -0.21931431 0.80800003
0.02574667 -0.21712098 0.80700004
0.08305639 -0.21692915 0.80600005
0.085205719 -0.21723621 0.80600011
0.023855239 -0.21008001 0.80800003
0.026926292 -0.21233545 0.80779999
0.073918097 -0.21191812 0.80680007
0.078106135 -0.21278641 0.80742866
0.082423382 -0.21245353 0.80745459
0.085894927 -0.21230003 0.80766672
0.028924767 -0.20836669 0.80633342
0.033412859 -0.20623288 0.80650002
0.036619686 -0.20614731 0.80666673
0.067349844 -0.20717144 0.80666673
0.071565717 -0.20854096 0.80800003
0.083365083 -0.20802796 0.80800003
0.085417151 -0.20777145 0.80800003
0.034628574 -0.20392382 0.80800003
0.037976384 -0.204336 0.80720007
0.042092148 -0.2035412 0.80725002
0.046896908 -0.20219594 0.80725008
0.052540325 -0.20119177 0.80733341
0.057964195 -0.20126097 0.80720007
0.062246144 -0.20312996 0.806889
0.066380322 -0.20426731 0.80733341
0.019285716 -0.23528573 0.81000006
0.020828573 -0.23528573 0.81000006
0.018560002 -0.22813335 0.81200004
0.021508954 -0.22638746 0.81240004
0.021679049 -0.22222003 0.81300008
0.022443386 -0.21748425 0.81266677
0.025457144 -0.21522859 0.81000006
0.022426244 -0.21249484 0.8120001
0.07482858 -0.21060002 0.81000006
0.078202866 -0.2109924 0.81300008
0.081000008 -0.21060002 0.81000006
0.027099524 -0.20750761 0.81300008
0.031411435 -0.20596154 0.81240004
0.068657145 -0.20597143 0.81000006
0.072136909 -0.20673501 0.81225002
0.076606199 -0.20931478 0.8125
0.081783496 -0.20871177 0.81266677
0.033611812 -0.20368648 0.8132
0.037882116 -0.20178309 0.81177789
0.042480957 -0.20081811 0.81100005
0.048660003 -0.20081811 0.81100005
0.051813334 -0.20029335 0.81200004
0.058773339 -0.20029335 0.81200004
0.062886856 -0.20071316 0.81120008
0.067468189 -0.20224611 0.81240004
0.071551435 -0.20354509 0.8136667
0.038761906 -0.1992362 0.81400001
0.042602539 -0.1982978 0.81333345
0.047024053 -0.19873454 0.81275004
0.052817147 -0.19795506 0.8132
0.057121672 -0.19827645 0.81325006
0.06279429 -0.1992362 0.81400001
0.055041909 -0.19458477 0.81400001
0.01849962 -0.22651298 0.81620008
0.019074287 -0.22345002 0.8175
0.019404763 -0.21578097 0.81500006
0.022509525 -0.21034764 0.81500006
0.023349289 -0.20703405 0.81725007
0.026390478 -0.20569049 0.81500006
0.077657148 -0.20734385 0.81540006
0.081889726 -0.20651336 0.81580013
0.027474152 -0.20366846 0.81757152
0.032197144 -0.2018926 0.81660002
0.072573811 -0.20142144 0.81500006
0.076707408 -0.20296352 0.81722236
0.080970958 -0.20398526 0.81750005
0.037542429 -0.19761793 0.81663656
0.04274286 -0.19583905 0.81599998
0.047347628 -0.1963762 0.81500006
0.052004766 -0.19715239 0.81500006
0.059026193 -0.19649571 0.81550002
0.06269905 -0.19665201 0.81680006
0.067554861 -0.19814861 0.81720012
0.072141096 -0.19885729 0.81700009
0.043680005 -0.19422001 0.81900007
0.04740572 -0.19428478 0.8160001
0.052318778 -0.19405268 0.8164286
0.056768097 -0.19401525 0.81650007
0.062400006 -0.19422001 0.81900007
0.023625335 -0.20229851 0.82140011
0.027079811 -0.20177089 0.82180005
0.030494288 -0.20094953 0.82100004
0.078451112 -0.20147082 0.82100004
0.081189528 -0.20179717 0.82233334
0.024298096 -0.19987144 0.82300001
0.027433336 -0.19908762 0.82300007
0.032401334 -0.19895373 0.82180005
0.035735559 -0.19693875 0.82166672
0.068807617 -0.19625811 0.82100004
0.072844222 -0.19659907 0.82242858
0.077246673 -0.19914725 0.82260001
0.039095242 -0.1946943 0.82100004
0.043074608 -0.19239862 0.82233334
0.047760744 -0.19182467 0.82211113
0.052255478 -0.19160312 0.82200003
0.057125397 -0.19172098 0.82166672
0.062022384 -0.19232762 0.82175004
0.067224629 -0.19362165 0.8221429
0.048596196 -0.1888981 0.82300001
0.052515239 -0.18889812 0.82300007
0.057218097 -0.18889812 0.82300007
0.081714287 -0.20035715 0.82500005
0.028640321 -0.19732541 0.82766676
0.032291751 -0.19742922 0.82700008
0.036493018 -0.19559082 0.82700008
0.074034289 -0.19532764 0.82700002
0.077523135 -0.19701512 0.82700008
0.082011431 -0.19871905 0.82800001
0.038352191 -0.19270764 0.82860005
0.04048286 -0.19201927 0.82700008
0.062857144 -0.19092858 0.82500005
0.067598514 -0.19154765 0.82671434
0.070971429 -0.19319907 0.82800007
0.043347891 -0.18882003 0.82757151
0.047425561 -0.18694493 0.82766664
0.052770481 -0.18666321 0.82700008
0.05757387 -0.18691523 0.82811117
0.061982103 -0.18799335 0.82800007
0.066239052 -0.18925621 0.82800007
0.028273335 -0.19632415 0.83233345
0.03207143 -0.1959962 0.83150005
0.035614289 -0.19548286 0.83100003
0.078351438 -0.1960105 0.83100003
0.081614293 -0.19650954 0.83200002
0.033320002 -0.19357336 0.83300006
0.036264576 -0.1920924 0.83140004
0.072577149 -0.19186604 0.83133334
0.076333344 -0.19307619 0.83200002
0.038313337 -0.18892604 0.83233345
0.041451119 -0.18719018 0.83166671
0.064105719 -0.18677716 0.83100003
0.067363955 -0.18782546 0.83214295
0.070437148 -0.18915144 0.83100003
0.043633334 -0.18484668 0.83300006
0.047532864 -0.18300205 0.83183348
0.053053658 -0.18291694 0.8314445
0.057805613 -0.18291694 0.83144444
0.062573023 -0.1829654 0.83166677
0.065846674 -0.18484668 0.83300006
0.026274288 -0.19586192 0.83600003
0.083002865 -0.1963324 0.83800006
0.085498102 -0.19736478 0.83900005
0.028074548 -0.19289774 0.8379091
0.032255001 -0.1919374 0.83625001
0.035785716 -0.19006191 0.83500004
0.07325048 -0.19028953 0.83600003
0.077947944 -0.19180827 0.838
0.08104413 -0.19423589 0.83700007
0.033826351 -0.18884161 0.83900011
0.037265003 -0.18712835 0.83700001
0.041352384 -0.18529049 0.83500004
0.068655565 -0.18582067 0.83500004
0.072579794 -0.18742679 0.83744448
0.07670857 -0.1893743 0.83900005
0.038330957 -0.18367097 0.83850002
0.042236086 -0.18249555 0.83677781
0.046919055 -0.18051907 0.83500004
0.052485719 -0.18051906 0.83500004
0.058191434 -0.18095145 0.83700007
0.062922865 -0.18080732 0.83633339
0.067757994 -0.18254402 0.83700007
0.072359815 -0.18385278 0.8386001
0.043947622 -0.17978573 0.83900005
0.04730681 -0.17840044 0.83785719
0.05185556 -0.17790318 0.83766669
0.057451915 -0.17793858 0.83783329
0.063074611 -0.17884383 0.83833337
0.067120001 -0.17978573 0.83900005
0.048741907 -0.17499144 0.83900005
0.051139049 -0.17499144 0.83900005
0.055134289 -0.17499144 0.83900005
0.080896199 -0.19222859 0.84100002
0.028066665 -0.18924859 0.84200001
0.032677382 -0.18724383 0.84200007
0.036042858 -0.18502001 0.84100002
0.077261105 -0.18714246 0.84128577
0.034522861 -0.1838543 0.84300005
0.037703812 -0.18183684 0.84233332
0.041698098 -0.18042859 0.84200001
0.069682859 -0.1802143 0.84100002
0.072956003 -0.1819884 0.84180003
0.042926669 -0.17852953 0.84249997
0.046510477 -0.17641811 0.84200001
0.053663813 -0.17540859 0.84100002
0.057668574 -0.17540859 0.84100002
0.062053151 -0.1762162 0.84180003
0.067119271 -0.17729028 0.84233338
0.051382862 -0.17422001 0.84300005
0.060214289 -0.17422001 0.84300005
0.084800005 -0.19705907 0.84800005
0.086415246 -0.19786668 0.84800005
0.082232863 -0.19268239 0.84650004
0.028182385 -0.18681479 0.84549999
0.031385716 -0.18590002 0.84500003
0.079765722 -0.18772952 0.84600008
0.081280954 -0.18911906 0.84500003
0.027862858 -0.18454096 0.84800005
0.033303495 -0.18289524 0.84600008
0.036278576 -0.18058525 0.84650004
0.074038103 -0.18107145 0.84500003
0.0769016 -0.18284222 0.84700006
0.038989209 -0.17800224 0.84700006
0.042507984 -0.17627418 0.84612513
0.068647623 -0.17525335 0.84800005
0.071549766 -0.17776358 0.84650004
0.04361143 -0.17363811 0.84800005
0.047573972 -0.17336318 0.84666681
0.052619055 -0.17282479 0.8462857
0.057227626 -0.17329495 0.84633344
0.062098663 -0.17258364 0.84680003
0.066713333 -0.17312764 0.84650004
0.065417148 -0.1687924 0.84800005
0.087229721 -0.19638707 0.85280007
0.083707944 -0.19260828 0.85333341
0.086620003 -0.19357334 0.85400003
0.082391039 -0.18714586 0.85171443
0.085400008 -0.18950668 0.85400003
0.028433334 -0.18359715 0.85300004
0.031887077 -0.18239973 0.8522858
0.077984139 -0.18106352 0.85000008
0.081956409 -0.18257061 0.85200006
0.085400008 -0.18300001 0.85400003
0.03489143 -0.1785143 0.85200006
0.037146289 -0.17729259 0.85160011
0.073184773 -0.17634414 0.8506667
0.077066042 -0.177654 0.85177785
0.082083181 -0.17879304 0.85333341
0.086213335 -0.17974667 0.85400003
0.039202668 -0.17356534 0.85400003
0.042701229 -0.17208084 0.85057139
0.04776191 -0.17080955 0.85000008
0.052619051 -0.17080955 0.85000008
0.057476193 -0.17080955 0.85000008
0.063952386 -0.17080954 0.85000002
0.067190491 -0.17080955 0.85000008
0.072200432 -0.17278838 0.85177785
0.075640008 -0.17405334 0.85400003
0.043324087 -0.16876791 0.85371435
0.047930166 -0.16734827 0.8530001
0.052804776 -0.16734859 0.8530001
0.05777334 -0.16763926 0.85200018
0.062601909 -0.16730113 0.85163647
0.067453973 -0.16768552 0.85333341
0.071377538 -0.16860573 0.85360003
0.052866675 -0.16348001 0.85400003
0.057368007 -0.16397603 0.85320008
0.061494611 -0.16389334 0.85333341
0.086686991 -0.19266795 0.85600013
0.027718097 -0.1817981 0.85600007
0.031404287 -0.18068048 0.85650003
0.032833528 -0.17756344 0.85760003
0.035626035 -0.17595619 0.85666674
0.078262866 -0.1752762 0.85600007
0.081252076 -0.1763632 0.85600013
0.086415246 -0.17853716 0.85600007
0.037396193 -0.17184028 0.85628581
0.074186675 -0.17038478 0.85600007
0.077552117 -0.17224492 0.85714293
0.038677335 -0.16825907 0.85680008
0.042900953 -0.16622286 0.85640013
0.06848 -0.16549334 0.85600007
0.072916202 -0.16687508 0.85640013
0.075817145 -0.16875429 0.85600007
0.043614481 -0.16351543 0.85760003
0.048148572 -0.1623996 0.85688889
0.052990481 -0.16141716 0.85600007
0.057881907 -0.16141716 0.85600007
0.063048713 -0.16187376 0.8565715
0.067433529 -0.16343887 0.85720009
0.071091436 -0.16424572 0.85800004
0.049845718 -0.15934287 0.85800004
0.053329531 -0.15812248 0.8577143
0.057663243 -0.15861487 0.85760003
0.061285719 -0.15852574 0.85800004
0.027847622 -0.18100953 0.86000001
0.028186034 -0.17924128 0.86200011
0.030922543 -0.17814669 0.86200011
0.08373715 -0.17732573 0.86200005
0.087020963 -0.17814668 0.86200005
0.033111751 -0.17431557 0.86200011
0.035260003 -0.17219907 0.86100006
0.079632387 -0.17157906 0.86200005
0.081274293 -0.17404191 0.86200005
0.037353337 -0.1674743 0.86200005
0.040133335 -0.16626668 0.86000001
0.074533336 -0.16626668 0.86000001
0.077353977 -0.16782638 0.861
0.041626904 -0.16199595 0.86125004
0.045047622 -0.1613524 0.86000001
0.06485524 -0.16008572 0.86200005
0.06830585 -0.16109717 0.86114293
0.072996959 -0.16239619 0.86120003
0.076348573 -0.16336954 0.86200005
0.043510478 -0.15844382 0.86200005
0.047413185 -0.1578186 0.86083335
0.051999625 -0.15567125 0.86120003
0.058014292 -0.1560038 0.86100006
0.063379474 -0.15694307 0.86177784
0.068139054 -0.15762287 0.86200011
0.071970165 -0.15789652 0.86200011
0.052130479 -0.15310763 0.86200005
0.056919374 -0.15297079 0.86200011
0.063213341 -0.15351811 0.86200011
0.027002383 -0.17706574 0.86575013
0.030480955 -0.17629525 0.86500007
0.084303185 -0.17602065 0.86500013
0.087323815 -0.17629525 0.86500007
0.028392702 -0.17394191 0.86833334
0.031995479 -0.17236644 0.8670001
0.083410725 -0.17197025 0.86500013
0.087323815 -0.17217621 0.86500013
0.03292362 -0.16859066 0.86860001
0.036165524 -0.16728896 0.8670001
0.079250485 -0.16690384 0.86500007
0.082540005 -0.16755494 0.86666673
0.086765826 -0.16774806 0.86766672
0.033932384 -0.16386858 0.86900002
0.037154604 -0.16266572 0.8670001
0.040366668 -0.16064286 0.86500007
0.074966669 -0.16064286 0.86500007
0.077639058 -0.16203526 0.86540002
0.08119829 -0.16355221 0.8682
0.038316511 -0.15905622 0.86833334
0.041855481 -0.15732215 0.86600006
0.046133336 -0.15570001 0.86500007
0.067552388 -0.15570001 0.86500007
0.073044449 -0.15679842 0.86500013
0.077067308 -0.15771018 0.86700004
0.043278418 -0.15409431 0.86833334
0.047040317 -0.15267758 0.86655563
0.051570483 -0.1514162 0.86500007
0.057254769 -0.15116906 0.86500007
0.06178572 -0.15158097 0.86500013
0.066954292 -0.15224239 0.86525011
0.071820006 -0.15271631 0.8667779
0.075727142 -0.15352336 0.86900002
0.047973812 -0.14888525 0.86849999
0.052032914 -0.14783862 0.86722231
0.056975141 -0.14780116 0.8670001
0.0617931 -0.14817882 0.86799997
0.066676013 -0.14906801 0.86860001
0.071175247 -0.14979906 0.86900002
0.057519529 -0.14441954 0.86900002
0.025715239 -0.17502953 0.87100005
0.024111429 -0.17210573 0.87300003
0.027189523 -0.17165096 0.87175012
0.024111429 -0.16711715 0.87300003
0.027414924 -0.16698952 0.87233341
0.031521909 -0.16673431 0.87100017
0.086270481 -0.16507524 0.87100005
0.028667621 -0.16245049 0.87250006
0.032170951 -0.16168809 0.87175012
0.035669528 -0.16009811 0.87100005
0.082494304 -0.16194223 0.8720001
0.087300003 -0.16379145 0.87300003
0.032821909 -0.1582962 0.87250006
0.037152383 -0.15670668 0.87175012
0.040646669 -0.15512097 0.87100005
0.078804769 -0.15595049 0.87100005
0.080924764 -0.15728381 0.87150007
0.038245715 -0.15298286 0.87300003
0.042110004 -0.15163858 0.87125015
0.045623813 -0.15014382 0.87100005
0.073827624 -0.15014382 0.87100005
0.077645592 -0.15161511 0.87128592
0.080648586 -0.15215145 0.87300003
0.042369213 -0.14705049 0.87233341
0.047045853 -0.14635172 0.87100017
0.052260004 -0.14516668 0.87100005
0.062629052 -0.14558145 0.87100005
0.06742844 -0.14635172 0.87100017
0.07222382 -0.14693682 0.87166679
0.077035785 -0.14754109 0.87242872
0.043068003 -0.14283945 0.87300009
0.04736688 -0.14210106 0.87255567
0.052340854 -0.14206488 0.87233341
0.057111435 -0.14184333 0.87225008
0.062294073 -0.14202826 0.8721112
0.067086667 -0.14260232 0.8727144
0.071225718 -0.14328288 0.87300003
0.024166668 -0.17083335 0.87500006
0.024166668 -0.16750002 0.87500006
0.024166668 -0.16416667 0.87500006
0.026712384 -0.16277716 0.87650001
0.084166676 -0.16083334 0.87500006
0.08755096 -0.1617586 0.87550008
0.09114477 -0.16138478 0.87800002
0.028380478 -0.15943953 0.87650001
0.032527857 -0.15680024 0.87575006
0.083615445 -0.15738153 0.87620002
0.087193504 -0.15850653 0.87750006
0.034283813 -0.15469524 0.87800002
0.036882479 -0.15204135 0.87620014
0.08333867 -0.15314707 0.87680006
0.086127624 -0.15302287 0.87800002
0.037810758 -0.1482652 0.87671435
0.078333341 -0.14583334 0.87500006
0.081854299 -0.14783621 0.87700003
0.039300956 -0.14466096 0.87800002
0.04173667 -0.14190954 0.87650001
0.068333335 -0.14083335 0.87500006
0.073097944 -0.14202493 0.87550008
0.077678412 -0.14282446 0.87700009
0.081667945 -0.14410351 0.87800002
0.043710165 -0.13892731 0.87700003
0.047500007 -0.13833335 0.87500012
0.052500006 -0.13833335 0.87500012
0.057528172 -0.13804273 0.87542868
0.06257239 -0.13849048 0.87600011
0.067654297 -0.13948478 0.87700003
0.072707146 -0.13872811 0.87750006
0.076929525 -0.13964382 0.87800002
0.024360001 -0.16380002 0.88200003
0.026010478 -0.1610962 0.88100004
0.091352388 -0.1600762 0.88000005
0.027944762 -0.15737812 0.88249993
0.031568255 -0.15560636 0.88000005
0.088558733 -0.15616511 0.88000005
0.091352388 -0.15672383 0.88000005
0.027937859 -0.15187262 0.88225007
0.032717459 -0.15184805 0.88088894
0.084647626 -0.15085715 0.88000005
0.088209532 -0.15148573 0.88000005
0.091352388 -0.15337144 0.88000005
0.028883178 -0.1483435 0.88333338
0.032978337 -0.14725073 0.88225007
0.036876194 -0.14666668 0.88000005
0.08477588 -0.14688763 0.88133335
0.088133335 -0.14688762 0.88133335
0.034518097 -0.14312382 0.88400006
0.037773527 -0.14270078 0.88140005
0.083079733 -0.14182152 0.88114291
0.087013721 -0.14255355 0.88360006
0.039569527 -0.1389143 0.88400006
0.042841278 -0.13775748 0.88200009
0.047843181 -0.13597652 0.88133335
0.0528 -0.13660954 0.88000005
0.058432385 -0.13615303 0.88066673
0.06292858 -0.13592479 0.88100004
0.067971855 -0.13678075 0.88111115
0.073108256 -0.13613112 0.88233346
0.078030959 -0.13760239 0.88100004
0.083098426 -0.13849525 0.88133335
0.044620954 -0.13386287 0.88400006
0.04793429 -0.13286953 0.88300008
0.052929368 -0.13274175 0.88216674
0.057831865 -0.13254286 0.88236368
0.063095249 -0.1320781 0.88333333
0.068142861 -0.13207811 0.88333333
0.072069213 -0.13320065 0.88333338
0.054723814 -0.12881143 0.88400006
0.023864955 -0.1619785 0.88859999
0.024553334 -0.15748 0.88900006
0.026246669 -0.15663335 0.88900006
0.024553334 -0.15409334 0.88900006
0.026246669 -0.15494001 0.88900006
0.027333653 -0.14738065 0.8876667
0.031256191 -0.14614382 0.88700002
0.028775558 -0.1430324 0.88866675
0.032503814 -0.14270683 0.88814288
0.036324766 -0.14107525 0.88700002
0.087855242 -0.14107525 0.88700002
0.092125624 -0.14283717 0.8874445
0.034713335 -0.13970001 0.88900006
0.038405146 -0.13821964 0.88819999
0.041987624 -0.13667208 0.8876667
0.078562863 -0.13600667 0.88700002
0.082428388 -0.13692859 0.88859999
0.087140642 -0.13818415 0.88833332
0.091337144 -0.13869621 0.88800001
0.039793335 -0.13462001 0.88900006
0.043166123 -0.13288341 0.88871431
0.048186354 -0.13103652 0.8876667
0.072931126 -0.13150129 0.88700002
0.076770961 -0.13302524 0.88825005
0.082126677 -0.13462001 0.88900012
0.048505403 -0.12831399 0.88833332
0.052787621 -0.12768124 0.8878572
0.057767943 -0.12765366 0.88766664
0.062250208 -0.1275215 0.88842869
0.066853657 -0.12778191 0.88855553
0.071949102 -0.12781429 0.88877779
0.075353339 -0.12954001 0.88900006
0.053340003 -0.12446001 0.88900006
0.056726672 -0.12446001 0.88900012
0.060113337 -0.12446001 0.88900006
0.028851431 -0.14001429 0.89100003
0.032245718 -0.14001429 0.89100003
0.029167622 -0.13790667 0.89200008
0.033112861 -0.13754526 0.8915
0.037054293 -0.13718572 0.89100003
0.088251434 -0.13662001 0.89100003
0.029700002 -0.1340743 0.89100003
0.03311969 -0.13332413 0.89166665
0.037883718 -0.13250886 0.8919
0.040798575 -0.13089858 0.89250004
0.078917146 -0.13152859 0.89100003
0.082237862 -0.13196072 0.89250004
0.086558864 -0.13383316 0.89280003
0.042993721 -0.12830572 0.89219999
0.046324287 -0.12622286 0.89250004
0.050065719 -0.12643716 0.89100003
0.077146992 -0.12756859 0.89233333
0.080885723 -0.12856573 0.89400005
0.047477145 -0.12337315 0.89340001
0.051474571 -0.12231573 0.8919
0.057124902 -0.12188818 0.89142859
0.062195331 -0.12214702 0.89236367
0.067344092 -0.12364532 0.89185721
0.071990214 -0.1237045 0.89228582
0.053460002 -0.11964858 0.89100003
0.056629717 -0.11886857 0.89280003
0.034986667 -0.13056001 0.89600003
0.084480003 -0.13056001 0.89600003
0.087040007 -0.13141334 0.89600003
0.034170479 -0.12899715 0.89700007
0.037289526 -0.12837905 0.89666671
0.041432384 -0.12600668 0.89700007
0.079360008 -0.12629333 0.89600003
0.082542859 -0.12765829 0.89720005
0.042230096 -0.12327011 0.89760011
0.046654861 -0.12116381 0.89720005
0.067131437 -0.1211101 0.89680004
0.072971813 -0.12116382 0.89720005
0.077142231 -0.12268636 0.89666671
0.048748575 -0.1188781 0.89800006
0.052090794 -0.1187016 0.89666671
0.062293336 -0.11861335 0.89600009
0.067563817 -0.11887811 0.89800012
0.033540003 -0.13158001 0.90300006
0.038657144 -0.12713811 0.90200007
0.084379368 -0.12671207 0.90100002
0.086667627 -0.12871429 0.90100002
0.042046666 -0.12184954 0.90100002
0.082377151 -0.12442382 0.90100002
0.085140005 -0.12470001 0.90300006
0.037184764 -0.12712 0.90800005
0.038785718 -0.1249762 0.90500003
0.036400001 -0.12740001 0.91000003
