# .PCD v0.7 - Point Cloud Data file format
VERSION 0.7
FIELDS x y z
SIZE 4 4 4
TYPE F F F
COUNT 1 1 1
WIDTH 684
HEIGHT 1
VIEWPOINT 0 0 0 1 0 0 0
POINTS 684
DATA ascii
0.2320924 -0.27847478 0.75799996
0.23846923 -0.27889591 0.75800008
0.2418381 -0.27576765 0.75800002
0.24135683 -0.27312064 0.75800008
0.21872668 -0.28122002 0.76300001
0.22184786 -0.28057504 0.76125002
0.22727621 -0.28011429 0.76000005
0.23668572 -0.28011429 0.76000005
0.2417524 -0.28011429 0.76000005
0.21872668 -0.27831334 0.76300001
0.22241525 -0.27831203 0.76220006
0.22740804 -0.27755266 0.76125002
0.23214181 -0.27617824 0.76112503
0.2376529 -0.27728033 0.76116675
0.24247621 -0.27866668 0.76000011
0.23948479 -0.27431905 0.76200002
0.24125335 -0.27395335 0.76300001
0.21357715 -0.28013715 0.76800001
0.21706071 -0.28150669 0.76675004
0.21790455 -0.27776313 0.76650006
0.22148074 -0.27657858 0.76625007
0.22707145 -0.27612859 0.76500005
0.23095717 -0.27612859 0.76500005
0.23678574 -0.27612859 0.76500005
0.2172343 -0.27233526 0.76800001
0.22262368 -0.27289385 0.76683342
0.22731429 -0.27248573 0.7650001
0.23264329 -0.27275169 0.76575011
0.23727533 -0.27304706 0.76658332
0.24164419 -0.27269444 0.76712507
0.21577144 -0.26916575 0.76800001
0.22403716 -0.26862431 0.76750004
0.22700258 -0.26775688 0.76690012
0.23234802 -0.2674194 0.7671876
0.23753144 -0.26861715 0.76800007
0.24064001 -0.26989716 0.76800001
0.21427192 -0.28325099 0.7705
0.21413335 -0.27793336 0.7700001
0.21670002 -0.2775667 0.77000004
0.21428004 -0.27382669 0.77000004
0.21798335 -0.27298334 0.77000004
0.22131334 -0.27183029 0.77100003
0.21853335 -0.26913336 0.77000004
0.22302461 -0.26831734 0.77116668
0.22738318 -0.26581049 0.77100003
0.23012954 -0.26542097 0.77200001
0.22718859 -0.26395053 0.77200001
0.2314126 -0.2639901 0.77039999
0.22883716 -0.22581621 0.79300004
0.23261335 -0.22581621 0.79300004
0.23714477 -0.22581621 0.79300004
0.2235505 -0.22279525 0.7930001
0.22732669 -0.22279525 0.7930001
0.23261335 -0.22279528 0.79300016
0.23746845 -0.22301105 0.7930001
0.22380225 -0.21927081 0.7930001
0.22702459 -0.21917012 0.79300004
0.23135462 -0.21927081 0.7930001
0.25460002 -0.23028001 0.79800004
0.21231706 -0.22705975 0.79789996
0.21732049 -0.22704105 0.79729998
0.22202145 -0.22733477 0.79700005
0.24228573 -0.22638573 0.79500002
0.24805383 -0.22643335 0.79649997
0.25228059 -0.22720419 0.79787499
0.21254668 -0.2231867 0.79800004
0.21717763 -0.22249381 0.79733342
0.22108573 -0.22260003 0.79500002
0.23395716 -0.22032858 0.79500002
0.23698573 -0.2203286 0.79500002
0.24225181 -0.22278647 0.7954616
0.24696276 -0.22266139 0.79733336
0.25054669 -0.22369336 0.79800004
0.21768574 -0.21898858 0.79800004
0.22273752 -0.21749508 0.79672736
0.22778144 -0.21680002 0.79525
0.23251644 -0.2171786 0.79525006
0.23725073 -0.21754172 0.7958889
0.24219188 -0.21746773 0.79763639
0.24662001 -0.21926001 0.79800004
0.22780953 -0.21439366 0.79733342
0.23275727 -0.21377155 0.79737496
0.23757823 -0.21364892 0.79762501
0.2082743 -0.2350743 0.80400002
0.20764846 -0.23190045 0.80285716
0.21080953 -0.23220003 0.80200005
0.25850099 -0.23104954 0.80066669
0.26198667 -0.23219812 0.80200005
0.20765482 -0.22774711 0.80184627
0.25773162 -0.227671 0.80000013
0.26253209 -0.22818923 0.80133337
0.20863028 -0.2232229 0.80177778
0.21177551 -0.22113988 0.80028576
0.2525996 -0.22194478 0.80022228
0.25739166 -0.22299287 0.80123085
0.26212555 -0.222822 0.80200005
0.2124977 -0.21777353 0.80181825
0.21696496 -0.21635281 0.80159998
0.22133335 -0.21600001 0.80000001
0.24457145 -0.21561906 0.80000001
0.24796478 -0.21708716 0.80050004
0.25214651 -0.21717088 0.80179995
0.25750336 -0.21924049 0.80350006
0.21948668 -0.2141324 0.80300003
0.22304882 -0.21387404 0.80274999
0.22746712 -0.21172735 0.80169243
0.23240834 -0.21105358 0.80075008
0.23698859 -0.21083675 0.80085725
0.24215639 -0.21203135 0.80163646
0.24675027 -0.21349216 0.80274999
0.25038859 -0.2136343 0.80400002
0.22894859 -0.20904002 0.80400002
0.23201144 -0.20904002 0.80400008
0.23691201 -0.20873372 0.80400002
0.19930668 -0.24086097 0.80800003
0.20188384 -0.24026477 0.80600011
0.19892192 -0.23816761 0.80800003
0.20266913 -0.23732194 0.80690914
0.20669372 -0.2377383 0.80680007
0.1993067 -0.23316573 0.80800003
0.20271732 -0.23247868 0.80714285
0.20648953 -0.23412383 0.80600005
0.20327361 -0.22773145 0.80709094
0.20546287 -0.2254705 0.80800003
0.20725691 -0.22224025 0.80675006
0.26329336 -0.22030668 0.80600011
0.20854096 -0.21931431 0.80800003
0.21191812 -0.21683775 0.80680001
0.25408193 -0.21570097 0.80600005
0.25747272 -0.21724986 0.8070001
0.26212162 -0.21834955 0.80633348
0.21386974 -0.21325336 0.80720007
0.21762113 -0.21230963 0.80690914
0.22213441 -0.21138139 0.80644453
0.24809478 -0.21122526 0.80650008
0.25216883 -0.21257453 0.80725008
0.25676447 -0.21367113 0.80800003
0.22323303 -0.20862415 0.80733341
0.2273124 -0.20760608 0.80709094
0.23234372 -0.20662807 0.80709094
0.23750134 -0.20710364 0.80600005
0.2424455 -0.20813864 0.80644459
0.24658707 -0.20843697 0.80760002
0.19751433 -0.23743595 0.81057155
0.19795512 -0.23214287 0.81057149
0.19862753 -0.22802138 0.8122223
0.20175591 -0.22571969 0.81166667
0.20363526 -0.22350892 0.81300008
0.20596154 -0.22174516 0.81240004
0.20821787 -0.21827975 0.81274998
0.21101449 -0.2165802 0.81160015
0.25842857 -0.21522859 0.81000006
0.26210973 -0.21659127 0.81280005
0.20853907 -0.21474096 0.81400001
0.21230726 -0.21277316 0.81300014
0.21626572 -0.21086001 0.81100005
0.25349462 -0.21128765 0.81066674
0.25748622 -0.21144192 0.81250006
0.26280573 -0.21474096 0.81400001
0.21456508 -0.20836699 0.81333339
0.21785608 -0.20758288 0.8120001
0.2226343 -0.20658858 0.81000006
0.22602859 -0.20597143 0.81000006
0.23334669 -0.20543811 0.81400001
0.23837143 -0.20597145 0.81000012
0.24308574 -0.20596318 0.81200004
0.2475127 -0.20699143 0.81300008
0.25269526 -0.20905638 0.81240004
0.21834764 -0.20441049 0.81300002
0.22222003 -0.20441052 0.81300008
0.22710779 -0.20434096 0.81228578
0.23262192 -0.20376143 0.81350005
0.23752601 -0.20411433 0.81314296
0.24210171 -0.20430592 0.81320012
0.19792858 -0.22587144 0.81500006
0.19878636 -0.22285716 0.81533337
0.20175771 -0.22174466 0.81614292
0.20354511 -0.21789198 0.81677783
0.20629208 -0.21690384 0.81533337
0.20757641 -0.21276498 0.81700009
0.21112382 -0.21112382 0.81500006
0.26201975 -0.21167825 0.81500012
0.20982002 -0.20982002 0.81900007
0.21254811 -0.20788096 0.81675005
0.21500477 -0.20569049 0.81500006
0.24838096 -0.20569049 0.81500006
0.25237334 -0.20645095 0.81725007
0.2568562 -0.20740221 0.81700003
0.26075399 -0.20844732 0.81566668
0.2139762 -0.20463906 0.81700003
0.21804722 -0.2033833 0.81642872
0.22253335 -0.20230287 0.81700009
0.22746192 -0.20169747 0.81700009
0.23220003 -0.20161971 0.81633341
0.23766954 -0.2016543 0.81500006
0.2425051 -0.20152412 0.81700009
0.24721748 -0.20332955 0.81800008
0.23318286 -0.19970286 0.81750005
0.23760955 -0.19943523 0.81800008
0.24102001 -0.19890001 0.81900007
0.20229927 -0.21763146 0.82140011
0.20737176 -0.21206956 0.82166672
0.21206699 -0.2073743 0.82166672
0.25411907 -0.20564097 0.82100004
0.25881049 -0.20642287 0.82100004
0.2611562 -0.20642288 0.82100004
0.21698335 -0.20366621 0.82250005
0.22219478 -0.20107192 0.82150006
0.22597049 -0.20094953 0.82100004
0.24786383 -0.20147082 0.82100004
0.25248781 -0.20255278 0.82180005
0.2572467 -0.20251334 0.82100004
0.26037431 -0.20407715 0.82100004
0.22416955 -0.19987144 0.82300001
0.22807924 -0.19760168 0.82245457
0.23246142 -0.19723827 0.82183337
0.23710953 -0.19641621 0.82166672
0.24222411 -0.19795905 0.82157153
0.24690002 -0.19908762 0.82300001
0.25003526 -0.19987144 0.82300001
0.25826526 -0.19947954 0.82300001
0.23279144 -0.19360097 0.82300001
0.2374943 -0.19360097 0.82300001
0.20448668 -0.21632954 0.82900006
0.20556858 -0.21502002 0.82700002
0.20448668 -0.21396096 0.82900006
0.2075583 -0.21228631 0.82740003
0.21029431 -0.21029431 0.82700002
0.20922382 -0.20922382 0.82900006
0.21186891 -0.20740512 0.82700008
0.21502002 -0.20556858 0.82700002
0.21396096 -0.20448668 0.82900006
0.21746914 -0.20240541 0.8276667
0.22157145 -0.20035715 0.82500005
0.25300002 -0.20035715 0.82500005
0.25535715 -0.20035715 0.82500005
0.22295241 -0.19788288 0.8278001
0.22595429 -0.19629747 0.82666671
0.24332669 -0.19615431 0.82550007
0.24767368 -0.19698128 0.82733345
0.25204724 -0.19841512 0.82814288
0.25745621 -0.19864069 0.82814294
0.22776461 -0.19227761 0.82800001
0.2324786 -0.19217525 0.82700002
0.2375448 -0.19217639 0.82700008
0.24240647 -0.19288266 0.82800007
0.24554192 -0.19343334 0.82900006
0.20720714 -0.21156478 0.83200002
0.20857589 -0.20804827 0.83166665
0.21156478 -0.20601812 0.83200008
0.21363935 -0.20299689 0.83214295
0.21724716 -0.20062715 0.83100003
0.21854466 -0.1976984 0.83271438
0.22154801 -0.19684325 0.83140004
0.24930002 -0.19548286 0.83100003
0.25290459 -0.1962101 0.83140004
0.25731686 -0.19635271 0.8313334
0.26038003 -0.1962743 0.83100003
0.22318606 -0.19307747 0.83200014
0.22555716 -0.19152573 0.83100003
0.23663716 -0.1907343 0.83100003
0.24376002 -0.1907343 0.83100003
0.24813953 -0.19229192 0.83174998
0.25252572 -0.19385335 0.8325001
0.25889114 -0.19383781 0.83300006
0.22451335 -0.18960668 0.83300006
0.22778459 -0.18878992 0.83220005
0.23216765 -0.18858573 0.83200002
0.23778574 -0.18866709 0.83185726
0.24265201 -0.18851832 0.83100003
0.24704401 -0.18865468 0.83300012
0.20486572 -0.21204001 0.83700001
0.20596668 -0.2123286 0.83500004
0.20486572 -0.20885144 0.83700001
0.20686701 -0.20686701 0.83722222
0.20897573 -0.20419002 0.83749998
0.2120966 -0.2017387 0.83660001
0.21358329 -0.19739036 0.83814293
0.21641295 -0.19707878 0.83585715
0.26368573 -0.19576667 0.83900005
0.2143046 -0.19289009 0.83900005
0.21788231 -0.19252059 0.83740008
0.22169431 -0.19198129 0.83566666
0.25302511 -0.19142637 0.83633339
0.25736752 -0.19269176 0.83722228
0.26308173 -0.19311792 0.8386001
0.21853954 -0.18897477 0.83900005
0.22257917 -0.18747695 0.83766669
0.22700055 -0.18685217 0.83566666
0.2324867 -0.18630764 0.83600008
0.23773359 -0.18656239 0.83624995
0.24293558 -0.18638223 0.83633327
0.24735487 -0.18651107 0.83620006
0.25145927 -0.18759564 0.83820003
0.22772858 -0.18458001 0.83900005
0.23305558 -0.18351462 0.83900011
0.23731716 -0.18298192 0.83900011
0.24211144 -0.18378097 0.83900011
0.2465062 -0.1841805 0.83900005
0.20796517 -0.20315336 0.84180003
0.21065049 -0.20103906 0.84100002
0.21157667 -0.19795287 0.84150004
0.21290526 -0.19285762 0.84200001
0.25932288 -0.19027716 0.84300005
0.26197812 -0.19136763 0.84249997
0.26574573 -0.19108 0.84300005
0.21758144 -0.18749954 0.84225005
0.22159429 -0.1855305 0.84150004
0.22666954 -0.18502001 0.84100002
0.2531524 -0.1865543 0.84250009
0.25660956 -0.18924858 0.84200007
0.22827622 -0.18274216 0.84249997
0.23231852 -0.18125214 0.84157151
0.23788288 -0.18021432 0.84100002
0.24268858 -0.18101525 0.84100002
0.24764143 -0.18272525 0.84150004
0.25129431 -0.1838543 0.84300005
0.23287754 -0.17863107 0.84259999
0.23665556 -0.17836033 0.84233332
0.24219525 -0.17903715 0.84300011
0.20776248 -0.20195793 0.84619999
0.21004286 -0.20038573 0.84500003
0.21136448 -0.19740193 0.84600008
0.21444525 -0.19106716 0.84650004
0.26396191 -0.19072859 0.84500003
0.21430318 -0.18902826 0.84700006
0.21605763 -0.1870362 0.84650004
0.25786874 -0.18704969 0.84500015
0.26280507 -0.1878486 0.84757155
0.26570672 -0.18817525 0.84800005
0.21832637 -0.18440637 0.84800005
0.22245021 -0.18249704 0.84628588
0.22645812 -0.18100439 0.84619999
0.24786669 -0.18107145 0.84500003
0.25218859 -0.18182096 0.84600002
0.25739974 -0.18379106 0.84800011
0.26086098 -0.18494478 0.84800005
0.22797731 -0.17844233 0.84671432
0.23186703 -0.17634022 0.84633338
0.23759927 -0.17616075 0.8463335
0.2429103 -0.17693849 0.84680003
0.24740824 -0.17784178 0.84687501
0.25116953 -0.17848381 0.84800005
0.23259431 -0.17363811 0.84800005
0.23501717 -0.17363811 0.84800005
0.24147812 -0.17363811 0.84800005
0.20823377 -0.19780329 0.85171431
0.21124712 -0.19687866 0.85171443
0.20902668 -0.19438668 0.85400003
0.2123875 -0.19266886 0.85257155
0.21384126 -0.18758795 0.85266674
0.21614288 -0.18538097 0.85000002
0.26390478 -0.18538097 0.85000002
0.26633334 -0.18538097 0.85000002
0.21390668 -0.18462668 0.85400003
0.21719258 -0.18238425 0.85181826
0.22100002 -0.18052383 0.85000002
0.25783277 -0.18134134 0.85080004
0.2623632 -0.18230033 0.85200012
0.26677334 -0.18340668 0.85400003
0.21858096 -0.17860229 0.85320008
0.22259864 -0.1775912 0.85218191
0.22725868 -0.17639698 0.85040009
0.24852383 -0.17566667 0.85000002
0.25224817 -0.17700084 0.8508572
0.25732288 -0.17811334 0.85300004
0.26234907 -0.17821811 0.85350007
0.26533717 -0.1785143 0.85200006
0.22285335 -0.17486668 0.85400003
0.22764447 -0.17364614 0.85333341
0.23206502 -0.17207311 0.85125005
0.23760217 -0.17237693 0.85075009
0.24254692 -0.17257881 0.85175002
0.24767937 -0.17296827 0.8526668
0.25230634 -0.17371397 0.85366672
0.25620002 -0.17486668 0.85400003
0.23328906 -0.16948049 0.85350007
0.23776275 -0.1690003 0.85371435
0.24318668 -0.16917334 0.85400003
0.24806669 -0.1699867 0.85400003
0.20853621 -0.19221143 0.85700005
0.210789 -0.19152193 0.85720009
0.21277717 -0.18668954 0.85600013
0.21440765 -0.1817981 0.85600013
0.21603811 -0.18016763 0.85600007
0.26495239 -0.18342859 0.85600007
0.26658288 -0.18342859 0.85600007
0.21440764 -0.17853716 0.85600007
0.21756572 -0.17704383 0.85666674
0.22092953 -0.1752762 0.85600007
0.25843048 -0.1752762 0.85600007
0.26260799 -0.17588797 0.85633337
0.26658288 -0.17609143 0.85600007
0.21926668 -0.17350666 0.85800004
0.2227325 -0.17214836 0.85666668
0.22712536 -0.17103697 0.85600007
0.2307124 -0.17038478 0.85600007
0.25299558 -0.17092828 0.85600013
0.25659186 -0.17242044 0.85685718
0.26373082 -0.17391621 0.85733336
0.26658288 -0.17364572 0.85600007
0.22335762 -0.16864143 0.85750008
0.22762796 -0.16806923 0.85666674
0.23227431 -0.16701667 0.85650003
0.23732668 -0.16637301 0.85633337
0.24212572 -0.16630858 0.85600007
0.24711272 -0.16746002 0.85633343
0.25170097 -0.16818097 0.85640001
0.25576574 -0.16914858 0.85800004
0.23452002 -0.16424572 0.85800004
0.20651954 -0.19176906 0.8605001
0.20376042 -0.18832651 0.86200011
0.20784549 -0.18814833 0.86175007
0.2115597 -0.18777876 0.86100006
0.20934287 -0.1847143 0.86200005
0.2126455 -0.18311834 0.86125004
0.2138581 -0.17855716 0.86200005
0.21595556 -0.17664129 0.86000001
0.217335 -0.17304872 0.86114293
0.22032383 -0.17118096 0.86000001
0.26179704 -0.17269391 0.86171436
0.26516762 -0.17322096 0.86200005
0.21902478 -0.16816382 0.86133337
0.22230604 -0.16707006 0.86133337
0.22659764 -0.16595286 0.86049998
0.2301524 -0.16626668 0.86000001
0.24899049 -0.16626668 0.86000001
0.25338 -0.16645905 0.86100006
0.25671887 -0.16748153 0.86120003
0.26188383 -0.16993715 0.86200005
0.22788717 -0.16286334 0.86150002
0.23206002 -0.16235811 0.86100018
0.23758887 -0.16240674 0.86092323
0.24250384 -0.16259794 0.86140007
0.24746162 -0.16324192 0.86133337
0.2516613 -0.16303208 0.8616668
0.23315048 -0.15844382 0.86200005
0.23725526 -0.15844384 0.86200011
0.24053906 -0.15844382 0.86200005
0.20732543 -0.18590638 0.86500013
0.20795754 -0.1825583 0.86580008
0.21082763 -0.18181582 0.86540002
0.20938763 -0.17876571 0.86900002
0.2120977 -0.17743675 0.86655563
0.21501429 -0.17547144 0.86500007
0.21308605 -0.17339018 0.86833334
0.21627843 -0.17175907 0.86566681
0.26279527 -0.17052858 0.86500007
0.26791498 -0.17205457 0.86557162
0.21754058 -0.16749315 0.86720008
0.22160478 -0.16558573 0.86500007
0.25840163 -0.16668415 0.86500013
0.26213703 -0.16732723 0.86671448
0.26701337 -0.16863905 0.86800003
0.27032 -0.16863906 0.86800003
0.21849144 -0.1646962 0.86900002
0.22289699 -0.16263413 0.86683333
0.22709684 -0.16119207 0.86500013
0.24467145 -0.16064286 0.86500007
0.24796669 -0.16064286 0.86500013
0.25332144 -0.16105476 0.86500007
0.25742543 -0.16253874 0.86633343
0.26096383 -0.16336001 0.86849999
0.22373304 -0.15917875 0.86900008
0.22771749 -0.15789291 0.8671819
0.23265359 -0.15681978 0.86550015
0.23808096 -0.15652382 0.86500013
0.24302383 -0.15734765 0.86500013
0.24735644 -0.15748264 0.86575013
0.25204977 -0.15750405 0.86700004
0.25664163 -0.1585051 0.86833334
0.22869876 -0.15421304 0.86900008
0.23256621 -0.15318334 0.86825001
0.23730917 -0.15292001 0.8670001
0.24228026 -0.15263692 0.86750007
0.24705949 -0.15348071 0.86842871
0.25159621 -0.15476477 0.86900002
0.23421621 -0.14979906 0.86900002
0.23752668 -0.14979908 0.86900008
0.24249241 -0.14979908 0.86900008
0.20844954 -0.18104288 0.87200004
0.20906535 -0.17651831 0.87180007
0.21192752 -0.17151758 0.871889
0.27208382 -0.17337048 0.87100005
0.21345834 -0.16694658 0.8721112
0.21650572 -0.16507524 0.87100005
0.2646181 -0.16507524 0.87100005
0.26760441 -0.16607067 0.87100011
0.27156478 -0.1660943 0.87200004
0.21367715 -0.16379143 0.87300003
0.21754144 -0.16191159 0.8718335
0.22148287 -0.16009811 0.87100005
0.26307985 -0.16183068 0.87140006
0.26688859 -0.16323715 0.87300003
0.27104574 -0.16379143 0.87300003
0.21853954 -0.1582962 0.87250006
0.22261754 -0.15666305 0.87220013
0.22646001 -0.15512097 0.87100005
0.25466383 -0.15512097 0.87100005
0.25853494 -0.15622699 0.87100017
0.26256514 -0.1574726 0.87300009
0.22343363 -0.15247607 0.87214297
0.22762339 -0.15147251 0.87122238
0.23199019 -0.15069684 0.87100005
0.24835944 -0.15080743 0.87100011
0.25279739 -0.15201026 0.87100017
0.25730246 -0.15186356 0.8727144
0.26023716 -0.15298286 0.87300003
0.2236543 -0.14882572 0.87300003
0.22747214 -0.1477012 0.87250006
0.23268583 -0.14679646 0.87172747
0.23807335 -0.14682575 0.87100017
0.24284311 -0.1470331 0.87100017
0.24724725 -0.14682791 0.87242866
0.25192288 -0.14799429 0.87300009
0.25608003 -0.14882572 0.87300003
0.23280001 -0.14383715 0.87300003
0.23695716 -0.14300573 0.87300009
0.24194574 -0.14300573 0.87300009
0.24527144 -0.14383715 0.87300003
0.20750001 -0.17833334 0.87500006
0.20857048 -0.17269716 0.87600005
0.20907144 -0.16829279 0.87740004
0.21083336 -0.16750002 0.87500012
0.21291472 -0.16281839 0.87671435
0.26772931 -0.16180454 0.87575001
0.27172384 -0.16183089 0.87680006
0.21490097 -0.15887621 0.87800002
0.21719113 -0.15712351 0.87600011
0.26416668 -0.15583335 0.87500006
0.26758099 -0.15804002 0.87800014
0.27176192 -0.15887621 0.87800014
0.21909888 -0.15325163 0.87740004
0.22125001 -0.15208334 0.87500006
0.26268002 -0.15260343 0.87560004
0.26507241 -0.15218668 0.87800002
0.21991812 -0.14967811 0.87800002
0.22304411 -0.14786044 0.87714297
0.22666669 -0.14583334 0.87500006
0.25250003 -0.14583334 0.87500012
0.25730264 -0.147625 0.87575001
0.26172763 -0.14884192 0.87800002
0.22830668 -0.14399572 0.87650007
0.23289859 -0.14246462 0.87650001
0.23750001 -0.14083335 0.87500012
0.24250001 -0.14083335 0.87500012
0.24717164 -0.14235984 0.87620002
0.25057846 -0.14410351 0.87800002
0.23496954 -0.13964382 0.87800002
0.2383143 -0.13880762 0.87800014
0.24221653 -0.13908637 0.87800002
0.24500382 -0.13964382 0.87800002
0.20803873 -0.17668001 0.88200009
0.20458287 -0.17259049 0.88400006
0.20663874 -0.17220001 0.88200009
0.20458287 -0.16585524 0.88400006
0.20783654 -0.16666254 0.88233346
0.21036191 -0.16510478 0.88000005
0.20855525 -0.16230384 0.88300008
0.21155906 -0.16125432 0.88033342
0.2096343 -0.15743619 0.88400006
0.21230459 -0.15692128 0.8811112
0.21594922 -0.15560636 0.88000005
0.2681905 -0.15504763 0.88000005
0.27154288 -0.15588573 0.88000005
0.2096343 -0.15406857 0.88400006
0.21273293 -0.15219282 0.88288891
0.21697952 -0.15157144 0.88050008
0.26783133 -0.1514558 0.88000011
0.27154288 -0.15169525 0.88000005
0.21396255 -0.1483435 0.88333338
0.21766837 -0.14707282 0.8824445
0.22096334 -0.14674906 0.88050002
0.25897145 -0.14666668 0.88000005
0.2629897 -0.14642423 0.8814286
0.26789251 -0.14696172 0.88177776
0.27132004 -0.14700001 0.88200009
0.21889526 -0.14396572 0.88400006
0.2230366 -0.14286211 0.88240004
0.22703685 -0.14237526 0.88111115
0.2313143 -0.1416381 0.88000005
0.2528944 -0.14196615 0.88088894
0.25756818 -0.14293855 0.88145459
0.26222885 -0.14199486 0.88371432
0.26709867 -0.14238514 0.88359994
0.22478859 -0.1389143 0.88400006
0.22825216 -0.13787644 0.88275003
0.23241556 -0.13760222 0.88100004
0.23717253 -0.13626206 0.88085723
0.24295241 -0.13643239 0.88066673
0.24759516 -0.13733092 0.88072729
0.25237495 -0.13753113 0.8823334
0.25678098 -0.13807239 0.88400006
0.26014858 -0.1389143 0.88400006
0.22899811 -0.13386287 0.88400006
0.23349571 -0.1333662 0.88350004
0.23807876 -0.13292 0.88333338
0.24229178 -0.13332857 0.8823334
0.24724001 -0.13286953 0.88300008
0.25004572 -0.13386287 0.88400006
0.20404668 -0.16510001 0.88900006
0.20604555 -0.16818193 0.88740009
0.20404668 -0.16340667 0.88900006
0.20671336 -0.16243747 0.88833344
0.20840542 -0.15877113 0.88833344
0.21058288 -0.15222953 0.88800001
0.21299867 -0.14769392 0.88819999
0.2154143 -0.14614382 0.88700002
0.21420668 -0.14478001 0.88900006
0.21771303 -0.14297812 0.88833332
0.22121178 -0.14174446 0.8876667
0.22284317 -0.1384456 0.88871437
0.22694573 -0.13650572 0.88750005
0.25427336 -0.13600667 0.88700002
0.25822097 -0.13650572 0.88750005
0.26273701 -0.13821964 0.88819999
0.26635608 -0.13782819 0.8878572
0.22798954 -0.13320477 0.88859999
0.23248351 -0.13188128 0.8876667
0.23737811 -0.1309381 0.88700002
0.24263017 -0.13103652 0.8876667
0.24723145 -0.13143429 0.88750005
0.2530086 -0.13252714 0.88775009
0.257909 -0.13336723 0.88871437
0.26162001 -0.13462001 0.88900006
0.23452668 -0.12954001 0.88900006
0.23791336 -0.12954001 0.88900012
0.24299335 -0.12954001 0.88900012
0.24807334 -0.12954001 0.88900012
0.25146002 -0.12954001 0.88900006
0.20909859 -0.15640001 0.89250004
0.21063337 -0.15223716 0.89300007
0.21249859 -0.14705285 0.89250004
0.21693879 -0.14167349 0.89228582
0.21889335 -0.13790479 0.89200008
0.22184859 -0.1364243 0.89250004
0.26390573 -0.13662001 0.89100003
0.22381316 -0.13408402 0.89220011
0.22736573 -0.13179314 0.89280003
0.25881431 -0.13152859 0.89100003
0.26306644 -0.13206215 0.89174998
0.26645797 -0.13280329 0.89142859
0.22996287 -0.12983143 0.89100003
0.23259065 -0.1283792 0.89271438
0.23701715 -0.12657715 0.89200002
0.24203788 -0.12686072 0.89250004
0.24692631 -0.12762573 0.89220011
0.25263187 -0.12783186 0.89228582
0.25711715 -0.12898287 0.89099997
0.26222718 -0.1287743 0.89250004
0.21077335 -0.15104 0.89600003
0.21271715 -0.14693621 0.89700007
0.21411763 -0.14317191 0.89750004
0.21589334 -0.14080001 0.89600003
0.21755716 -0.13754001 0.89700007
0.22101335 -0.13568 0.89600003
0.21906289 -0.13360256 0.89733338
0.22268817 -0.13190448 0.89685726
0.22698668 -0.13056001 0.89600003
0.22435749 -0.1285708 0.89800012
0.22812955 -0.12779647 0.89714301
0.23214173 -0.12589334 0.89680004
0.24490668 -0.12544 0.89600003
0.24746668 -0.12544 0.89600003
0.25130668 -0.12586667 0.89600003
0.25699669 -0.12636334 0.89649999
0.23262477 -0.12400953 0.89800006
0.21194954 -0.15016668 0.90100002
0.20898001 -0.14878 0.90300006
0.21140319 -0.14695208 0.90233338
0.21291828 -0.14211755 0.90220004
0.21390286 -0.13916478 0.90200007
0.21626039 -0.13724402 0.9018001
0.21819717 -0.13229334 0.90200007
0.2205305 -0.13128857 0.90100002
0.21844003 -0.12986001 0.90300006
0.22238711 -0.12793675 0.90157145
0.20840763 -0.14700954 0.90800005
0.21013716 -0.14700954 0.90800005
0.21108429 -0.14288096 0.90650004
0.21324193 -0.13813335 0.90650004
0.21633811 -0.13531905 0.90500003
0.20877764 -0.14366764 0.91150004
0.21060002 -0.14213334 0.91000003
