# .PCD v0.7 - Point Cloud Data file format
VERSION 0.7
FIELDS x y z
SIZE 4 4 4
TYPE F F F
COUNT 1 1 1
WIDTH 806
HEIGHT 1
VIEWPOINT 0 0 0 1 0 0 0
POINTS 806
DATA ascii
0.28191894 -0.12853636 0.58850002
0.27955717 -0.13046001 0.59300005
0.28021336 -0.13024001 0.59200001
0.26487336 -0.12594192 0.59300005
0.26740414 -0.1269805 0.59310001
0.27268019 -0.1268613 0.59345454
0.27775857 -0.12748601 0.5923
0.28185433 -0.12682192 0.59071434
0.26487336 -0.12368286 0.59300005
0.26716802 -0.12235112 0.59224999
0.2724013 -0.12283802 0.59178942
0.27730498 -0.12230185 0.59152383
0.2824313 -0.12247657 0.59213638
0.28579685 -0.12191875 0.59266675
0.26716098 -0.11762691 0.59249997
0.27222434 -0.11766957 0.59168184
0.27742985 -0.11754261 0.59280002
0.28269315 -0.11762328 0.59306252
0.28646767 -0.11812207 0.59249997
0.26841271 -0.11471112 0.59333342
0.27267432 -0.11484001 0.59400004
0.27550286 -0.11484001 0.59400004
0.26401979 -0.13571644 0.59875005
0.26778349 -0.13619855 0.59881818
0.27268764 -0.13596351 0.59900004
0.27739552 -0.13622931 0.59808338
0.28030574 -0.13645715 0.597
0.25842574 -0.13292097 0.59900004
0.26277754 -0.13207698 0.59882355
0.26743475 -0.13254878 0.59788883
0.27214962 -0.13262497 0.5969286
0.277641 -0.13271993 0.5968824
0.28075644 -0.13355882 0.59675002
0.25874507 -0.12762396 0.59785724
0.26267648 -0.12708005 0.59627789
0.26706728 -0.12871441 0.595375
0.27253932 -0.1293962 0.59525001
0.27653337 -0.12976667 0.59500003
0.25921112 -0.12310564 0.59818184
0.26262021 -0.12238191 0.59647828
0.26280677 -0.11751708 0.59692872
0.26633334 -0.11503334 0.59500003
0.27863407 -0.115365 0.59525001
0.28229621 -0.11560477 0.59599996
0.28608 -0.11522667 0.59600002
0.26295859 -0.11437985 0.59850001
0.26758328 -0.11249634 0.59768182
0.27236903 -0.11246899 0.59677792
0.27757168 -0.11227909 0.59785002
0.28196049 -0.11301059 0.59810007
0.28688139 -0.11382342 0.59885722
0.26804906 -0.10893033 0.59883338
0.27265942 -0.10917728 0.598625
0.27348575 -0.13725714 0.60000002
0.27600002 -0.1377143 0.60000002
0.25831491 -0.13116173 0.60140008
0.26000005 -0.13200001 0.60000002
0.25771433 -0.12666669 0.60000002
0.25787303 -0.12210224 0.60066664
0.25840873 -0.11741658 0.60180008
0.26000002 -0.11771429 0.60000002
0.25887421 -0.1130054 0.60300004
0.26212126 -0.11209931 0.60081822
0.26609525 -0.11104763 0.60000002
0.27714288 -0.11028572 0.60000002
0.28317705 -0.11135488 0.600375
0.28603178 -0.11155175 0.6006667
0.26326174 -0.10759365 0.60278952
0.26688531 -0.10680036 0.60082346
0.27209526 -0.10685717 0.59999996
0.27773038 -0.1074298 0.60072213
0.28288692 -0.10757633 0.60233343
0.28610358 -0.10815851 0.60271436
0.26745775 -0.10302836 0.60317653
0.27210277 -0.10382913 0.60185719
0.2774047 -0.10419302 0.60222226
0.2822867 -0.10386827 0.60366672
0.2688663 -0.09905602 0.60400003
0.27151239 -0.098940961 0.60400003
0.25796676 -0.11685928 0.60777783
0.25893337 -0.11221398 0.60733336
0.26071715 -0.1104162 0.60699999
0.25956479 -0.10636953 0.60700005
0.26129764 -0.10762207 0.60699999
0.2635096 -0.10319042 0.60743749
0.26671454 -0.10079382 0.60650003
0.27220887 -0.10132723 0.60500002
0.27758703 -0.1016598 0.60650003
0.28204411 -0.10147268 0.60685718
0.28500098 -0.10174477 0.60700005
0.27821779 -0.098714933 0.60733336
0.28167146 -0.098521344 0.60780007
0.25682956 -0.11618477 0.61150002
0.25437143 -0.11110477 0.61400002
0.25714475 -0.11227845 0.61200011
0.26011145 -0.11114382 0.611
0.25437143 -0.10935048 0.61400002
0.25737423 -0.10738617 0.61280006
0.26037639 -0.10729318 0.61116672
0.25873494 -0.10361081 0.61233342
0.26230624 -0.10247387 0.61215383
0.2659305 -0.10066953 0.611
0.26403242 -0.099668585 0.61199999
0.2659305 -0.099505723 0.611
0.2685281 -0.090491906 0.61900002
0.27144727 -0.090639621 0.61880004
0.26867649 -0.087819062 0.61885715
0.27247095 -0.087526627 0.61805004
0.27677712 -0.087999798 0.61823082
0.28002381 -0.087839052 0.61900002
0.2690194 -0.083908901 0.61900008
0.27221262 -0.083565004 0.61900002
0.26773176 -0.086541504 0.62057143
0.27850798 -0.086406365 0.62
0.2823965 -0.08623375 0.62200004
0.26746115 -0.082058936 0.62221742
0.27298734 -0.081252381 0.6220001
0.27751961 -0.082211964 0.62105
0.28229287 -0.082765959 0.62074995
0.28520003 -0.083847627 0.62
0.26757044 -0.07712739 0.62295002
0.27250218 -0.077321514 0.62291676
0.27705604 -0.077869341 0.62320012
0.28251126 -0.079072006 0.62240005
0.287889 -0.075983681 0.62400001
0.2915566 -0.076187439 0.62400001
0.26805249 -0.072733849 0.62181818
0.2717548 -0.072714768 0.62200004
0.28384051 -0.071257621 0.62349999
0.2873331 -0.072385453 0.62371433
0.29120001 -0.074285716 0.62400001
0.2837505 -0.069308579 0.62200004
0.28735954 -0.068918578 0.62383342
0.26448414 -0.081746034 0.625
0.26398057 -0.078352258 0.62528574
0.27440479 -0.077380955 0.625
0.27773812 -0.075833343 0.625
0.28226197 -0.077261917 0.62500006
0.2857143 -0.076785721 0.625
0.29404765 -0.076190487 0.625
0.29697412 -0.076002672 0.62640005
0.30036288 -0.07583715 0.62700003
0.27440479 -0.074404769 0.625
0.27740809 -0.07334365 0.62518179
0.28206211 -0.073343642 0.62518179
0.28720239 -0.073511913 0.625
0.29252183 -0.072297059 0.62529999
0.29728875 -0.072829589 0.62681246
0.30036288 -0.074642859 0.62700003
0.27496287 -0.065296195 0.62900001
0.27616099 -0.065296195 0.62900001
0.28829369 -0.067857146 0.625
0.2921131 -0.068601198 0.625
0.29720014 -0.069227025 0.62662506
0.27171433 -0.06581524 0.634
0.26956478 -0.062350005 0.63250005
0.2722756 -0.0626496 0.63249999
0.27626419 -0.062406324 0.63172728
0.29479715 -0.061491434 0.63300002
0.29728654 -0.061507784 0.63316667
0.26793829 -0.057227094 0.63168752
0.27257487 -0.057863139 0.63100016
0.27598223 -0.058121912 0.63133335
0.2838499 -0.056289211 0.63100004
0.28750795 -0.057220798 0.63133335
0.29230171 -0.057961024 0.6320715
0.29682446 -0.057893679 0.63381815
0.30009335 -0.059777148 0.634
0.26778442 -0.053207256 0.63327771
0.27255911 -0.052412193 0.63260007
0.2774896 -0.052434813 0.63285011
0.2823312 -0.052371431 0.63208699
0.28738514 -0.052578468 0.63216668
0.29198423 -0.053519472 0.63299996
0.29667178 -0.054342862 0.63400006
0.27801117 -0.048391029 0.63400006
0.28258288 -0.048908576 0.634
0.28600448 -0.048506036 0.634
0.27417287 -0.066576675 0.63550007
0.27609742 -0.066602625 0.63575006
0.25752729 -0.06130179 0.63887501
0.27577144 -0.064709529 0.63500005
0.25892201 -0.057635397 0.63807696
0.26203501 -0.056931533 0.63557905
0.2654905 -0.056242861 0.63500005
0.27819049 -0.056847624 0.63500005
0.29935718 -0.056847624 0.63500005
0.30286422 -0.056855429 0.63780004
0.25986001 -0.05416286 0.63900006
0.26265934 -0.052237399 0.63663161
0.26670003 -0.050800007 0.63500005
0.27032858 -0.050195243 0.63500005
0.28968096 -0.050195243 0.63500005
0.2933898 -0.050991192 0.63550007
0.29785079 -0.052076623 0.63666677
0.30208698 -0.05247267 0.63770008
0.26391286 -0.049255718 0.63850003
0.26775247 -0.047805034 0.63771439
0.27209085 -0.047148675 0.6360001
0.2769132 -0.046618961 0.63572741
0.28253788 -0.046748575 0.6360001
0.2877683 -0.046956412 0.63653862
0.29266959 -0.046944108 0.63706255
0.29776692 -0.047660075 0.63807148
0.30124289 -0.049294289 0.63900006
0.26959717 -0.044425718 0.63900006
0.27314803 -0.043396574 0.63820004
0.27721092 -0.043043893 0.63808334
0.28207871 -0.043911051 0.63860005
0.28648701 -0.044402547 0.63866675
0.29295731 -0.044182319 0.63800001
0.29567575 -0.043712862 0.63750005
0.25245163 -0.062145557 0.64183336
0.25569525 -0.061866671 0.64000005
0.25279105 -0.0575394 0.64236844
0.25644556 -0.057312768 0.64020002
0.25352478 -0.053582381 0.64300001
0.25736824 -0.052450333 0.64157897
0.26057145 -0.051504768 0.64000005
0.30252701 -0.051403176 0.64000005
0.25867596 -0.048607621 0.64244449
0.26258186 -0.047455058 0.64193749
0.26609403 -0.046550803 0.64033341
0.26373336 -0.044773336 0.64400005
0.26765025 -0.04417548 0.64200002
0.27166328 -0.041833252 0.64125001
0.27855241 -0.041244447 0.64000005
0.28263852 -0.04182921 0.64066678
0.28760263 -0.042319495 0.64115381
0.29205865 -0.042186458 0.64200002
0.27413005 -0.039773814 0.64250004
0.27684337 -0.038936354 0.64216673
0.28214157 -0.03916822 0.64262497
0.28747469 -0.039351244 0.64360005
0.29072002 -0.039866671 0.64400005
0.24919717 -0.067234293 0.64766669
0.25141543 -0.066703662 0.64650005
0.24886309 -0.063088894 0.64733332
0.25057012 -0.06310343 0.64580005
0.24994287 -0.059245717 0.648
0.25111356 -0.057815243 0.64720005
0.25280502 -0.052777857 0.64625001
0.2543456 -0.049101751 0.64716673
0.25734171 -0.04721164 0.64621431
0.25961667 -0.044399526 0.64750004
0.26260144 -0.042944051 0.64650005
0.26735553 -0.041650862 0.64633334
0.2702986 -0.04063667 0.64649999
0.2965959 -0.041198418 0.64566666
0.26876575 -0.038571429 0.648
0.27241933 -0.037977528 0.64666671
0.27705866 -0.037520409 0.64585716
0.28236437 -0.037243266 0.64714289
0.28779987 -0.037948735 0.64616668
0.29265931 -0.039082143 0.64625001
0.29700145 -0.039127145 0.64700001
0.24699298 -0.070729725 0.65260005
0.24705124 -0.067463413 0.65129417
0.24744056 -0.062098041 0.65160006
0.24837938 -0.057393063 0.65200007
0.25059667 -0.056066193 0.65050006
0.24938382 -0.054105718 0.65300006
0.25188398 -0.052113883 0.65142858
0.25370681 -0.047510836 0.65212506
0.25626481 -0.045673341 0.65100008
0.25785238 -0.043153681 0.65154546
0.26179633 -0.041002229 0.65122229
0.26383176 -0.038311116 0.65233338
0.2673358 -0.037215106 0.65128577
0.27190366 -0.035537302 0.65083337
0.27796215 -0.035566289 0.65060008
0.28228572 -0.035698414 0.6500001
0.28757095 -0.035945956 0.65075004
0.29193479 -0.036297143 0.65150005
0.29795775 -0.037042476 0.65259999
0.26928478 -0.034204762 0.65300006
0.27242896 -0.034131434 0.65160006
0.27799144 -0.034204762 0.65300006
0.28227821 -0.033045635 0.65245456
0.28627411 -0.033686291 0.65259999
0.24340287 -0.070705719 0.65700001
0.24679419 -0.072783388 0.65566671
0.24377336 -0.069560006 0.65800005
0.2453443 -0.067421913 0.65550005
0.24446811 -0.061897621 0.65649998
0.2456978 -0.061996199 0.6553334
0.2446543 -0.058817148 0.65700001
0.24615505 -0.057227045 0.65600008
0.24823534 -0.052920699 0.65654552
0.25055501 -0.051483572 0.65525001
0.25205031 -0.047659636 0.65646166
0.25394264 -0.043782622 0.65675002
0.25679803 -0.041898448 0.65663642
0.26012859 -0.040547621 0.65500003
0.26238427 -0.037622862 0.65685719
0.26650161 -0.035575241 0.6553334
0.2938143 -0.035557143 0.65500003
0.29672545 -0.036388889 0.65500003
0.2638267 -0.034466669 0.65800005
0.26749492 -0.03392512 0.65662503
0.27244231 -0.031895757 0.65669239
0.2772176 -0.031842303 0.65558344
0.28139919 -0.031286262 0.6551429
0.28785908 -0.031393334 0.65600002
0.2920177 -0.032818396 0.65592319
0.29704827 -0.032911539 0.65755558
0.27322668 -0.029453335 0.65800005
0.27727509 -0.029417528 0.65720004
0.2817862 -0.029430956 0.65750003
0.24335369 -0.072899535 0.66083336
0.24602287 -0.073291436 0.66000003
0.24384409 -0.067698792 0.66257155
0.24555965 -0.067370355 0.66112506
0.24597788 -0.063070238 0.66225004
0.24436288 -0.058722861 0.66300005
0.24562573 -0.058722861 0.66300005
0.24783087 -0.051982094 0.6608001
0.24928892 -0.048594922 0.66266674
0.25084895 -0.047398459 0.66137505
0.25261781 -0.043090668 0.66213346
0.25558573 -0.040919051 0.66100001
0.25446573 -0.039780002 0.66300005
0.25789499 -0.038281906 0.66186672
0.26123923 -0.03674905 0.6615001
0.26320139 -0.033789393 0.6622858
0.26708895 -0.03200794 0.66116679
0.27049002 -0.030823335 0.66050005
0.29480001 -0.030800002 0.66000003
0.29839432 -0.031789526 0.66100001
0.30151889 -0.033332955 0.66040009
0.26836357 -0.028756194 0.66257155
0.27249643 -0.028470665 0.66140008
0.27781025 -0.027200868 0.66145462
0.28283739 -0.027210239 0.66191673
0.28745297 -0.02823988 0.66262507
0.29254049 -0.029001191 0.66200012
0.29832384 -0.02941562 0.66280007
0.30073717 -0.029632382 0.66200006
0.28224859 -0.024625717 0.66300005
0.24311106 -0.065818861 0.66580003
0.24332172 -0.062352587 0.66807151
0.24552226 -0.061855562 0.66500002
0.24656479 -0.056830745 0.66772735
0.24456668 -0.05336 0.66700006
0.24733233 -0.05209611 0.66636366
0.24919859 -0.048950002 0.66750002
0.25028193 -0.047009528 0.66700006
0.25163373 -0.042252768 0.66619998
0.25402206 -0.038360547 0.6665715
0.25623131 -0.036680549 0.66571426
0.25859621 -0.034036469 0.66714299
0.26204902 -0.032553632 0.6662308
0.26536667 -0.031033335 0.66500002
0.26421574 -0.029604763 0.66850007
0.26727325 -0.027699126 0.66684616
0.27246985 -0.026401905 0.66533339
0.27613336 -0.025966669 0.66500002
0.28892669 -0.027233336 0.66500002
0.29271048 -0.026609764 0.66525
0.2979129 -0.027715717 0.66650003
0.26934096 -0.024774287 0.66700006
0.27292156 -0.023121988 0.66825002
0.27726904 -0.023003073 0.66688901
0.2824544 -0.022569584 0.66594118
0.28757119 -0.023004765 0.66571426
0.29243049 -0.023061821 0.66763639
0.29627144 -0.024848573 0.66900003
0.27970573 -0.01975143 0.66900003
0.28289145 -0.01975143 0.66900003
0.28734431 -0.019707145 0.66750008
0.24566668 -0.055514291 0.67000002
0.24621487 -0.050980192 0.67080003
0.24744098 -0.04872096 0.67185718
0.2507855 -0.046062145 0.67175001
0.25226858 -0.044291433 0.67400002
0.25471812 -0.037763812 0.67200005
0.25587621 -0.035095241 0.67000002
0.25841537 -0.032140121 0.67162502
0.26094383 -0.030460637 0.671
0.26296642 -0.027621364 0.6722858
0.26593977 -0.025889764 0.67125005
0.30264312 -0.026411539 0.67277783
0.26747116 -0.02312717 0.67163157
0.27139241 -0.021391906 0.67050004
0.29416192 -0.021057144 0.67000002
0.29758987 -0.022518523 0.67133337
0.30197433 -0.02331016 0.67366666
0.26869082 -0.019879367 0.67333335
0.27201146 -0.019109422 0.67133343
0.27703741 -0.019149764 0.67025006
0.28292003 -0.018314287 0.6724
0.28742987 -0.018150477 0.67266667
0.29319131 -0.019203018 0.67216671
0.29787546 -0.019361908 0.67320007
0.30105335 -0.01989905 0.67400002
0.2485663 -0.047240194 0.67580003
0.25081241 -0.046421908 0.67700005
0.25294188 -0.042559139 0.67799997
0.25505716 -0.043262862 0.67800003
0.25419495 -0.038957462 0.67799997
0.25565419 -0.036574431 0.67714292
0.25729328 -0.032316703 0.6776154
0.2593843 -0.029035717 0.67750001
0.26119855 -0.026556406 0.67644441
0.26320946 -0.022267329 0.67700005
0.26614287 -0.021214288 0.67500001
0.30235717 -0.022071432 0.67500007
0.26409528 -0.019154921 0.67800009
0.26772416 -0.018261906 0.67683339
0.27283907 -0.016680319 0.67655563
0.27776584 -0.016717263 0.67512506
0.28276533 -0.016622452 0.67500007
0.28821412 -0.016590476 0.67519999
0.29236114 -0.016742066 0.67616671
0.29690799 -0.017074883 0.67662501
0.30125338 -0.017629335 0.67560005
0.27332774 -0.014062263 0.67887497
0.27737975 -0.013097282 0.67800003
0.2821762 -0.012911905 0.67800003
0.28748718 -0.013555082 0.67783344
0.29214987 -0.014003811 0.67866671
0.29552668 -0.014873334 0.67900002
0.27871335 -0.0097000003 0.67900002
0.28000668 -0.0097000003 0.67900002
0.24868573 -0.045980956 0.68000001
0.24909964 -0.043267243 0.68220007
0.25115764 -0.04231929 0.68099999
0.25286067 -0.037754357 0.68178582
0.25343537 -0.033004686 0.68175
0.25599667 -0.030784287 0.68050003
0.25470859 -0.029314287 0.68400002
0.25784412 -0.027571304 0.68173343
0.26072478 -0.025294287 0.68099999
0.25958344 -0.022532381 0.68380004
0.26134345 -0.021810669 0.68160003
0.26297659 -0.018311812 0.68180007
0.26655972 -0.01643016 0.68099999
0.29984763 -0.016190477 0.68000001
0.30179048 -0.016190477 0.68000001
0.26755989 -0.01347886 0.68266684
0.27174938 -0.012213334 0.68099999
0.27523813 -0.011009525 0.68000001
0.28754285 -0.011009525 0.68000001
0.29312465 -0.011939321 0.68028575
0.29755431 -0.012772064 0.68200004
0.30169764 -0.012374954 0.68390006
0.30552003 -0.011074287 0.68400002
0.27296233 -0.0093930624 0.68357146
0.27739611 -0.0077930954 0.68212509
0.2824648 -0.0076892539 0.68114299
0.28764936 -0.0077500339 0.68220013
0.2922385 -0.0081920018 0.68280005
0.29694289 -0.008627858 0.68375003
0.30291429 -0.008208001 0.68400002
0.30552003 -0.009771429 0.68400002
0.28467432 -0.0045600003 0.68400002
0.28858286 -0.0045600003 0.68400002
0.30369601 -0.0035177146 0.68400002
0.25153336 -0.041160002 0.68600005
0.25140834 -0.037456911 0.68700004
0.25302336 -0.032691907 0.68650007
0.25622532 -0.026810344 0.68657142
0.2579383 -0.022295753 0.6870001
0.25947335 -0.019001905 0.68800002
0.26306596 -0.016958097 0.68727273
0.30380002 -0.015026668 0.68600005
0.26452237 -0.013750001 0.6875
0.26681337 -0.01211381 0.6875
0.30380002 -0.013720001 0.68600005
0.30704725 -0.012806668 0.68700004
0.26915377 -0.0085053071 0.68714297
0.27206281 -0.0069317156 0.68669999
0.27548891 -0.0063155564 0.68600005
0.29400003 -0.0058800005 0.68600005
0.29820004 -0.006626667 0.68600005
0.30234817 -0.0076222229 0.68599999
0.30576003 -0.0078400001 0.68600005
0.27320936 -0.0043281908 0.6886
0.27760634 -0.0037655956 0.68787503
0.28221616 -0.0032722345 0.68753844
0.28717706 -0.0032694051 0.68687499
0.2925159 -0.0035594711 0.68677777
0.29704478 -0.0035976195 0.68700004
0.3022086 -0.003707937 0.68733335
0.3051286 -0.0019685715 0.68900001
0.25312519 -0.032803539 0.69085723
0.255615 -0.027397553 0.69200003
0.25618237 -0.022392144 0.69150007
0.25866035 -0.018003812 0.69166672
0.26174545 -0.015706806 0.69128579
0.30820006 -0.015114288 0.69000006
0.2628637 -0.012637462 0.6923334
0.26627082 -0.011176826 0.69033337
0.26375565 -0.0093773333 0.69340008
0.26686233 -0.0076300851 0.69147068
0.26814482 -0.0035622858 0.69280005
0.2723588 -0.0021756042 0.69115394
0.2770327 -0.0012204084 0.69000012
0.28257143 -0.0006571429 0.69000006
0.28826672 -0.0010952384 0.69000006
0.29277658 -0.0011830478 0.69020003
0.29733223 -0.0011832382 0.69040006
0.30211261 -0.00138836 0.69111115
0.30557144 -0.0006571429 0.69000006
0.27380025 0.00099023816 0.69275004
0.27768299 0.0025228574 0.69217646
0.2828038 0.0026365481 0.69137502
0.28778964 0.0025914926 0.69106662
0.29239535 0.002507143 0.69210005
0.29624668 0.0017175239 0.69340008
0.30557144 0.0006571429 0.69000006
0.27958289 0.005948572 0.69400001
0.28222668 0.0059485724 0.69400001
0.25375146 -0.03113937 0.69566673
0.25341877 -0.027998246 0.69615394
0.25556669 -0.025888573 0.69700003
0.25460383 -0.023931429 0.69800001
0.25617033 -0.022444192 0.6972
0.25803524 -0.017247383 0.69650006
0.26012859 -0.01522381 0.69500005
0.25894749 -0.01261508 0.69716668
0.26045954 -0.012245239 0.69500005
0.25949645 -0.0089707151 0.69774997
0.26210457 -0.0075955321 0.69592309
0.26358509 -0.0038892522 0.6971429
0.26689571 -0.0019873811 0.69625002
0.27044475 -0.0006628572 0.69600004
0.26878542 0.0011079366 0.69800007
0.27228171 0.0028189286 0.69625008
0.2760143 0.0046333335 0.69500005
0.29454765 0.0046333335 0.69500005
0.29838073 0.0033156464 0.69600004
0.30191812 0.0016609525 0.69749999
0.30654517 0.0011961905 0.69760001
0.27388191 0.0059828577 0.69800001
0.27787739 0.0076473653 0.69613343
0.28293717 0.0087559996 0.69640011
0.28736788 0.0076313498 0.69658345
0.29181796 0.0075432905 0.69681823
0.29716274 0.0065447623 0.6971429
0.28385335 0.011300953 0.69800001
0.25302765 -0.026037145 0.70100003
0.2533727 -0.02302124 0.70270008
0.25557506 -0.021242477 0.70140004
0.25325954 -0.01943 0.70350003
0.25666845 -0.017378572 0.70183343
0.25803337 -0.012318476 0.70300007
0.25903049 -0.0078971433 0.70280004
0.26051876 -0.0064634932 0.70200002
0.25947431 -0.0046933335 0.70400006
0.26232269 -0.0025180958 0.7016924
0.26552239 -0.00066714291 0.70050001
0.26404226 0.0020107939 0.70366669
0.26716655 0.0028080638 0.70166671
0.27057302 0.0042244452 0.70033336
0.30342004 0.0033346673 0.70020002
0.30727473 0.0037873019 0.70155555
0.31132859 0.0046866671 0.70300001
0.26796731 0.0069211642 0.70322222
0.27213526 0.007573016 0.70150012
0.27577782 0.0082222223 0.70000005
0.29744023 0.0086697619 0.70025003
0.30292287 0.0075195245 0.70175004
0.30712518 0.0068371431 0.70380002
0.27247882 0.011021646 0.70327282
0.27736771 0.012157258 0.70217657
0.28229198 0.012802078 0.70072728
0.28723049 0.012808002 0.70040005
0.29208368 0.012008437 0.70042861
0.29736272 0.012030411 0.70164305
0.30230898 0.011653525 0.70320004
0.30506667 0.012068572 0.70400006
0.27891809 0.015420954 0.70400006
0.28311163 0.016747447 0.70336366
0.28765178 0.017269272 0.70273346
0.29252204 0.017018763 0.70350003
0.29658073 0.015750716 0.70375001
0.2539131 -0.017149763 0.70625007
0.25568527 -0.016148096 0.70649999
0.25649321 -0.01211893 0.70687497
0.25798795 -0.0074038105 0.70666671
0.25909442 -0.0030279765 0.7066251
0.26098382 -0.0011196827 0.70566672
0.26246288 0.0028033336 0.70633334
0.26408061 0.0071377154 0.70700002
0.26632094 0.0079320008 0.70580006
0.30863333 0.0078333346 0.7050001
0.31190401 0.0074065086 0.70683336
0.26472458 0.011732573 0.708
0.26758835 0.011924493 0.70671433
0.27180836 0.013615954 0.70599997
0.3028143 0.014100001 0.70500004
0.30780488 0.012523715 0.70690006
0.31152004 0.010788572 0.708
0.26499429 0.015508573 0.708
0.26701716 0.016182858 0.708
0.27304697 0.016854955 0.70790005
0.27737349 0.017584465 0.70668745
0.28228182 0.018934289 0.70642859
0.29341432 0.019471429 0.7050001
0.29803312 0.018323572 0.70599997
0.30197155 0.017311603 0.70645458
0.30698344 0.015773905 0.70779997
0.27842355 0.02205456 0.70785719
0.28274417 0.022766478 0.70720005
0.28739634 0.022886531 0.70671433
0.29231545 0.022901839 0.70721424
0.29704762 0.02185769 0.70771438
0.30050671 0.021352384 0.70800006
0.28657147 0.026297145 0.70800006
0.29061717 0.026297145 0.708
0.25492382 -0.013523811 0.71000004
0.25570223 -0.011151702 0.71271437
0.25705227 -0.0072960714 0.71262503
0.25792471 -0.0026517753 0.71218187
0.25906059 0.0023112383 0.71320003
0.26066986 0.0032374607 0.71133333
0.25908002 0.0074800006 0.71400005
0.26214385 0.0075672539 0.71238476
0.3144286 0.0087904772 0.71000004
0.31578097 0.0087904772 0.71000004
0.26330972 0.012215784 0.7125715
0.31330004 0.012445714 0.71020001
0.31592923 0.01150127 0.71033335
0.26452002 0.015640002 0.71400005
0.26807016 0.01746938 0.71176934
0.27184087 0.018844629 0.71028578
0.30496192 0.019609526 0.71000004
0.30772954 0.018274922 0.71066666
0.3120856 0.017986082 0.71153855
0.2693404 0.022162098 0.71380001
0.2726562 0.022383336 0.71216679
0.27709883 0.022772277 0.71022224
0.29908717 0.023683336 0.7105
0.3033475 0.022814445 0.71150005
0.30765739 0.022412913 0.71311122
0.31121337 0.022893336 0.71400011
0.26996002 0.025160002 0.71400005
0.27328968 0.026327977 0.71337503
0.27731699 0.027258601 0.71235305
0.28250214 0.027559126 0.71107703
0.28734154 0.028531702 0.71085721
0.29230782 0.027756384 0.71080005
0.29783314 0.027139798 0.71235728
0.30255765 0.026502145 0.71350014
0.30736002 0.025840003 0.71400011
0.31144002 0.025160002 0.71400005
0.27766669 0.030600002 0.71400011
0.28247201 0.030872002 0.71400005
0.28798002 0.030940002 0.71400005
0.29240003 0.030600002 0.71400005
0.29648003 0.030600002 0.71400005
0.25435048 -0.010228572 0.71600002
0.25435048 -0.0088647623 0.71600002
0.25583336 -0.0075038103 0.71633339
0.25670695 -0.0024386398 0.71714294
0.2575551 0.0027331745 0.71733344
0.25819319 0.0075190482 0.7177273
0.25917363 0.01163483 0.71857148
0.26101023 0.012795 0.71650004
0.25952479 0.015749525 0.71900004
0.26290038 0.01758592 0.7180714
0.26635575 0.018879527 0.71650004
0.26363334 0.021227621 0.71900004
0.26739308 0.022419907 0.71769994
0.31344232 0.021969905 0.71640009
0.26841316 0.025596002 0.71860009
0.27216417 0.027830835 0.717125
0.30390224 0.0284127 0.71600002
0.30739436 0.028760821 0.71657151
0.31136495 0.027774967 0.71628582
0.27395114 0.030742859 0.71733344
0.27778876 0.032132544 0.7178334
0.28254697 0.033338767 0.71730006
0.28762767 0.033603035 0.71736372
0.2925359 0.033466458 0.71711117
0.29726043 0.032726809 0.71800005
0.30224383 0.031113811 0.71800005
0.30745813 0.030814288 0.71900004
0.31088191 0.030814288 0.71900004
0.29102382 0.036292382 0.71900004
0.25408289 -0.0068857148 0.72300005
0.25543907 -0.0068666674 0.72100008
0.2536346 -0.0034380956 0.72228581
0.25548658 -0.0024514287 0.72085726
0.25418863 0.0011466667 0.72200006
0.25563854 0.0030436737 0.72128588
0.25648195 0.0075638099 0.72200006
0.25730625 0.012433652 0.72088897
0.25891897 0.017638944 0.72155565
0.26104066 0.019446986 0.72066677
0.26273611 0.022677463 0.72155559
0.26582861 0.023542859 0.72000003
0.26360065 0.025465399 0.72266674
0.26731423 0.027675932 0.72154558
0.27104431 0.029163336 0.72050005
0.26854289 0.030985717 0.72300005
0.27298394 0.032166142 0.72200012
0.27721953 0.033966191 0.72050005
0.28114289 0.034971431 0.72000003
0.2986286 0.034628574 0.72000003
0.30301106 0.033088766 0.72080004
0.30720001 0.032914288 0.72000003
0.31062859 0.032228574 0.72000003
0.27474001 0.035117146 0.72300005
0.27799004 0.035781115 0.72250009
0.28241393 0.037830863 0.7222001
0.28735796 0.037811909 0.72183347
0.29250374 0.0377841 0.72130007
0.29722831 0.03741252 0.72171438
0.30266204 0.036313653 0.72244453
0.30704862 0.036461271 0.72233343
0.28300288 0.040625717 0.72300005
0.28851146 0.040625717 0.72300005
0.25306034 -0.0066774609 0.72533339
0.25261757 -0.0022714287 0.72614282
0.25356594 0.0029575762 0.7269091
0.25468639 0.0076342868 0.72866672
0.25565192 0.0076004765 0.72549999
0.25480288 0.010414287 0.72900003
0.25644934 0.012696299 0.72711116
0.25784516 0.017042479 0.7274
0.2589559 0.02056032 0.72766674
0.26071775 0.023009881 0.72662503
0.26308945 0.027850306 0.72609085
0.2662937 0.029230161 0.72500008
0.26403713 0.031185716 0.72766674
0.26783982 0.032765366 0.72636366
0.27181751 0.033373021 0.72500008
0.26882714 0.03533572 0.72750002
0.27251261 0.036772672 0.72638464
0.27724832 0.038387191 0.72563636
0.28102383 0.039357144 0.72500002
0.29828572 0.039357144 0.72500002
0.30292687 0.039091811 0.72520012
0.30699432 0.039411429 0.72600001
0.27424288 0.04096286 0.72900003
0.27773851 0.041517824 0.72828585
0.28219652 0.042347189 0.72672725
0.28722984 0.042271692 0.72545451
0.29283103 0.042052388 0.72620004
0.29768261 0.042231143 0.72689998
0.30241215 0.041873612 0.72757155
0.30680001 0.041253336 0.72800004
0.28396288 0.045128573 0.72900003
0.28713787 0.045082144 0.72825003
0.29229432 0.045128576 0.72900003
0.29507145 0.045128573 0.72900003
0.24993239 -0.00069619052 0.73100001
0.25202096 -0.00069619052 0.73100001
0.25245503 0.0034826193 0.73124999
0.25336111 0.007466123 0.73171437
0.25388941 0.012556311 0.73237503
0.25550193 0.013227619 0.73100007
0.25445715 0.016034286 0.73200005
0.25646988 0.017750055 0.73244452
0.25772664 0.022151941 0.73215389
0.259197 0.02691086 0.73200005
0.26155347 0.028210837 0.73137504
0.26294893 0.032112703 0.73300004
0.26571274 0.033649206 0.73100007
0.26789856 0.037222166 0.73236364
0.27188414 0.039272703 0.73200005
0.27310848 0.042118628 0.73300004
0.27709547 0.043605525 0.73140001
0.28056479 0.043860003 0.73100001
0.30353907 0.043860003 0.73100001
0.30604574 0.043920003 0.73200005
0.27853906 0.045725718 0.73300004
0.28234121 0.046185952 0.73199999
0.2875267 0.04664477 0.73100007
0.29250073 0.046660718 0.73125005
0.29779586 0.046126097 0.73159999
0.30093274 0.045780323 0.73200005
0.25253639 0.0025061229 0.73685724
0.25233114 0.008193017 0.73733342
0.25241274 0.012710901 0.73688889
0.25377682 0.017387263 0.737625
0.25443336 0.021788573 0.73800009
0.25654417 0.023642858 0.73733342
0.25777194 0.027041668 0.73750001
0.25970572 0.030263811 0.73900002
0.26221105 0.032588441 0.73700011
0.2646181 0.035797145 0.73700005
0.2660875 0.03771254 0.73783344
0.26869443 0.041082997 0.73828578
0.27180815 0.043742388 0.73683333
0.27667367 0.046346672 0.73733342
0.25160003 0.011276191 0.74000001
0.25262001 0.016275238 0.74300003
0.25441906 0.024666669 0.74000001
0.25731313 0.028275954 0.74225008
0.25731194 0.031104287 0.74225008
0.26146609 0.033654928 0.74133337
0.26318729 0.036917504 0.74187505
0.26500002 0.038866669 0.74200004
0.26394191 0.040334288 0.74300003
0.26701117 0.042383712 0.74170005
0.25377303 0.018684126 0.74500006
0.2541109 0.022400683 0.74500006
0.25471908 0.029090479 0.74500006
0.25611907 0.027445525 0.74660003
0.2587862 0.034126192 0.74650002
0.26039526 0.034057148 0.74500006
0.25967145 0.03628286 0.74700004
0.26157433 0.038112067 0.74566674
