# .PCD v0.7 - Point Cloud Data file format
VERSION 0.7
FIELDS x y z
SIZE 4 4 4
TYPE F F F
COUNT 1 1 1
WIDTH 1452
HEIGHT 1
VIEWPOINT 0 0 0 1 0 0 0
POINTS 1452
DATA ascii
0.8483572 -0.20138572 1.6650001
0.85787147 -0.20455715 1.6650002
0.86262864 -0.20455717 1.6650002
-0.2521286 -0.19821429 1.6650001
-0.24737144 -0.19345716 1.6650001
0.039642863 -0.19504288 1.6650002
0.042814292 -0.19504285 1.6650002
0.7682786 -0.19583572 1.6650001
0.77501798 -0.19464643 1.6650001
0.78492868 -0.19345716 1.6650002
0.79444295 -0.19504285 1.6650001
0.8023715 -0.19662857 1.6650001
0.81030005 -0.19821429 1.6650001
0.85787147 -0.19504288 1.6650002
0.86262864 -0.19504288 1.6650002
-0.24768858 -0.18616287 1.6650002
0.037377555 -0.18507554 1.6650002
0.7674858 -0.18552861 1.6650002
0.77541441 -0.18552858 1.6650001
0.78492868 -0.18552859 1.6650001
0.7950772 -0.18743144 1.6650002
0.85787147 -0.18552858 1.6650002
0.86262864 -0.18552861 1.6650002
-0.2521286 -0.17442858 1.6650001
-0.24895716 -0.17918573 1.6650001
0.03647143 -0.1760143 1.6650001
0.046514288 -0.17495716 1.6650002
0.76716864 -0.17728288 1.6650002
0.77541441 -0.1760143 1.6650001
0.78492868 -0.1760143 1.6650001
0.79523575 -0.17363572 1.6650001
0.85787147 -0.1760143 1.6650002
0.86183578 -0.17680717 1.6650001
-0.2521286 -0.1649143 1.6650001
0.026957145 -0.16332859 1.6650001
0.035338782 -0.16559389 1.6650004
0.045985721 -0.16650002 1.6650002
0.76653433 -0.16776858 1.6650002
0.77541441 -0.16579525 1.6650001
0.78492868 -0.16579528 1.6650001
0.85787147 -0.16650002 1.6650002
0.86104292 -0.16650002 1.6650002
-0.2521286 -0.15698573 1.6650001
0.035202857 -0.15254574 1.6650002
0.77858579 -0.15222859 1.6650001
0.78175724 -0.15381432 1.6650002
0.035837144 -0.14461716 1.6650002
0.77858579 -0.14747144 1.6650001
0.78175718 -0.14588574 1.6650001
-0.24895716 -0.13478573 1.6650001
0.038374286 -0.13542001 1.6650002
0.78175718 -0.13478573 1.6650001
-0.24895716 -0.12368573 1.6650001
0.038374286 -0.12527144 1.6650002
0.042814288 -0.12685716 1.6650001
0.85787147 -0.12210001 1.6650001
0.86104292 -0.12210001 1.6650001
0.037377555 -0.1153041 1.6650002
0.85707861 -0.1149643 1.6650001
0.86104292 -0.11575715 1.6650002
0.03647143 -0.10624287 1.6650001
0.85787147 -0.10624287 1.6650002
0.86104292 -0.10624287 1.6650002
0.035678573 -0.095142864 1.6650003
0.042814288 -0.099900007 1.6650001
0.85787147 -0.098314293 1.6650001
0.86104292 -0.098314293 1.6650001
-0.24895716 -0.082457148 1.6650001
0.034206122 -0.084495924 1.6650002
-0.24768858 -0.073894285 1.6650002
0.035565309 -0.074075513 1.6650002
-0.24737144 -0.065807149 1.6650001
0.035318185 -0.06530261 1.6650003
0.042814288 -0.061842863 1.6650001
-0.24578574 -0.055500008 1.6650002
0.034885719 -0.055500012 1.6650003
-0.2447286 -0.045985721 1.6650002
0.037377555 -0.04643878 1.6650002
0.85628575 -0.045985721 1.6650002
0.86104292 -0.045985721 1.6650002
-0.24578573 -0.034885716 1.6650001
0.03647143 -0.033696428 1.6650001
0.85787147 -0.039642859 1.6650001
0.86104292 -0.039642859 1.6650001
-0.24895716 -0.023785716 1.6650002
0.03445325 -0.023785714 1.6650003
-0.24578573 -0.011100001 1.6650001
0.026957145 -0.01427143 1.6650001
0.034885719 -0.014271429 1.6650003
-0.24578573 -0.0063428571 1.6650001
0.03647143 -0.0055500004 1.6650001
-0.2426143 0.0079285717 1.6650001
0.03647143 0.0063428571 1.6650001
-0.23785716 0.014271429 1.6650001
0.026957145 0.017442858 1.6650001
0.033300001 0.014667858 1.6650001
-0.23627144 0.023785716 1.6650002
0.026957145 0.023785716 1.6650002
0.033300001 0.023785714 1.6650001
-0.23785716 0.03647143 1.6650001
0.02537143 0.030128574 1.6650001
0.033011694 0.03445325 1.6650003
-0.23944287 0.044400003 1.6650001
0.026164288 0.04519286 1.6650001
0.03171429 0.045985721 1.6650002
-0.23944287 0.055500004 1.6650001
0.026164288 0.056292862 1.6650001
0.030921431 0.054707147 1.6650001
-0.23547858 0.065014288 1.6650001
0.024238776 0.065014288 1.6650002
0.030128574 0.065014288 1.6650001
-0.2426143 0.077700004 1.6650001
-0.23838572 0.072414294 1.6650002
0.023785714 0.074528575 1.6650001
-0.24420002 0.084042862 1.6650001
0.017442858 0.085628577 1.6650001
0.023785714 0.08404287 1.6650001
0.030128574 0.084042862 1.6650001
-0.24578573 0.091971435 1.6650001
0.017442858 0.09038572 1.6650001
0.024490476 0.094261914 1.6650001
0.030128574 0.098314293 1.6650001
-0.24578573 0.10624287 1.6650001
0.024691839 0.10669593 1.6650002
0.030128574 0.10307144 1.6650001
0.02188286 0.11512287 1.6650002
0.017442858 0.12844287 1.6650001
0.020614287 0.12368573 1.6650001
-0.23944287 0.13478573 1.6650001
0.016174287 0.13542001 1.6650002
0.020614287 0.13478574 1.6650002
-0.23547858 0.14509287 1.6650001
0.015857145 0.14430001 1.6650002
0.020614287 0.14430003 1.6650002
-0.23310003 0.15381432 1.6650002
0.016650001 0.15302145 1.6650001
0.020614287 0.15381432 1.6650002
-0.23310001 0.16332859 1.6650001
-0.2292943 0.16586573 1.6650002
0.015857143 0.16491431 1.6650001
-0.22755001 0.17680717 1.6650001
0.0079285717 0.17760003 1.6650001
0.012368573 0.17538002 1.6650002
-0.22755001 0.18552859 1.6650001
0.013742859 0.18552858 1.6650002
-0.22675715 0.19504285 1.6650002
0.0079285717 0.19662857 1.6650001
0.013818369 0.19413675 1.6650002
-0.22834286 0.20455715 1.6650001
0.0063428576 0.20455717 1.6650002
0.011100001 0.20455715 1.6650002
-0.22992858 0.21407144 1.6650002
0.0063428576 0.21407144 1.6650002
0.011100001 0.21407144 1.6650002
-0.22913572 0.22517145 1.6650001
0.0066600004 0.22739144 1.6650002
0.011734287 0.22422002 1.6650002
-0.22675715 0.23310001 1.6650001
0.0063428576 0.23627144 1.6650002
0.011100001 0.23627144 1.6650001
-0.22358572 0.24578571 1.6650002
0.0038510209 0.24533266 1.6650002
-0.22358572 0.25847146 1.6650001
-0.0015857144 0.25688574 1.6650001
0.0031714288 0.25530002 1.6650001
-0.222 0.26481432 1.6650001
-0.0015857144 0.26481432 1.6650002
0.0031714288 0.26481435 1.6650002
-0.22041431 0.27432859 1.6650002
-0.0015857144 0.27432859 1.6650002
0.0043040821 0.27342248 1.6650002
-0.22041431 0.28384289 1.6650002
-0.21724288 0.28384289 1.6650002
-0.0023785715 0.28463572 1.6650001
0.0028542858 0.28447714 1.6650002
-0.2204143 0.29018572 1.6650001
-0.21407144 0.29547143 1.6650002
-0.0022200001 0.29526001 1.6650002
0.0037000002 0.29547143 1.6650001
-0.21090001 0.30604288 1.6650002
-0.0015857144 0.30604288 1.6650002
0.0047571431 0.30604288 1.6650001
-0.21090001 0.31555718 1.6650002
-0.20772858 0.31714287 1.6650001
-0.0031714288 0.31555718 1.6650002
0.0015857144 0.31397146 1.6650001
-0.21090001 0.32507145 1.6650002
-0.011100001 0.32824287 1.6650001
-0.0052857148 0.32507145 1.6650002
-0.21090001 0.33458576 1.6650002
-0.011100001 0.33141431 1.6650001
-0.0043607145 0.33458573 1.6650001
0.0015857144 0.33775717 1.6650001
-0.21090001 0.34251431 1.6650001
-0.20772858 0.34727144 1.6650001
-0.011100001 0.34410003 1.6650001
-0.0047571431 0.34251434 1.6650002
0.0034885716 0.34536859 1.6650002
0.011100001 0.34727144 1.6650001
-0.21090001 0.35044289 1.6650001
-0.20365104 0.35587963 1.6650002
-0.19821429 0.35995716 1.6650001
-0.0015857144 0.35520002 1.6650001
0.0039642858 0.35361433 1.6650001
0.011100001 0.35202861 1.6650001
-0.20297144 0.36630005 1.6650002
-0.19821429 0.3631286 1.6650001
-0.012157144 0.36841434 1.6650002
-0.0053914292 0.36566576 1.6650002
0.0015857144 0.3631286 1.6650001
-0.20297144 0.37581432 1.6650002
-0.015857143 0.37660718 1.6650001
-0.0068714283 0.37687144 1.6650002
-0.20138572 0.38215718 1.6650001
-0.19504285 0.38585716 1.6650002
-0.18552858 0.38850003 1.6650001
-0.034885716 0.38850003 1.6650001
-0.022728574 0.38638574 1.6650002
-0.017442858 0.38532862 1.6650002
-0.1871143 0.39167145 1.6650001
-0.1760143 0.39642859 1.6650001
-0.033300001 0.39405 1.6650001
-0.026164288 0.39405 1.6650001
-0.16610359 0.40396076 1.6650001
-0.031185716 0.4022429 1.6650002
-0.025900003 0.40330005 1.6650002
-0.16438574 0.41175717 1.6650002
-0.0031714286 0.45668575 1.6650001
0.0047571431 0.45668575 1.6650002
0.011100001 0.45510003 1.6650001
0.7722429 0.45827144 1.6650001
-0.033300001 0.4646143 1.6650001
-0.011100001 0.46778575 1.6650001
-0.0043607145 0.46501079 1.6650001
0.0031714288 0.46302858 1.6650001
0.068185717 0.46778575 1.6650001
0.074528575 0.46778578 1.6650002
0.085628577 0.46778575 1.6650001
0.094825722 0.46715146 1.6650002
0.10624287 0.46778578 1.6650002
0.333 0.46778575 1.6650001
0.34410003 0.46778575 1.6650001
0.44717145 0.46778575 1.6650001
0.45510003 0.46778575 1.6650001
0.53438574 0.46778575 1.6650001
0.76590008 0.46302864 1.6650002
0.77478009 0.46271148 1.6650002
0.80395722 0.46778578 1.6650002
0.81030005 0.46778575 1.6650001
-0.080871433 0.47095716 1.6650001
-0.074528575 0.47254288 1.6650001
-0.066600002 0.47571433 1.6650001
-0.057085719 0.47730002 1.6650001
-0.044400003 0.47730002 1.6650001
-0.034251433 0.47476292 1.6650002
-0.023332654 0.47503474 1.6650002
-0.01427143 0.47412863 1.6650001
-0.0031714288 0.47333574 1.6650001
0.0015857144 0.4741286 1.6650001
0.058671433 0.47095716 1.6650001
0.085628577 0.47095716 1.6650001
0.093557149 0.47095716 1.6650001
0.10941429 0.47095716 1.6650001
0.11575715 0.47307146 1.6650002
0.12527144 0.4741286 1.6650002
0.13478574 0.4741286 1.6650002
0.14509287 0.47492146 1.6650001
0.1538143 0.47730002 1.6650002
0.16015716 0.47730002 1.6650001
0.18394287 0.47730002 1.6650001
0.19345716 0.47730002 1.6650001
0.20455715 0.47307146 1.6650002
0.2148643 0.47175002 1.6650001
0.22517143 0.4741286 1.6650001
0.23627144 0.4741286 1.6650002
0.24515145 0.47286007 1.6650002
0.25609291 0.47333574 1.6650001
0.26402146 0.47333574 1.6650001
0.27432859 0.47492146 1.6650001
0.28384286 0.47571433 1.6650001
0.29652858 0.47518575 1.6650002
0.30683571 0.47492146 1.6650001
0.31476432 0.47492146 1.6650001
0.32586432 0.47333574 1.6650001
0.33379287 0.47175002 1.6650001
0.34330714 0.47175002 1.6650001
0.35424861 0.47222576 1.6650002
0.36788574 0.47254288 1.6650001
0.37581432 0.47254294 1.6650002
0.38453573 0.47175002 1.6650001
0.39484286 0.47201431 1.6650002
0.40594289 0.47095716 1.6650001
0.4146643 0.47175002 1.6650001
0.4246543 0.47286007 1.6650002
0.4392429 0.4741286 1.6650001
0.44558573 0.47254288 1.6650001
0.45510003 0.47095716 1.6650002
0.46461433 0.47095716 1.6650002
0.4741286 0.4741286 1.6650001
0.48491144 0.47159147 1.6650002
0.49712145 0.47175002 1.6650001
0.5042572 0.47095716 1.6650001
0.51694286 0.47095716 1.6650001
0.52328575 0.47095716 1.6650001
0.5343858 0.47095716 1.6650002
0.54231429 0.47095716 1.6650001
0.55500007 0.47095716 1.6650001
0.56610006 0.47095716 1.6650002
0.57244289 0.47095716 1.6650001
0.58512866 0.47095716 1.6650002
0.59464288 0.47095716 1.6650002
0.60352296 0.47222576 1.6650002
0.61208576 0.47254288 1.6650001
0.6263572 0.4741286 1.6650002
0.63507861 0.47492146 1.6650001
0.6422143 0.4741286 1.6650001
0.73577148 0.47730002 1.6650001
0.74052864 0.47730002 1.6650001
0.77604866 0.47603145 1.6650002
0.81188577 0.47254288 1.6650001
0.73101431 0.48205715 1.6650001
0.74052864 0.48840004 1.6650001
0.7249667 -0.65326667 1.6730001
0.8561511 -0.65486002 1.6730002
0.86472481 -0.65394956 1.6730002
0.87314671 -0.65486002 1.6730002
0.72337341 -0.64530003 1.6730002
0.85721338 -0.64530009 1.6730002
0.86518002 -0.64529997 1.6730002
0.87314671 -0.64530009 1.6730002
0.71859336 -0.63574004 1.6730001
0.72337341 -0.63574004 1.6730002
0.85721338 -0.63892668 1.6730001
0.86609054 -0.63619536 1.6730002
0.87282801 -0.63637739 1.6730002
0.7249667 -0.62618005 1.6730002
0.86757004 -0.62618005 1.6730001
0.87155336 -0.62618005 1.6730001
0.72532076 -0.61414152 1.6730002
0.72656006 -0.60387337 1.6730002
0.72687876 -0.59431338 1.6730002
0.73134005 -0.59272003 1.6730001
0.72735673 -0.58555007 1.6730001
0.73134011 -0.58475339 1.6730001
0.72815341 -0.5720067 1.6730001
0.7329334 -0.57519341 1.6730002
0.72815341 -0.56244671 1.6730001
0.7329334 -0.56563336 1.6730002
0.72687876 -0.55543607 1.6730002
0.73213673 -0.55687004 1.6730001
0.72751611 -0.54587603 1.6730002
0.73240227 -0.54438889 1.6730002
0.86518008 -0.54492003 1.6730001
0.72815341 -0.53376675 1.6730001
0.73361623 -0.53331155 1.6730002
0.86836672 -0.53536004 1.6730001
0.87155336 -0.53536004 1.6730001
0.72815341 -0.52420676 1.6730001
0.73412836 -0.52380836 1.6730002
0.72815341 -0.51783335 1.6730001
0.73452669 -0.51464671 1.6730002
0.74090004 -0.51464671 1.6730001
0.73452669 -0.50508672 1.6730002
0.72815341 -0.49552673 1.6730001
0.7326147 -0.4955267 1.6730002
0.72709119 -0.48702893 1.6730001
0.73452669 -0.48596668 1.6730002
0.72815341 -0.47534451 1.6730001
0.73481637 -0.47495818 1.6730002
0.73643869 -0.46366006 1.6730002
0.74090004 -0.46366006 1.6730001
0.7361201 -0.45410007 1.6730002
0.74090004 -0.45410001 1.6730001
0.7361201 -0.44454002 1.6730002
0.74090004 -0.44454002 1.6730001
0.73771346 -0.43498003 1.6730001
0.74090004 -0.43498003 1.6730001
0.73643869 -0.42605734 1.6730002
0.74169672 -0.42462337 1.6730001
0.7377134 -0.41586003 1.6730001
0.74090004 -0.41586003 1.6730001
0.75046003 -0.41586003 1.6730001
0.7377134 -0.40948668 1.6730001
0.7428121 -0.40502539 1.6730002
0.75046003 -0.40630004 1.6730001
0.7377134 -0.3903667 1.6730001
0.74437648 -0.39471215 1.6730002
0.75046003 -0.39196002 1.6730001
0.74408674 -0.38399336 1.6730002
0.7512567 -0.38479003 1.6730001
0.74514902 -0.37549555 1.6730002
0.75205344 -0.37443337 1.6730002
0.74568009 -0.36487338 1.6730002
0.75273627 -0.36441812 1.6730002
0.74621123 -0.35743782 1.6730001
0.75364679 -0.35584447 1.6730002
0.063733339 -0.34575337 1.6730001
0.75364679 -0.34535503 1.6730002
0.76002008 -0.34734666 1.6730001
-0.24378002 -0.33300668 1.6730001
0.063414671 -0.33683071 1.6730002
0.75455725 -0.33664861 1.6730002
-0.25334004 -0.32472137 1.6730002
-0.24696669 -0.32982001 1.6730001
0.049393337 -0.32344669 1.6730001
0.057360005 -0.32822669 1.6730001
0.063202225 -0.32875782 1.6730001
0.75470901 -0.32557115 1.6730002
0.76002008 -0.32663336 1.6730001
0.85880673 -0.32344669 1.6730001
-0.25652668 -0.3138867 1.6730001
0.046206675 -0.31601113 1.6730001
0.7560367 -0.31468335 1.6730001
0.76161337 -0.31229338 1.6730001
0.84606004 -0.31070003 1.6730001
-0.25780135 -0.30368933 1.6730002
0.75300932 -0.30496404 1.6730002
0.76161337 -0.30751336 1.6730001
0.83729672 -0.30193669 1.6730001
0.84566176 -0.30392835 1.6730002
-0.26290002 -0.29158002 1.6730001
-0.25812 -0.29795337 1.6730001
0.046206668 -0.29476669 1.6730001
0.75417793 -0.29476672 1.6730002
0.76002008 -0.29158002 1.6730001
0.83809346 -0.29476672 1.6730002
0.84446669 -0.29476666 1.6730002
-0.26369667 -0.28441003 1.6730001
0.049393337 -0.28839335 1.6730001
0.05470445 -0.28520668 1.6730001
0.75524002 -0.28600335 1.6730001
0.76161343 -0.28520668 1.6730001
0.8380934 -0.28520668 1.6730001
0.84478533 -0.28520668 1.6730002
-0.26417467 -0.27628404 1.6730002
0.057360008 -0.27564669 1.6730001
0.75410199 -0.27473623 1.6730002
0.76081675 -0.27644336 1.6730001
0.83756226 -0.27352223 1.6730001
0.84765339 -0.27564669 1.6730001
0.85243338 -0.27246001 1.6730001
-0.26290005 -0.2660867 1.6730001
-0.25971335 -0.2660867 1.6730001
0.056828897 -0.26714891 1.6730001
0.75364673 -0.26608667 1.6730002
0.76002008 -0.26768002 1.6730001
0.82455003 -0.26688337 1.6730001
0.8339507 -0.2664054 1.6730002
0.84924674 -0.26927334 1.6730001
0.85243338 -0.26927334 1.6730001
-0.26369667 -0.25732335 1.6730001
-0.25891668 -0.25732332 1.6730001
0.049393337 -0.25174668 1.6730001
0.053642228 -0.2559956 1.6730002
0.75393653 -0.25478852 1.6730002
0.76002008 -0.25652668 1.6730001
0.81738007 -0.25174668 1.6730001
0.8226912 -0.25387114 1.6730002
0.83404881 -0.25481081 1.6730002
-0.2660867 -0.24059334 1.6730001
0.049393337 -0.24537335 1.6730001
0.05470445 -0.24271779 1.6730002
0.75603676 -0.24298334 1.6730001
0.76161337 -0.24298334 1.6730001
0.82375342 -0.24286954 1.6730002
0.83447218 -0.24406971 1.6730002
0.84393561 -0.24165557 1.6730001
-0.26290002 -0.23262668 1.6730001
-0.25971335 -0.23103335 1.6730001
0.049393337 -0.23581335 1.6730001
0.055235561 -0.2331578 1.6730002
0.75555873 -0.23485735 1.6730002
0.76129472 -0.23358269 1.6730002
0.81510389 -0.2337648 1.6730002
0.82375336 -0.23422003 1.6730002
0.83437568 -0.23422003 1.6730002
0.84514946 -0.23422003 1.6730002
-0.26290002 -0.22625335 1.6730001
-0.25971335 -0.22466002 1.6730001
0.049393337 -0.22147335 1.6730001
0.055766676 -0.22465999 1.6730002
0.75683337 -0.22784668 1.6730001
0.76356083 -0.22430593 1.6730002
0.81419343 -0.22784668 1.6730001
0.82375348 -0.22557051 1.6730002
0.83458805 -0.22434135 1.6730002
0.8460601 -0.22465999 1.6730002
-0.25971335 -0.21350668 1.6730001
0.049393337 -0.21510002 1.6730001
0.056677151 -0.21510005 1.6730002
0.76267564 -0.21510002 1.6730002
0.82534671 -0.21430334 1.6730001
0.83447224 -0.21510002 1.6730002
0.84606004 -0.21470168 1.6730002
0.85498279 -0.21318804 1.6730002
-0.25758892 -0.20554003 1.6730001
0.048331112 -0.20554003 1.6730001
0.057360005 -0.20713334 1.6730001
0.76480007 -0.20554003 1.6730002
0.81738007 -0.20554 1.6730001
0.82375336 -0.20593835 1.6730002
0.8339507 -0.20522134 1.6730002
0.84697062 -0.20508477 1.6730002
0.8560183 -0.20593832 1.6730002
-0.25334001 -0.19598001 1.6730001
0.047481339 -0.19534269 1.6730002
0.7669245 -0.19598001 1.6730002
0.80622673 -0.19279334 1.6730001
0.81419331 -0.1955817 1.6730002
0.82375336 -0.19598 1.6730002
0.83490676 -0.19598004 1.6730002
0.8460601 -0.19598 1.6730002
0.85561997 -0.19598003 1.6730002
-0.25334001 -0.18482667 1.6730001
0.045916975 -0.18526123 1.6730002
0.052580003 -0.18482667 1.6730001
0.75683337 -0.18004668 1.6730001
0.7640034 -0.18482669 1.6730002
0.79634804 -0.18259601 1.6730002
0.80527079 -0.18418935 1.6730002
0.81373811 -0.18733051 1.6730002
0.82375336 -0.18578269 1.6730002
0.83490676 -0.18642001 1.6730002
0.84606004 -0.18482666 1.6730002
0.85562003 -0.18482667 1.6730002
-0.25652668 -0.17208001 1.6730001
0.046206668 -0.17367333 1.6730001
0.052580003 -0.17367333 1.6730001
0.76480001 -0.17367335 1.6730002
0.79666674 -0.17367333 1.6730001
0.80554396 -0.1732181 1.6730002
0.81100672 -0.17686 1.6730001
0.84765339 -0.17686 1.6730001
0.85562003 -0.17367335 1.6730002
-0.25652668 -0.16411334 1.6730001
0.046206668 -0.16283868 1.6730002
0.052580003 -0.16411334 1.6730001
0.75683337 -0.16730002 1.6730001
0.76519835 -0.163715 1.6730002
0.77515674 -0.16172335 1.6730001
0.78870004 -0.16092667 1.6730001
0.79598391 -0.16365811 1.6730002
0.80463344 -0.16411334 1.6730002
0.81419343 -0.16252001 1.6730001
0.8226912 -0.16517557 1.6730001
0.85653049 -0.16456859 1.6730002
0.86358672 -0.16092667 1.6730001
-0.25652668 -0.15455335 1.6730001
0.038240001 -0.15614668 1.6730001
0.044294666 -0.15455334 1.6730002
0.76730388 -0.15409811 1.6730002
0.77595335 -0.15455335 1.6730002
0.78710675 -0.15535 1.6730001
0.79507339 -0.15455335 1.6730002
0.80463344 -0.15455335 1.6730002
0.81459165 -0.15455335 1.6730002
0.85880679 -0.15455335 1.6730001
0.86358678 -0.15455335 1.6730002
-0.25573003 -0.14419667 1.6730001
0.044613339 -0.14499335 1.6730002
0.76798671 -0.14499335 1.6730002
0.77701563 -0.14605558 1.6730002
0.78604454 -0.14393112 1.6730002
0.79507339 -0.14499335 1.6730002
0.80463344 -0.14499335 1.6730002
0.81379503 -0.144595 1.6730002
0.85801005 -0.14419667 1.6730001
0.86358678 -0.14499335 1.6730002
-0.25334001 -0.13543335 1.6730001
0.044613343 -0.13543335 1.6730002
0.76730382 -0.13497812 1.6730002
0.77640861 -0.13452289 1.6730002
0.7855134 -0.13543335 1.6730002
0.79507339 -0.13543335 1.6730002
0.80372298 -0.13588859 1.6730002
0.81260002 -0.13862 1.6730001
0.85721338 -0.13543335 1.6730002
0.86358678 -0.13543335 1.6730002
0.04514445 -0.12587336 1.6730001
0.76523465 -0.12616304 1.6730002
0.77595341 -0.12632859 1.6730002
0.7855134 -0.12826335 1.6730001
0.79507339 -0.12826335 1.6730001
0.80463338 -0.12906002 1.6730001
0.85562003 -0.12587336 1.6730002
0.86358672 -0.12746668 1.6730001
-0.25493336 -0.11631334 1.6730002
0.043020003 -0.11631334 1.6730001
0.76639336 -0.11631335 1.6730002
0.77595335 -0.11631334 1.6730002
0.81578672 -0.11631334 1.6730002
0.85522163 -0.11671168 1.6730002
-0.25516099 -0.10584287 1.6730002
0.044294674 -0.10484134 1.6730002
0.76639336 -0.10516 1.6730002
0.77595341 -0.10516 1.6730002
0.7836014 -0.10292935 1.6730002
0.79188675 -0.10356668 1.6730001
0.84924674 -0.10675334 1.6730001
0.85590971 -0.10559455 1.6730002
-0.25440225 -0.09400668 1.6730001
0.039833337 -0.090820007 1.6730001
0.044613335 -0.095600002 1.6730001
0.7667917 -0.094405003 1.6730002
0.77595335 -0.094006673 1.6730002
0.7855134 -0.09639667 1.6730001
0.79188675 -0.095600009 1.6730001
0.85653049 -0.09446191 1.6730002
0.86358672 -0.092413336 1.6730001
-0.25334001 -0.087633342 1.6730001
0.039833337 -0.084446669 1.6730001
0.76798671 -0.087633342 1.6730001
0.77595341 -0.086836673 1.6730001
0.85721338 -0.086040005 1.6730001
0.86358678 -0.084446669 1.6730002
0.039833337 -0.076480001 1.6730001
0.043020003 -0.071700007 1.6730001
0.77436006 -0.073293343 1.6730001
0.85880673 -0.078073338 1.6730001
0.86358672 -0.076480009 1.6730001
-0.25015336 -0.065326668 1.6730001
0.04541 -0.064530008 1.6730001
-0.25015336 -0.055766672 1.6730001
0.044613332 -0.055766672 1.6730002
0.85562009 -0.054173335 1.6730002
0.86358678 -0.055766668 1.6730002
-0.24696669 -0.046206668 1.6730001
0.045296196 -0.04666191 1.6730002
0.84924674 -0.046206675 1.6730001
0.85402668 -0.046206675 1.6730002
-0.25015336 -0.033460002 1.6730001
-0.24696669 -0.039833337 1.6730001
0.039833337 -0.036646672 1.6730001
0.043020003 -0.035053335 1.6730001
0.85632813 -0.036292598 1.6730002
0.86358678 -0.033460002 1.6730002
0.039833337 -0.023900002 1.6730001
0.043020003 -0.023900002 1.6730001
0.85880673 -0.027086668 1.6730001
0.86358678 -0.023900002 1.6730002
0.043020003 -0.014340001 1.6730001
0.85880673 -0.012746667 1.6730001
0.86358672 -0.015933335 1.6730001
-0.24696669 -0.0015933334 1.6730001
0.043020003 -0.0063733337 1.6730001
0.85880673 -0.0079666674 1.6730001
-0.24696669 0.0047800005 1.6730001
0.039833337 0.0047800005 1.6730001
-0.24218668 0.014340001 1.6730001
0.039833337 0.014340001 1.6730001
-0.24059336 0.023900002 1.6730001
0.039833337 0.023900002 1.6730001
-0.24165557 0.034522228 1.6730001
-0.23740669 0.03186667 1.6730001
0.039196003 0.036009338 1.6730002
-0.24378002 0.046206675 1.6730001
0.038240001 0.046206668 1.6730002
-0.24298334 0.05656334 1.6730001
0.036646672 0.055235561 1.6730002
-0.24059336 0.065326676 1.6730001
0.034256671 0.065724999 1.6730002
-0.24484226 0.074886672 1.6730001
0.033061668 0.075285003 1.6730002
-0.24696669 0.082853332 1.6730001
0.033460002 0.083991431 1.6730002
-0.24696669 0.097193338 1.6730001
0.032822669 0.094006673 1.6730002
0.86358672 0.095600009 1.6730001
-0.24696669 0.10462891 1.6730001
0.032185338 0.10547868 1.6730002
0.86358672 0.10197334 1.6730001
0.026290001 0.11711001 1.6730001
0.030273335 0.11631334 1.6730001
0.02283778 0.12693557 1.6730001
-0.24271779 0.13543335 1.6730001
0.023900002 0.13862 1.6730001
-0.24059336 0.14499335 1.6730001
0.023900002 0.14180668 1.6730001
-0.24059334 0.15614668 1.6730001
-0.2374067 0.15455335 1.6730001
0.024696669 0.15535 1.6730001
-0.23661001 0.16411334 1.6730001
0.021510003 0.16331667 1.6730001
-0.23368892 0.17367333 1.6730002
0.017526668 0.17526668 1.6730001
-0.23457408 0.18464963 1.6730002
0.016730001 0.18243667 1.6730001
0.021775559 0.18854445 1.6730001
-0.23183 0.19677667 1.6730001
0.015933335 0.19916669 1.6730001
0.021988003 0.19534269 1.6730002
-0.2331578 0.20554003 1.6730001
0.015933335 0.20235334 1.6730001
0.020713335 0.20235334 1.6730001
-0.23501667 0.21510002 1.6730001
0.014340001 0.21191335 1.6730001
-0.23501669 0.22545668 1.6730001
0.014340001 0.22784668 1.6730001
-0.23230802 0.23358269 1.6730002
-0.22784668 0.23740669 1.6730001
0.011153334 0.23422001 1.6730001
-0.23183003 0.24298334 1.6730001
-0.22784668 0.24378002 1.6730001
0.0079666674 0.24696669 1.6730001
0.011153335 0.24378002 1.6730001
-0.23103337 0.25652671 1.6730001
-0.22784668 0.25493336 1.6730001
0.0073293345 0.25588939 1.6730002
0.011153334 0.25174668 1.6730001
0.85774457 0.25865114 1.6730001
0.86358672 0.25812 1.6730001
-0.23103335 0.26290002 1.6730001
-0.22705002 0.26688334 1.6730001
0.0079666674 0.2660867 1.6730001
0.011153334 0.26927334 1.6730001
0.86358672 0.26449335 1.6730001
-0.22625336 0.27564669 1.6730002
0.0063733337 0.27883336 1.6730001
0.011153334 0.27405334 1.6730001
-0.23103335 0.28839335 1.6730001
-0.22545667 0.28600335 1.6730001
0.0071700006 0.28441003 1.6730001
0.011153334 0.28520668 1.6730001
-0.23103335 0.29158002 1.6730001
-0.22529736 0.29349202 1.6730002
-0.21828668 0.29636002 1.6730001
0.0079666674 0.29476672 1.6730001
-0.21510002 0.30432671 1.6730001
0.011153334 0.30592 1.6730001
0.0063733337 0.31548002 1.6730001
0.011153334 0.31070003 1.6730001
-0.21510002 0.32504004 1.6730001
-0.0015933334 0.32822669 1.6730001
0.002655556 0.32132226 1.6730001
-0.21510002 0.33938003 1.6730001
0.0054173339 0.337468 1.6730002
0.011153334 0.33778667 1.6730001
-0.21191335 0.34894001 1.6730001
0.0063733337 0.34416002 1.6730001
0.011153334 0.34416002 1.6730001
-0.21191335 0.35690671 1.6730001
-0.20872667 0.35690671 1.6730001
0.0063733337 0.35850003 1.6730001
0.011153334 0.35850003 1.6730001
-0.21191335 0.36487335 1.6730001
-0.20872669 0.36487335 1.6730001
-0.0015933334 0.36806002 1.6730001
0.0054173339 0.36423603 1.6730002
-0.21191335 0.37443334 1.6730001
-0.20872669 0.37443337 1.6730001
-0.012215557 0.3765578 1.6730001
-0.0047800001 0.37507069 1.6730002
0.011153334 0.3712467 1.6730001
-0.20617734 0.38463068 1.6730002
-0.012428001 0.38463068 1.6730002
-0.0047800005 0.38452446 1.6730002
0.0031866669 0.38080668 1.6730001
-0.21510002 0.39833337 1.6730001
-0.20518595 0.3956778 1.6730002
-0.19629867 0.3961027 1.6730002
-0.18550953 0.39765054 1.6730002
-0.17686 0.39992669 1.6730001
-0.02230667 0.39674002 1.6730001
-0.013702668 0.3922787 1.6730002
-0.0063733337 0.3903667 1.6730001
-0.20235334 0.40311337 1.6730001
-0.19598001 0.40470672 1.6730001
-0.18004668 0.40630004 1.6730001
-0.17458384 0.40675527 1.6730002
-0.023900002 0.40311337 1.6730001
-0.18004668 0.41267335 1.6730001
-0.17367336 0.41267335 1.6730001
-0.0079666674 0.45728669 1.6730001
0.76958007 0.45728669 1.6730001
0.77276671 0.45728669 1.6730001
-0.012746667 0.4668467 1.6730001
-0.0079666674 0.46206671 1.6730001
0.076480001 0.4668467 1.6730001
0.084446669 0.4668467 1.6730001
0.09400668 0.46578449 1.6730001
0.10516001 0.4668467 1.6730001
0.33460003 0.4668467 1.6730001
0.4477267 0.4668467 1.6730001
0.45250672 0.4668467 1.6730001
0.46047336 0.4668467 1.6730001
0.53695339 0.4668467 1.6730001
0.7640034 0.46445671 1.6730001
0.77595341 0.46047336 1.6730001
0.7823267 0.46366003 1.6730001
-0.081260003 0.47003338 1.6730001
-0.074886672 0.4716267 1.6730001
-0.065326676 0.47534448 1.6730001
-0.055766672 0.47800004 1.6730001
-0.046206675 0.47587556 1.6730002
-0.036115557 0.47109562 1.6730002
-0.023900002 0.47215781 1.6730001
-0.015933335 0.47003338 1.6730001
0.055766672 0.47322002 1.6730001
0.063733339 0.47003338 1.6730001
0.11631334 0.4716267 1.6730001
0.13702667 0.47322002 1.6730001
0.14499335 0.47322005 1.6730001
0.15296 0.47640669 1.6730001
0.16570668 0.47959337 1.6730001
0.17367333 0.47959337 1.6730001
0.18482667 0.47959337 1.6730001
0.22466002 0.47322005 1.6730001
0.23422003 0.47322005 1.6730001
0.24378002 0.47109562 1.6730001
0.25525203 0.47194538 1.6730002
0.2660867 0.4716267 1.6730001
0.27564669 0.47322005 1.6730001
0.28680003 0.47640669 1.6730001
0.29476669 0.47481334 1.6730001
0.30432671 0.47322005 1.6730001
0.31548002 0.47322002 1.6730001
0.32504004 0.47242334 1.6730001
0.33938003 0.47003338 1.6730001
0.34575337 0.47003338 1.6730001
0.35372001 0.47003338 1.6730001
0.36487338 0.47215781 1.6730001
0.37443337 0.47003338 1.6730001
0.38399336 0.47003338 1.6730001
0.39461559 0.47109562 1.6730001
0.40550336 0.47083005 1.6730001
0.41586003 0.47003338 1.6730001
0.42860669 0.47322002 1.6730001
0.43561742 0.4744947 1.6730002
0.44347781 0.47215781 1.6730001
0.45728669 0.47003338 1.6730001
0.46525335 0.47003338 1.6730001
0.47640669 0.47322005 1.6730001
0.48596668 0.47003338 1.6730001
0.49552673 0.47003338 1.6730001
0.50349337 0.47003338 1.6730001
0.51305336 0.47322002 1.6730001
0.5321734 0.4716267 1.6730001
0.54492003 0.47003338 1.6730001
0.55607343 0.47003338 1.6730001
0.56404006 0.47003338 1.6730001
0.57838005 0.47322002 1.6730001
0.58395672 0.47083005 1.6730001
0.59431338 0.47003338 1.6730001
0.60068673 0.47003338 1.6730001
0.61821342 0.47322002 1.6730001
0.62618005 0.47322005 1.6730001
0.63414669 0.47322002 1.6730001
0.65326667 0.47322002 1.6730001
0.73612005 0.47800004 1.6730001
0.74249339 0.47640669 1.6730001
0.75683337 0.47800004 1.6730001
0.76581401 0.4746685 1.6730002
0.77524519 0.4735741 1.6730002
0.7855134 0.47587559 1.6730002
0.79188675 0.47800004 1.6730001
0.81738007 0.47003338 1.6730001
0.82056671 0.4716267 1.6730001
0.74727339 0.48596674 1.6730001
0.75046003 0.48596674 1.6730001
0.76384407 0.48405471 1.6730002
0.77675003 0.48357671 1.6730001
0.78423876 0.48469201 1.6730002
0.79188675 0.48278004 1.6730001
0.74727339 0.49234003 1.6730001
0.75046003 0.49234003 1.6730001
0.85971147 -0.66119337 1.6810001
0.86931717 -0.66119337 1.6810001
0.87251908 -0.66119337 1.6810001
0.71882766 -0.65318859 1.6810001
0.72309685 -0.65478963 1.6810001
0.85971147 -0.65799147 1.6810001
0.71882766 -0.64518392 1.6810001
0.72202957 -0.64518392 1.6810001
0.71882766 -0.63557816 1.6810001
0.72202957 -0.63397717 1.6810001
0.71882766 -0.62757337 1.6810001
0.72363049 -0.62517196 1.6810001
0.71882766 -0.61636668 1.6810001
0.7239508 -0.61764741 1.6810001
0.72416419 -0.6062274 1.6810001
0.72629881 -0.59395337 1.6810001
0.72763288 -0.58514816 1.6810001
0.73163527 -0.58114576 1.6810001
0.72843337 -0.57314098 1.6810001
0.73163527 -0.57474196 1.6810001
0.72651225 -0.56385559 1.6810001
0.73163527 -0.56833816 1.6810001
0.71882766 -0.55392957 1.6810001
0.72363055 -0.55553049 1.6810001
0.72563171 -0.54632503 1.681
0.72683239 -0.53631914 1.6810001
0.72779298 -0.52607298 1.6810001
0.72843337 -0.51710767 1.6810001
0.73163527 -0.51390576 1.6810001
0.72843337 -0.50109816 1.6810001
0.73163527 -0.50590098 1.6810001
0.72843337 -0.49309337 1.6810001
0.73163527 -0.48508862 1.6810001
0.72843337 -0.47228098 1.6810001
0.73323619 -0.47548288 1.6810001
0.72843337 -0.46907908 1.6810001
0.7339223 -0.46587718 1.6810001
0.73323625 -0.45627147 1.6810001
0.73483717 -0.44602534 1.6810001
0.73803908 -0.43545908 1.6810001
0.7369718 -0.42425245 1.6810001
0.73675835 -0.41400632 1.6810001
0.74124098 -0.41784859 1.6810001
0.74204147 -0.40424049 1.6810001
0.73803908 -0.39383432 1.6810001
0.74124098 -0.39703622 1.6810001
0.73803914 -0.38582954 1.6810001
0.74124098 -0.38582954 1.6810001
0.7369718 -0.37835845 1.6810001
0.74364245 -0.37622383 1.6810001
0.74337566 -0.36394987 1.6810001
0.74764478 -0.35381049 1.6810001
0.75404865 -0.35252973 1.6810001
-0.24654669 -0.34260383 1.6810001
0.068040475 -0.34500527 1.6810001
0.73803908 -0.34580573 1.6810001
0.74404269 -0.34460503 1.681
0.75084674 -0.34420478 1.6810001
-0.25615239 -0.33139718 1.6810001
-0.24708033 -0.33673367 1.6810001
0.065639049 -0.33459908 1.6810001
0.75404865 -0.33620003 1.6810001
-0.26095524 -0.32339239 1.6810001
-0.25615239 -0.32819527 1.6810001
0.056033336 -0.32606065 1.6810001
0.065639049 -0.32819527 1.6810001
0.75404871 -0.32499334 1.6810001
-0.26287639 -0.31410691 1.6810001
0.043225717 -0.31218573 1.6810001
0.75564957 -0.31378669 1.6810001
-0.26507202 -0.30623934 1.6810001
0.043225717 -0.30898383 1.6810001
0.75725055 -0.30898383 1.6810001
-0.27284807 -0.29571882 1.6810001
-0.26607832 -0.29681659 1.6810001
0.046427622 -0.29777718 1.6810001
0.052831434 -0.29297429 1.6810001
0.75298136 -0.2940416 1.6810001
-0.27162832 -0.28496954 1.6810001
-0.26735908 -0.28817144 1.6810001
0.058434762 -0.28496954 1.6810001
0.064571753 -0.281234 1.6810001
0.75340837 -0.28432915 1.681
-0.27056098 -0.27376288 1.6810001
-0.26735908 -0.27216193 1.6810001
0.065639049 -0.27376288 1.681
0.07204286 -0.27056098 1.6810001
0.74764478 -0.27376288 1.6810001
0.75084674 -0.27376288 1.6810001
-0.27136147 -0.26335669 1.6810001
-0.26735908 -0.2657581 1.6810001
0.059235241 -0.26415715 1.6810001
0.064724222 -0.26369974 1.6810001
0.74764478 -0.2657581 1.6810001
0.75084674 -0.26415718 1.6810001
-0.27184176 -0.25391108 1.6810001
-0.26735908 -0.25455147 1.6810001
0.057100635 -0.25455147 1.6810001
0.064038098 -0.25775334 1.6810001
0.75404865 -0.25775334 1.6810001
0.84050006 -0.25455144 1.6810001
-0.27216193 -0.24494573 1.6810001
-0.26735908 -0.24654669 1.6810001
0.057634287 -0.24654669 1.6810001
0.063237622 -0.24414524 1.6810001
0.75532937 -0.24558611 1.6810001
0.84370196 -0.24174383 1.6810001
-0.27184173 -0.23598039 1.6810001
-0.26735908 -0.23534003 1.6810001
0.057100639 -0.23747462 1.6810001
0.063237622 -0.23453954 1.6810001
0.75351495 -0.23534003 1.6810001
0.83729815 -0.23534001 1.6810001
0.84210098 -0.23534001 1.6810001
-0.27056098 -0.22253239 1.6810001
-0.26655859 -0.22493382 1.6810001
0.064038098 -0.22573429 1.6810001
0.75496352 -0.22619171 1.6810001
0.76045245 -0.22413334 1.6810001
0.84050006 -0.22733524 1.6810001
-0.27056098 -0.21612859 1.6810001
-0.26507199 -0.21658602 1.6810001
0.052831434 -0.21612859 1.6810001
0.064038098 -0.21612859 1.6810001
0.75618327 -0.21826319 1.6810001
0.76125294 -0.21532811 1.6810001
0.84370196 -0.21612859 1.6810001
-0.27120137 -0.20524211 1.6810001
-0.26444823 -0.20448527 1.681
0.049629528 -0.20172001 1.6810001
0.055232864 -0.20332095 1.681
0.063809395 -0.20560805 1.6810001
0.75725055 -0.20438826 1.6810001
0.76205331 -0.2049219 1.681
0.84530294 -0.20812382 1.6810001
-0.26324233 -0.19417267 1.6810001
-0.25775334 -0.19371526 1.6810001
0.056033343 -0.19417267 1.6810001
0.062437147 -0.19691716 1.6810001
0.75725055 -0.19371524 1.6810001
0.76319689 -0.19417268 1.6810001
-0.27056098 -0.18731144 1.6810001
-0.26324233 -0.18456694 1.6810001
-0.25775334 -0.18410954 1.6810001
0.056033336 -0.18571049 1.6810001
0.75725055 -0.18090764 1.6810001
0.76258707 -0.18624413 1.6810001
0.81701946 -0.18197493 1.6810001
0.82235593 -0.18197493 1.6810001
0.83409631 -0.18090765 1.6810001
0.84210098 -0.18090764 1.6810001
-0.26375693 -0.17490406 1.681
-0.25775334 -0.17770572 1.6810001
0.054966033 -0.17450383 1.6810001
0.75725055 -0.17450383 1.6810001
0.76125288 -0.17530429 1.6810001
0.81680596 -0.17386344 1.6810001
0.82449055 -0.17450383 1.681
0.84530294 -0.17610477 1.6810001
0.85170674 -0.17290287 1.6810001
-0.2637569 -0.16529836 1.681
0.056033339 -0.16425774 1.6810001
0.75725055 -0.16810001 1.6810001
0.76205343 -0.16329715 1.6810001
0.81595218 -0.16703272 1.6810001
0.82385015 -0.16425772 1.6810001
0.83409631 -0.16489811 1.681
0.84690386 -0.16810001 1.6810001
0.8538413 -0.1648981 1.6810001
-0.26415718 -0.15529241 1.681
0.048829053 -0.15529239 1.6810001
0.055633102 -0.15529239 1.681
0.76493514 -0.15593277 1.6810001
0.81488484 -0.15529239 1.6810001
0.82609153 -0.15529239 1.6810001
0.83601743 -0.15465201 1.6810001
0.85864419 -0.157427 1.6810001
-0.26324233 -0.14522928 1.6810001
0.049629532 -0.14568669 1.6810001
0.05496604 -0.146754 1.6810001
0.76525533 -0.14568669 1.6810001
0.77752924 -0.14355206 1.6810001
0.82540542 -0.14614411 1.6810001
0.83363891 -0.14660151 1.6810001
0.85704327 -0.146754 1.6810001
-0.26415718 -0.13608097 1.681
-0.25775334 -0.13608097 1.6810001
0.049629532 -0.13608097 1.6810001
0.054112196 -0.13608097 1.6810001
0.76418799 -0.13608098 1.6810001
0.77806294 -0.13928287 1.6810001
0.81488484 -0.13448003 1.6810001
0.82449055 -0.13608097 1.681
0.85570908 -0.13528049 1.6810001
-0.26415718 -0.12487429 1.681
-0.25615239 -0.12647524 1.6810001
0.048028573 -0.12487429 1.6810001
0.053898733 -0.12860985 1.6810001
0.75587833 -0.12556043 1.6810001
0.76151979 -0.123807 1.6810001
0.77966386 -0.12487429 1.6810001
0.78734845 -0.12263296 1.6810001
0.79527313 -0.1228731 1.681
0.80527908 -0.12391372 1.681
0.81424445 -0.12551467 1.681
0.82369006 -0.12887667 1.6810001
0.85170674 -0.12487429 1.681
-0.26415715 -0.11366762 1.681
0.048028573 -0.11366763 1.6810001
0.052831434 -0.11206667 1.6810001
0.76205343 -0.11366763 1.6810001
0.78766865 -0.11366763 1.6810001
0.79567337 -0.11366762 1.681
0.80482173 -0.11458246 1.6810001
0.81396997 -0.11321022 1.6810001
0.82128865 -0.11046572 1.6810001
0.85202694 -0.11430801 1.6810001
-0.26415718 -0.10406191 1.681
0.048829053 -0.10486239 1.6810001
0.052831434 -0.10406192 1.6810001
0.76285386 -0.10326143 1.6810001
0.78926957 -0.10726382 1.6810001
0.79567337 -0.10406192 1.6810001
0.80207717 -0.10406192 1.6810001
0.81488478 -0.10406191 1.681
0.854375 -0.10192731 1.6810001
-0.2617557 -0.095256671 1.6810001
-0.25775334 -0.092855245 1.6810001
0.047228098 -0.09365572 1.6810001
0.052831434 -0.096057147 1.6810001
0.76312077 -0.093922548 1.6810001
0.787135 -0.092321597 1.6810001
0.79620707 -0.0933889 1.6810001
0.80335802 -0.095096581 1.6810001
0.81168294 -0.096057147 1.6810001
0.85544223 -0.094456196 1.6810001
-0.26095524 -0.086451434 1.6810001
-0.25647259 -0.084210105 1.6810001
0.045512792 -0.084393069 1.6810001
0.76525533 -0.086451434 1.6810001
0.77417493 -0.083020829 1.6810001
0.78646791 -0.084450245 1.681
0.79567337 -0.084850483 1.681
0.85513741 -0.085307904 1.6810001
0.86291337 -0.081648573 1.6810001
-0.2553519 -0.076045245 1.6810001
0.04682786 -0.075645007 1.681
0.77518123 -0.076525532 1.6810001
0.78606761 -0.075244777 1.681
0.79527313 -0.075645007 1.681
0.85757697 -0.075778425 1.6810001
0.86531478 -0.072843336 1.6810001
-0.25615239 -0.065639049 1.6810001
0.048028577 -0.06724 1.6810001
0.053631909 -0.064838573 1.6810001
0.7768622 -0.066039287 1.681
0.78606766 -0.065639056 1.681
0.79567337 -0.065639049 1.681
0.85971147 -0.068840958 1.6810001
0.86611521 -0.065639049 1.681
-0.25455144 -0.056033336 1.6810001
0.049629532 -0.056033336 1.6810001
0.052831434 -0.056033336 1.6810001
0.77838314 -0.056673717 1.6810001
0.78606761 -0.055633102 1.681
0.79613084 -0.055118512 1.6810001
0.80207717 -0.052831434 1.6810001
0.85570908 -0.056833811 1.6810001
0.86291337 -0.059235241 1.6810001
-0.25134954 -0.049629528 1.6810001
0.048829049 -0.042425238 1.6810001
0.053631909 -0.047228102 1.6810001
0.77966386 -0.049629528 1.6810001
0.78606766 -0.049629528 1.6810001
0.79567349 -0.044826668 1.681
0.80314445 -0.048562229 1.6810001
0.85090625 -0.044826668 1.6810001
-0.25455144 -0.030418098 1.6810001
0.048028581 -0.033620004 1.6810001
0.052831434 -0.030418098 1.6810001
0.78500044 -0.034687307 1.6810001
0.79567337 -0.036821906 1.6810001
0.85650963 -0.03362 1.6810001
0.048028573 -0.024014287 1.6810001
0.052831434 -0.020812383 1.6810001
0.85971147 -0.02561524 1.6810001
0.86291337 -0.022413336 1.6810001
-0.25263032 -0.013768191 1.6810001
0.048028573 -0.014408573 1.6810001
0.052831434 -0.014408573 1.6810001
0.77966386 -0.011206667 1.6810001
0.85971153 -0.014408573 1.6810001
0.86611527 -0.01334127 1.6810001
-0.25134954 -0.0048028575 1.6810001
0.047342453 -0.0043454426 1.6810001
0.052831434 -0.0048028575 1.6810001
0.77966386 -0.0048028575 1.6810001
0.78286576 -0.0016009525 1.6810001
0.85891104 -0.0056033335 1.6810001
0.86651552 -0.0044026184 1.681
-0.25263032 0.0054432387 1.6810001
0.044026196 0.0040023811 1.6810001
0.052831434 0.0016009525 1.6810001
0.78286576 0.0016009525 1.6810001
0.85864419 0.0026682541 1.6810001
0.86611527 0.0048028571 1.681
-0.25134954 0.011206667 1.6810001
-0.24734715 0.015209049 1.6810001
0.043225717 0.014408573 1.6810001
0.86771619 0.01280762 1.6810001
-0.24654669 0.024014287 1.6810001
0.043225717 0.024014287 1.6810001
0.86771619 0.020812383 1.6810001
-0.24654669 0.033620004 1.6810001
0.043225717 0.03362 1.6810001
0.86771619 0.03362 1.6810001
-0.24814764 0.044826668 1.6810001
0.043225717 0.044826668 1.6810001
0.86771619 0.040023811 1.6810001
-0.24814765 0.056033336 1.6810001
0.036821906 0.059235241 1.6810001
0.042425238 0.056833811 1.6810001
0.86771619 0.059235241 1.6810001
-0.24494573 0.065639049 1.6810001
0.036821906 0.062437147 1.6810001
0.042585339 0.066279434 1.6810001
-0.24814764 0.073643818 1.6810001
0.036821906 0.07204286 1.6810001
0.04130457 0.075885154 1.6810001
0.036821906 0.088052385 1.6810001
0.04130457 0.084210098 1.6810001
0.86771625 0.086451434 1.6810001
-0.25134954 0.091254294 1.6810001
0.035754606 0.0933889 1.6810001
0.040824287 0.095256671 1.6810001
0.86771619 0.091254294 1.6810001
0.036821909 0.10406192 1.6810001
0.040023811 0.10246096 1.6810001
0.86531478 0.10486239 1.6810001
-0.24814764 0.11686953 1.6810001
0.034153655 0.11313397 1.6810001
0.86771619 0.11206668 1.6810001
-0.24814764 0.12007143 1.6810001
0.026415717 0.12647524 1.6810001
0.031485401 0.12487429 1.6810001
0.86291337 0.12487429 1.6810001
-0.24494573 0.13928287 1.6810001
0.02593543 0.13544059 1.6810001
0.030418098 0.13608097 1.6810001
0.86531478 0.13768192 1.6810001
-0.24494573 0.14568669 1.6810001
0.02593543 0.14632706 1.6810001
0.030418098 0.14568669 1.6810001
0.85971147 0.14408572 1.6810001
0.86651546 0.14528644 1.681
-0.24414527 0.15449192 1.6810001
0.027216192 0.15369144 1.6810001
0.030418098 0.15529239 1.6810001
0.86611527 0.15849429 1.6810001
-0.24174385 0.1648981 1.6810001
0.02508159 0.1648981 1.6810001
0.86771619 0.16329715 1.6810001
-0.24174385 0.17450383 1.6810001
-0.23854192 0.17610477 1.6810001
0.022413336 0.17450383 1.6810001
0.86771619 0.17450383 1.6810001
-0.24174385 0.18410954 1.6810001
0.024014287 0.18410954 1.6810001
-0.24174383 0.19051334 1.6810001
-0.23726116 0.19435564 1.6810001
0.027216192 0.19371526 1.6810001
0.030418098 0.19051334 1.6810001
-0.2423842 0.20588247 1.6810001
-0.23790155 0.20460172 1.6810001
0.016009524 0.20812382 1.6810001
0.024014289 0.20423578 1.6810001
0.030418098 0.20011906 1.6810001
-0.24254429 0.21532811 1.6810001
-0.23854192 0.21612859 1.6810001
0.016329717 0.21676898 1.6810001
0.021612858 0.21532811 1.6810001
0.86771625 0.21772954 1.6810001
-0.24174385 0.22573429 1.6810001
-0.23854192 0.22413334 1.6810001
0.016810002 0.22573429 1.6810001
0.021879686 0.224667 1.6810001
0.86771625 0.22573432 1.6810001
-0.24174383 0.23213811 1.6810001
-0.23774144 0.23614049 1.6810001
0.016009524 0.23534003 1.6810001
0.86771619 0.23213811 1.6810001
-0.23726116 0.24558611 1.6810001
0.014408573 0.24494573 1.6810001
-0.23587368 0.25401783 1.6810001
0.014408573 0.25455144 1.6810001
0.86771625 0.25295049 1.6810001
-0.23625486 0.26461458 1.6810001
0.013951157 0.26507199 1.6810001
0.020812383 0.26735908 1.6810001
0.86291337 0.2657581 1.6810001
-0.23534001 0.27376288 1.681
0.016009524 0.27376288 1.6810001
0.022413336 0.27296239 1.6810001
0.86611527 0.27056098 1.6810001
-0.23563111 0.28453293 1.681
-0.22893621 0.28496954 1.6810001
0.014408573 0.28432918 1.681
-0.23480636 0.2961762 1.6810001
-0.22573429 0.29937813 1.6810001
0.011206667 0.2961762 1.6810001
-0.23293859 0.30498147 1.6810001
-0.22573429 0.30578193 1.681
-0.21933049 0.30578193 1.6810001
0.013608096 0.30498144 1.6810001
-0.21740936 0.31474727 1.6810001
0.01280762 0.31618813 1.6810001
-0.21826319 0.32499334 1.6810001
0.0058701592 0.32606065 1.6810001
0.012807619 0.32499337 1.6810001
-0.21772954 0.33459908 1.6810001
0.0048028575 0.33299813 1.6810001
0.01312781 0.33395872 1.6810001
-0.21804972 0.34484515 1.6810001
0.015689334 0.34356439 1.6810001
-0.21692906 0.35461098 1.6810001
0.014408573 0.35220954 1.6810001
-0.224667 0.36555085 1.6810001
-0.21719591 0.36448354 1.6810001
0.0064038099 0.36982003 1.6810001
0.011206667 0.36661813 1.6810001
-0.21532811 0.37622383 1.6810001
-0.0016009525 0.37622383 1.6810001
0.0048028571 0.3762238 1.681
0.011206667 0.37782478 1.6810001
-0.21452765 0.38582954 1.6810001
-0.20972477 0.38903144 1.6810001
-0.0016009525 0.38903144 1.6810001
0.0040023811 0.38582954 1.6810001
0.011206667 0.38422859 1.6810001
-0.23213813 0.39543527 1.6810001
-0.22413334 0.39703622 1.6810001
-0.21567118 0.39543527 1.6810001
-0.20759016 0.39543527 1.6810001
-0.014408573 0.39863718 1.6810001
-0.0040023811 0.39463478 1.6810001
0.0016009525 0.39223337 1.6810001
-0.22413334 0.40183908 1.6810001
-0.21612859 0.40183908 1.6810001
-0.20011906 0.40664193 1.6810001
-0.19211429 0.40664193 1.6810001
-0.18539031 0.40568137 1.6810001
-0.020812383 0.40183908 1.6810001
-0.017610477 0.40183908 1.6810001
-0.19051334 0.41304573 1.6810001
-0.18502437 0.41510412 1.6810001
-0.17450383 0.41784859 1.6810001
-0.16810001 0.41784859 1.6810001
-0.18090764 0.42105049 1.6810001
-0.17450383 0.42105049 1.6810001
-0.011206667 0.45947337 1.6810001
-0.077646196 0.46667767 1.6810001
-0.040023811 0.46907908 1.6810001
-0.036821906 0.46907908 1.6810001
-0.011206667 0.46427622 1.6810001
0.07204286 0.46907908 1.6810001
0.084850483 0.46587718 1.6810001
0.097658105 0.46587718 1.6810001
0.10246096 0.46587718 1.6810001
0.24334478 0.46907908 1.6810001
0.34420478 0.46907911 1.6810001
0.35220954 0.46907908 1.6810001
0.36982003 0.46907908 1.6810001
0.37942573 0.46907908 1.6810001
0.38582954 0.46907911 1.6810001
0.41144478 0.46907908 1.6810001
0.44666573 0.46907908 1.6810001
0.45627147 0.46747813 1.6810001
0.46587718 0.46747813 1.6810001
0.47228098 0.46907908 1.6810001
0.48668957 0.46907908 1.6810001
0.49469432 0.46907911 1.6810001
0.50430006 0.46907911 1.6810001
0.52831435 0.46907908 1.6810001
0.53311718 0.46907908 1.6810001
0.54592484 0.46907911 1.6810001
0.55553055 0.46907911 1.6810001
0.56193435 0.46907908 1.6810001
0.78926963 0.46587718 1.6810001
0.79407239 0.46667767 1.6810001
0.80207717 0.46747813 1.6810001
0.82128865 0.46747813 1.6810001
-0.073643818 0.47228098 1.6810001
-0.065639049 0.4744156 1.6810001
-0.055392958 0.4767637 1.6810001
-0.046427622 0.47334832 1.6810001
-0.027216192 0.47228098 1.6810001
0.1280762 0.47548288 1.6810001
0.13448001 0.47388193 1.6810001
0.15529239 0.47655019 1.6810001
0.16489811 0.47868478 1.6810001
0.17450383 0.47868478 1.6810001
0.18410954 0.47868478 1.6810001
0.19371526 0.4776175 1.6810001
0.22733524 0.47228098 1.6810001
0.24174383 0.47228098 1.6810001
0.25295049 0.47228098 1.6810001
0.27216193 0.47228098 1.6810001
0.28496954 0.47468239 1.6810001
0.29617622 0.47334832 1.6810001
0.30578193 0.47228098 1.6810001
0.31458718 0.47308147 1.6810001
0.32499337 0.47228098 1.6810001
0.36341625 0.47228098 1.6810001
0.39863718 0.47228098 1.6810001
0.40183908 0.47228098 1.6810001
0.42585337 0.47228098 1.6810001
0.43385813 0.47228098 1.6810001
0.44186288 0.47228098 1.6810001
0.47548288 0.47228098 1.6810001
0.48508859 0.47228098 1.6810001
0.51390576 0.47228098 1.6810001
0.52511239 0.47228098 1.6810001
0.53311718 0.47228098 1.6810001
0.57474196 0.47228098 1.6810001
0.58114576 0.47228098 1.6810001
0.64518392 0.47548288 1.6810001
0.65158767 0.47548288 1.6810001
0.66279435 0.47548288 1.6810001
0.76429474 0.47676364 1.6810001
0.77005816 0.47868478 1.6810001
0.78926957 0.47388193 1.6810001
0.79353875 0.4744156 1.6810001
0.73483717 0.48348767 1.6810001
0.75244772 0.48188668 1.6810001
0.77566147 0.48749006 1.6810001
0.78926957 0.48829052 1.6810001
0.79247147 0.48829052 1.6810001
0.77806294 0.49149242 1.6810001
0.78926957 0.49149242 1.6810001
0.79247147 0.49149242 1.6810001
0.70992577 -0.66141146 1.6980001
0.71477717 -0.66141146 1.6980001
0.71631241 -0.65500963 1.6940001
0.70992577 -0.64362288 1.6980001
0.71631241 -0.64532959 1.6940001
0.70992583 -0.63553727 1.6980002
0.71631241 -0.63564956 1.6940001
0.70992577 -0.62745148 1.6980001
0.71708918 -0.62616521 1.6955385
0.72267622 -0.62449527 1.6900001
0.71768486 -0.6159699 1.6953335
0.72267622 -0.61322868 1.6900001
0.71752375 -0.60535538 1.6958183
0.72546428 -0.60351765 1.6911432
0.71683192 -0.59516793 1.6968572
0.7245509 -0.59336537 1.6935556
0.71639436 -0.58378869 1.6980001
0.72651368 -0.5839678 1.6949232
0.73233336 -0.58103812 1.6900001
0.70992577 -0.57570291 1.6980001
0.71639436 -0.57408571 1.6980001
0.72557914 -0.57412976 1.6917779
0.70992577 -0.56761718 1.6980001
0.71716011 -0.56452292 1.6960001
0.72460765 -0.56623048 1.6900002
0.71693569 -0.55513918 1.6958182
0.72267622 -0.55206668 1.6900001
0.71763819 -0.5461399 1.6955999
0.72395527 -0.54417336 1.6930001
0.71882004 -0.53608292 1.6980001
0.72419161 -0.53494465 1.6935558
0.72717744 -0.52620178 1.6943637
0.72664577 -0.51630467 1.6965456
0.73242635 -0.51376343 1.6932001
0.71962863 -0.50454861 1.6980001
0.72650146 -0.50576144 1.6980001
0.73247284 -0.50521183 1.6948
0.72609717 -0.49646288 1.6980001
0.73256576 -0.49646291 1.6980002
0.72803777 -0.48740688 1.6980002
0.73246616 -0.48485315 1.6945714
0.72933149 -0.47058859 1.6980001
0.73250765 -0.47487432 1.6960001
0.72933149 -0.46412003 1.6980001
0.73360515 -0.46536765 1.6966667
0.72803777 -0.45377031 1.6980002
0.73244965 -0.45495623 1.694
