# .PCD v0.7 - Point Cloud Data file format
VERSION 0.7
FIELDS x y z
SIZE 4 4 4
TYPE F F F
COUNT 1 1 1
WIDTH 1499
HEIGHT 1
VIEWPOINT 0 0 0 1 0 0 0
POINTS 1499
DATA ascii
0.73663336 -0.34626669 1.715
0.73990005 -0.33483335 1.715
0.73663336 -0.32176667 1.715
0.73826671 -0.31523335 1.715
0.73990005 -0.30870003 1.715
0.7431668 -0.30543339 1.715
0.7431668 -0.29563338 1.715
0.73990005 -0.28583336 1.715
0.74316674 -0.28910002 1.715
0.7385934 -0.27537999 1.715
0.73826671 -0.26623338 1.715
0.7385934 -0.25708669 1.715
0.74398339 -0.25561666 1.715
0.74480009 -0.24500002 1.715
0.73990005 -0.23030001 1.715
0.74425566 -0.23465559 1.715
0.73990005 -0.22540002 1.715
0.74398339 -0.22295001 1.715
0.73990005 -0.21560001 1.715
0.7431668 -0.2139667 1.715
0.74534458 -0.20307779 1.715
0.74736673 -0.19483335 1.7150002
0.7529667 -0.19273335 1.715
0.73990005 -0.18130001 1.715
0.74736673 -0.18410002 1.7150002
0.7529667 -0.18783334 1.715
0.73908341 -0.17395002 1.715
0.74684173 -0.17435834 1.715
0.73908341 -0.16578335 1.715
0.7444734 -0.16562001 1.715
0.7444734 -0.15451334 1.715
0.74643338 -0.14863335 1.715
0.74643338 -0.12740001 1.715
0.74643338 -0.11433335 1.715
0.74970007 -0.10453334 1.715
0.74970007 -0.098000005 1.715
0.7529667 -0.094733343 1.715
0.75623339 -0.083953336 1.715
0.74970007 -0.070233338 1.715
0.75405562 -0.073500007 1.715
0.74839336 -0.063046671 1.715
0.7529667 -0.065333337 1.715
0.7470867 -0.054553337 1.715
0.7529667 -0.050633337 1.715
0.74690014 -0.043166671 1.7150002
0.75460005 -0.044100009 1.715
0.74550015 -0.03476667 1.7150002
0.75405562 -0.036477782 1.715
0.74861115 -0.024500003 1.715
0.75460005 -0.022866666 1.715
0.74888337 -0.013883334 1.715
0.75460005 -0.014700001 1.715
0.74970007 -0.0081666671 1.715
0.7558251 -0.0044916668 1.715
0.74970007 0.0016333334 1.715
0.7558251 0.0053083338 1.715
0.74970007 0.016333334 1.715
0.75541669 0.012250001 1.715
0.74806666 0.024500003 1.715
0.74806672 0.032666668 1.715
0.7529667 0.037566669 1.715
0.75732231 0.043011114 1.715
0.76276672 0.044100001 1.715
0.75950003 0.055533335 1.715
0.76276672 0.053900003 1.715
0.75950003 0.063700005 1.715
0.76276672 0.063700005 1.715
0.75950003 0.073500007 1.715
0.75950003 0.084933341 1.715
0.76440012 0.084933341 1.715
0.75950003 0.093100004 1.715
0.7664417 0.095958337 1.715
0.76848334 0.10698334 1.715
0.77256674 0.10616668 1.715
0.7664417 0.11637501 1.715
0.75786674 0.12576668 1.715
0.76603341 0.12576668 1.715
0.7664417 0.13515836 1.715
0.76930004 0.1568 1.715
0.7664417 0.16537502 1.715
0.75950003 0.17640001 1.715
0.76603341 0.17150001 1.715
0.75950003 0.18130001 1.715
0.76556671 0.18550001 1.7150002
0.7676667 0.19436668 1.715
0.7693001 0.2041667 1.715
0.7693001 0.2139667 1.715
0.76276672 0.51776671 1.715
0.76385564 0.52321118 1.715
0.75623339 0.53165007 1.715
0.76276672 0.53083336 1.715
0.69576383 -0.66294479 1.723
0.69576383 -0.65802193 1.723
0.70232767 -0.65309906 1.723
0.70265591 -0.6448943 1.7229999
0.7039687 -0.63504863 1.723
0.7039687 -0.62520289 1.723
0.7039687 -0.61535716 1.723
0.7039687 -0.60551155 1.723
0.7039687 -0.59566581 1.723
0.7039687 -0.58582008 1.723
0.7059378 -0.57663077 1.7229999
0.71053243 -0.57597435 1.723
0.70725054 -0.56612867 1.723
0.71184516 -0.56547225 1.7229999
0.71162641 -0.55628288 1.723
0.71135288 -0.54561669 1.723
0.70725054 -0.53002763 1.723
0.71217334 -0.53495055 1.7229998
0.70725054 -0.52346385 1.723
0.71053243 -0.52510476 1.723
0.70478916 -0.51443863 1.723
0.70451564 -0.50377244 1.7229999
0.71053243 -0.50049049 1.723
0.71381432 -0.49392673 1.7229999
0.71709621 -0.484081 1.723
0.72037816 -0.48408097 1.723
0.71463478 -0.47505575 1.723
0.72037816 -0.47095338 1.723
0.71381432 -0.46274859 1.723
0.72366011 -0.46548352 1.723
0.71709621 -0.45782575 1.723
0.72037816 -0.4561848 1.723
0.72037816 -0.44141623 1.723
0.72201908 -0.43485242 1.723
0.72497284 -0.42500669 1.7229999
0.72584808 -0.41734892 1.723
0.73186481 -0.41187906 1.723
0.73153663 -0.40531525 1.7229999
0.73219299 -0.39546958 1.7229999
0.73131788 -0.3867178 1.723
0.73678768 -0.37249622 1.723
0.73256814 -0.36640126 1.7229999
0.73219299 -0.35739943 1.7229999
0.73444349 -0.34670982 1.7229999
0.7339747 -0.33545759 1.7229999
0.73678768 -0.32654953 1.723
0.73397464 -0.31576619 1.7229999
0.74006957 -0.31178099 1.723
0.73678768 -0.30029431 1.723
0.74171054 -0.30357623 1.7229999
0.73678768 -0.2937305 1.723
0.74138236 -0.29438686 1.7229999
0.73678768 -0.28388482 1.723
0.74006957 -0.28388482 1.723
0.73459977 -0.27294511 1.7229999
0.72694194 -0.26747525 1.723
0.73350579 -0.26419339 1.7229998
0.73596728 -0.25516811 1.723
0.74116361 -0.25215971 1.723
0.73678768 -0.24450192 1.723
0.74171054 -0.24450193 1.7229999
0.73678768 -0.2346562 1.723
0.74089009 -0.23547667 1.723
0.73678768 -0.2280924 1.723
0.74116361 -0.22481051 1.723
0.73678768 -0.21824668 1.723
0.74089009 -0.2141443 1.723
0.74171054 -0.20511907 1.7229999
0.74335158 -0.1948045 1.7229999
0.74288267 -0.18636532 1.7229999
0.73514676 -0.17230001 1.723
0.74225754 -0.17776987 1.723
0.73596716 -0.16655667 1.723
0.74006957 -0.16409525 1.723
0.73678768 -0.15589049 1.723
0.74203873 -0.15654686 1.7229999
0.7471804 -0.14495081 1.7229999
0.74704361 -0.13660929 1.7229998
0.74376178 -0.12594309 1.7229998
0.74376172 -0.11691787 1.7229998
0.74772739 -0.10556795 1.7229998
0.74860257 -0.094190672 1.7229999
0.75319719 -0.091893338 1.723
0.7499153 -0.080406673 1.723
0.75516629 -0.083688579 1.7229999
0.7499153 -0.073842868 1.723
0.75429118 -0.076030806 1.723
0.74827433 -0.063997149 1.723
0.74772739 -0.051963501 1.723
0.74663341 -0.045399688 1.723
0.74335146 -0.034460001 1.723
0.7479462 -0.023957906 1.7229999
0.74882138 -0.014768573 1.723
0.7499153 -0.0049228575 1.723
0.75319719 -0.0032819051 1.723
0.7499153 0.0032819051 1.723
0.75319719 0.0065638102 1.723
0.74909484 0.015589049 1.723
0.75319719 0.011486667 1.723
0.74532074 0.025270669 1.7229999
0.74663341 0.033639528 1.723
0.75319719 0.037741907 1.723
0.7553851 0.045399688 1.7229999
0.75688934 0.054561667 1.7229998
0.76304293 0.050869528 1.723
0.75647902 0.063997149 1.7229998
0.75741684 0.073374018 1.7229999
0.75741684 0.084157422 1.7229999
0.75844818 0.092877917 1.7229999
0.76304293 0.096816197 1.723
0.75976098 0.1000981 1.723
0.76596016 0.10520329 1.7229998
0.7499153 0.11978953 1.723
0.75757307 0.1176016 1.7229999
0.76386338 0.11568715 1.723
0.7499153 0.12635335 1.723
0.75483817 0.12635334 1.7229999
0.75757301 0.1351051 1.7229999
0.76386338 0.13701953 1.723
0.76673508 0.14563453 1.7229998
0.76726258 0.15635934 1.7229999
0.76386338 0.16491573 1.723
0.75812 0.17722288 1.723
0.76304293 0.17230001 1.723
0.75894046 0.18460715 1.723
0.76304293 0.18706858 1.723
0.75976098 0.19527334 1.723
0.7646839 0.19527334 1.7229999
0.76726258 0.20558791 1.7229999
0.76741874 0.2144178 1.7229999
0.76796573 0.22481051 1.7229999
0.76960677 0.2346562 1.723
0.76960677 0.24450192 1.723
0.77452958 0.24450192 1.7229999
0.76960677 0.25434762 1.723
0.77452964 0.25434765 1.7229999
0.77523291 0.26466221 1.7229999
0.76878625 0.43567291 1.723
0.76698118 0.44535452 1.7229999
0.75319719 0.5316686 1.723
0.69444954 -0.67300576 1.7320001
0.6944496 -0.66475815 1.7320001
0.69609904 -0.65486097 1.7320002
0.70104766 -0.65486097 1.7320001
0.69642895 -0.6443041 1.7320002
0.70236725 -0.64496392 1.7320002
0.69692385 -0.6358915 1.7320001
0.70269716 -0.63506675 1.7320002
0.6977486 -0.62516963 1.7320001
0.70269722 -0.62516952 1.7320002
0.6977486 -0.61527246 1.7320001
0.70269716 -0.6152724 1.7320002
0.6977486 -0.60537529 1.7320001
0.70269716 -0.60537529 1.7320002
0.6977486 -0.59547812 1.7320001
0.70269722 -0.59547812 1.7320002
0.6977486 -0.58723056 1.7320001
0.70269716 -0.585581 1.7320002
0.6977486 -0.57898289 1.7320001
0.70489657 -0.57568383 1.7320002
0.70599627 -0.56578678 1.7320002
0.71259433 -0.56248766 1.7320001
0.70599627 -0.55588961 1.7320002
0.71094483 -0.55588961 1.7320001
0.6977486 -0.54269338 1.7320001
0.70475906 -0.54558003 1.7320002
0.71094483 -0.54599249 1.7320001
0.7052893 -0.53656656 1.7320004
0.71094483 -0.53774476 1.7320001
0.70434672 -0.52619815 1.7320002
0.70434678 -0.51575112 1.7320002
0.70269716 -0.50805336 1.7320001
0.70764577 -0.49650669 1.7320001
0.71226448 -0.4958469 1.7320002
0.70764577 -0.48990861 1.7320001
0.7139439 -0.48540992 1.7320002
0.71330136 -0.47294214 1.7320004
0.7224915 -0.47011432 1.7320001
0.71424383 -0.46310386 1.7320002
0.7224915 -0.46681526 1.7320001
0.71671814 -0.45444384 1.7320001
0.72366971 -0.45267653 1.7320004
0.7162233 -0.44306213 1.7320002
0.720842 -0.44372195 1.7320001
0.72216159 -0.43316498 1.7320002
0.72331619 -0.42475238 1.7320001
0.73073912 -0.42722669 1.7320001
0.7257905 -0.41403052 1.7320002
0.73073912 -0.41238099 1.7320001
0.72508359 -0.40460464 1.7320004
0.73073912 -0.40413338 1.7320001
0.72661531 -0.39506099 1.7320001
0.73156387 -0.39506099 1.7320001
0.72546071 -0.38499889 1.7320002
0.7320587 -0.38433906 1.7320002
0.72579062 -0.37444195 1.7320002
0.7320587 -0.37510175 1.7320002
0.72744006 -0.36454481 1.7320001
0.73073912 -0.36454481 1.7320001
0.73073912 -0.35464764 1.7320001
0.73403811 -0.34343085 1.7320002
0.73271853 -0.33353373 1.7320002
0.73403817 -0.32495624 1.7320002
0.72634041 -0.31505907 1.7320001
0.73271853 -0.31373945 1.7320002
0.74063623 -0.31176001 1.7320001
0.72744006 -0.30516192 1.7320001
0.73403817 -0.30516192 1.7320002
0.74063623 -0.30681145 1.7320001
0.72744006 -0.29856384 1.7320001
0.73403817 -0.29526478 1.7320002
0.74063623 -0.29526478 1.7320001
0.72744006 -0.28206858 1.7320001
0.73445046 -0.28495526 1.7320002
0.72744006 -0.27382097 1.7320001
0.73293847 -0.2765702 1.7320002
0.72744006 -0.26557335 1.7320001
0.73073912 -0.26392382 1.7320001
0.73362571 -0.25526384 1.7320002
0.72744006 -0.24248001 1.7320001
0.73498076 -0.24530776 1.7320004
0.72744006 -0.2342324 1.7320001
0.73403817 -0.23588191 1.7320002
0.73568767 -0.2259848 1.7320002
0.74173594 -0.2237854 1.7320001
0.73651242 -0.2169124 1.7320001
0.74063623 -0.21443811 1.7320001
0.73733723 -0.2061905 1.7320001
0.74063623 -0.2061905 1.7320001
0.73651236 -0.19546859 1.7320001
0.74146098 -0.19629335 1.7320001
0.72744006 -0.18639621 1.7320001
0.73403811 -0.18639621 1.7320002
0.74063623 -0.18639621 1.7320001
0.72744006 -0.17814858 1.7320001
0.73362577 -0.17691144 1.7320002
0.74063623 -0.17814858 1.7320001
0.73498076 -0.16565934 1.7320004
0.73601753 -0.15406553 1.7320002
0.74393529 -0.15093145 1.7320001
0.73601753 -0.14284877 1.7320002
0.74299276 -0.14397988 1.7320004
0.73733723 -0.13361144 1.7320001
0.74299276 -0.13361144 1.7320004
0.73733723 -0.12371429 1.7320001
0.74063623 -0.12371429 1.7320001
0.73733717 -0.11546667 1.7320001
0.74195588 -0.11315735 1.7320002
0.74393529 -0.10392001 1.7320002
0.74487793 -0.094494171 1.7320004
0.7505334 -0.090723813 1.7320001
0.74487793 -0.083654426 1.7320004
0.75273287 -0.084675573 1.7320002
0.74393529 -0.074228585 1.7320002
0.75053346 -0.074228585 1.7320001
0.73733717 -0.067630477 1.7320001
0.74393529 -0.064331427 1.7320002
0.7505334 -0.065980956 1.7320001
0.73733717 -0.051135242 1.7320001
0.74393535 -0.054434292 1.7320002
0.73733723 -0.044537149 1.7320001
0.74352288 -0.044949524 1.7320002
0.73733717 -0.032990478 1.7320001
0.74352288 -0.034639999 1.7320002
0.74591476 -0.02474286 1.7320002
0.74591476 -0.014845717 1.7320002
0.7505334 -0.016495239 1.7320001
0.7464096 -0.0041238097 1.7320001
0.75053346 -0.0049485723 1.7320001
0.74723434 0.0032990479 1.7320001
0.75135815 0.0057733338 1.7320001
0.74723434 0.016495239 1.7320001
0.7505334 0.013196191 1.7320001
0.74723434 0.02144381 1.7320001
0.74723434 0.034640003 1.7320001
0.7505334 0.037939049 1.7320001
0.7521829 0.044537149 1.7320002
0.75288987 0.053962994 1.7320004
0.74723434 0.064331435 1.7320001
0.7521829 0.064331435 1.7320002
0.74723434 0.070929527 1.7320001
0.75342011 0.07464096 1.7320002
0.74723434 0.08742477 1.7320001
0.75342005 0.08371333 1.7320002
0.75383252 0.094022863 1.7320002
0.76043051 0.097321913 1.7320001
0.75383252 0.10392001 1.7320002
0.76262993 0.10446985 1.7320002
0.75383252 0.11381715 1.7320002
0.76153028 0.11161779 1.7320001
0.74723434 0.12536381 1.7320001
0.75053346 0.1237143 1.7320001
0.74723434 0.13196191 1.7320001
0.75273275 0.13471113 1.7320002
0.7542448 0.14309621 1.7320002
0.76175016 0.14416838 1.7320002
0.75548196 0.15340573 1.7320002
0.76372957 0.15340573 1.7320002
0.75548196 0.1649524 1.7320002
0.76208001 0.1649524 1.7320002
0.75581187 0.17649905 1.7320002
0.76208007 0.17320001 1.7320001
0.75713146 0.18639621 1.7320001
0.76043051 0.18804573 1.7320001
0.75713146 0.19629335 1.7320001
0.76175016 0.19629335 1.7320002
0.75713146 0.20619051 1.7320001
0.76331723 0.20577812 1.7320002
0.75713146 0.21608764 1.7320001
0.76331717 0.21650001 1.7320002
0.77032769 0.21608764 1.7320001
0.75713146 0.22598478 1.7320001
0.76372957 0.22598478 1.7320002
0.75713146 0.23588192 1.7320001
0.76372957 0.23588191 1.7320002
0.77032775 0.23588192 1.7320001
0.75713146 0.24248001 1.7320001
0.76372957 0.24577907 1.7320002
0.77032775 0.24577908 1.7320001
0.76372951 0.25567621 1.7320002
0.77032775 0.25567621 1.7320001
0.76372951 0.26557332 1.7320002
0.77197719 0.26557338 1.7320002
0.76372969 0.27499923 1.7320004
0.77321434 0.27588287 1.7320002
0.76372957 0.28536764 1.7320002
0.77362669 0.28536764 1.7320002
0.76414198 0.29526478 1.7320002
0.77362669 0.29526478 1.7320002
0.76467216 0.30563322 1.7320004
0.77362669 0.30516189 1.7320002
0.76414192 0.31547144 1.7320002
0.77362669 0.3150591 1.7320002
0.76570898 0.32429641 1.7320002
0.76702869 0.33485335 1.7320001
0.77362669 0.33485332 1.7320002
0.76702863 0.34640002 1.7320001
0.76372957 0.43382478 1.7320002
0.77032769 0.43547431 1.7320001
0.76331717 0.44330955 1.7320002
0.77032769 0.44372192 1.7320001
0.75383246 0.52289909 1.7320001
0.75493211 0.53609532 1.7320001
0.76043051 0.53939432 1.7320001
0.75713146 0.54599249 1.7320001
0.76125526 0.54681718 1.7320001
0.69474196 -0.67484486 1.7410001
0.69341552 -0.66423303 1.7410001
0.69379449 -0.65447396 1.7410002
0.69308388 -0.64499915 1.7410001
0.69474196 -0.63505059 1.7410001
0.68810958 -0.62841815 1.7410001
0.69474196 -0.62510192 1.7410001
0.69474202 -0.61515337 1.7410001
0.69474196 -0.60520482 1.7410001
0.69474202 -0.59525621 1.7410001
0.6956895 -0.5857814 1.7410002
0.70137435 -0.58530766 1.7410001
0.69673169 -0.57602233 1.7410001
0.70303243 -0.57535911 1.7410001
0.69805813 -0.56209433 1.7410001
0.70303243 -0.56541049 1.7410001
0.69805813 -0.555462 1.7410001
0.70303243 -0.55546194 1.7410001
0.69640005 -0.54551339 1.7410001
0.70137435 -0.54551339 1.7410001
0.69805813 -0.53556478 1.7410001
0.70270079 -0.53622812 1.7410001
0.70137441 -0.52561623 1.7410001
0.70220339 -0.51566768 1.7410001
0.70524323 -0.50571913 1.7410001
0.70717776 -0.49659956 1.7410001
0.70717776 -0.48499286 1.7410001
0.71132296 -0.48582193 1.7410001
0.7066803 -0.4752101 1.7410001
0.71132296 -0.47587335 1.7410001
0.70469058 -0.4659248 1.7410001
0.71132296 -0.46592483 1.7410001
0.70469052 -0.45796594 1.7410001
0.71422452 -0.4555617 1.7410001
0.70800674 -0.44271147 1.7410001
0.71463913 -0.44602767 1.7410001
0.71662879 -0.43674237 1.7410001
0.72127146 -0.43607908 1.7410001
0.71795529 -0.4261305 1.7410001
0.72259802 -0.42546725 1.7410001
0.71662885 -0.41551867 1.7410001
0.7229296 -0.41618198 1.7410001
0.7157445 -0.40568066 1.7410001
0.72259802 -0.40557012 1.7410001
0.7155866 -0.39675859 1.7410002
0.72417319 -0.39587027 1.7410001
0.71795529 -0.3896524 1.7410001
0.7229296 -0.38633621 1.7410001
0.73122007 -0.38302001 1.7410001
0.72292966 -0.37638766 1.7410001
0.72458768 -0.36643907 1.7410001
0.72500217 -0.35690501 1.7410001
0.73122013 -0.35649049 1.7410001
0.72500223 -0.34612739 1.7410001
0.73254651 -0.34720516 1.7410001
0.72458768 -0.33659336 1.7410001
0.73122013 -0.33659336 1.7410001
0.71606034 -0.32332861 1.7410002
0.7242862 -0.32543886 1.7409999
0.73122007 -0.32498667 1.7410001
0.71795529 -0.31338003 1.7410001
0.72458768 -0.31338003 1.7410001
0.71795529 -0.30674765 1.7410001
0.72500217 -0.303846 1.7410001
0.7270748 -0.2926538 1.7410001
0.73204911 -0.2926538 1.7410001
0.7270748 -0.28270525 1.7410001
0.73122007 -0.28353429 1.7410001
0.71795529 -0.27524382 1.7410001
0.72500217 -0.27400026 1.7410001
0.72624576 -0.26363719 1.7410001
0.73122007 -0.26032096 1.7410001
0.7270748 -0.25285953 1.7410001
0.73204911 -0.25285953 1.7410001
0.7265774 -0.24440327 1.7410001
0.73232549 -0.24484542 1.7410001
0.72624576 -0.23379144 1.7410001
0.73287815 -0.23047525 1.7410001
0.7265774 -0.22317962 1.7410001
0.73287815 -0.22384289 1.7410001
0.72624576 -0.21389429 1.7410001
0.73453629 -0.21389428 1.7410001
0.72790384 -0.20394573 1.7410001
0.73453629 -0.20394571 1.7410001
0.72790384 -0.19399717 1.7410001
0.73387301 -0.19598688 1.7410001
0.7265774 -0.18338536 1.7410001
0.72624576 -0.17410003 1.7410001
0.73122007 -0.17244191 1.7410001
0.72624576 -0.16415145 1.7410001
0.73398364 -0.16415143 1.7410001
0.72624576 -0.15420286 1.7410001
0.73358881 -0.15372913 1.7410002
0.72458768 -0.1442543 1.7410001
0.73358881 -0.14472805 1.7410002
0.72569311 -0.13541113 1.7410001
0.73453629 -0.13430572 1.7410001
0.72790384 -0.12767334 1.7410001
0.73453629 -0.12435714 1.7410001
0.73453629 -0.11440859 1.7410001
0.74116862 -0.11109239 1.7410001
0.73619437 -0.10446 1.7410001
0.74116868 -0.10446 1.7410001
0.73702335 -0.095340475 1.7410001
0.74249518 -0.093848191 1.7410001
0.73785245 -0.084562868 1.7410001
0.74249506 -0.085226111 1.7410001
0.73785245 -0.074614286 1.7410001
0.74116868 -0.074614294 1.7410001
0.73619437 -0.06466572 1.7410001
0.74116862 -0.063007623 1.7410001
0.73619437 -0.05471715 1.7410001
0.74116862 -0.056375243 1.7410001
0.73453629 -0.044768572 1.7410001
0.73453635 -0.034820002 1.7410001
0.74116862 -0.038136192 1.7410001
0.73785245 -0.026529524 1.7410001
0.74353731 -0.024871429 1.7410002
0.74353737 -0.014922858 1.7410002
0.74407029 -0.0053888103 1.7410001
0.74448478 0.0049742865 1.7410001
0.75111717 0.0082904771 1.7410001
0.74448478 0.014922859 1.7410001
0.75111717 0.011606667 1.7410001
0.74543232 0.024871433 1.7410002
0.74543232 0.034820005 1.7410002
0.75111717 0.038136192 1.7410001
0.74489927 0.045183096 1.7410001
0.75111717 0.044768579 1.7410001
0.74448478 0.05471715 1.7410001
0.75111717 0.054717146 1.7410001
0.73785245 0.06466572 1.7410001
0.74448472 0.06466572 1.7410001
0.74448472 0.074614286 1.7410001
0.75111717 0.076272383 1.7410001
0.74647456 0.083899625 1.7410001
0.75111717 0.082904771 1.7410001
0.74780101 0.094511434 1.7410001
0.75111717 0.094511434 1.7410001
0.74780101 0.10446 1.7410001
0.75111717 0.10446 1.7410001
0.74780101 0.11440858 1.7410001
0.75111717 0.11440858 1.7410001
0.74647456 0.1250204 1.7410001
0.75111717 0.12104096 1.7410001
0.74489933 0.1338912 1.7410001
0.75111717 0.13762191 1.7410001
0.74543232 0.14425431 1.7410002
0.75194621 0.14508334 1.7410001
0.75277531 0.15420288 1.7410001
0.75310689 0.16415143 1.7410001
0.75443339 0.17327096 1.7410001
0.75664419 0.18625937 1.7410001
0.75538093 0.19447091 1.7410002
0.75443345 0.20394574 1.7410001
0.75484794 0.21430884 1.7410001
0.75609148 0.22384286 1.7410001
0.75609148 0.23379146 1.7410001
0.75692052 0.24291097 1.7410001
0.76106578 0.2470562 1.7410001
0.75774956 0.25368857 1.7410001
0.76106584 0.25368857 1.7410001
0.75774956 0.26197904 1.7410001
0.76106584 0.26363716 1.7410001
0.75774956 0.27026954 1.7410001
0.76272386 0.27441478 1.7410001
0.76272392 0.28270525 1.7410001
0.76189482 0.29431191 1.7410001
0.75774956 0.30508953 1.7410001
0.76239222 0.3040947 1.7410001
0.75774956 0.31338 1.7410001
0.76189482 0.31338 1.7410001
0.75774956 0.32001239 1.7410001
0.76382923 0.32553941 1.7410001
0.76604009 0.33659339 1.7410001
0.76637173 0.34720516 1.7410001
0.77101433 0.34322575 1.7410001
0.76637173 0.35582727 1.7410001
0.77101439 0.35649049 1.7410001
0.76769817 0.3664391 1.7410001
0.77101439 0.36643907 1.7410001
0.76769817 0.37638769 1.7410001
0.77234077 0.37705088 1.7410001
0.76637173 0.38699946 1.7410001
0.77338308 0.38680997 1.7410002
0.73702347 0.42530146 1.7410001
0.73702347 0.43525004 1.7410001
0.7436558 0.43856624 1.7410001
0.74489927 0.44561315 1.7410001
0.76106578 0.44271147 1.7410001
0.75609148 0.52893239 1.7410001
0.74614286 0.538881 1.7410001
0.75388068 0.53556484 1.7410001
0.74697196 0.54468435 1.7410001
0.75443339 0.54551339 1.7410001
0.69344103 -0.6825819 1.7545002
0.69464934 -0.67459053 1.7551429
0.69438624 -0.6659072 1.7590001
0.69522393 -0.65501815 1.7590002
0.69344532 -0.64499193 1.7545002
0.68833339 -0.63166672 1.7500001
0.69166672 -0.63666672 1.7500001
0.68833339 -0.62500012 1.7500002
0.69166678 -0.62500012 1.7500002
0.68833339 -0.61500001 1.7500002
0.69171834 -0.61411548 1.7522501
0.69177002 -0.60488051 1.7545002
0.69177002 -0.59485483 1.7545002
0.69344014 -0.58482736 1.7545
0.69584745 -0.5750187 1.7572001
0.70183885 -0.57250988 1.7560003
0.6951533 -0.5643571 1.7563
0.70166671 -0.56833339 1.7500001
0.6948145 -0.55503237 1.7549093
0.6955722 -0.54428917 1.7538573
0.69761837 -0.53553599 1.7545
0.70166671 -0.5316667 1.7500001
0.69851404 -0.52534556 1.7567501
0.70179576 -0.52467489 1.7545002
0.69845384 -0.51465333 1.7545002
0.7017312 -0.51398695 1.7522502
0.70346588 -0.50462168 1.7545
0.70669353 -0.49509552 1.7557273
0.6985743 -0.48079336 1.7590001
0.70595485 -0.48433411 1.757
0.6985743 -0.47744289 1.7590001
0.70462513 -0.47550893 1.756
0.7024917 -0.46375796 1.7554001
0.70847958 -0.4544948 1.7545002
0.71277779 -0.4527778 1.7500002
0.70847952 -0.44781098 1.7545002
0.71399075 -0.44461811 1.75675
0.70862573 -0.43388671 1.7590001
0.71515995 -0.43411002 1.7545
0.70862573 -0.42383528 1.7590002
0.71578276 -0.42466772 1.7549093
0.70862573 -0.41378385 1.7590002
0.71455866 -0.41381365 1.7563
0.70847952 -0.40437049 1.7545002
0.7142483 -0.40384549 1.7522501
0.70862573 -0.39368099 1.7590001
0.71510613 -0.39400479 1.7530001
0.71729392 -0.38414133 1.755625
0.72175694 -0.38549501 1.7522501
0.71859121 -0.37476695 1.7567501
0.72184724 -0.3742891 1.7545002
0.71700191 -0.3635267 1.7590001
0.72184724 -0.36426339 1.7545002
0.72263545 -0.35401157 1.7533751
0.71867722 -0.34342384 1.7590002
0.72181112 -0.34503967 1.7536001
0.71771061 -0.33356395 1.755625
0.72166669 -0.3366667 1.7500001
0.71519262 -0.32532936 1.7554001
0.70862573 -0.31997049 1.7590001
0.71577191 -0.31607863 1.7560003
0.71645123 -0.30614081 1.7565455
0.72277784 -0.3027778 1.7500002
0.71800417 -0.29712543 1.756
0.72471368 -0.29533336 1.7520001
0.71867722 -0.28646573 1.7590002
0.7242254 -0.28583765 1.7532729
0.71867716 -0.27976477 1.7590001
0.72360837 -0.2743898 1.7567501
0.72454959 -0.26605812 1.757
0.72636515 -0.25587431 1.756
0.72723621 -0.24560384 1.7577144
0.72413522 -0.23580572 1.756
0.72455508 -0.22602764 1.7554001
0.72393477 -0.21597381 1.7545
0.72681057 -0.20539539 1.7533751
0.72681063 -0.1953761 1.7533751
0.72630304 -0.18547575 1.7545002
0.72333336 -0.17500001 1.7500002
0.72518909 -0.16542432 1.7545002
0.73500007 -0.16166668 1.7500001
0.72473741 -0.15497689 1.7551429
0.72184724 -0.14537287 1.7545002
0.72409326 -0.13464308 1.755
0.72748011 -0.12710097 1.756
0.73180425 -0.12298636 1.7530001
0.7270534 -0.11224096 1.7590001
0.73187292 -0.11529573 1.7545002
0.72675765 -0.1040294 1.7577144
0.73301989 -0.10555382 1.7522501
0.72658515 -0.096262984 1.757875
0.73445886 -0.094476491 1.7527001
0.73521054 -0.085218579 1.7545002
0.73625439 -0.07512857 1.753
0.72872859 -0.061983813 1.7590001
0.73333341 -0.065150477 1.7540001
0.72872859 -0.051932383 1.7590001
0.73291528 -0.055094291 1.753
0.72862983 -0.044340242 1.7567501
0.73183173 -0.045762669 1.7536001
0.72754592 -0.034591593 1.7575001
0.73183173 -0.035072003 1.7536001
0.72761178 -0.027362224 1.7590002
0.73426986 -0.025032146 1.7522502
0.74166673 -0.021666668 1.7500001
0.7352106 -0.015038572 1.7545003
0.74166673 -0.015000001 1.7500002
0.73625439 -0.0050085718 1.753
0.74166673 -0.0050000004 1.7500002
0.73741198 0.0046026199 1.75675
0.74178267 0.0058440482 1.7522501
0.73710477 0.015077144 1.7590001
0.74189866 0.015038574 1.7545002
0.73878002 0.025128573 1.7590002
0.74267399 0.025048217 1.7533751
0.73710477 0.035180002 1.7590001
0.74267399 0.035067502 1.7533751
0.73710483 0.045231432 1.7590001
0.74234176 0.044622999 1.7538573
0.73667437 0.055123817 1.7540001
0.74166673 0.055000003 1.7500002
0.73549533 0.064847365 1.7540911
0.74166673 0.065000005 1.7500001
0.73769516 0.074320689 1.7564287
0.74178267 0.075934052 1.7522502
0.73878002 0.082086675 1.7590001
0.74446923 0.085194297 1.7540001
0.74627149 0.095162868 1.753
0.74732441 0.10498668 1.7577144
0.75218195 0.10721524 1.7590001
0.74780709 0.11495084 1.755625
0.73878002 0.12899335 1.7590001
0.74531877 0.12542859 1.756
0.73878002 0.13569431 1.7590002
0.7428866 0.13587539 1.7551429
0.73878002 0.14574572 1.7590002
0.74267399 0.14527966 1.7533751
0.7473281 0.15498191 1.7545
0.75166672 0.15500002 1.7500002
0.74858242 0.16208239 1.7545002
0.75239408 0.1658413 1.7530001
0.75442863 0.17586666 1.7545
0.75487626 0.18538061 1.7536001
0.74870694 0.19658551 1.7567501
0.75276637 0.19433172 1.7525716
0.7466718 0.20506792 1.7563
0.75166672 0.20500001 1.7500002
0.74863225 0.2163301 1.7554001
0.75243646 0.21388438 1.7518002
0.74883145 0.22448191 1.7590001
0.75294954 0.22538573 1.753
0.75401199 0.23518762 1.7545
0.7556051 0.24630266 1.7540001
0.756248 0.25613761 1.7557273
0.756248 0.26556426 1.7557273
0.76166672 0.26833335 1.7500001
0.7575829 0.27594286 1.756
0.76166672 0.2766667 1.7500001
0.75754273 0.28646573 1.7590001
0.76195002 0.28573287 1.7545002
0.75888288 0.29484195 1.7590001
0.76195002 0.29575858 1.7545002
0.7575829 0.30939049 1.7560003
0.76204443 0.30381781 1.7560003
0.7578392 0.31601256 1.755625
0.75681138 0.32476044 1.7564287
0.76277781 0.32722223 1.7500002
0.75888288 0.33002192 1.7590001
0.76410848 0.33440155 1.755625
0.75888288 0.34342384 1.7590001
0.76428676 0.3438786 1.7545
0.76362008 0.35423768 1.7545
0.76593345 0.3645089 1.753
0.76718009 0.3749527 1.755
0.76606506 0.38461283 1.755
0.76362097 0.39350292 1.7545
0.73655385 0.42418864 1.7525716
0.73633343 0.43500003 1.7500002
0.7383334 0.44166669 1.7500001
0.74182129 0.44687399 1.7530001
0.75388896 0.53500003 1.7500002
0.68867815 -0.68867815 1.7680001
0.69372952 -0.68531054 1.7680001
0.6928876 -0.67604959 1.7680001
0.69541335 -0.66510481 1.7680001
0.68867815 -0.65163434 1.7680001
0.69372958 -0.65500188 1.768
0.69372958 -0.64489913 1.768
0.68867815 -0.63648009 1.7680001
0.69204581 -0.63479626 1.7680001
0.69204581 -0.62469339 1.7680001
0.69204575 -0.61122292 1.7680001
0.69204581 -0.60448766 1.7680001
0.69204581 -0.59438479 1.7680001
0.69204575 -0.58259809 1.7680001
0.68867815 -0.57081145 1.7680001
0.69288766 -0.57502103 1.7680001
0.68867815 -0.56407624 1.7680001
0.69204581 -0.56407619 1.7680001
0.68867815 -0.55734098 1.7680001
0.69288766 -0.55313146 1.7680001
0.69541335 -0.54387057 1.7680001
0.69878101 -0.5337677 1.7680001
0.6979391 -0.52282286 1.7680001
0.69878101 -0.51356196 1.7680001
0.70214862 -0.51187813 1.7680001
0.69709718 -0.5034591 1.768
0.70214862 -0.5034591 1.7680001
0.69765848 -0.4956013 1.7680001
0.70383245 -0.49504006 1.7680001
0.69743395 -0.48662099 1.768
0.70327115 -0.48886606 1.7680001
0.69878101 -0.47988576 1.7680001
0.70383239 -0.47483432 1.7680001
0.70299053 -0.46557337 1.7680001
0.69709718 -0.45631242 1.768
0.70551622 -0.45631239 1.7679999
0.69541335 -0.44620955 1.7680001
0.70599729 -0.44717172 1.768
0.71225148 -0.44452575 1.7680001
0.69709718 -0.43947431 1.7680001
0.70551622 -0.43610668 1.7679999
0.71393526 -0.43610668 1.7680001
0.69878101 -0.42600387 1.7680001
0.70593715 -0.4264248 1.7679999
0.71561909 -0.42600384 1.7680001
0.70720005 -0.41590101 1.768
0.70753682 -0.40647164 1.768
0.71393526 -0.4024305 1.7680001
0.70888388 -0.39906287 1.7680001
0.71561909 -0.39569527 1.768
0.71465689 -0.38607353 1.768
0.70720005 -0.37548956 1.768
0.71561909 -0.37548953 1.7679999
0.70753682 -0.36606023 1.768
0.71393532 -0.36538669 1.768
0.71658128 -0.35576496 1.768
0.72235435 -0.35528383 1.7680001
0.71658123 -0.34469992 1.768
0.70888388 -0.33339429 1.7680001
0.71465695 -0.33555925 1.768
0.70804191 -0.32497525 1.7680001
0.71337402 -0.32722038 1.7680001
0.70888394 -0.31487238 1.7680001
0.71225154 -0.31487244 1.7680001
0.70888388 -0.30813715 1.7680001
0.71359849 -0.30476952 1.768
0.70888388 -0.29129907 1.7680001
0.71561909 -0.29466668 1.7679999
0.70888394 -0.28456384 1.7680001
0.71561909 -0.28456381 1.7679999
0.71696615 -0.27580801 1.768
0.72319627 -0.27530286 1.7680001
0.71730292 -0.26351622 1.7680001
0.72319627 -0.26351622 1.7680001
0.70888394 -0.25425526 1.7680001
0.71561915 -0.25377417 1.768
0.72370142 -0.25425526 1.768
0.70888394 -0.2441524 1.7680001
0.71561909 -0.24415238 1.7679999
0.72370142 -0.24482594 1.768
0.70888388 -0.23573336 1.7680001
0.71561909 -0.23404953 1.7679999
0.72235435 -0.23404954 1.7680001
0.71561909 -0.22394665 1.7679999
0.72235435 -0.22394668 1.7680001
0.71696615 -0.21519087 1.768
0.72370142 -0.21317029 1.768
0.72475988 -0.20422207 1.768
0.72530103 -0.19363812 1.7679999
0.71730292 -0.18016763 1.7680001
0.72403812 -0.18353526 1.768
0.71730298 -0.17343239 1.768
0.72403812 -0.17343241 1.768
0.71898669 -0.16501334 1.7680001
0.72403812 -0.16501334 1.7680001
0.71898669 -0.15996191 1.7680001
0.72370142 -0.15726781 1.768
0.72235435 -0.14649144 1.7680001
0.71898669 -0.1397562 1.7680001
0.72235435 -0.1363886 1.7680001
0.72656381 -0.12544382 1.7680001
0.73245722 -0.12291811 1.7680001
0.72572201 -0.11618287 1.768
0.73245722 -0.11786667 1.7680001
0.71730292 -0.10271239 1.7680001
0.72459948 -0.10720255 1.768
0.71814483 -0.096819051 1.7680001
0.72370142 -0.095303625 1.768
0.72614288 -0.085874289 1.7679999
0.73245728 -0.085874289 1.7680001
0.72824764 -0.076613337 1.7680001
0.73414105 -0.075771436 1.768
0.72706902 -0.064321525 1.768
0.73245722 -0.067352384 1.7680001
0.72668421 -0.055084631 1.768
0.73245722 -0.057249527 1.7680001
0.72740579 -0.045462862 1.768
0.72475982 -0.035841092 1.768
0.72530103 -0.024836192 1.7679999
0.73245722 -0.021889525 1.7680001
0.72908962 -0.015154287 1.7680001
0.73245728 -0.015154287 1.7680001
0.72908956 -0.008419048 1.7680001
0.73414105 -0.0050514285 1.768
0.72908962 0.0050514289 1.7680001
0.73414105 0.0050514289 1.768
0.72908962 0.015154287 1.7680001
0.73414105 0.015154287 1.768
0.72824764 0.024415238 1.7680001
0.73582482 0.025257144 1.7679999
0.72908956 0.033676192 1.7680001
0.73414105 0.035360005 1.768
0.73414105 0.045462862 1.768
0.73414105 0.055565715 1.768
0.72908962 0.065668575 1.7680001
0.73329908 0.066510476 1.7680001
0.72908956 0.077455245 1.7680001
0.73486269 0.076252535 1.768
0.72908956 0.08419048 1.7680001
0.73678702 0.085393205 1.768
0.74368256 0.088119373 1.7680001
0.73919243 0.09597715 1.7680001
0.74424386 0.09597715 1.768
0.73919243 0.10608001 1.7680001
0.74424386 0.10608 1.768
0.73784536 0.11685639 1.768
0.74496549 0.11666396 1.768
0.73582482 0.12628572 1.7679999
0.74368256 0.12404065 1.7680001
0.73624575 0.13596764 1.7679999
0.73750865 0.14649145 1.768
0.73919243 0.15491048 1.7680001
0.74496549 0.15707538 1.768
0.74660122 0.16467659 1.768
0.7526629 0.16669716 1.7680001
0.74929535 0.17343239 1.7680001
0.7526629 0.17343239 1.7680001
0.73919243 0.18690287 1.7680001
0.74845338 0.18437715 1.7680001
0.75400996 0.18286172 1.768
0.73784536 0.19431163 1.768
0.74634862 0.19363809 1.7679999
0.7526629 0.19027048 1.7680001
0.73835051 0.20458287 1.7680001
0.74458057 0.20239392 1.768
0.73919243 0.21384382 1.7680001
0.74592763 0.21384382 1.7679999
0.74688989 0.22346561 1.768
0.74929535 0.23404954 1.7680001
0.7526629 0.23404954 1.7680001
0.74929535 0.2441524 1.7680001
0.75434673 0.2441524 1.768
0.74929535 0.25425526 1.7680001
0.75350481 0.25425526 1.7680001
0.74761152 0.2643581 1.768
0.7526629 0.26435813 1.7680001
0.74845338 0.27361906 1.7680001
0.75434673 0.27446097 1.768
0.74929535 0.28456384 1.7680001
0.75506842 0.28504494 1.768
0.74929535 0.29466671 1.7680001
0.75560957 0.29508764 1.7679999
0.74845338 0.30561143 1.7680001
0.75645149 0.30519047 1.7679999
0.76276577 0.30476955 1.7680001
0.74817276 0.31262732 1.7680001
0.75506842 0.31535351 1.768
0.74845338 0.32497525 1.7680001
0.75400996 0.32430172 1.768
0.74929529 0.33171049 1.7680001
0.7560305 0.33507815 1.7679999
0.76276577 0.33676192 1.7680001
0.75645143 0.34476003 1.7679999
0.76276577 0.34518099 1.7680001
0.75939816 0.35528386 1.7680001
0.76276577 0.35528383 1.7680001
0.75715315 0.36426413 1.768
0.76411289 0.36606023 1.768
0.75855625 0.37633145 1.7680001
0.7644496 0.37548956 1.768
0.75771439 0.38559243 1.768
0.76411289 0.3849189 1.768
0.73717189 0.42600384 1.768
0.73750865 0.43610668 1.768
0.73784542 0.44553605 1.768
0.74256003 0.44789338 1.7680001
0.67864484 -0.69218385 1.7770001
0.68541431 -0.69218385 1.7770002
0.68879908 -0.68710673 1.7770001
0.69303 -0.68541431 1.7770001
0.69303 -0.67441386 1.7770001
0.68879908 -0.66172099 1.7770001
0.69353783 -0.66578269 1.7770001
0.68744522 -0.65562838 1.7770001
0.69218385 -0.65495145 1.7770001
0.68879908 -0.64479721 1.7770002
0.69218385 -0.64648962 1.7770001
0.68879908 -0.63633525 1.7770001
0.69218385 -0.63295054 1.7770001
0.69331211 -0.62448859 1.7770002
0.69556862 -0.61771911 1.7770001
0.69556862 -0.59064096 1.7770001
0.69218385 -0.58217907 1.7770001
0.68879908 -0.57202482 1.7770001
0.69218385 -0.57710195 1.7770001
0.68879908 -0.56356287 1.7770002
0.68879908 -0.55679339 1.7770001
0.69303012 -0.55256242 1.7770001
0.69444036 -0.54551089 1.7770002
0.69759947 -0.53716177 1.7770001
0.69692248 -0.52700752 1.7770001
0.69726104 -0.51617622 1.7770002
0.69472241 -0.50602192 1.7770001
0.69641483 -0.49586764 1.7770001
0.69726098 -0.48655954 1.7770001
0.69895339 -0.47555909 1.7770002
0.70233816 -0.47555909 1.7770002
0.69782513 -0.46540481 1.7770002
0.70233816 -0.46709716 1.7770001
0.69387627 -0.4552505 1.7770002
0.70233816 -0.45186573 1.7770001
0.69387621 -0.44509625 1.7770002
0.70487678 -0.44594243 1.7770001
0.69726104 -0.43494195 1.7770002
0.70233816 -0.4366343 1.7770001
0.69726104 -0.4247877 1.7770002
0.70459461 -0.42253113 1.7770002
0.69759947 -0.41463336 1.7770001
0.70403051 -0.41463339 1.7770002
0.69759947 -0.40380213 1.7770001
0.70529974 -0.40405595 1.7770002
0.69726104 -0.39432478 1.7770002
0.70572281 -0.39432481 1.7770002
0.71249241 -0.39432478 1.7770002
0.70707685 -0.38484746 1.7770001
0.71249241 -0.38586289 1.7770001
0.69895339 -0.37063146 1.7770001
0.70403063 -0.37401626 1.7770002
0.69895339 -0.36216956 1.7770001
0.70572299 -0.36386198 1.7770002
0.71249241 -0.36047718 1.7770001
0.69759947 -0.3543846 1.7770001
0.70572293 -0.35370767 1.7770002
0.71418476 -0.35370764 1.7770002
0.70669001 -0.34403688 1.7770002
0.71333861 -0.34439954 1.7770001
0.69895339 -0.33678383 1.7770001
0.70669001 -0.33388266 1.7770002
0.69895339 -0.32324478 1.7770001
0.70685118 -0.32437307 1.7770002
0.69895339 -0.31478289 1.7770001
0.70826149 -0.31732145 1.7770001
0.69895339 -0.30801335 1.7770001
0.70910764 -0.30632097 1.7770002
0.71249241 -0.30462858 1.7770001
0.7062065 -0.29519963 1.7770002
0.71249241 -0.29785907 1.7770001
0.706146 -0.28601238 1.7770002
0.70741528 -0.27585813 1.7770002
0.71539372 -0.27489102 1.7770002
0.70572293 -0.26570383 1.7770002
0.71587718 -0.26612693 1.7770002
0.69895339 -0.25893429 1.7770001
0.70572293 -0.25554952 1.7770002
0.71926194 -0.2572419 1.7770001
0.69726098 -0.24201049 1.7770001
0.70572293 -0.24539526 1.7770002
0.69726098 -0.23862574 1.7770001
0.70572293 -0.23524097 1.7770002
0.71249241 -0.23185621 1.7770001
0.706146 -0.22550976 1.7770002
0.71249241 -0.22508669 1.7770002
0.70910764 -0.21662477 1.7770001
0.71539366 -0.21396533 1.7770002
0.71630031 -0.20435502 1.7770002
0.72264671 -0.20477812 1.7770002
0.71587723 -0.19462384 1.7770002
0.72264671 -0.19462383 1.7770002
0.70910764 -0.18277715 1.7770001
0.7154541 -0.18489264 1.7770002
0.72264671 -0.18616192 1.7770001
0.71418476 -0.17431524 1.7770002
0.71587723 -0.16416097 1.7770002
0.71630031 -0.15358357 1.7770002
0.72264671 -0.15400669 1.7770002
0.71587723 -0.14385238 1.7770002
0.72264671 -0.14554477 1.7770001
0.71790808 -0.13437507 1.7770001
0.72349292 -0.13285191 1.7770001
0.71790808 -0.12286687 1.7770001
0.72433913 -0.12354382 1.7770002
0.71790808 -0.11271258 1.7770001
0.72264671 -0.11338954 1.7770002
0.71520025 -0.10526611 1.7770001
0.72264671 -0.10662001 1.7770001
0.71587723 -0.095982186 1.7770002
0.71723104 -0.087665342 1.7770001
0.72349292 -0.086311445 1.7770001
0.71926194 -0.079541907 1.7770001
0.72560835 -0.075734049 1.7770002
0.719262 -0.066002868 1.7770002
0.72554797 -0.066969931 1.7770002
0.71756959 -0.055848576 1.7770002
0.72400063 -0.056525528 1.7770001
0.71756959 -0.045694288 1.7770002
0.72433913 -0.045694288 1.7770002
0.71756953 -0.035540007 1.7770002
0.72264671 -0.035540007 1.7770002
0.719262 -0.025385715 1.7770002
0.72264671 -0.025385715 1.7770002
0.719262 -0.01523143 1.7770002
0.72603148 -0.015231429 1.7770002
0.71926194 -0.0016923811 1.7770001
0.72603148 -0.0050771432 1.7770002
0.73280102 -0.0033847622 1.7770001
0.72603154 0.0050771432 1.7770002
0.72603148 0.015231429 1.7770002
0.71926194 0.027078096 1.7770001
0.72560835 0.025808811 1.7770002
0.72603148 0.035540003 1.7770002
0.73280102 0.038924765 1.7770001
0.7285701 0.044848096 1.7770001
0.73280108 0.045694288 1.7770002
0.72806239 0.056525528 1.7770001
0.73280108 0.05584858 1.7770002
0.72603148 0.066002861 1.7770002
0.72603148 0.076157153 1.7770002
0.73280102 0.072772384 1.7770001
0.72645456 0.08631143 1.7770002
0.73505753 0.088567942 1.7770002
0.72772384 0.096465729 1.7770002
0.73618573 0.096465722 1.7770002
0.7277239 0.10492763 1.7770001
0.73618579 0.10492763 1.7770002
0.72772396 0.11338954 1.7770002
0.73576266 0.11296644 1.7770002
0.72772396 0.12354382 1.7770002
0.73364723 0.12269763 1.7770001
0.7285701 0.1345443 1.7770001
0.73280108 0.13369811 1.7770002
0.7285701 0.14300621 1.7770001
0.73449343 0.1438524 1.7770002
0.72941625 0.15400669 1.7770002
0.73576272 0.15442978 1.7770002
0.73618573 0.16416097 1.7770002
0.74380147 0.16500716 1.7770001
0.73618579 0.17473835 1.7770002
0.74634004 0.17431526 1.7770002
0.73660886 0.18446954 1.7770002
0.7463401 0.18350247 1.7770002
0.72941625 0.19462383 1.7770002
0.7352187 0.19414029 1.7770002
0.74634004 0.19462383 1.7770001
0.73576272 0.20435502 1.7770002
0.7378782 0.21493238 1.7770002
0.73872435 0.2242405 1.7770001
0.74430913 0.22576363 1.7770001
0.7395705 0.23524098 1.7770002
0.7463401 0.235241 1.7770002
0.7395705 0.24370287 1.7770001
0.74634004 0.24539526 1.7770002
0.74676317 0.25512645 1.7770002
0.74498612 0.26638079 1.7770001
0.74591696 0.27628121 1.7770002
0.7378782 0.28601241 1.7770002
0.74634004 0.28601241 1.7770002
0.7395705 0.29616672 1.7770002
0.74634004 0.29616669 1.7770002
0.73872435 0.30547476 1.7770001
0.74591696 0.30589786 1.7770002
0.75649434 0.3029362 1.7770001
0.7459169 0.31689838 1.7770002
0.75310957 0.31986001 1.7770001
0.7395705 0.32493716 1.7770001
0.74566311 0.32459867 1.7770001
0.7395705 0.33339906 1.7770002
0.74634004 0.33339909 1.7770002
0.75310957 0.33678383 1.7770001
0.7378782 0.34355339 1.7770002
0.74634004 0.34355333 1.7770002
0.75310963 0.34355336 1.7770002
0.7395705 0.35032287 1.7770001
0.74682361 0.35274062 1.7770002
0.75607127 0.35413072 1.7770002
0.74887866 0.36301574 1.7770001
0.75536603 0.36329782 1.7770002
0.74972481 0.37401623 1.7770001
0.75649434 0.3740162 1.7770002
0.74972481 0.38247812 1.7770001
0.75480193 0.3841705 1.7770002
0.74682361 0.39529189 1.7770002
0.75395572 0.3934786 1.7770001
0.73449343 0.42478764 1.7770002
0.72941625 0.43155718 1.7770001
0.73449343 0.43494195 1.7770002
0.73449343 0.44509622 1.7770002
0.68718481 -0.69228768 1.7860001
0.68775177 -0.68434989 1.7860001
0.69228768 -0.68378294 1.7860001
0.68888581 -0.67527813 1.7860001
0.69228768 -0.67527819 1.7860001
0.68684465 -0.66575283 1.7860001
0.69228768 -0.66847432 1.7860001
0.68775177 -0.6548667 1.7860001
0.68888581 -0.64466107 1.7860001
0.68888575 -0.6378572 1.7860001
0.69228768 -0.63275433 1.7860001
0.69364846 -0.62356919 1.7860001
0.69398868 -0.61404389 1.7860001
0.69398868 -0.60383815 1.7860001
0.69398868 -0.59363246 1.7860001
0.69228768 -0.58342671 1.7860001
0.68888575 -0.5681181 1.7860001
0.68888575 -0.55791241 1.7860001
0.69228768 -0.55451047 1.7860001
0.69364846 -0.5453254 1.7860001
0.6968236 -0.5358001 1.7860001
0.69432878 -0.52627468 1.7860001
0.69568956 -0.51538861 1.7860001
0.69455564 -0.50518292 1.7860001
0.69568956 -0.49497721 1.7860001
0.69909149 -0.48307049 1.7860001
0.69739056 -0.47456574 1.7860001
0.69568956 -0.4652105 1.7860001
0.69228768 -0.45415434 1.7860001
0.69313818 -0.44309813 1.7860001
0.69398868 -0.43374288 1.7860001
0.69398862 -0.42693907 1.7860001
0.69909149 -0.41673335 1.7860001
0.69654 -0.40737811 1.7860001
0.69483912 -0.39632189 1.7860001
0.698241 -0.38696671 1.7860001
0.70419431 -0.38611621 1.7860001
0.698241 -0.37506002 1.7860001
0.70249337 -0.37761146 1.7860001
0.69773072 -0.36502442 1.7860001
0.70419431 -0.36570477 1.7860001
0.6968236 -0.35549909 1.7860001
0.69909149 -0.34869525 1.7860001
0.70385414 -0.34461296 1.7860001
0.70476139 -0.33395368 1.7860001
0.7058953 -0.32488191 1.7860001
0.7075963 -0.31467623 1.7860001
0.69909149 -0.30447051 1.7860001
0.70632052 -0.30404526 1.7860001
0.69909149 -0.29426479 1.7860001
0.70249337 -0.29426479 1.7860001
0.7038542 -0.28405908 1.7860001
0.69909149 -0.27045146 1.7860001
0.7038542 -0.27453375 1.7860001
0.69739056 -0.26194671 1.7860001
0.70249337 -0.26534861 1.7860001
0.69739056 -0.25684384 1.7860001
0.70249337 -0.25344193 1.7860001
0.70249337 -0.2466381 1.7860001
0.69909149 -0.23473145 1.7860001
0.70249337 -0.23473145 1.7860001
0.69909149 -0.22792764 1.7860001
0.70362735 -0.22622669 1.7860001
0.70816326 -0.2182889 1.7860001
0.71269912 -0.21261907 1.7860001
0.70759624 -0.20241335 1.7860001
0.71354961 -0.20666572 1.7860001
0.7075963 -0.19560955 1.7860001
0.71269912 -0.19560954 1.7860001
0.70686734 -0.18491785 1.7860003
0.71269912 -0.18880573 1.7860001
0.70793647 -0.17587849 1.7860001
0.71269912 -0.17519812 1.7860001
0.70929718 -0.16499239 1.7860001
0.71269912 -0.16499239 1.7860001
0.71354961 -0.15563715 1.7860001
0.71269912 -0.14458096 1.7860001
0.71553409 -0.13437524 1.7860001
0.71512908 -0.12465552 1.7860003
0.71610099 -0.11396382 1.7860001
0.71269912 -0.10375811 1.7860001
0.71354961 -0.094402865 1.7860001
0.71678138 -0.085387819 1.7860001
0.71780193 -0.076542862 1.7860001
0.7229048 -0.074841909 1.7860001
0.71780199 -0.066337146 1.7860001
0.71525049 -0.055280957 1.7860001
0.71610105 -0.045925718 1.7860001
0.71610105 -0.035720002 1.7860001
0.71814215 -0.026194667 1.7860001
0.71950293 -0.015308572 1.7860001
0.71950293 -0.0051028575 1.7860001
0.7229048 -0.0068038097 1.7860001
0.71950293 0.0051028575 1.7860001
0.72290486 0.0051028575 1.7860001
0.71950293 0.011906668 1.7860001
0.72290486 0.015308573 1.7860001
0.71836895 0.027782224 1.7860001
0.7229048 0.022112383 1.7860001
0.71780199 0.035720006 1.7860001
0.72290486 0.035720002 1.7860001
0.72687376 0.045925718 1.7860001
0.72715718 0.055280957 1.7860001
0.72630674 0.086748578 1.7860001
0.72630674 0.095253341 1.7860001
0.7263068 0.10375811 1.7860001
0.7263068 0.11396383 1.7860001
0.7263068 0.12416953 1.7860001
0.72766751 0.13369487 1.7860001
0.72766751 0.14526133 1.7860001
0.72800767 0.15478668 1.7860001
0.73311061 0.16499239 1.7860001
0.73481154 0.17434764 1.7860001
0.72970861 0.18880573 1.7860001
0.73396099 0.18540382 1.7860001
0.72970861 0.19560954 1.7860001
0.72970861 0.20581526 1.7860001
0.73311061 0.20581526 1.7860001
0.73481148 0.21602099 1.7860001
0.73787326 0.22690706 1.7860001
0.73748451 0.23643243 1.7860003
0.73821342 0.24493715 1.7860001
0.7369377 0.25301668 1.7860001
0.74331629 0.25344193 1.7860001
0.73991436 0.26364765 1.7860001
0.74467701 0.26296726 1.7860001
0.73821342 0.27385339 1.7860001
0.74331629 0.27385336 1.7860001
0.73736292 0.28320861 1.7860001
0.74331623 0.28065717 1.7860001
0.73787326 0.29494518 1.7860001
0.73787326 0.30447051 1.7860001
0.73906386 0.31382576 1.7860001
0.74331623 0.31637716 1.7860001
0.73991436 0.32488191 1.7860001
0.74331623 0.32148004 1.7860001
0.73991436 0.33508763 1.7860001
0.73651242 0.34359241 1.7860001
0.73991436 0.35379809 1.7860001
0.74445021 0.35776699 1.7860001
0.75012004 0.35890096 1.7860001
0.74535739 0.36570477 1.7860001
0.75012004 0.36740571 1.7860001
0.74535739 0.37523013 1.7860001
0.75148088 0.37591049 1.7860001
0.74671817 0.38781714 1.7860001
0.75097048 0.38696668 1.7860001
0.73991436 0.39972383 1.7860001
0.74445027 0.39632195 1.7860001
0.75012004 0.39292002 1.7860001
0.73651242 0.41503239 1.7860001
0.72970861 0.42523813 1.7860001
0.73396099 0.42268667 1.7860001
0.72800767 0.43544385 1.7860001
0.73311055 0.43374288 1.7860001
0.73311061 0.4439486 1.7860001
0.67868102 -0.69919527 1.7950001
0.68437946 -0.69463652 1.7950001
0.67868102 -0.68380958 1.7950001
0.68509173 -0.6855191 1.7950001
0.69235718 -0.68893814 1.7950001
0.67731345 -0.67594576 1.7950001
0.68509173 -0.67568934 1.7950001
0.68380964 -0.66500485 1.7950001
0.68757051 -0.65474766 1.7950001
0.68893814 -0.6444906 1.7950001
0.68893814 -0.63081431 1.7950001
0.69235724 -0.63423336 1.7950001
0.68893814 -0.62739527 1.7950001
0.69235724 -0.62397623 1.7950001
0.68893814 -0.61200958 1.7950001
0.69235724 -0.61371911 1.7950001
0.68893814 -0.60688096 1.7950001
0.69235724 -0.60346192 1.7950001
0.68893814 -0.5932048 1.7950001
0.69235718 -0.59491432 1.7950001
0.68893814 -0.58807623 1.7950001
0.69235724 -0.58636677 1.7950001
0.69235718 -0.57781911 1.7950001
0.68893814 -0.5658524 1.7950001
0.69235718 -0.5658524 1.7950001
0.69235718 -0.55388576 1.7950001
0.6940667 -0.54533815 1.7950001
0.69577622 -0.53593576 1.7950001
0.69372475 -0.52414006 1.7950001
0.69372481 -0.5152505 1.7950001
0.6944086 -0.50499338 1.7950001
0.69663101 -0.49319765 1.7950001
0.69714391 -0.4844791 1.7950001
0.69577622 -0.47353813 1.7950001
0.6940667 -0.4649905 1.7950001
0.69235724 -0.45644292 1.7950001
0.69235724 -0.44618577 1.7950001
0.69919527 -0.42396194 1.7950001
0.69805562 -0.41541433 1.7950001
0.69577622 -0.40515718 1.7950001
0.69577622 -0.3931905 1.7950001
0.6974858 -0.3846429 1.7950001
0.69714391 -0.37438574 1.7950001
0.6944086 -0.36344478 1.7950001
0.69646007 -0.35455528 1.7950001
0.69919527 -0.34532383 1.7950001
0.70261431 -0.34361431 1.7950001
0.70603341 -0.33335716 1.7950001
0.70603341 -0.32651907 1.7950001
0.70261431 -0.31626192 1.7950001
0.70261431 -0.30600476 1.7950001
0.69919527 -0.29574764 1.7950001
0.70261431 -0.29574764 1.7950001
0.70261431 -0.28549051 1.7950001
0.69834054 -0.27608812 1.7950001
0.70261431 -0.27694288 1.7950001
0.69748574 -0.2649762 1.7950001
0.70261431 -0.26839525 1.7950001
0.69919527 -0.25300956 1.7950001
0.70261431 -0.25300956 1.7950001
0.69834054 -0.24360716 1.7950001
0.70261431 -0.24788097 1.7950001
0.69919527 -0.23420477 1.7950001
0.69919527 -0.22394764 1.7950001
0.70432389 -0.22223811 1.7950001
0.70701039 -0.21417895 1.7950002
0.71287149 -0.21198097 1.7950001
0.69919527 -0.20001429 1.7950001
0.70603341 -0.20343335 1.7950001
0.71287149 -0.20685239 1.7950001
0.69919527 -0.19488573 1.7950001
0.70432389 -0.19488573 1.7950001
0.69919527 -0.18633811 1.7950001
0.703982 -0.18702193 1.7950001
0.69919527 -0.17779049 1.7950001
0.70546359 -0.17608097 1.7950001
0.70859766 -0.16667858 1.7950001
0.70717311 -0.15613653 1.7950001
0.71287149 -0.15556668 1.7950001
0.70717305 -0.14473969 1.7950001
0.71372628 -0.14530954 1.7950001
0.70774293 -0.1367619 1.7950001
0.71372622 -0.13419762 1.7950001
0.70646077 -0.12479526 1.7950001
0.71287149 -0.12479525 1.7950001
0.70688814 -0.11710238 1.7950001
0.71423912 -0.11522191 1.7950001
0.71287149 -0.10428096 1.7950001
0.71287149 -0.092314288 1.7950001
0.71629053 -0.082057148 1.7950001
0.71714526 -0.07436429 1.7950001
0.72312862 -0.076928578 1.7950001
0.71629053 -0.06496191 1.7950001
0.71515083 -0.056414291 1.7950001
0.71629059 -0.046157148 1.7950001
0.71492296 -0.035216194 1.7950001
0.71572065 -0.024503177 1.7950001
0.71629053 -0.015385715 1.7950001
0.70945245 -0.001709524 1.7950001
0.71629053 -0.0051285722 1.7950001
0.70945245 0.001709524 1.7950001
0.7167179 0.0047011911 1.7950001
0.71885484 0.014530953 1.7950001
0.72312862 0.017095238 1.7950001
0.71697432 0.026326669 1.7950001
0.72312862 0.022223812 1.7950001
0.70945245 0.03931905 1.7950001
0.71458101 0.035900004 1.7950001
0.70945245 0.042738099 1.7950001
0.71629059 0.044447623 1.7950001
0.72483814 0.046157148 1.7950001
0.72654766 0.056414291 1.7950001
0.72483814 0.06496191 1.7950001
0.7248382 0.073509537 1.7950001
