# .PCD v0.7 - Point Cloud Data file format
VERSION 0.7
FIELDS x y z
SIZE 4 4 4
TYPE F F F
COUNT 1 1 1
WIDTH 69
HEIGHT 1
VIEWPOINT 0 0 0 1 0 0 0
POINTS 69
DATA ascii
-0.02437143 -0.35690606 1.7060001
-0.016247619 -0.35907242 1.7060001
-0.062066667 -0.38546669 1.715
-0.011433334 -0.37403336 1.715
-0.0070777787 -0.37512225 1.715
-0.024500001 -0.36260003 1.715
-0.017966667 -0.36423334 1.715
-0.031033335 -0.35770002 1.715
-0.060715243 -0.38234192 1.723
-0.057433337 -0.38234192 1.723
-0.041023813 -0.38562381 1.723
-0.034460004 -0.38234195 1.723
-0.024614288 -0.38234195 1.723
-0.014768573 -0.38234195 1.723
-0.060715243 -0.37906003 1.723
-0.041023813 -0.37906003 1.723
-0.033366032 -0.37577814 1.723
-0.024614288 -0.37577811 1.7229998
-0.01570626 -0.37577814 1.7229999
-0.0038288895 -0.37523115 1.7229999
0.0016409525 -0.37577814 1.723
-0.041023813 -0.3659324 1.723
-0.034460004 -0.3659324 1.7229998
-0.025434762 -0.36839384 1.723
-0.014112191 -0.36790153 1.7229999
-0.0071107945 -0.36812037 1.723
-0.036647938 -0.35827464 1.723
-0.054434292 -0.39093718 1.7320001
-0.044537146 -0.39093718 1.7320001
-0.034640007 -0.39093718 1.7320001
-0.054984134 -0.38433909 1.7320002
-0.046186667 -0.38433909 1.7320002
-0.034640003 -0.38499889 1.7320002
-0.02474286 -0.38763815 1.7320001
-0.061857149 -0.37526667 1.7320001
-0.056083813 -0.37774098 1.7320001
-0.044537146 -0.37538454 1.7320004
-0.035464764 -0.37609145 1.7320001
-0.001649524 -0.37114289 1.7320001
0.0032990479 -0.37114289 1.7320001
-0.043712385 -0.36372003 1.7320001
-0.011546668 -0.36454478 1.7320001
-0.0040059867 -0.36454481 1.7320004
0.0027492065 -0.36674416 1.7320001
-0.051400956 -0.39628479 1.7410001
-0.045597624 -0.39545572 1.7410001
-0.06466572 -0.38467813 1.7410001
-0.051400956 -0.38633621 1.7410001
-0.072956197 -0.37970382 1.7410001
-0.065771118 -0.37528229 1.7410001
-0.054243408 -0.37544018 1.7410002
-0.048084766 -0.37307146 1.7410001
-0.062454924 -0.3686499 1.7410001
-0.054717146 -0.36809719 1.7410001
-0.048084766 -0.36643907 1.7410001
-0.083333343 -0.38333336 1.7500001
-0.075833336 -0.38416669 1.7500001
-0.068333335 -0.38333336 1.7500001
-0.081666671 -0.37666669 1.7500001
-0.075561315 -0.37613562 1.7533751
-0.06850905 -0.3742891 1.7545002
-0.055141434 -0.37094718 1.7545002
-0.071666673 -0.36833337 1.7500001
-0.06666667 -0.36833337 1.7500001
-0.05166667 -0.36500001 1.7500001
-0.072403811 -0.37548956 1.7680001
-0.055565719 -0.3687543 1.7680001
-0.068038099 -0.37250859 1.7860001
-0.069739051 -0.36910668 1.7860001
