# .PCD v0.7 - Point Cloud Data file format
VERSION 0.7
FIELDS x y z
SIZE 4 4 4
TYPE F F F
COUNT 1 1 1
WIDTH 944
HEIGHT 1
VIEWPOINT 0 0 0 1 0 0 0
POINTS 944
DATA ascii
-0.52319145 0.27190953 1.9690001
-0.51662815 0.27284715 1.9690001
-0.50818956 0.27190953 1.9690001
-0.52611434 0.26965719 1.9800003
-0.51555431 0.2681486 1.9800001
-0.50725716 0.26965716 1.9800001
-0.52862865 0.27594289 1.9800003
-0.51480001 0.27720004 1.9800003
-0.50537145 0.27342859 1.9800001
-0.52234292 0.28097144 1.9800001
-0.54120004 0.29228574 1.9800001
-0.53554291 0.29605716 1.9800003
-0.51857144 0.30737144 1.9800001
-0.51857144 0.31114289 1.9800001
-0.49136004 0.24852572 1.9920001
-0.48756576 0.24852572 1.9920001
-0.52550864 0.25990862 1.9920001
-0.51317716 0.25896001 1.9920001
-0.50464004 0.25801146 1.9920001
-0.49468002 0.25658861 1.9920003
-0.48756576 0.2561143 1.9920001
-0.56345147 0.26560003 1.9920001
-0.55662173 0.26597944 1.9920002
-0.54700959 0.26623243 1.9920001
-0.53436202 0.26623243 1.9920001
-0.52626747 0.26522061 1.9920002
-0.51336688 0.26522061 1.9920002
-0.50464004 0.26560003 1.9920001
-0.49515435 0.26560003 1.9920003
-0.4856686 0.26560003 1.9920001
-0.47713146 0.2665486 1.9920001
-0.43444574 0.26560003 1.9920001
-0.41357717 0.26749715 1.9920001
-0.40219432 0.26560003 1.9920001
-0.39650288 0.26560003 1.9920001
-0.56345147 0.27508575 1.9920001
-0.5558629 0.27508578 1.9920003
-0.54448009 0.27508575 1.9920003
-0.53689146 0.27508575 1.9920001
-0.51033145 0.27888003 1.9920001
-0.5042606 0.27508575 1.9920002
-0.49515432 0.27508575 1.9920003
-0.48566863 0.27508575 1.9920003
-0.47618288 0.27508575 1.9920003
-0.46425802 0.27616984 1.9920003
-0.45531434 0.27508575 1.9920001
-0.4420343 0.27508575 1.9920001
-0.43368688 0.273568 1.9920002
-0.42496002 0.27318859 1.9920001
-0.41547433 0.27508575 1.9920003
-0.40598857 0.27318859 1.9920001
-0.56345147 0.28457147 1.9920001
-0.55662173 0.28495091 1.9920002
-0.54448009 0.28457147 1.9920003
-0.53499436 0.28457147 1.9920001
-0.52550858 0.28495091 1.9920002
-0.51412576 0.28457147 1.9920003
-0.50464004 0.28457147 1.9920001
-0.49515432 0.28457147 1.9920003
-0.4856686 0.28457147 1.9920001
-0.47618288 0.28457147 1.9920003
-0.46353528 0.28393909 1.9920001
-0.41926861 0.28267431 1.9920001
-0.55206859 0.29026288 1.9920001
-0.54448009 0.29026288 1.9920001
-0.53404576 0.29310858 1.9920001
-0.52550864 0.29405716 1.9920003
-0.51412576 0.29405716 1.9920003
-0.50464004 0.29405719 1.9920003
-0.49468002 0.29358289 1.9920003
-0.4837715 0.29405719 1.9920001
-0.47618288 0.29405722 1.9920003
-0.46631774 0.29481602 1.9920002
-0.53309721 0.30354285 1.9920001
-0.52598292 0.3049657 1.9920003
-0.5141257 0.30544001 1.9920003
-0.50426066 0.30619889 1.9920002
-0.49515432 0.30354288 1.9920003
-0.48377147 0.30354285 1.9920001
-0.47681528 0.30417526 1.9920003
-0.46859431 0.30164573 1.9920001
-0.38322288 0.30923429 1.9920001
-0.37563431 0.30923429 1.9920001
-0.36804575 0.30923429 1.9920001
-0.51317716 0.31397718 1.9920001
-0.50464004 0.31492573 1.9920001
-0.38132575 0.31492573 1.9920001
-0.37563431 0.31492573 1.9920001
-0.36867809 0.31555814 1.9920001
-0.35856003 0.31682289 1.9920001
-0.38132575 0.3225143 1.9920001
-0.37563428 0.32441148 1.9920003
-0.36867815 0.3231467 1.9920001
-0.38132575 0.33389717 1.9920001
-0.37601373 0.33503547 1.9920002
-0.44582859 0.35666287 1.9920001
-0.36723268 0.35530785 1.9920003
-0.35856003 0.35856003 1.9920001
-0.44582859 0.36235431 1.9920001
-0.37373716 0.36614859 1.9920001
-0.36614862 0.36614859 1.9920003
-0.35856003 0.36614859 1.9920001
-0.36235431 0.37373716 1.9920001
-0.35856003 0.37563431 1.9920001
-0.50551909 0.22700669 2.003
-0.48262766 0.22700669 2.003
-0.47881243 0.22700669 2.003
-0.54367149 0.23845239 2.003
-0.53985626 0.23845239 2.003
-0.50424737 0.23718065 2.003
-0.49407336 0.23654477 2.0030003
-0.48415375 0.2354002 2.003
-0.47563303 0.23590891 2.0030003
-0.35481715 0.23845239 2.003
-0.54367149 0.24226764 2.003
-0.53604102 0.24417526 2.003
-0.52745664 0.24703667 2.003
-0.51314956 0.24799049 2.003
-0.50504214 0.24655978 2.003
-0.49461845 0.24499281 2.0030003
-0.48453528 0.24608287 2.0030003
-0.47881243 0.24608287 2.003
-0.4482905 0.24989811 2.003
-0.40441525 0.24989811 2.003
-0.55511725 0.2575286 2.003
-0.54748672 0.2575286 2.003
-0.53527796 0.25600252 2.003
-0.52459526 0.25562096 2.0030003
-0.51569307 0.25498509 2.003
-0.50551915 0.25371334 2.003
-0.48453528 0.25562096 2.003
-0.47576022 0.25600252 2.003
-0.45337749 0.25625688 2.003
-0.44447526 0.25562096 2.0030003
-0.43557307 0.25625688 2.003
-0.42921433 0.2575286 2.003
-0.41204575 0.2575286 2.003
-0.40441528 0.25562096 2.003
-0.39583096 0.25657478 2.003
-0.57419336 0.26706669 2.0030003
-0.5646553 0.26134384 2.003
-0.55511719 0.26229763 2.003
-0.54519761 0.26439604 2.003
-0.53858447 0.26261559 2.003
-0.48453528 0.26134384 2.003
-0.47445214 0.26406902 2.0030003
-0.46545911 0.26515907 2.0030003
-0.45592096 0.26515907 2.003
-0.44447529 0.26515907 2.003
-0.43398336 0.26420528 2.003
-0.42539909 0.26515907 2.003
-0.41340837 0.26406902 2.0030003
-0.40441525 0.26134384 2.003
-0.39378709 0.26461405 2.0030003
-0.3872467 0.26706669 2.003
-0.57419342 0.27469715 2.0030003
-0.47118193 0.27278954 2.003
-0.4673667 0.27278954 2.003
-0.45496717 0.27374333 2.003
-0.44542909 0.27374333 2.003
-0.41013813 0.27278954 2.003
-0.40377939 0.27533305 2.003
-0.39583096 0.27374333 2.003
-0.36435527 0.27660477 2.003
-0.57228577 0.28042001 2.003
-0.55511719 0.28423527 2.003
-0.47118193 0.28614289 2.003
-0.46355146 0.2880505 2.003
-0.45592102 0.28423527 2.003
-0.44447523 0.2842353 2.003
-0.43455568 0.28347224 2.003
-0.42648914 0.28478029 2.0030003
-0.41340837 0.28532535 2.0030003
-0.40441525 0.2842353 2.0030003
-0.37198573 0.2880505 2.003
-0.36435527 0.28709668 2.003
-0.55130196 0.29758859 2.003
-0.54748672 0.2994962 2.003
-0.50170386 0.2994962 2.003
-0.49025816 0.29568097 2.003
-0.47118193 0.29186574 2.003
-0.46355146 0.29568097 2.003
-0.45592096 0.29568097 2.003
-0.44447529 0.29568097 2.003
-0.43493721 0.295681 2.0030003
-0.42539907 0.29568097 2.003
-0.41395336 0.29568097 2.003
-0.40441525 0.29568097 2.0030003
-0.39640325 0.29720706 2.003
-0.38470322 0.29822445 2.003
-0.37452921 0.29695272 2.0030003
-0.36626288 0.29568097 2.003
-0.55257368 0.30585495 2.003
-0.54748672 0.30521905 2.003
-0.50933433 0.30331144 2.003
-0.49025813 0.30521905 2.003
-0.47308955 0.3071267 2.003
-0.46545911 0.30521905 2.003
-0.45592099 0.30483755 2.003
-0.44371223 0.30560061 2.003
-0.43302956 0.30521905 2.003
-0.42539907 0.30331144 2.003
-0.41395336 0.30331144 2.003
-0.40377939 0.30458319 2.003
-0.39487717 0.30521908 2.0030003
-0.38533908 0.30521905 2.003
-0.37580097 0.30521911 2.0030003
-0.36435527 0.30521911 2.0030003
-0.55320954 0.31094193 2.003
-0.54748672 0.31094193 2.003
-0.50170386 0.31475717 2.003
-0.49407333 0.3147572 2.003
-0.48453528 0.31475717 2.0030003
-0.47452027 0.31523407 2.003
-0.46545911 0.31475717 2.0030003
-0.4554441 0.31428027 2.003
-0.44447523 0.31475717 2.003
-0.43493718 0.31284955 2.003
-0.42921433 0.31475717 2.003
-0.40250763 0.31094193 2.003
-0.39360544 0.31348544 2.0030003
-0.3872467 0.31666479 2.003
-0.3637194 0.31412131 2.0030003
-0.4933103 0.32391372 2.003
-0.48453528 0.32429525 2.003
-0.47595096 0.32334143 2.003
-0.4673667 0.32429525 2.003
-0.45210573 0.32238764 2.003
-0.44447526 0.32429528 2.0030003
-0.43493718 0.32620287 2.003
-0.39106193 0.32429525 2.003
-0.3872467 0.32429525 2.003
-0.36562702 0.32365939 2.003
-0.49025813 0.3300181 2.003
-0.48644289 0.3300181 2.003
-0.46482322 0.33637688 2.003
-0.45515797 0.33612251 2.003
-0.44447526 0.33612251 2.003
-0.43455562 0.33459643 2.003
-0.42539907 0.3376486 2.003
-0.39296955 0.33478719 2.003
-0.3862929 0.33287954 2.003
-0.37198576 0.33383334 2.003
-0.36664444 0.33307031 2.003
-0.45701107 0.34582412 2.0030003
-0.44447526 0.34146386 2.003
-0.4368448 0.34146383 2.003
-0.41013813 0.3490943 2.003
-0.40441525 0.3490943 2.003
-0.39433211 0.34636915 2.0030003
-0.38533908 0.34527907 2.0030003
-0.37532404 0.34575599 2.003
-0.36562702 0.34655082 2.0030003
-0.46355146 0.35481715 2.003
-0.45592102 0.35481715 2.0030003
-0.44638288 0.35290954 2.003
-0.41013813 0.35481715 2.003
-0.40441528 0.35481718 2.003
-0.39487717 0.35481715 2.0030003
-0.38533908 0.35481715 2.003
-0.37770858 0.35481715 2.003
-0.36244765 0.35481715 2.003
-0.3567248 0.35481715 2.003
-0.44256765 0.3643553 2.0030003
-0.41013813 0.36054003 2.003
-0.40441525 0.36435527 2.0030003
-0.39487717 0.36435524 2.003
-0.38533908 0.36435527 2.0030003
-0.37809011 0.36359224 2.003
-0.35577095 0.36435527 2.003
-0.40505117 0.37452921 2.003
-0.39487714 0.375801 2.003
-0.38533911 0.37580097 2.0030003
-0.37627789 0.37627786 2.003
-0.36689878 0.37834448 2.003
-0.35672483 0.37580097 2.003
-0.40441525 0.3872467 2.003
-0.39487717 0.38533908 2.0030003
-0.3872467 0.3872467 2.003
-0.37580097 0.38343146 2.003
-0.36244765 0.38343146 2.003
-0.40441525 0.39106193 2.003
-0.39487717 0.39296955 2.003
-0.53157622 0.22452858 2.0150001
-0.50470954 0.22644763 2.0150001
-0.49511433 0.22836669 2.0150001
-0.48935717 0.22836669 2.0150001
-0.47304529 0.22740716 2.0150001
-0.46632859 0.22452858 2.0150001
-0.42027146 0.22836669 2.0150001
-0.39340478 0.22836669 2.0150001
-0.38956669 0.22836669 2.0150001
-0.55204606 0.23860161 2.0150001
-0.54500955 0.23412383 2.0150001
-0.53541428 0.23604287 2.0150001
-0.52390003 0.23796192 2.0150003
-0.51392096 0.23681049 2.0150001
-0.50470954 0.23316431 2.0150001
-0.49511433 0.23220478 2.0150001
-0.48935717 0.23220478 2.0150001
-0.47336507 0.2347635 2.0150003
-0.46440953 0.23988096 2.0150001
-0.42027146 0.23220478 2.0150001
-0.55268574 0.2456381 2.0150001
-0.54500955 0.24755716 2.0150001
-0.53733337 0.24755716 2.0150001
-0.52390003 0.24563812 2.0150003
-0.51430476 0.24371906 2.0150001
-0.47400481 0.24563812 2.0150003
-0.46376988 0.24499843 2.0150001
-0.45481429 0.24563812 2.0150003
-0.4452191 0.24755716 2.0150001
-0.43754289 0.24755716 2.0150001
-0.41643336 0.24755716 2.0150001
-0.40491909 0.24755716 2.0150001
-0.36270002 0.24755716 2.0150001
-0.35694289 0.24371906 2.0150001
-0.57379526 0.25907144 2.0150001
-0.56611913 0.25600097 2.0150001
-0.55460477 0.25331432 2.0150003
-0.54539341 0.25446573 2.0150001
-0.53541434 0.25139526 2.0150001
-0.521981 0.25139526 2.0150001
-0.47323713 0.25446573 2.0150001
-0.46402574 0.25600097 2.0150001
-0.45737308 0.25267464 2.0150001
-0.4452191 0.25139526 2.0150001
-0.43562382 0.25331429 2.0150001
-0.42283016 0.25651273 2.0150003
-0.4145143 0.25331432 2.0150001
-0.40108097 0.25139526 2.0150001
-0.39532381 0.25331432 2.0150001
-0.38764763 0.25907144 2.0150001
-0.36423525 0.25600097 2.0150001
-0.58147144 0.26290953 2.0150001
-0.57571435 0.26290953 2.0150001
-0.38496098 0.26444477 2.0150001
-0.37805241 0.26482856 2.0150001
-0.36461908 0.26482856 2.0150001
-0.39532381 0.27826193 2.0150001
-0.38524884 0.2749036 2.0150001
-0.37476265 0.27552044 2.0150003
-0.36423525 0.27365622 2.0150001
-0.35886192 0.27250481 2.0150001
-0.43946195 0.28977621 2.0150001
-0.40108097 0.28593811 2.0150001
-0.38508892 0.28529844 2.0150003
-0.37476262 0.28484154 2.0150003
-0.3639794 0.28337938 2.0150001
-0.39532381 0.29553333 2.0150001
-0.3857286 0.29514953 2.0150001
-0.37421432 0.2936143 2.0150001
-0.3639794 0.29489368 2.0150001
-0.55844289 0.30320954 2.0150001
-0.45481431 0.30704767 2.0150001
-0.43690321 0.30768734 2.0150001
-0.42410955 0.3089667 2.0150001
-0.41515398 0.30768734 2.0150001
-0.40875718 0.3089667 2.0150001
-0.37037623 0.30129048 2.0150001
-0.36461908 0.30129048 2.0150001
-0.43178573 0.31280479 2.0150001
-0.42410955 0.31472385 2.0150003
-0.4145143 0.31472385 2.0150001
-0.4058786 0.31568336 2.0150001
-0.47592384 0.32815716 2.0150001
-0.46402574 0.32508668 2.0150001
-0.45737302 0.3268778 2.0150001
-0.43507558 0.32322249 2.0150003
-0.42458928 0.32431906 2.0150001
-0.41387463 0.32176036 2.0150001
-0.40443933 0.32383931 2.0150001
-0.39724287 0.32431906 2.0150001
-0.48360005 0.33391428 2.0150001
-0.47400481 0.33473676 2.0150003
-0.46376988 0.3332746 2.0150001
-0.45481431 0.33199525 2.0150001
-0.44585881 0.3332746 2.0150001
-0.43370479 0.33487383 2.0150001
-0.42362976 0.33535358 2.0150001
-0.4145143 0.33583337 2.0150003
-0.40491909 0.33647305 2.0150003
-0.39724287 0.33583337 2.0150001
-0.47016668 0.34542859 2.0150001
-0.46632859 0.34542859 2.0150001
-0.45353496 0.34606832 2.0150001
-0.4452191 0.34734765 2.0150001
-0.43485624 0.34581241 2.0150001
-0.42410955 0.34542859 2.0150003
-0.4145143 0.34542862 2.0150001
-0.40568671 0.34504479 2.0150001
-0.39724287 0.34350955 2.0150001
-0.36653811 0.34350955 2.0150001
-0.46632859 0.35118574 2.0150001
-0.45097622 0.35118574 2.0150001
-0.44483528 0.35502386 2.0150001
-0.43562385 0.3531048 2.0150003
-0.42410952 0.35502383 2.0150001
-0.41643339 0.35502383 2.0150001
-0.42027146 0.36270002 2.0150001
-0.41515398 0.36525875 2.0150001
-0.42410955 0.37805241 2.0150001
-0.4145143 0.37421435 2.0150003
-0.40491909 0.37421432 2.0150001
-0.41259527 0.3857286 2.0150001
-0.40683812 0.38380957 2.0150001
-0.38496098 0.38726383 2.0150001
-0.3734467 0.38803145 2.0150001
-0.36461908 0.38956669 2.0150001
-0.35886192 0.38764763 2.0150001
-0.40108097 0.39532381 2.0150001
-0.39340478 0.39532381 2.0150001
-0.37037623 0.39340478 2.0150001
-0.3639794 0.39596352 2.0150001
-0.35886192 0.39724287 2.0150001
-0.39340478 0.40108097 2.0150001
-0.36270005 0.40491909 2.0150001
-0.35886192 0.40491909 2.0150001
-0.4729667 0.21042192 2.0270002
-0.46910575 0.21042192 2.0270002
-0.43242669 0.21621335 2.0270002
-0.42534828 0.21685684 2.0270002
-0.39960861 0.21428287 2.0270002
-0.55211622 0.22972669 2.0270002
-0.53474194 0.22972669 2.0270002
-0.51543719 0.22509353 2.0270002
-0.50771528 0.22200477 2.0270002
-0.47489718 0.22393525 2.0270002
-0.46717528 0.22683096 2.0270002
-0.43049622 0.22586572 2.0270002
-0.42509088 0.22509353 2.0270002
-0.41601765 0.22876143 2.0270002
-0.40475655 0.22843969 2.0270002
-0.39478242 0.22586572 2.0270002
-0.58493435 0.23744859 2.0270002
-0.55597717 0.23551811 2.0270002
-0.53088099 0.23358764 2.0270002
-0.52508956 0.23358764 2.0270002
-0.4678188 0.23616162 2.0270002
-0.43049622 0.23551811 2.0270002
-0.42534828 0.23616162 2.0270002
-0.41505241 0.23551813 2.0270004
-0.40475655 0.23487464 2.0270002
-0.39188668 0.23358764 2.0270002
-0.58493435 0.2451705 2.0270002
-0.57463849 0.24645749 2.0270002
-0.56562954 0.24710098 2.0270004
-0.4652448 0.24517049 2.0270002
-0.45559242 0.24130954 2.0270002
-0.44594002 0.24362612 2.0270002
-0.43435717 0.24452701 2.0270004
-0.42470479 0.2451705 2.0270004
-0.41505244 0.24406737 2.0270004
-0.40540004 0.24324001 2.0270002
-0.39729205 0.24671488 2.0270002
-0.36717662 0.24439831 2.0270002
-0.58107334 0.25482288 2.0270002
-0.57592547 0.25417942 2.0270002
-0.56949049 0.25482288 2.0270002
-0.4729667 0.2528924 2.0270002
-0.46910575 0.2528924 2.0270002
-0.4317832 0.25417942 2.0270002
-0.42663527 0.2528924 2.0270002
-0.39188668 0.25482288 2.0270002
-0.38493699 0.25520897 2.0270002
-0.37386891 0.2554664 2.0270002
-0.36872098 0.2528924 2.0270002
-0.58589959 0.26157954 2.0270002
-0.38223431 0.26061431 2.0270002
-0.3745124 0.26447526 2.0270004
-0.3745124 0.27219716 2.0270002
-0.39651984 0.28609657 2.0270002
-0.38802573 0.28764096 2.0270002
-0.39767814 0.29150191 2.0270002
-0.38802573 0.29150191 2.0270002
-0.42277431 0.32625049 2.0270002
-0.41891336 0.32625049 2.0270002
-0.41408718 0.33107668 2.0270002
-0.40733051 0.33397239 2.0270002
-0.44207907 0.36292955 2.0270002
-0.43371367 0.36486003 2.0270004
-0.42534828 0.367434 2.0270002
-0.4317832 0.37386891 2.0270002
-0.42470479 0.3745124 2.0270002
-0.43049622 0.38030383 2.0270002
-0.4243187 0.38493699 2.0270002
-0.41891336 0.38609526 2.0270002
-0.42277431 0.39188668 2.0270002
-0.41891336 0.39188668 2.0270002
-0.39188668 0.39767814 2.0270002
-0.38416478 0.39767814 2.0270004
-0.3751559 0.39832163 2.0270002
-0.39188668 0.40540004 2.0270002
-0.38416478 0.40540004 2.0270004
-0.3745124 0.40540004 2.0270002
-0.36872098 0.40540004 2.0270002
-0.39188668 0.41119146 2.0270002
-0.38416478 0.41119146 2.0270002
-0.3745124 0.41119146 2.0270002
-0.36872098 0.41119146 2.0270002
-0.44081241 0.20778382 2.039
-0.4738248 0.21943526 2.039
-0.44081244 0.21555147 2.039
-0.43498671 0.21166763 2.039
-0.4252772 0.21555144 2.039
-0.41556764 0.21943526 2.039
-0.4058581 0.21846431 2.039
-0.39614859 0.21749336 2.039
-0.56121051 0.22720288 2.039
-0.55732667 0.22720288 2.039
-0.52237242 0.22331907 2.039
-0.46605718 0.22526097 2.039
-0.44663811 0.22331907 2.039
-0.4369286 0.22526097 2.039
-0.42139336 0.22331907 2.039
-0.41556764 0.22526097 2.039
-0.40585813 0.22487259 2.039
-0.39809051 0.22331907 2.039
-0.58321881 0.23755971 2.039
-0.57480383 0.2388543 2.039
-0.56431764 0.23574726 2.039
-0.52237242 0.23302859 2.039
-0.46411523 0.23574726 2.039
-0.44372526 0.23594144 2.039
-0.4369286 0.2349705 2.039
-0.40456352 0.23755971 2.039
-0.39517763 0.23788336 2.039
-0.38643909 0.2388543 2.039
-0.37284574 0.2388543 2.039
-0.36702001 0.2388543 2.039
-0.58451343 0.24273811 2.039
-0.57480383 0.24273811 2.039
-0.56703627 0.24273811 2.039
-0.44858003 0.24273811 2.039
-0.43498671 0.24662192 2.039
-0.3942067 0.24468003 2.039
-0.38449717 0.24468002 2.039
-0.37672955 0.24468002 2.039
-0.6000486 0.25244766 2.039
-0.59383452 0.25361282 2.039
-0.5860669 0.25283605 2.039
-0.39032289 0.25050575 2.039
-0.38384986 0.25180036 2.039
-0.37737688 0.25180036 2.039
-0.44081241 0.36702001 2.039
-0.44236594 0.37401089 2.039
-0.4369286 0.37867147 2.039
-0.43563402 0.38514447 2.039
-0.43304479 0.3942067 2.039
-0.42916098 0.39614862 2.039
-0.37090382 0.39809051 2.039
-0.3631362 0.39809051 2.039
-0.43481204 0.20744403 2.0510004
-0.41215336 0.20510001 2.0510001
-0.40629339 0.20705335 2.0510001
-0.47466004 0.21682003 2.0510001
-0.4258267 0.21486668 2.0510001
-0.41508335 0.21584335 2.0510001
-0.4082467 0.21291335 2.0510001
-0.56842005 0.22854002 2.0510001
-0.53521335 0.22854002 2.0510001
-0.52935338 0.22854002 2.0510001
-0.47075337 0.22072668 2.0510001
-0.46391672 0.22463335 2.0510001
-0.4551267 0.22463335 2.0510001
-0.44470891 0.22723781 2.0510001
-0.39262003 0.22658668 2.0510001
-0.5814423 0.23505114 2.0510001
-0.57428002 0.23440002 2.0510001
-0.56842005 0.23244669 2.0510001
-0.53521335 0.23244669 2.0510001
-0.52935338 0.23244669 2.0510001
-0.46294004 0.23440002 2.0510001
-0.45512673 0.23440003 2.0510004
-0.4434067 0.23440002 2.0510001
-0.39262003 0.23440002 2.0510001
-0.4551267 0.24026003 2.0510001
-0.38285336 0.24026002 2.0510001
-0.59967339 0.25979334 2.0510001
-0.59967339 0.26370001 2.0510001
-0.42438859 0.21415906 2.0630002
-0.41652954 0.21219429 2.0630002
-0.40474099 0.21415906 2.0630002
-0.57567525 0.22987716 2.0630002
-0.46433875 0.22594765 2.0630002
-0.45778954 0.2279124 2.0630002
-0.39098763 0.22987716 2.0630002
-0.38705811 0.22987716 2.0630002
-0.39098763 0.23577145 2.0630002
-0.38574827 0.23511653 2.0630002
-0.42113146 0.20760001 2.0760002
-0.43299431 0.2115543 2.0760002
-0.42508575 0.21155432 2.0760002
-0.39345145 0.22737144 2.0760002
-0.38356572 0.2392343 2.0760002
-0.43350857 0.20880002 2.0880001
-0.4262172 0.20614859 2.0880001
-0.39174861 0.22868574 2.0880001
-0.3778286 0.22470859 2.0880003
-0.44421145 0.20609811 2.1010001
-0.43420669 0.20409715 2.1010001
-0.39018574 0.21810383 2.1010001
-0.38418287 0.21810383 2.1010001
-0.37818003 0.21810383 2.1010001
-0.39151973 0.22477365 2.1010003
-0.38618383 0.22410667 2.1010001
-0.39018574 0.2321105 2.1010001
-0.38618383 0.2321105 2.1010001
-0.43286669 0.19932002 2.1140001
-0.42884004 0.19932002 2.1140001
-0.44092003 0.20334668 2.1140001
-0.42884004 0.20334668 2.1140001
-0.44363147 0.20054573 2.1270001
-0.43958002 0.20054573 2.1270001
-0.49118099 0.15489525 2.1400001
-0.4871048 0.15489525 2.1400001
-0.49118099 0.16304763 2.1400001
-0.4871048 0.16100954 2.1400001
-0.4422667 0.19769526 2.1400001
-0.43819052 0.19769526 2.1400001
-0.45041907 0.20584764 2.1400001
-0.50236672 0.15788668 2.1530001
-0.49826574 0.15583619 2.1530001
-0.53107339 0.16608858 2.1530001
-0.52697241 0.16608858 2.1530001
-0.50373375 0.16335462 2.1530004
-0.4955318 0.16472161 2.1530004
-0.48391244 0.16403811 2.1530001
-0.47571051 0.16608858 2.1530001
-0.50236672 0.17018953 2.1530001
-0.49365214 0.17377786 2.1530001
-0.48432252 0.17347029 2.1530001
-0.47571051 0.17018953 2.1530001
-0.49211431 0.18454286 2.1530001
-0.4859629 0.18454286 2.1530001
-0.44495338 0.19616222 2.1530004
-0.51261908 0.20709811 2.1530001
-0.45315528 0.20299716 2.1530001
-0.51261908 0.21119906 2.1530001
-0.5138886 0.16510478 2.1670001
-0.50976098 0.16716859 2.1670001
-0.53452671 0.17129621 2.1670003
-0.5138886 0.17129621 2.1670001
-0.50700921 0.1767997 2.1670001
-0.48293146 0.17748763 2.1670001
-0.47674003 0.17542382 2.1670001
-0.51526451 0.18643081 2.1670003
-0.50563335 0.18574288 2.1670001
-0.48499528 0.18574287 2.1670001
-0.51595241 0.19399811 2.1670001
-0.50563335 0.19399813 2.1670001
-0.49531433 0.19399811 2.1670001
-0.4891229 0.19399811 2.1670001
-0.4519743 0.19606192 2.1670001
-0.53039908 0.20431715 2.1670003
-0.52523959 0.20328525 2.1670001
-0.51595241 0.20225334 2.1670001
-0.50614929 0.20380121 2.1670001
-0.49600229 0.20156541 2.1670003
-0.4891229 0.20018953 2.1670001
-0.45610192 0.20018953 2.1670001
-0.52551723 0.16824858 2.1810002
-0.55044287 0.17240287 2.181
-0.54421151 0.17448002 2.181
-0.53382576 0.17655715 2.181
-0.52447855 0.17344144 2.181
-0.51720858 0.17655715 2.181
-0.54213434 0.18071143 2.181
-0.53590286 0.18486571 2.181
-0.52468634 0.18569659 2.181
-0.51720858 0.18071143 2.181
-0.48397431 0.18486571 2.1810002
-0.47843528 0.18625049 2.1810002
-0.53590286 0.19525144 2.181
-0.52759433 0.19525144 2.181
-0.48605144 0.19525144 2.181
-0.46320289 0.19732858 2.181
-0.4548943 0.19455907 2.1810002
-0.44381624 0.19455907 2.1810002
-0.57121432 0.20356002 2.181
-0.56290573 0.20356002 2.181
-0.53798002 0.20356002 2.181
-0.52551717 0.20771429 2.181
-0.46320289 0.20148288 2.181
-0.56208193 0.16925144 2.194
-0.55581337 0.16925144 2.194
-0.56417143 0.17552 2.194
-0.55650991 0.17621653 2.194
-0.54536575 0.17760953 2.194
-0.53282863 0.17760953 2.194
-0.52864957 0.17760953 2.194
-0.47641146 0.17760953 2.194
-0.57252955 0.18596762 2.194
-0.56347495 0.18318158 2.194
-0.55581337 0.18387811 2.194
-0.54641056 0.18492286 2.194
-0.53422165 0.1845746 2.194
-0.52864957 0.18178858 2.194
-0.48268002 0.18596762 2.194
-0.47536668 0.18492286 2.194
-0.57252955 0.19432575 2.1940002
-0.56417149 0.19432575 2.1940002
-0.55581337 0.19432575 2.1940002
-0.54745531 0.19432575 2.1940002
-0.48268002 0.19641525 2.194
-0.47432193 0.19362924 2.1940002
-0.46387434 0.19223621 2.194
-0.45551622 0.19014668 2.194
-0.57044005 0.20477334 2.194
-0.56208193 0.20477334 2.194
-0.55581337 0.20477334 2.194
-0.54745531 0.20477334 2.194
-0.58249146 0.17664 2.2080002
-0.5761829 0.17664002 2.2080002
-0.56987435 0.17033143 2.2080002
-0.47314289 0.17874287 2.2080002
-0.58389342 0.18575239 2.2080002
-0.5761829 0.18294859 2.2080002
-0.56987435 0.18715429 2.2080002
-0.47524574 0.18294859 2.2080002
-0.46683431 0.18715429 2.2080002
-0.45632002 0.18715429 2.2080002
-0.59090292 0.19346288 2.2080002
-0.58459431 0.19556575 2.2080002
-0.47524574 0.19977145 2.2080002
-0.45211431 0.19136001 2.2080002
-0.44510481 0.19276193 2.2080002
-0.58459431 0.20397715 2.2080002
-0.47524574 0.20397715 2.2080002
-0.6245572 0.17995715 2.223
-0.61326575 0.17431144 2.223
-0.60592633 0.17656973 2.223
-0.59280008 0.17678145 2.223
-0.58433145 0.17148858 2.223
-0.57798004 0.17148858 2.223
-0.60762006 0.18419144 2.223
-0.5957641 0.18588515 2.223
-0.47212288 0.18419144 2.223
-0.46506572 0.18560287 2.223
-0.45730287 0.18630858 2.223
-0.60338575 0.19477716 2.223
-0.59915149 0.19477716 2.223
-0.6245572 0.20959716 2.223
-0.60338575 0.20112859 2.223
-0.59703434 0.20324573 2.223
-0.62244004 0.21594858 2.223
-0.62244004 0.22230001 2.223
-0.5922724 0.16830763 2.237
-0.6043452 0.17398891 2.237
-0.59866387 0.17682953 2.237
-0.63381672 0.18428619 2.237
-0.62707019 0.18677175 2.237
-0.61655986 0.18449925 2.237
-0.60718578 0.18748191 2.237
-0.59866387 0.18109049 2.237
-0.47296575 0.18109049 2.237
-0.46444383 0.18109049 2.237
-0.45521182 0.18677175 2.237
-0.44953051 0.18748191 2.237
-0.64553434 0.1981343 2.237
-0.63275146 0.19387335 2.237
-0.62849051 0.19600382 2.237
-0.61144668 0.19600382 2.237
-0.64553434 0.20452572 2.237
-0.63275146 0.20452572 2.237
-0.62849051 0.20452572 2.237
-0.61144668 0.20452572 2.237
-0.60718578 0.2066562 2.237
-0.67110002 0.21730858 2.237
-0.66683906 0.21730858 2.237
-0.64340389 0.21091716 2.237
-0.63381672 0.21411288 2.237
-0.62422955 0.21091716 2.237
-0.61144668 0.21304762 2.237
-0.60718578 0.21304762 2.237
-0.60267812 0.17372572 2.2520001
-0.65629721 0.18659429 2.2520001
-0.64557338 0.18552192 2.2520001
-0.62841529 0.18230477 2.2520001
-0.46112385 0.18230477 2.2520001
-0.45683432 0.18230477 2.2520001
-0.44825527 0.18659429 2.2520001
-0.71849531 0.19088382 2.2520001
-0.67388421 0.19517337 2.2520001
-0.66559118 0.19374351 2.2520003
-0.65629721 0.19517337 2.2520001
-0.64503717 0.19463718 2.2520001
-0.6369943 0.19946288 2.2520001
-0.62627053 0.19517335 2.2520001
-0.61983621 0.19517335 2.2520003
-0.44825527 0.19302858 2.2520001
-0.68632388 0.20804192 2.2520001
-0.67560005 0.20589715 2.2520001
-0.65558231 0.20518224 2.2520003
-0.64342862 0.20589715 2.2520001
-0.62627053 0.20589715 2.2520001
-0.61983621 0.20589715 2.2520001
-0.70562673 0.21233146 2.2520003
-0.69275814 0.2144762 2.2520001
-0.68632388 0.2144762 2.2520001
-0.67667246 0.21340384 2.2520001
-0.65415245 0.2144762 2.2520001
-0.64557338 0.21662097 2.2520003
-0.62412578 0.2144762 2.2520001
-0.61983621 0.2144762 2.2520001
-0.65415245 0.22091049 2.2520001
-0.64557338 0.22091049 2.2520003
-0.47370195 0.17588477 2.266
-0.46614859 0.17480573 2.266
-0.45751622 0.17912191 2.266
-0.71217149 0.1877543 2.266
-0.70353913 0.1877543 2.266
-0.69490671 0.1877543 2.266
-0.68627435 0.1877543 2.266
-0.67548388 0.18775432 2.2660003
-0.66685146 0.1877543 2.266
-0.45535812 0.18343811 2.266
-0.73159432 0.19638668 2.266
-0.72583938 0.19494796 2.2660003
-0.7143296 0.19422859 2.266
-0.70353913 0.19422859 2.266
-0.69490671 0.19422859 2.266
-0.68627441 0.19422859 2.266
-0.67332578 0.19638668 2.266
-0.66685146 0.19638668 2.266
-0.44528705 0.19494796 2.2660003
-0.73159432 0.20286097 2.266
-0.72512007 0.20501909 2.266
-0.71432954 0.20501906 2.266
-0.70353913 0.20501906 2.266
-0.69533831 0.20415583 2.266
-0.68584269 0.20415583 2.266
-0.67332578 0.20717716 2.266
-0.66577244 0.20609812 2.266
-0.44456765 0.20070288 2.266
-0.72512007 0.21365145 2.266
-0.71864575 0.21365145 2.266
-0.70138103 0.21365145 2.266
-0.67116767 0.21580954 2.266
-0.66469336 0.21580954 2.266
-0.46271718 0.17596287 2.2810001
-0.45402765 0.18465239 2.2810001
-0.44968289 0.18899715 2.2810001
-0.74425781 0.19507982 2.2810001
-0.44244164 0.19479017 2.2810001
-0.74512672 0.20420384 2.2810001
-0.74512672 0.21072099 2.2810001
-0.7364372 0.21072097 2.2810001
-0.45283717 0.18594763 2.2970002
-0.44846192 0.18594763 2.2970002
-0.75691622 0.19907334 2.2970002
-0.44627431 0.19032288 2.2970002
-0.4379614 0.19557317 2.2970002
-0.76566672 0.20782383 2.2970002
-0.75910383 0.2056362 2.2970002
-0.76566672 0.21219906 2.2970002
-0.75472867 0.21511589 2.2970004
-0.74379051 0.2165743 2.2970002
-0.44478479 0.18716192 2.312
-0.43597716 0.18716192 2.312
-0.43524322 0.19303367 2.312
-0.78167623 0.20918097 2.312
-0.77433658 0.20477717 2.312
-0.7684648 0.20257525 2.312
-0.78387815 0.2157867 2.312
-0.77580452 0.21652065 2.312
-0.76626289 0.21798858 2.312
-0.78387815 0.2223924 2.312
-0.77286863 0.2223924 2.312
-0.81250292 0.23560382 2.312
-0.80589718 0.23340192 2.312
-0.79488772 0.23340192 2.3120003
-0.78608006 0.23120001 2.312
-0.81250292 0.24000764 2.312
-0.80589718 0.24000764 2.312
-0.79488772 0.24220955 2.3120003
-0.78453147 0.20610572 2.3270001
-0.81334198 0.21940286 2.3270001
-0.80004483 0.21940286 2.3270001
-0.79561245 0.21718667 2.3270001
-0.82220674 0.22826764 2.3270001
-0.81555814 0.22605145 2.3270001
-0.80447721 0.22605148 2.3270001
-0.79413503 0.22679019 2.3270001
-0.78379273 0.22679019 2.3270001
-0.77566671 0.22605145 2.3270001
-0.76458585 0.22383527 2.3270001
-0.75572097 0.22383526 2.3270001
-0.82442296 0.23491621 2.3270001
-0.81777436 0.23270002 2.3270001
-0.79118007 0.2371324 2.3270001
-0.78527021 0.23417747 2.3270001
-0.79118007 0.24378097 2.3270001
-0.78674769 0.24378097 2.3270001
-0.82339722 0.21644859 2.3430002
-0.81447148 0.21644859 2.3430002
-0.80554575 0.21644859 2.3430002
-0.79662007 0.21198572 2.3430002
-0.8323229 0.22983716 2.3430002
-0.8263725 0.22239906 2.3430002
-0.81224006 0.22091144 2.3430002
-0.7787686 0.22983716 2.3430002
-0.78471917 0.23727524 2.3430002
-0.85148674 0.21343334 2.3590002
-0.82677341 0.21343334 2.3590002
-0.81554008 0.21343334 2.3590002
-0.85148674 0.22466668 2.3590002
-0.83800673 0.22466668 2.3590002
-0.84399784 0.23440224 2.3590002
-0.77959341 0.23140669 2.3590002
-0.84474671 0.24264002 2.3590002
-0.82141721 0.20592001 2.3760002
-0.81689149 0.20592001 2.3760002
-0.80557716 0.20592001 2.3760002
-0.86328006 0.21384001 2.3760002
-0.85611433 0.21497145 2.3760002
-0.84630865 0.2172343 2.3760002
-0.83952004 0.2172343 2.3760002
-0.8244344 0.21497145 2.3760002
-0.81689149 0.21270859 2.3760002
-0.80784005 0.21044573 2.3760002
-0.86214864 0.22628573 2.3760002
-0.8530972 0.22628573 2.3760002
-0.84857148 0.22628573 2.3760002
-0.8530972 0.23307431 2.3760002
-0.87251055 0.20730668 2.3920002
-0.86567622 0.20502858 2.3920002
-0.85732329 0.20426922 2.3920002
-0.84289527 0.20730668 2.3920002
-0.83378291 0.20730668 2.3920002
-0.87251055 0.21641906 2.3920002
-0.85656387 0.21186288 2.3920002
-0.84517336 0.21186289 2.3920002
-0.83378291 0.21186288 2.3920002
-0.81783623 0.21641906 2.3920002
-0.87251055 0.22325334 2.3920002
-0.85884196 0.22097525 2.3920002
-0.88330007 0.20648573 2.4090002
-0.87871146 0.20419145 2.4090002
-0.86035722 0.20878002 2.4090002
-0.85423917 0.20572099 2.4090002
-0.82364863 0.20648573 2.4090002
-0.81906003 0.20419145 2.4090002
-0.82364863 0.21336858 2.4090002
