# .PCD v0.7 - Point Cloud Data file format
VERSION 0.7
FIELDS x y z
SIZE 4 4 4
TYPE F F F
COUNT 1 1 1
WIDTH 103
HEIGHT 1
VIEWPOINT 0 0 0 1 0 0 0
POINTS 103
DATA ascii
0.74970007 0.57166672 1.715
0.7529667 0.57166672 1.715
0.75647908 0.55956477 1.723
0.7499153 0.56612861 1.723
0.75516629 0.56547225 1.7229999
0.76304293 0.56612861 1.723
0.7499153 0.57597435 1.723
0.75729954 0.57679486 1.723
0.76304293 0.57269239 1.723
0.75429118 0.58363211 1.723
0.76208001 0.5567143 1.7320001
0.77032769 0.5591886 1.7320001
0.75383246 0.56496197 1.7320001
0.76504916 0.56578678 1.7320002
0.77032775 0.56578672 1.7320001
0.75383252 0.57238477 1.7320001
0.76537907 0.57568383 1.7320001
0.77032769 0.57403433 1.7320001
0.75383246 0.58888006 1.7320001
0.7643894 0.58492118 1.7320002
0.75383246 0.59217906 1.7320001
0.76043051 0.59877717 1.7320001
0.76372957 0.60867435 1.7320001
0.77197719 0.60702479 1.7320001
0.76537907 0.6136229 1.7320001
0.77142733 0.61307305 1.7320001
0.74780101 0.55214578 1.7410001
0.75484788 0.55504739 1.7410001
0.76438195 0.55712003 1.7410001
0.77366734 0.55745167 1.7410001
0.75553882 0.56541049 1.7410001
0.764382 0.56209433 1.7410001
0.77764672 0.56872672 1.7410001
0.77764672 0.57701719 1.7410001
0.78096288 0.57867527 1.7410001
0.77543592 0.58420229 1.7410001
0.78096288 0.58530766 1.7410001
0.764382 0.59636164 1.7410001
0.77433056 0.59636164 1.7410001
0.78262103 0.59691429 1.7410001
0.76548743 0.60520482 1.7410001
0.77499384 0.6045416 1.7410001
0.78096288 0.6018886 1.7410001
0.77101433 0.61183721 1.7410001
0.73710477 0.54780287 1.7590001
0.74451888 0.54709792 1.7567501
0.75218195 0.54110193 1.7590001
0.73878002 0.55115336 1.7590001
0.74672163 0.55192614 1.7572001
0.75869977 0.5658204 1.756
0.78535193 0.56644857 1.7545002
0.75888288 0.57125622 1.7590001
0.78634572 0.57542163 1.7530001
0.79406291 0.57628191 1.7590001
0.77833337 0.58833337 1.7500001
0.78583336 0.58583337 1.7500001
0.79469341 0.58265817 1.7530001
0.80411434 0.58633339 1.7590001
0.77583337 0.59750003 1.7500001
0.78250003 0.59500003 1.7500001
0.79573804 0.59470958 1.7589999
0.80411434 0.59470958 1.7590001
0.77500004 0.60500002 1.7500002
0.79741335 0.60308576 1.7590001
0.80243909 0.60141051 1.7590001
0.73919243 0.54218674 1.7680001
0.74592769 0.54555428 1.7680001
0.75518864 0.54302859 1.7680001
0.7526629 0.55060577 1.7680001
0.79812574 0.56744385 1.7680001
0.75939816 0.57249528 1.7680001
0.79756451 0.57305658 1.7680001
0.80317718 0.57754672 1.7680001
0.80654478 0.58315939 1.7680001
0.74634004 0.53648478 1.7770001
0.7576226 0.53874129 1.7770002
0.76439214 0.53761303 1.7770002
0.7395705 0.54663908 1.7770001
0.74859661 0.54438257 1.7770002
0.75480199 0.54325432 1.7770001
0.7384423 0.55115211 1.7770002
0.74295527 0.55002385 1.7770001
0.79711145 0.56694764 1.7770001
0.80049622 0.56694764 1.7770001
0.82249725 0.56694764 1.7770001
0.80557334 0.57371718 1.7770001
0.81234288 0.57371718 1.7770001
0.82249725 0.57033241 1.7770001
0.76664865 0.58217907 1.7770001
0.81451887 0.58290446 1.7770002
0.75522292 0.53920192 1.7860001
0.76032579 0.53920192 1.7860001
0.76032579 0.54260385 1.7860001
0.80795246 0.56981909 1.7860001
0.81475627 0.56981909 1.7860001
0.81475627 0.57322097 1.7860001
0.81475627 0.58002484 1.7860001
0.76330239 0.53764522 1.7950001
0.77099526 0.53850001 1.7950001
0.80860484 0.56927145 1.7950001
0.81202388 0.56927145 1.7950001
0.76798862 0.53604573 1.8040001
0.77257025 0.53661847 1.8040003
