# .PCD v0.7 - Point Cloud Data file format
VERSION 0.7
FIELDS x y z rgb
SIZE 4 4 4 4
TYPE F F F F
COUNT 1 1 1 1
WIDTH 552
HEIGHT 1
VIEWPOINT 0 0 0 1 0 0 0
POINTS 552
DATA ascii
-0.19073239 -0.085864767 0.73900002 1.9643825e-38
-0.18862097 -0.085160956 0.73900002 1.6064752e-38
-0.1907324 -0.082345724 0.73900002 9.9334433e-39
-0.18763562 -0.08220496 0.73899996 1.011785e-38
-0.19073239 -0.079530485 0.73900002 1.1953447e-38
-0.18751498 -0.078927219 0.73900002 1.195345e-38
-0.20096381 -0.08632952 0.74300003 1.0313038e-38
-0.19730784 -0.08698573 0.74255562 1.8253001e-38
-0.19293411 -0.087839819 0.74260008 2.1761781e-38
-0.18736617 -0.08705207 0.74177784 2.1763216e-38
-0.18398097 -0.085621908 0.74300003 1.597184e-38
-0.20237908 -0.08279144 0.74300003 1.2791436e-38
-0.19764589 -0.082587145 0.74116671 1.1498915e-38
-0.19310477 -0.082457148 0.74000001 9.6517977e-39
-0.1853524 -0.083161905 0.74000001 9.4879719e-39
-0.1821755 -0.08261548 0.74141669 9.1970063e-39
-0.17775919 -0.082600832 0.74287504 1.0119988e-38
-0.17354357 -0.082614526 0.74300003 1.5119051e-38
-0.20218606 -0.078674383 0.74300003 1.4174423e-38
-0.19718295 -0.077740565 0.74208331 1.667662e-38
-0.19258574 -0.077290967 0.74116671 1.3337765e-38
-0.1871274 -0.0765431 0.74074996 1.3615485e-38
-0.1822886 -0.077719167 0.74187493 1.2877546e-38
-0.17753224 -0.077802867 0.74266666 1.1953453e-38
-0.17349534 -0.078031085 0.74300003 1.6864668e-38
-0.1920222 -0.07287477 0.74290007 1.2875796e-38
-0.18743494 -0.072851449 0.74266672 1.6126345e-38
-0.18252444 -0.072868109 0.74283338 1.5657382e-38
-0.1777893 -0.073061667 0.74300003 1.4359865e-38
-0.17478192 -0.074300006 0.74300003 1.4448413e-38
-0.19234288 -0.096171431 0.74800003 2.341769e-38
-0.18664382 -0.096171431 0.74800003 2.3417689e-38
-0.18118224 -0.096646354 0.74800003 2.2958154e-38
-0.17738287 -0.096171431 0.74800003 2.341769e-38
-0.17453334 -0.096171431 0.74800003 2.341769e-38
-0.2065905 -0.091897152 0.74800009 1.7158139e-38
-0.20245628 -0.092214033 0.74636376 2.2498975e-38
-0.19746268 -0.092340544 0.74581248 2.341769e-38
-0.19219744 -0.092967965 0.74618185 2.341769e-38
-0.18762414 -0.092320889 0.74680007 2.341769e-38
-0.18234012 -0.092239529 0.74730009 2.341769e-38
-0.17758657 -0.0923011 0.74714297 2.341769e-38
-0.17263953 -0.092012867 0.74700016 2.3234019e-38
-0.16835938 -0.090947315 0.74800003 1.9639495e-38
-0.20699641 -0.087493129 0.74688894 1.1402783e-38
-0.20278192 -0.08783906 0.74500006 1.308683e-38
-0.18518573 -0.087980956 0.74500006 2.341769e-38
-0.18229215 -0.087508343 0.74550009 2.1394798e-38
-0.1774613 -0.087310806 0.74533337 2.0749793e-38
-0.1724143 -0.08727143 0.745 1.5110804e-38
-0.16780184 -0.087457076 0.7465834 9.6586613e-39
-0.16408509 -0.086673021 0.74800003 1.1211889e-38
-0.21043734 -0.082208775 0.74800009 1.1958084e-38
-0.2068034 -0.082578622 0.7457273 1.2509085e-38
-0.17667145 -0.08443334 0.74500006 1.1257295e-38
-0.17127906 -0.082730487 0.74500006 1.1124453e-38
-0.16775513 -0.08245679 0.74637496 1.2139952e-38
-0.16384763 -0.0826362 0.74800009 1.2139229e-38
-0.21086478 -0.077649534 0.74800009 1.0949324e-38
-0.20690779 -0.077500694 0.7465716 1.2328681e-38
-0.2022143 -0.075919054 0.74500006 1.6764167e-38
-0.17091051 -0.076933652 0.74566674 1.7782585e-38
-0.16749132 -0.077698007 0.74710011 1.2967215e-38
-0.16456001 -0.079074293 0.74800003 1.2508035e-38
-0.21157716 -0.074800007 0.74800003 1.086073e-38
-0.20587811 -0.074800007 0.74800003 1.0938625e-38
-0.20244119 -0.07311736 0.74700004 1.3266172e-38
-0.19753177 -0.072374932 0.74553335 1.6502338e-38
-0.19228098 -0.070242867 0.74500006 1.0205029e-38
-0.1873143 -0.070242859 0.74500006 1.7149845e-38
-0.18234764 -0.070242867 0.74500006 1.7329886e-38
-0.17683949 -0.071121641 0.74571437 1.3172157e-38
-0.17218409 -0.072654173 0.7464667 1.4186331e-38
-0.16737191 -0.074071281 0.74783343 1.1314175e-38
-0.20017906 -0.069100954 0.74800003 1.2982341e-38
-0.19705299 -0.067819878 0.74762511 1.4657337e-38
-0.19256817 -0.067504026 0.74611121 1.2246235e-38
-0.18764953 -0.067524135 0.74633336 1.3274079e-38
-0.18252735 -0.067433059 0.74690008 1.3089338e-38
-0.17833169 -0.068164535 0.74750006 1.4199935e-38
-0.17453334 -0.069100954 0.74800003 1.2071801e-38
-0.19163048 -0.064826667 0.74800003 1.4197414e-38
-0.1873562 -0.064826667 0.74800003 1.2348152e-38
-0.18379429 -0.064826667 0.74800003 1.3087857e-38
-0.19076002 -0.10542001 0.75300002 2.1855049e-38
-0.18549335 -0.10528 0.75200003 2.3417689e-38
-0.18406096 -0.10528 0.75200003 2.3417689e-38
-0.21251336 -0.10159525 0.75300002 1.7158516e-38
-0.20725429 -0.10111715 0.75300002 2.1763216e-38
-0.2022343 -0.10111715 0.75300002 2.341769e-38
-0.19793144 -0.10111715 0.75300002 2.341769e-38
-0.19165644 -0.10237215 0.75300002 2.2406062e-38
-0.18718715 -0.10254373 0.75190002 2.1026014e-38
-0.18265846 -0.10207392 0.75212502 2.121148e-38
-0.17713431 -0.10111716 0.75300002 2.2866317e-38
-0.17426573 -0.10111715 0.75300002 2.341769e-38
-0.21578833 -0.097498342 0.75275004 1.2436751e-38
-0.21250097 -0.097700015 0.75271434 1.6044968e-38
-0.20729028 -0.097153015 0.75164288 2.185505e-38
-0.20238203 -0.097974397 0.75088888 2.341769e-38
-0.19778173 -0.0981059 0.75080007 2.341769e-38
-0.19287588 -0.098147847 0.75099999 2.341769e-38
-0.18712954 -0.097953431 0.75072736 2.2220596e-38
-0.18268982 -0.097932801 0.75057149 2.185469e-38
-0.17737904 -0.098703817 0.75099999 2.3234018e-38
-0.17242946 -0.097574912 0.75181818 2.341769e-38
-0.16818477 -0.09648148 0.75288898 2.3142183e-38
-0.21667193 -0.091972873 0.75250006 1.2331897e-38
-0.21252087 -0.092307515 0.75133336 1.1224855e-38
-0.20928572 -0.092142865 0.75000012 1.3828654e-38
-0.18285716 -0.093571432 0.75000006 2.341769e-38
-0.17142859 -0.093571432 0.75000006 2.341769e-38
-0.16711906 -0.092864767 0.75150001 1.7986445e-38
-0.16277371 -0.09219753 0.75159997 9.2844711e-39
-0.15944478 -0.091555253 0.75300002 1.0753457e-38
-0.21691017 -0.087337159 0.75166667 1.3811341e-38
-0.21247986 -0.087422177 0.75072736 1.2137777e-38
-0.16229907 -0.087682605 0.75072736 1.1216202e-38
-0.15909953 -0.087433338 0.75250006 1.2044167e-38
-0.21682762 -0.082541667 0.75199997 1.5483788e-38
-0.21334171 -0.082560003 0.75120008 1.250802e-38
-0.16164288 -0.082252391 0.75100011 1.2229982e-38
-0.15992287 -0.08247143 0.75300002 1.1955546e-38
-0.21600288 -0.079391435 0.75100005 1.6132384e-38
-0.21314192 -0.07724572 0.75100005 1.2704213e-38
-0.20899557 -0.075542867 0.75066674 1.0945339e-38
-0.16290052 -0.07708846 0.75086671 1.186735e-38
-0.15992287 -0.078168578 0.75300002 1.1411386e-38
-0.21092725 -0.072124958 0.75280005 1.0670184e-38
-0.20721228 -0.072249331 0.75111109 9.840086e-39
-0.20357144 -0.070714287 0.75000006 9.6589752e-39
-0.1707143 -0.070714287 0.75000006 1.1359574e-38
-0.16739181 -0.071535133 0.75112498 1.039041e-38
-0.16334592 -0.073441528 0.75160009 1.029968e-38
-0.20686978 -0.068239287 0.75225008 9.840795e-39
-0.2024938 -0.067019314 0.75081825 1.19671e-38
-0.19834715 -0.065400481 0.75050002 1.2898461e-38
-0.19500001 -0.065000005 0.75000006 1.1330756e-38
-0.18142858 -0.065000005 0.75000006 1.5213369e-38
-0.17669146 -0.06614963 0.75044447 1.5946258e-38
-0.17279227 -0.067826785 0.75144452 1.0118175e-38
-0.16940954 -0.069053978 0.75266671 1.2153623e-38
-0.20151716 -0.06334763 0.75300002 1.3272948e-38
-0.19722965 -0.06287656 0.75237501 1.0021309e-38
-0.19239971 -0.062224235 0.75100005 1.0588863e-38
-0.18730924 -0.062196832 0.75066674 1.4104157e-38
-0.18217136 -0.062106002 0.75129998 1.2808798e-38
-0.1780912 -0.062887147 0.7525 1.3460296e-38
-0.17426573 -0.063825719 0.75300002 1.2249085e-38
-0.19147716 -0.05952286 0.75300002 9.4670701e-39
-0.18705001 -0.058766194 0.75250006 1.2531072e-38
-0.18239199 -0.058885586 0.75271434 1.4559394e-38
-0.1956362 -0.11045144 0.75800002 2.203836e-38
-0.19200325 -0.1107644 0.75620002 2.1852894e-38
-0.18986097 -0.11045144 0.75800002 2.3234019e-38
-0.21296191 -0.10612001 0.75800008 1.8543943e-38
-0.20863049 -0.10612001 0.75800002 2.3325133e-38
-0.20141144 -0.10612001 0.75800002 2.341769e-38
-0.19749252 -0.10673878 0.75800002 2.3234019e-38
-0.19244656 -0.10769199 0.7560001 2.2958152e-38
-0.18986097 -0.10900763 0.75800002 2.341769e-38
-0.1820644 -0.10727506 0.75800002 2.2222389e-38
-0.17806986 -0.10660127 0.75800002 2.2774123e-38
-0.17253524 -0.10648096 0.75800002 2.341769e-38
-0.16820383 -0.10612001 0.75800008 2.341769e-38
-0.21182477 -0.10387461 0.75566673 1.8171219e-38
-0.20746313 -0.10337225 0.7560001 2.2866677e-38
-0.20273063 -0.1035777 0.7560001 2.341769e-38
-0.19711272 -0.10339484 0.75566673 2.3325496e-38
-0.19486192 -0.10138572 0.75500005 2.3325854e-38
-0.18132001 -0.10361191 0.75550008 2.2129476e-38
-0.17772239 -0.10361193 0.75550008 2.2406422e-38
-0.17250001 -0.10302953 0.75554556 2.341769e-38
-0.16750066 -0.10297748 0.75699997 2.341769e-38
-0.16329476 -0.1011143 0.75699997 2.1208605e-38
-0.1578909 -0.10178859 0.75800002 1.1588256e-38
-0.1704143 -0.099947624 0.75500005 2.341769e-38
-0.1672505 -0.09879715 0.75500005 2.341769e-38
-0.1625936 -0.097125165 0.75541675 1.5853011e-38
-0.1579919 -0.0977543 0.75749999 9.928372e-39
-0.21787144 -0.094195247 0.75500005 1.3162733e-38
-0.16034763 -0.094195247 0.75500005 8.3578065e-39
-0.1570621 -0.092455164 0.75681829 1.1398092e-38
-0.15376572 -0.091681913 0.75800002 1.1305879e-38
-0.15660425 -0.087626033 0.75622225 1.1585001e-38
-0.15339507 -0.086438864 0.75760001 1.0669837e-38
-0.15713009 -0.082707077 0.75625008 1.0849224e-38
-0.15304382 -0.084462866 0.75800002 1.0022308e-38
-0.16034763 -0.075500004 0.75500005 1.1141636e-38
-0.15847798 -0.077797264 0.75637501 1.0114533e-38
-0.16237316 -0.071748771 0.75640005 1.0861093e-38
-0.15912001 -0.074160002 0.75600004 1.1229112e-38
-0.21068096 -0.069747627 0.75500005 9.6593199e-39
-0.20789652 -0.065941595 0.75533342 9.9319131e-39
-0.17160992 -0.066025905 0.75520009 1.0118492e-38
-0.1673239 -0.067338392 0.75653857 1.0486897e-38
-0.16398668 -0.068507813 0.75720006 9.7428569e-39
-0.20547144 -0.063442864 0.75700003 9.1944251e-39
-0.20238692 -0.061939765 0.75625002 1.2711492e-38
-0.19845715 -0.06111905 0.75500005 1.1220177e-38
-0.17664604 -0.061598416 0.75500005 1.4573065e-38
-0.17268521 -0.062538363 0.75636369 9.7475849e-39
-0.16820382 -0.063424498 0.75800002 1.1040101e-38
-0.20141144 -0.059918098 0.75800002 1.3186886e-38
-0.19715825 -0.058786266 0.75671428 1.1878129e-38
-0.1925462 -0.057635956 0.75650001 1.0670616e-38
-0.18744764 -0.056233335 0.75699997 1.2070807e-38
-0.1821267 -0.056520414 0.7567144 1.2535067e-38
-0.17763542 -0.05800952 0.75666666 1.225166e-38
-0.17329417 -0.059070483 0.75771433 9.8390364e-39
-0.21000668 -0.11554001 0.76300001 2.3142172e-38
-0.1915978 -0.11602446 0.76300001 1.8725102e-38
-0.17512667 -0.11844668 0.76300001 2.0751584e-38
-0.1732181 -0.1181362 0.76100004 2.1854684e-38
-0.21104477 -0.11242573 0.76300007 2.2405704e-38
-0.20673668 -0.11154334 0.76300001 2.130403e-38
-0.20242645 -0.11237834 0.76250005 2.2406059e-38
-0.1979112 -0.11244597 0.76050013 2.2405704e-38
-0.19307987 -0.11347859 0.76216668 2.0653636e-38
-0.18176763 -0.11155734 0.76160002 2.222311e-38
-0.17741813 -0.11188559 0.76214296 2.2957792e-38
-0.17264447 -0.11147018 0.76166677 2.3141465e-38
-0.16789335 -0.11132476 0.7615 2.2128759e-38
-0.16307144 -0.11088859 0.76100004 2.0934184e-38
-0.21173255 -0.10816049 0.76050007 2.0932742e-38
-0.20746234 -0.10828096 0.76077783 2.2406421e-38
-0.20280637 -0.10804043 0.76022232 2.3325854e-38
-0.19760001 -0.10929525 0.76000011 2.3049988e-38
-0.1809524 -0.10929525 0.76000005 2.2222391e-38
-0.17713676 -0.10877372 0.7604 2.3234018e-38
-0.17226002 -0.10873648 0.76042867 2.341769e-38
-0.16708751 -0.10832287 0.76042867 2.3233299e-38
-0.16216913 -0.10759635 0.76114303 1.9824235e-38
-0.15851639 -0.10688744 0.76140004 1.361332e-38
-0.16256765 -0.10379429 0.76000005 1.9553422e-38
-0.1592381 -0.10205715 0.76000005 1.224368e-38
-0.15644525 -0.097054288 0.76050007 1.1219088e-38
-0.1543743 -0.097118102 0.76100004 1.085141e-38
-0.15572144 -0.094157621 0.76050007 1.1308413e-38
-0.15367316 -0.092262484 0.7604 1.121584e-38
-0.15344763 -0.089028575 0.76000005 1.1130081e-38
-0.15572144 -0.08111953 0.76050007 9.377998e-39
-0.15327512 -0.082388312 0.76171434 9.2937169e-39
-0.15661621 -0.077582546 0.76133341 9.2818885e-39
-0.21525431 -0.070301913 0.76100004 1.4101174e-38
-0.21380478 -0.070301913 0.76100004 1.187557e-38
-0.16058478 -0.07075429 0.76066673 1.2054259e-38
-0.15863417 -0.073047489 0.76157153 1.0479692e-38
-0.21544288 -0.067460649 0.76166672 1.5940085e-38
-0.21308832 -0.067295387 0.76214296 1.1046191e-38
-0.16206227 -0.067254886 0.76137501 1.0309358e-38
-0.21582001 -0.064673334 0.76300001 1.5950859e-38
-0.21109667 -0.062856667 0.76300001 1.0305369e-38
-0.20771493 -0.062096093 0.7611112 9.9341005e-39
-0.2041143 -0.060800005 0.76000005 1.1876677e-38
-0.17009525 -0.060076196 0.76000005 1.0011933e-38
-0.16715561 -0.061392508 0.76062506 1.0857509e-38
-0.16390723 -0.063135788 0.76200002 9.4677091e-39
-0.20234399 -0.05776735 0.76228577 1.2442126e-38
-0.19799429 -0.056342103 0.7604 1.2900576e-38
-0.19398096 -0.055733338 0.76000005 1.151479e-38
-0.17733334 -0.055733338 0.76000011 1.2987002e-38
-0.17215103 -0.05724436 0.76085728 9.5609641e-39
-0.1681124 -0.058458097 0.76250005 1.058311e-38
-0.20128667 -0.054500002 0.76300001 1.1240339e-38
-0.19756731 -0.053749528 0.7626667 1.3639948e-38
-0.19233535 -0.053259365 0.76144451 1.0947534e-38
-0.18744965 -0.052954573 0.76170009 1.0963776e-38
-0.18243104 -0.053764902 0.76142865 1.410815e-38
-0.17748423 -0.053836331 0.76242864 1.4844622e-38
-0.21055716 -0.12021429 0.76500005 1.5199387e-38
-0.20764288 -0.1202143 0.76500005 1.7617322e-38
-0.2028712 -0.12041072 0.76625007 2.1026737e-38
-0.19968002 -0.12068572 0.76800001 2.1213638e-38
-0.19260667 -0.12097286 0.76750004 2.2773044e-38
-0.18870857 -0.12068572 0.76800001 2.3137865e-38
-0.17702992 -0.12098648 0.76620001 2.2498973e-38
-0.17364287 -0.1207 0.76500005 2.2958148e-38
-0.21104288 -0.11730002 0.76500005 2.0104402e-38
-0.20764287 -0.11730001 0.76499999 2.0564324e-38
-0.20273995 -0.1174158 0.76575011 2.0749429e-38
-0.19752185 -0.1177963 0.76736373 2.1392996e-38
-0.19260097 -0.11809461 0.76700008 2.1121081e-38
-0.18870857 -0.11922286 0.76800001 2.2774117e-38
-0.1822108 -0.11668383 0.76733339 2.1763569e-38
-0.17751573 -0.11731001 0.76625001 2.1578459e-38
-0.17260167 -0.11719549 0.76550001 2.1944006e-38
-0.16975716 -0.11657144 0.76500005 2.0017257e-38
-0.21420002 -0.11365715 0.76500005 2.0197684e-38
-0.20793429 -0.11380287 0.76500005 2.0377779e-38
-0.20472859 -0.11438572 0.76500005 2.0193741e-38
-0.18627144 -0.11395429 0.76700002 2.222094e-38
-0.18347383 -0.11417095 0.76600003 2.2222028e-38
-0.17777145 -0.11438572 0.76500005 2.277448e-38
-0.17230715 -0.11402144 0.76500005 2.2406059e-38
-0.16778859 -0.11344048 0.76600003 2.0105864e-38
-0.16435716 -0.11322381 0.76700002 2.3140014e-38
-0.153 -0.080871433 0.76500005 9.3934655e-39
-0.1555583 -0.076830678 0.76540005 9.376947e-39
-0.15418074 -0.077454999 0.76725 9.5695807e-39
-0.15676597 -0.072087146 0.76650006 9.2833291e-39
-0.15433145 -0.073874287 0.76800001 9.19755e-39
-0.1610143 -0.066300005 0.76500005 1.1423592e-38
-0.15895668 -0.067706436 0.76650006 9.9294244e-39
-0.21335906 -0.06249477 0.76525003 1.1787693e-38
-0.16226658 -0.062522866 0.7663334 1.0771393e-38
-0.21402954 -0.059168573 0.76700002 1.3721976e-38
-0.20749743 -0.057839192 0.76600003 1.0482583e-38
-0.20400003 -0.056100003 0.76500005 1.0671717e-38
-0.17158541 -0.05622223 0.76666677 8.9109424e-39
-0.16706133 -0.057631243 0.76599997 1.132566e-38
-0.1640124 -0.058732387 0.7676667 8.8249055e-39
-0.20656168 -0.054473575 0.76775002 9.9326319e-39
-0.20239989 -0.052866537 0.76642865 1.0395814e-38
-0.19746873 -0.051009122 0.76671433 1.2720178e-38
-0.19234288 -0.050635722 0.76500005 1.2616027e-38
-0.18724287 -0.050635718 0.76500005 1.3273311e-38
-0.18272723 -0.050971027 0.7661429 1.1971101e-38
-0.17751358 -0.051446907 0.76625001 1.1518745e-38
-0.17316346 -0.053462505 0.76637506 9.3766247e-39
-0.19529144 -0.049005717 0.76800001 1.3835485e-38
-0.19228256 -0.048253022 0.76766676 1.4473621e-38
-0.18718453 -0.048258338 0.76775002 1.4006534e-38
-0.18176001 -0.048640002 0.76800001 1.2429922e-38
-0.17920001 -0.049005717 0.76800001 8.1961261e-39
-0.19697335 -0.12158667 0.77000004 2.2314945e-38
-0.19213334 -0.12246668 0.77000004 2.3325134e-38
-0.18993334 -0.12246668 0.77000004 2.3417683e-38
-0.18113334 -0.12173334 0.77000004 2.2682287e-38
-0.17917781 -0.12344446 0.7700001 2.2038364e-38
-0.19140001 -0.11586668 0.77000004 1.8997367e-38
-0.18793334 -0.11740001 0.77000004 2.0565399e-38
-0.15312763 -0.080244765 0.77300006 1.0874391e-38
-0.15253335 -0.077000007 0.7700001 1.0777543e-38
-0.15251152 -0.072552033 0.77090913 1.0217896e-38
-0.15698507 -0.067467719 0.77170002 9.3744555e-39
-0.15235826 -0.069186829 0.77283335 1.0221489e-38
-0.16122794 -0.061408263 0.77066672 1.1324203e-38
-0.158987 -0.063447945 0.77166671 9.0124861e-39
-0.21169744 -0.056989662 0.77142864 1.0488709e-38
-0.17086668 -0.055000003 0.77000004 9.1868455e-39
-0.16710056 -0.055700552 0.77100009 1.1232031e-38
-0.16353875 -0.058108263 0.77233338 1.0114928e-38
-0.21128668 -0.05374191 0.77300006 1.0952561e-38
-0.20708306 -0.052174099 0.77160001 9.7500539e-39
-0.20240001 -0.050600003 0.77000004 9.8371769e-39
-0.17526668 -0.050600003 0.77000004 1.029885e-38
-0.171812 -0.051532522 0.77142864 9.1907551e-39
-0.16861366 -0.05269143 0.77200001 1.003316e-38
-0.20198098 -0.048209798 0.77200001 9.4698419e-39
-0.19773895 -0.047551312 0.77112502 1.1048731e-38
-0.19286668 -0.046200003 0.7700001 1.3912925e-38
-0.18773335 -0.046200003 0.77000004 1.5489247e-38
-0.18289335 -0.046786673 0.77000004 1.3824726e-38
-0.17755793 -0.047611088 0.77127278 1.2898745e-38
-0.17313763 -0.048311591 0.77250004 1.0301769e-38
-0.19582668 -0.04417143 0.77300006 1.3541657e-38
-0.19242381 -0.044243407 0.77242863 1.2158352e-38
-0.18745048 -0.0437898 0.7718572 1.1984815e-38
-0.18236235 -0.043893974 0.77244455 1.3555339e-38
-0.1788943 -0.044907622 0.77300006 1.3743323e-38
-0.1557381 -0.066428572 0.77500004 8.9167046e-39
-0.15291652 -0.066485092 0.77566665 9.8588424e-39
-0.16016668 -0.061261907 0.77500004 9.5714066e-39
-0.15720508 -0.061820298 0.77776933 9.2865605e-39
-0.15250926 -0.062313925 0.77823097 9.944187e-39
-0.21534002 -0.059940003 0.77700001 1.16915e-38
-0.21478574 -0.056833338 0.77500004 9.6704097e-39
-0.16221327 -0.057477146 0.77645463 1.0864697e-38
-0.15728381 -0.05861048 0.77900004 9.7460869e-39
-0.15179373 -0.058016956 0.77900004 9.9380676e-39
-0.21561715 -0.053347621 0.778 1.1058373e-38
-0.21256289 -0.052337147 0.77766669 1.1048326e-38
-0.20915049 -0.051732384 0.77600002 9.6600163e-39
-0.16620643 -0.052320719 0.77649999 1.2983413e-38
-0.16396096 -0.053417146 0.77900004 9.4796538e-39
-0.21144287 -0.049707621 0.77900004 9.4803124e-39
-0.2075378 -0.048614606 0.77733344 9.7504155e-39
-0.20290542 -0.045554608 0.77566671 9.8390014e-39
-0.19854763 -0.045023814 0.77500004 9.742948e-39
-0.17714286 -0.045023814 0.77500004 1.2907074e-38
-0.17247811 -0.046594482 0.77660006 9.2804382e-39
-0.16815145 -0.048148762 0.77780002 1.1046266e-38
-0.20550764 -0.043772385 0.77900004 1.0300697e-38
-0.20203601 -0.043133907 0.77820003 1.0019093e-38
-0.19747122 -0.04186064 0.77722228 1.2160168e-38
-0.19231653 -0.041420639 0.77666676 1.4012249e-38
-0.18738508 -0.041420639 0.77666676 1.3076358e-38
-0.18268667 -0.04126953 0.77660006 1.0949421e-38
-0.17763606 -0.042187463 0.77716678 1.1041925e-38
-0.17312288 -0.043373335 0.77850002 9.4687937e-39
-0.19066954 -0.039320953 0.77900004 1.4292905e-38
-0.18918572 -0.039320953 0.77900004 1.3830496e-38
-0.18399239 -0.039320953 0.77900004 1.3275369e-38
-0.16066192 -0.055785719 0.78100002 1.1495283e-38
-0.15759577 -0.057162754 0.7817778 9.3776617e-39
-0.15324287 -0.056300007 0.78299999 9.3848812e-39
-0.2169143 -0.051257145 0.78000003 1.3375157e-38
-0.21468572 -0.051257145 0.78000003 1.317816e-38
-0.16199481 -0.05250771 0.78254557 9.6546774e-39
-0.15904 -0.053760003 0.78400004 8.6408323e-39
-0.21641272 -0.048946034 0.78266668 1.3830031e-38
-0.21254118 -0.047771648 0.78244448 1.0677779e-38
-0.20860445 -0.045888256 0.78133339 1.0025577e-38
-0.16665743 -0.04647674 0.78171438 1.3550981e-38
-0.16384667 -0.049153335 0.78200001 1.0666293e-38
-0.21205334 -0.044053335 0.78400004 1.0489436e-38
-0.20801744 -0.042497419 0.78285718 1.0392884e-38
-0.20317145 -0.041228574 0.78000003 1.0205641e-38
-0.17200524 -0.041838571 0.78100008 9.4684448e-39
-0.16863659 -0.042792004 0.78280002 1.1132666e-38
-0.20533335 -0.039573334 0.78400004 1.0300349e-38
-0.20196645 -0.03766929 0.78325003 1.0020907e-38
-0.19751342 -0.0373918 0.78169233 1.1140977e-38
-0.19272715 -0.03685445 0.78183341 1.4105994e-38
-0.1876176 -0.037085425 0.78246164 1.558181e-38
-0.1825434 -0.037075676 0.78290915 1.1874889e-38
-0.17815168 -0.037907884 0.78327274 1.345589e-38
-0.17322668 -0.039573334 0.78400004 9.1886055e-39
-0.16094287 -0.050154287 0.78600001 9.2808474e-39
-0.15771973 -0.052471716 0.78710014 9.1007343e-39
-0.15331315 -0.054100957 0.78680009 9.7557979e-39
-0.2168362 -0.046660956 0.78600001 1.3552353e-38
-0.21484001 -0.046411432 0.78600001 1.1790558e-38
-0.1654343 -0.045662861 0.78600001 1.5755345e-38
-0.1622835 -0.047091957 0.78766668 9.4648505e-39
-0.15985143 -0.048780955 0.78800005 9.1918719e-39
-0.21708572 -0.044165716 0.78600001 1.4199163e-38
-0.21284382 -0.042419046 0.78600001 1.1229493e-38
-0.16699891 -0.042750001 0.78750008 1.4761754e-38
-0.16456287 -0.044334289 0.78900003 1.2981563e-38
-0.21238479 -0.039775245 0.78800005 1.0956131e-38
-0.20769404 -0.038238782 0.78728586 1.011776e-38
-0.2040343 -0.035711747 0.78666675 1.0115616e-38
-0.1769021 -0.036099054 0.78640002 1.3541942e-38
-0.17243233 -0.037324328 0.78746158 9.5559517e-39
-0.16857049 -0.039324764 0.78900003 1.0967028e-38
-0.20157753 -0.032569528 0.78800005 1.1964205e-38
-0.19754945 -0.032398 0.78750002 1.1507208e-38
-0.19242516 -0.032094289 0.78740007 1.3636723e-38
-0.18765716 -0.03223281 0.78711116 1.2071605e-38
-0.18269925 -0.032367967 0.78709102 1.2339516e-38
-0.17792626 -0.032925174 0.78828579 1.3274449e-38
-0.17358001 -0.033814289 0.78900003 9.5555775e-39
-0.19236574 -0.029305717 0.78900003 1.4847475e-38
-0.18710575 -0.029305717 0.78900003 1.7244899e-38
-0.18410002 -0.029305717 0.78900003 1.7220803e-38
-0.16086572 -0.046069525 0.79300004 9.3773156e-39
-0.15895334 -0.048966669 0.79100001 9.1918677e-39
-0.21620668 -0.041433334 0.79100001 1.2348803e-38
-0.21470001 -0.041433334 0.79100001 1.0867553e-38
-0.16576034 -0.040999684 0.79233336 1.5214794e-38
-0.16372059 -0.043306481 0.79220003 1.0025234e-38
-0.21297716 -0.038517144 0.79300004 1.0859613e-38
-0.20716669 -0.035406668 0.79100001 9.9308649e-39
-0.17100668 -0.035406668 0.79100001 9.459426e-39
-0.1677254 -0.037467837 0.79211116 1.4015577e-38
-0.20592001 -0.03318762 0.79200006 1.0026649e-38
-0.20382319 -0.031414926 0.79166669 1.2713629e-38
-0.17691031 -0.031520575 0.79180002 1.1126915e-38
-0.17273144 -0.032684766 0.79200006 9.648848e-39
-0.16992858 -0.033985715 0.79300004 8.9124979e-39
-0.20152143 -0.028680477 0.79250002 1.4188831e-38
-0.19705644 -0.028473096 0.792 1.3266853e-38
-0.19209294 -0.027471431 0.79185718 1.5028281e-38
-0.1872845 -0.027031431 0.7915715 1.1979066e-38
-0.1822596 -0.028071219 0.79188895 1.0857586e-38
-0.17785859 -0.029076668 0.79300004 1.2058561e-38
-0.18729906 -0.024922859 0.79300004 1.3908603e-38
-0.15864097 -0.050856195 0.79700005 9.3751646e-39
-0.16036001 -0.046360005 0.79800004 9.1918481e-39
-0.15975715 -0.047700003 0.79500002 9.1000224e-39
-0.21784668 -0.040229525 0.79700005 1.235313e-38
-0.16241036 -0.042498935 0.796875 9.9272285e-39
-0.22116002 -0.037240006 0.79800004 1.3183249e-38
-0.2178245 -0.037660412 0.79771435 1.2258752e-38
-0.21213181 -0.036291052 0.79720002 1.0212823e-38
-0.16645811 -0.036120322 0.79566669 1.6785406e-38
-0.16492002 -0.037240006 0.79800004 1.5014564e-38
-0.21052001 -0.034200002 0.79800004 9.7529322e-39
-0.20829311 -0.03224786 0.79675007 9.9286887e-39
-0.17170811 -0.031460479 0.796 9.2873102e-39
-0.16796513 -0.032832976 0.79712498 1.5680154e-38
-0.16492002 -0.034200002 0.79800004 1.6876803e-38
-0.20612256 -0.029084448 0.79666674 1.1230276e-38
-0.20276745 -0.026579618 0.79740006 1.3364458e-38
-0.19773382 -0.025537618 0.79649997 1.3076715e-38
-0.18095715 -0.026500002 0.79500002 9.9226967e-39
-0.17740962 -0.026427446 0.79700005 1.1135151e-38
-0.17323227 -0.028744901 0.79728574 9.4662896e-39
-0.16948001 -0.029640002 0.79800004 1.3659758e-38
-0.19608001 -0.023560002 0.79800004 1.1700999e-38
-0.19171895 -0.023949662 0.79657149 1.3642458e-38
-0.18730207 -0.023099596 0.79714286 1.576509e-38
-0.18268286 -0.023900954 0.79674995 1.177907e-38
-0.15651461 -0.05191651 0.80166674 9.5653166e-39
-0.15371716 -0.052002862 0.80300003 1.0780766e-38
-0.1600343 -0.046708573 0.80400002 8.9163542e-39
-0.158112 -0.048014101 0.80280012 9.1936656e-39
-0.16124335 -0.041549049 0.80049998 9.0982007e-39
-0.1596362 -0.042009525 0.80200005 8.8252236e-39
-0.21765953 -0.036212862 0.80049998 1.2075778e-38
-0.16282977 -0.037605479 0.80175006 9.5581237e-39
-0.21744733 -0.033393972 0.80299997 1.2076473e-38
-0.21289524 -0.032590955 0.80050004 1.0580852e-38
-0.16584128 -0.031746037 0.80000007 1.7614411e-38
-0.16345398 -0.032843813 0.80200005 1.0858964e-38
-0.21179657 -0.028637717 0.80400002 1.0943873e-38
-0.2076689 -0.026974924 0.80166674 1.0567609e-38
-0.20342858 -0.02514286 0.80000001 1.2249944e-38
-0.17202288 -0.026127623 0.80100012 1.1513309e-38
-0.16775222 -0.027830133 0.80163646 1.7614808e-38
-0.1639816 -0.029327622 0.8033334 1.3174284e-38
-0.20190258 -0.022359733 0.80171436 1.2244456e-38
-0.19762208 -0.02166721 0.80028576 1.465446e-38
-0.19266668 -0.021096509 0.80066675 1.3262516e-38
-0.18713336 -0.020622861 0.80200005 8.8289146e-39
-0.18254922 -0.021385398 0.80200005 8.9242547e-39
-0.17784636 -0.022324232 0.80222219 1.2158335e-38
-0.17283431 -0.023707621 0.80299997 1.1784553e-38
-0.20088191 -0.01909524 0.80200005 1.1120734e-38
-0.19730765 -0.018353336 0.80299997 1.1693092e-38
-0.1927181 -0.01911905 0.80299997 1.4471854e-38
-0.18760002 -0.019142859 0.80400008 1.3240815e-38
-0.18377143 -0.019142859 0.80400002 1.2498252e-38
-0.15659545 -0.046563435 0.80680001 9.3823799e-39
-0.15390731 -0.048142225 0.80666673 1.0222219e-38
-0.15832478 -0.042271432 0.80700004 9.0085569e-39
-0.16139907 -0.03766191 0.80700004 8.5468514e-39
-0.21877144 -0.031472381 0.80600005 1.2910942e-38
-0.16216859 -0.03304667 0.80700004 9.2789907e-39
-0.21731383 -0.028628098 0.8070001 1.3460179e-38
-0.21314783 -0.026584763 0.80680007 1.2065694e-38
-0.20956001 -0.02533143 0.80600005 1.1032458e-38
-0.16633588 -0.026398098 0.80733341 1.6966908e-38
-0.16390859 -0.028472383 0.80800003 1.1117598e-38
-0.20687382 -0.022686191 0.80750006 1.0570831e-38
-0.2049543 -0.022260955 0.80600005 1.121722e-38
-0.17655239 -0.020725716 0.80600005 1.0125109e-38
-0.17251948 -0.021632928 0.80714297 1.5117991e-38
-0.16838542 -0.023835558 0.80733341 1.7798489e-38
-0.17468192 -0.019238096 0.80800003 1.2437862e-38
-0.15595683 -0.042462226 0.81066668 9.3769919e-39
-0.16053945 -0.037547436 0.81119996 9.192204e-39
-0.15732995 -0.037975874 0.8137778 9.1929313e-39
-0.1617388 -0.033055786 0.81257147 9.6499172e-39
-0.15737335 -0.034885716 0.81400001 9.4695126e-39
-0.21600002 -0.025457144 0.81000006 1.2815582e-38
-0.1656962 -0.025551431 0.81300002 1.3637795e-38
-0.16414763 -0.027875241 0.81300002 1.1034324e-38
-0.16132033 -0.030813653 0.81566668 9.3758722e-39
-0.15769556 -0.031848572 0.81566674 9.4702469e-39
