# .PCD v0.7 - Point Cloud Data file format
VERSION 0.7
FIELDS x y z
SIZE 4 4 4
TYPE F F F
COUNT 1 1 1
WIDTH 634
HEIGHT 1
VIEWPOINT 0 0 0 1 0 0 0
POINTS 634
DATA ascii
0.01728381 -0.096390486 0.69800001
0.022589883 -0.097003467 0.69762498
0.027920002 -0.096722864 0.69800001
0.031243812 -0.095725723 0.69800001
0.017499262 -0.09325821 0.69777781
0.022566848 -0.09292423 0.69693756
0.027760763 -0.092844218 0.69733346
0.031243812 -0.093066677 0.69800001
0.024153017 -0.089299694 0.69800007
0.026922859 -0.089410484 0.69800001
0.024807621 -0.10593525 0.70400006
0.02681905 -0.10526477 0.70400006
0.031512387 -0.10526477 0.70400012
0.0046933335 -0.10124191 0.70400006
0.0073752394 -0.10124191 0.70400012
0.012739049 -0.10124191 0.70400012
0.017638098 -0.10114604 0.70333338
0.023037527 -0.10219925 0.70320004
0.027437463 -0.10239048 0.7026667
0.032130003 -0.10241445 0.70283335
0.037513692 -0.10182227 0.70337504
0.041346036 -0.10168889 0.70400012
0.0042463494 -0.097442552 0.70400012
0.007366905 -0.097786598 0.70325005
0.012161718 -0.097433731 0.70166671
0.016951619 -0.099180199 0.70080006
0.022683335 -0.09940429 0.70050001
0.027333334 -0.099333338 0.70000005
0.032463737 -0.097836755 0.70041656
0.037421074 -0.097560354 0.70162511
0.041532975 -0.097802989 0.70337504
0.0046933335 -0.093866676 0.70400006
0.0076305717 -0.092647918 0.70290005
0.012015298 -0.09212257 0.70093757
0.017333334 -0.091333337 0.70000005
0.032961715 -0.091811255 0.70060009
0.037420835 -0.092212275 0.70162511
0.042086061 -0.092514634 0.70345461
0.0082650799 -0.088684134 0.70366669
0.012176001 -0.087112635 0.70253342
0.017346967 -0.088069953 0.70056248
0.022319637 -0.08768858 0.70038468
0.027510002 -0.087197386 0.70025003
0.032113779 -0.087336913 0.7014668
0.037503757 -0.087060913 0.70318753
0.041412193 -0.088050298 0.70360005
0.01362635 -0.083322868 0.70366669
0.017383158 -0.082908273 0.70206261
0.022731425 -0.082900949 0.70200008
0.027398733 -0.082861908 0.70166677
0.03176403 -0.082829095 0.70269233
0.035535239 -0.083809532 0.70400006
0.01944381 -0.079786673 0.70400006
0.022796191 -0.079116188 0.70400006
0.027470004 -0.079059534 0.70350003
0.031177144 -0.079451434 0.70400006
0.017531428 -0.11125715 0.708
0.022925718 -0.11125715 0.708
0.026297145 -0.11125715 0.708
0.032365717 -0.11125715 0.708
0.035737146 -0.11125715 0.708
0.043828573 -0.11125715 0.708
0.045177147 -0.11125715 0.708
0.0042682546 -0.10626255 0.70766664
0.0076035382 -0.10674043 0.70742857
0.012128692 -0.10781036 0.70749998
0.017519942 -0.10781935 0.70756251
0.02259456 -0.107883 0.70671427
0.027709717 -0.10801657 0.70619994
0.032458026 -0.10814243 0.70661533
0.037593715 -0.10766077 0.70740002
0.042558793 -0.10759187 0.70727271
0.046496365 -0.10738763 0.70754546
-0.00067428575 -0.10114286 0.708
0.0024012246 -0.1024773 0.70657146
0.0073933336 -0.10349842 0.70566672
0.011696572 -0.10298096 0.7058
0.017407196 -0.10332382 0.70599997
0.021485716 -0.10407144 0.70500004
0.037600003 -0.10407144 0.70500004
0.042910893 -0.10281239 0.70557147
0.047171734 -0.10242815 0.70756251
0.05057143 -0.10046858 0.708
-0.00094380957 -0.097473718 0.70780003
0.0016330614 -0.097746819 0.70642859
0.044314291 -0.097357154 0.70500004
0.047969144 -0.097418867 0.70740002
0.05057143 -0.097097144 0.708
-0.00067428581 -0.092377149 0.70800006
0.0024011568 -0.092642523 0.70635712
0.0060428577 -0.091314286 0.70500004
0.044717144 -0.09252286 0.70500004
0.047358204 -0.092994191 0.70700002
0.05057143 -0.093725719 0.708
0.0028286988 -0.087725341 0.70746672
0.0071004243 -0.08692646 0.7063334
0.010071429 -0.085271433 0.70500004
0.04317024 -0.087010965 0.70550001
0.046316788 -0.087916791 0.70737505
0.0043828571 -0.082937151 0.708
0.0075336806 -0.082382515 0.7074545
0.011747695 -0.08172074 0.70646149
0.034291431 -0.080684766 0.70600003
0.037813779 -0.081948139 0.70646673
0.041990798 -0.083307624 0.70733333
0.045177147 -0.084285721 0.708
0.0087657152 -0.078891434 0.708
0.012637858 -0.078020953 0.70775002
0.017356953 -0.077903621 0.70640004
0.022865357 -0.076663934 0.70612502
0.027587146 -0.076704293 0.70650005
0.032240003 -0.077569529 0.70688885
0.036748573 -0.078554288 0.708
0.017980956 -0.074396193 0.70800006
0.022521146 -0.074576013 0.708
0.027645716 -0.074845716 0.708
0.023120001 -0.12036001 0.71400005
0.026908573 -0.12094287 0.71400011
-0.0047600004 -0.11628 0.71400005
0.0088400003 -0.11628 0.71400005
0.01253143 -0.11686287 0.71400011
0.018007621 -0.11704859 0.71350002
0.022411641 -0.11749461 0.71311116
0.027178017 -0.11754453 0.71341676
0.032398418 -0.11713239 0.71366674
0.037128001 -0.11682401 0.71400005
0.042160004 -0.11628 0.71400005
0.048280004 -0.11730001 0.71400011
-0.0061200005 -0.11152001 0.71400005
-0.0030977782 -0.11220001 0.71400011
0.0029027711 -0.11197705 0.71336377
0.0075858021 -0.11243896 0.71236372
0.012208255 -0.11327001 0.71216673
0.017619429 -0.11345067 0.71160007
0.022366669 -0.11386668 0.7116667
0.027372003 -0.11341888 0.71139997
0.032548573 -0.11392097 0.71200001
0.037929524 -0.11284592 0.71120006
0.041991174 -0.11327291 0.71218199
0.047846373 -0.11296858 0.71223086
0.051920362 -0.11198489 0.71262503
0.055507623 -0.11124097 0.7136668
-0.0016504765 -0.10762437 0.71328574
0.0021817992 -0.10798476 0.71111113
0.0067619053 -0.10886668 0.71000004
0.048911117 -0.10841589 0.71000004
0.052401628 -0.10765249 0.71270007
0.055740476 -0.10740311 0.71375006
-0.0021850795 -0.10306466 0.7114445
0.052731212 -0.10270309 0.71053851
0.05625556 -0.10234573 0.7116667
-0.0061200005 -0.095880009 0.71400005
-0.0035153253 -0.097436376 0.71181822
0.053309962 -0.097580433 0.71018189
0.055962861 -0.097154103 0.71140003
-0.006113572 -0.092382148 0.71325004
-0.0033892859 -0.092167228 0.71158338
0.049361907 -0.091961905 0.71000004
0.052310832 -0.091987371 0.71163642
0.055740476 -0.092446908 0.71375006
-0.0021596539 -0.087820791 0.71181822
0.00067619054 -0.085876197 0.71000004
0.048789769 -0.087072149 0.71150005
0.051644288 -0.088338107 0.71350002
-0.0012230477 -0.083840959 0.71340007
0.0022778357 -0.082569264 0.71118194
0.0060857148 -0.080466673 0.71000004
0.043102067 -0.081463024 0.71083343
0.046651434 -0.083311021 0.71285719
0.003732143 -0.079081193 0.71275002
0.0074604773 -0.077310584 0.71210003
0.011685358 -0.076048695 0.71137512
0.027723812 -0.075057149 0.71000004
0.032916039 -0.075525559 0.71016669
0.037961911 -0.076872014 0.71180004
0.04182972 -0.077546105 0.713
0.012907739 -0.073035359 0.71337509
0.017550999 -0.071987711 0.71127278
0.022369737 -0.072078943 0.71177793
0.027143475 -0.072216809 0.71250004
0.032591194 -0.072648019 0.71291673
0.037047382 -0.073754057 0.71375006
0.030814288 -0.12531143 0.71900004
0.043596506 -0.12896352 0.71900004
0.045879051 -0.12942001 0.71900004
-0.0027390479 -0.12120286 0.71900004
0.012759524 -0.12146208 0.7178334
0.017750835 -0.12152798 0.71687502
0.02113905 -0.12069715 0.71600002
0.027579324 -0.1236694 0.71628582
0.032786351 -0.12226096 0.71716666
0.037627622 -0.12177525 0.71833342
0.04253538 -0.12174166 0.71871436
0.046978097 -0.12214738 0.71750003
-0.002172814 -0.11728224 0.71709096
0.0025379593 -0.11725458 0.71757144
0.0073415483 -0.11781466 0.717125
0.011871239 -0.11912725 0.71640003
0.017047619 -0.11899239 0.71600002
0.033413336 -0.11933335 0.71600002
0.037859287 -0.11903405 0.71625006
0.042285118 -0.11867227 0.71612501
0.04636953 -0.11865143 0.71600002
-0.007500953 -0.11115048 0.71600002
-0.0023866668 -0.11319619 0.71600002
0.00068190478 -0.1138781 0.71600002
-0.0068303579 -0.10790846 0.717125
-0.0041897963 -0.10805456 0.71614289
-0.0068347622 -0.1025 0.71750003
-0.0047733337 -0.10296762 0.71600002
-0.0069680004 -0.097949728 0.71720004
-0.0075088101 -0.092836432 0.71675003
-0.0069769532 -0.08850839 0.71820009
-0.004439048 -0.086380482 0.71700007
0.052913219 -0.086706795 0.71687502
0.056020327 -0.087671116 0.71733332
-0.0020476193 -0.082587302 0.7166667
0.00068190478 -0.081146672 0.71600002
0.048362862 -0.081855953 0.71774995
0.052041911 -0.084225722 0.71900004
0.0031400004 -0.077982672 0.71700007
0.0061457148 -0.075797148 0.71700001
0.043998338 -0.076740719 0.71625006
0.046076909 -0.078500718 0.71675003
0.0080316672 -0.072969526 0.71774995
0.011612381 -0.07138215 0.71725005
0.017062858 -0.070301592 0.7166667
0.023184763 -0.070236199 0.71600002
0.027276192 -0.070236199 0.71600002
0.032743573 -0.070260726 0.71625006
0.037715238 -0.071503341 0.71675003
0.041218732 -0.073554292 0.71733344
0.012325715 -0.069160961 0.71900004
0.01820362 -0.06884858 0.71860009
0.022741072 -0.067878462 0.71812499
0.027169269 -0.067828849 0.71809095
0.032695051 -0.068810105 0.71820009
0.036292382 -0.069160961 0.71900004
0.0043609529 -0.13059907 0.72300005
0.007023429 -0.13179259 0.72300005
0.042944286 -0.13090001 0.72150004
-0.00068761909 -0.12652192 0.72200006
0.0024780955 -0.12758991 0.7226001
0.0080333343 -0.12692669 0.72300005
0.011017144 -0.12600859 0.72300005
0.016525716 -0.12600859 0.72300005
0.029095557 -0.12669367 0.72166675
0.03296683 -0.126377 0.72116679
0.037455514 -0.12672083 0.72257155
0.04252468 -0.12695707 0.72127283
0.046628576 -0.12685715 0.72000003
-0.0016003175 -0.1230289 0.72033334
0.0027482542 -0.12294333 0.72116685
0.0075603179 -0.1230289 0.72166675
0.011903017 -0.12385764 0.72116673
0.017142858 -0.1241143 0.72000003
0.037714288 -0.1241143 0.72000003
0.042377144 -0.12384001 0.72000003
-0.0006857143 -0.12 0.72000003
0.004114286 -0.12 0.72000003
0.0061714291 -0.12 0.72000003
-0.010285715 -0.10628572 0.72000003
-0.0089142863 -0.10697144 0.72000003
-0.010285715 -0.10285716 0.72000003
-0.0089142863 -0.10285715 0.72000003
-0.010285715 -0.098742865 0.72000003
-0.0089142863 -0.098057151 0.72000003
-0.0061800005 -0.086519048 0.72100008
0.056228574 -0.087085716 0.72000003
-0.0061971433 -0.084694289 0.72300005
-0.0030447624 -0.082171023 0.72157151
0.052223153 -0.082043342 0.7215001
0.056228574 -0.08434286 0.72000003
-0.0013766668 -0.079130955 0.72250009
0.0020625 -0.076998457 0.72187507
0.047631115 -0.076940641 0.72133338
0.051263336 -0.078786671 0.72250009
0.0044690482 -0.073573813 0.72200006
0.0065302388 -0.071829766 0.72175008
0.043128259 -0.072285086 0.72133338
0.046102382 -0.074313812 0.72250009
0.0084800012 -0.068990484 0.72200006
0.012551342 -0.066755325 0.72127283
0.017668573 -0.066489018 0.72109103
0.022285715 -0.065485723 0.72000003
0.027856383 -0.065453343 0.72040004
0.032563176 -0.066574611 0.72066677
0.037309092 -0.067305282 0.72181827
0.041066036 -0.069054604 0.72266674
0.01377143 -0.063348576 0.72300005
0.017489716 -0.063761719 0.72300005
0.022722861 -0.064037144 0.72300005
0.027528932 -0.063315362 0.72262508
0.03236286 -0.064037144 0.72300005
0.017341904 -0.13526192 0.72833341
0.020828573 -0.13538572 0.72900003
0.0027619051 -0.13188095 0.72500002
0.0082857152 -0.13153572 0.72500002
0.01257562 -0.13251874 0.72546673
0.017152026 -0.13218583 0.72762507
0.020106668 -0.13173334 0.72800004
0.029813336 -0.13104001 0.72800004
0.032956194 -0.13147715 0.72850001
0.03746286 -0.13137634 0.72657144
0.040738098 -0.13119048 0.72500002
0.0034523811 -0.1277381 0.72500008
0.0073650805 -0.12796827 0.72500002
0.012710573 -0.12806754 0.72529995
0.01748327 -0.12830941 0.72600001
0.020051429 -0.12860572 0.72600001
0.029040001 -0.12929715 0.72600001
0.032452386 -0.12911907 0.72500008
0.037285715 -0.12911905 0.72500002
-0.0062200008 -0.082241595 0.7256667
-0.0043730158 -0.081246041 0.72500008
0.054547623 -0.081476197 0.72500002
0.05667112 -0.082241595 0.7256667
-0.0062228576 -0.079514287 0.72600001
-0.0024535072 -0.077288486 0.72636366
0.0013809525 -0.075261913 0.72500002
0.049023814 -0.075952388 0.72500002
0.052931592 -0.076915085 0.72650003
0.056328572 -0.077916764 0.72659999
-0.0011568256 -0.073791757 0.72866672
0.0023274459 -0.071933687 0.72690916
0.044880956 -0.071119055 0.72500002
0.047775052 -0.07200554 0.727
0.05233524 -0.073990487 0.7288
0.056237146 -0.074288577 0.72900003
0.0040215245 -0.068657719 0.72820008
0.0073020109 -0.067261592 0.72644448
0.010357143 -0.065595239 0.72500002
0.038666669 -0.065595239 0.72500002
0.042737052 -0.067491524 0.72609997
0.045570798 -0.068240002 0.72866672
0.0085546039 -0.064047307 0.72833335
0.012138789 -0.061951086 0.72645456
0.017446669 -0.061321434 0.72549999
0.02211294 -0.061501186 0.72558331
0.027657144 -0.060845718 0.72599995
0.032512061 -0.061563499 0.72633332
0.037244383 -0.062438667 0.72686678
0.041614525 -0.063808337 0.72825003
0.013654287 -0.058551431 0.72900003
0.01734524 -0.058279525 0.72850007
0.02199758 -0.057671521 0.72800004
0.027452111 -0.05837293 0.72842866
0.032631435 -0.059014291 0.72900003
0.035408575 -0.059014291 0.72900003
0.018797144 -0.13436477 0.73100001
0.021117782 -0.13390064 0.73100007
0.032046668 -0.13376048 0.73150003
-0.0048777782 -0.077346995 0.73166674
-0.001160635 -0.071739689 0.73133337
0.00069619052 -0.070315242 0.73100001
0.049429528 -0.070315242 0.73100001
0.052306943 -0.071832933 0.7322858
0.056282289 -0.072481148 0.73320001
-0.0006980953 -0.068412386 0.73300004
0.0022635714 -0.067076907 0.73175001
0.047660638 -0.06718763 0.73233336
0.051030479 -0.069205716 0.73400003
0.0034871432 -0.064180166 0.73250008
0.007488572 -0.062351197 0.73150003
0.010442858 -0.060568575 0.73100001
0.039682861 -0.060568575 0.73100001
0.042867266 -0.062033933 0.731875
0.045630287 -0.06293162 0.73260009
0.0090628574 -0.059257146 0.73200005
0.012779155 -0.057233334 0.73188883
0.017416667 -0.055732857 0.73150009
0.024366667 -0.056391433 0.73100001
0.028384406 -0.056071546 0.73137498
0.03275143 -0.056441799 0.73166668
0.03760403 -0.057342641 0.73223078
0.041672386 -0.058899052 0.73333335
0.017476194 -0.053826671 0.73400009
0.022554498 -0.054176085 0.73244452
0.027027348 -0.053353067 0.73300004
0.031177524 -0.053267431 0.73400003
-0.0042157145 -0.075154766 0.73750007
-0.0029531431 -0.072113916 0.73800009
0.054046672 -0.070892386 0.73700005
0.055600956 -0.071084768 0.73900002
-0.0014054764 -0.067450717 0.73775005
0.00070095243 -0.065188579 0.73600006
0.049322866 -0.065685406 0.73633337
0.052503336 -0.067778341 0.73750001
0.057360481 -0.069325238 0.73900002
0.0028083336 -0.06216 0.73750001
0.0063171433 -0.061065719 0.73700005
0.048616547 -0.062304169 0.73712504
0.0049266671 -0.059823815 0.73900002
0.0081375521 -0.057968304 0.73842865
0.011238571 -0.056190003 0.73750001
0.039253339 -0.055375241 0.73600006
0.043109 -0.056983285 0.73666674
0.046751324 -0.058144558 0.73755556
0.013634667 -0.053556956 0.73800009
0.017546669 -0.051940318 0.73700011
0.022142721 -0.051800139 0.73642862
0.027337145 -0.051169526 0.73600006
0.032951437 -0.051980548 0.73614293
0.037184555 -0.05261863 0.73666674
0.041644555 -0.053050056 0.73833334
0.017595239 -0.049970478 0.73900002
0.022969527 -0.049456194 0.7383334
0.027399052 -0.049177147 0.73766673
0.032239474 -0.048942752 0.73766667
0.036925718 -0.049584761 0.73850006
0.040117145 -0.049970478 0.73900002
-0.0077809533 -0.075681277 0.74266672
-0.0074652922 -0.072684132 0.74255562
-0.004933334 -0.072590485 0.74000001
0.057946671 -0.071373336 0.74200004
-0.0070761908 -0.065808579 0.74300003
-0.0035327384 -0.067452028 0.74162501
0.053845719 -0.066071756 0.74066675
0.056431752 -0.067011431 0.74066675
-0.0022589525 -0.062848672 0.74150002
0.0017669047 -0.060440242 0.74225003
0.052270159 -0.062863499 0.74166673
0.056609526 -0.064393334 0.74300003
0.0032221165 -0.057614293 0.74277782
0.006711191 -0.05686596 0.74175006
0.048202544 -0.056196198 0.74066675
0.050128259 -0.058599368 0.74133343
0.0049533336 -0.05448667 0.74300003
0.0077824346 -0.053063285 0.74288893
0.012263637 -0.051568054 0.74172735
0.043509685 -0.051034134 0.7408334
0.04638445 -0.053917781 0.74166673
0.013438096 -0.048803817 0.74266672
0.017843097 -0.047521912 0.74200004
0.022318667 -0.047037337 0.74160004
0.027547304 -0.046618097 0.74166667
0.03224159 -0.046596833 0.74133337
0.037654478 -0.047808386 0.74040002
0.041327383 -0.048390239 0.74175006
0.017690478 -0.044580001 0.74300003
0.02405905 -0.044580001 0.74300003
0.026889525 -0.044580001 0.74300003
-0.0087742871 -0.07090573 0.7470001
-0.00782762 -0.068297148 0.7470001
-0.0049666669 -0.068114296 0.74500006
-0.00070952385 -0.060309529 0.74500006
0.05402064 -0.061837152 0.74633336
0.056914292 -0.062605724 0.74700004
-0.0010642858 -0.057116672 0.74500006
0.0016555557 -0.056525402 0.74500006
0.052160483 -0.057612225 0.74683344
-0.0014190477 -0.054633338 0.74500006
0.0031224766 -0.053086676 0.74520004
0.0078047626 -0.050376199 0.74500006
0.047629528 -0.052299459 0.74642867
0.050579052 -0.054853339 0.74800003
0.0049866671 -0.049154289 0.74800003
0.0082996842 -0.048139051 0.74699998
0.01254889 -0.04712053 0.74588901
0.01631905 -0.046119049 0.74500006
0.03476667 -0.046119049 0.74500006
0.037723176 -0.046263497 0.74733341
0.043088954 -0.04763905 0.74660009
0.046779688 -0.048679374 0.74800003
0.0092609534 -0.044880003 0.74800003
0.013334525 -0.043915246 0.74675012
0.01752778 -0.043584287 0.74616671
0.022547824 -0.042350005 0.74650007
0.027727144 -0.042655479 0.74650002
0.032479472 -0.043857042 0.74677783
0.037400004 -0.044523813 0.74800003
0.057142861 -0.06071429 0.75000006
0.053142861 -0.055525087 0.75066674
0.056896772 -0.058184959 0.75240004
0.0021447621 -0.051497146 0.75100005
0.049285717 -0.051428575 0.75000006
0.052112505 -0.052290119 0.75212502
0.0035857146 -0.04948286 0.75300002
0.0064380961 -0.046788577 0.75120008
0.042857148 -0.046428576 0.75000006
0.047797885 -0.046841696 0.75155556
0.05194167 -0.049075477 0.75225008
0.0087308576 -0.043078288 0.75140005
0.011958776 -0.04180504 0.75128579
0.017619049 -0.041190483 0.75000012
0.028571431 -0.04071429 0.75000006
0.032428574 -0.04128572 0.75000006
0.037478667 -0.041911818 0.75100005
0.042084292 -0.043370195 0.75150001
0.045598101 -0.044163816 0.75200003
0.013625715 -0.03944286 0.75300002
0.017205954 -0.039429765 0.75275004
0.022221589 -0.037991114 0.75266671
0.027069403 -0.037379496 0.75193346
0.032042317 -0.03838871 0.75242865
0.036842097 -0.03913505 0.75260007
0.058294605 -0.056134924 0.75566673
0.062001906 -0.056233339 0.75700003
-0.0019830954 -0.052431196 0.75674999
0.00071904768 -0.051052384 0.75500005
0.053928576 -0.05249048 0.75500005
0.056776196 -0.052809525 0.75699997
-0.0007219048 -0.046201907 0.75800002
0.0020309091 -0.047385201 0.75699997
0.0050466666 -0.04614 0.75700003
0.049614288 -0.045300003 0.75500005
0.052344136 -0.046820324 0.75633335
0.055440005 -0.049680002 0.75600004
0.0070569529 -0.04220248 0.75620002
0.043142859 -0.040985718 0.75500005
0.047821146 -0.042201713 0.75620008
0.051120002 -0.043920003 0.75600004
0.0088841282 -0.039136194 0.75633335
0.01224694 -0.038180005 0.7564286
0.017477665 -0.036853943 0.75609094
0.022299685 -0.035248891 0.75533342
0.029480955 -0.035233337 0.75500005
0.032644764 -0.035808574 0.75500005
0.037619401 -0.036570914 0.75563639
0.042234078 -0.038065612 0.75733334
0.046201907 -0.039704766 0.75800002
0.018769525 -0.033929527 0.75800002
0.022348255 -0.033163495 0.75699997
0.027372066 -0.032412387 0.75633347
0.032247026 -0.032605596 0.75662506
0.037042227 -0.033433337 0.75766671
-0.0028990479 -0.050008576 0.76100004
0.058667146 -0.050699528 0.76050007
0.061260004 -0.052758507 0.76185727
-0.0018152382 -0.048952859 0.7615
0.054321431 -0.046353813 0.76050007
0.056785874 -0.048084926 0.76116675
-0.00072380959 -0.044152383 0.76000005
0.0027542859 -0.043327622 0.76080006
0.0050666677 -0.042704768 0.76000011
0.052702069 -0.042789049 0.76150006
0.0075676199 -0.038047623 0.76200002
0.011950477 -0.035851907 0.76050007
0.015200001 -0.035466667 0.76000005
0.043689206 -0.035964765 0.76033342
0.047405619 -0.037691146 0.76110005
0.050799049 -0.039187621 0.76200002
0.0094466675 -0.034153335 0.76300001
0.012341905 -0.033396829 0.76233339
0.017209645 -0.032608218 0.76087511
0.022447303 -0.031137463 0.76033342
0.034019049 -0.031123811 0.76000005
0.03818889 -0.031661272 0.76133341
0.042505909 -0.0335101 0.76160008
0.045780003 -0.034153335 0.76300001
0.022526667 -0.029793335 0.76300001
0.027559049 -0.029008098 0.76150006
0.032664608 -0.029034128 0.76216668
0.036750671 -0.029196385 0.76260006
0.061928578 -0.050271433 0.76500005
0.058324289 -0.046658572 0.76550007
0.061373811 -0.047490008 0.76716673
-0.00073142862 -0.043154288 0.76800001
0.0018988572 -0.041660003 0.76740009
0.05435 -0.041217625 0.76600003
0.057014763 -0.043125242 0.7675001
0.0036571431 -0.038765717 0.76800001
0.0062758103 -0.036933716 0.76640004
0.048814289 -0.035700001 0.76500005
0.052063949 -0.037455514 0.76685727
0.0080400007 -0.033623811 0.76749998
0.013130477 -0.031369526 0.76600003
0.016757144 -0.031328574 0.76500005
0.043379053 -0.031713337 0.76550007
0.047460955 -0.033099689 0.76666677
0.050468575 -0.033645719 0.76800001
0.013398096 -0.029474922 0.76733339
0.017681399 -0.027909975 0.76720005
0.022641061 -0.027023071 0.76688898
0.027730241 -0.026270714 0.76624995
0.032799371 -0.026239686 0.76533341
0.037394151 -0.026560409 0.76557148
0.041878622 -0.028470134 0.76654547
0.019748572 -0.024137145 0.76800001
0.022674289 -0.024137145 0.76800001
0.028150717 -0.023763573 0.76775002
0.03318115 -0.023533145 0.76740003
0.037271112 -0.024116194 0.76733339
0.0022000002 -0.041800003 0.77000004
0.058692388 -0.041817464 0.77033341
0.0027931433 -0.037202671 0.77200001
0.0051333336 -0.035933334 0.77000004
0.053533338 -0.036666669 0.77000004
0.056320004 -0.037464131 0.7713334
0.0031885717 -0.034095243 0.77266669
0.007052572 -0.031736191 0.77139997
0.011000001 -0.030800002 0.77000004
0.047985528 -0.030668957 0.77040005
0.052454859 -0.032029148 0.77140009
0.055731054 -0.033379812 0.77200001
0.0091992859 -0.02759786 0.77275008
0.012299882 -0.026988931 0.77112502
0.015400001 -0.025666669 0.77000004
0.043605722 -0.026280001 0.77080005
0.047300637 -0.027693018 0.77200007
0.051500477 -0.02869286 0.77250004
0.013467303 -0.023751749 0.7713334
0.017434547 -0.022643724 0.77154541
0.022762857 -0.022027619 0.77100003
0.026923496 -0.022273336 0.77100003
0.0317927 -0.021764763 0.77033341
0.037174668 -0.022186099 0.77140003
0.042204574 -0.023968764 0.77200001
0.022085715 -0.019877145 0.77300006
0.028711431 -0.019877145 0.77300006
0.031656191 -0.019877145 0.77300006
-0.00073809526 -0.037642859 0.77500004
0.00073809526 -0.037642859 0.77500004
0.058309529 -0.036904763 0.77500004
0.060094289 -0.037837144 0.77900004
-0.00074000005 -0.034780003 0.77700001
0.0024663494 -0.032050483 0.77666664
0.005166667 -0.030261906 0.77500004
0.058309529 -0.034690477 0.77500004
0.0037095239 -0.028934287 0.77900004
0.0069483817 -0.027647052 0.7762
0.049045399 -0.026369845 0.77633345
0.050928574 -0.027309526 0.77500004
0.0096200006 -0.024420002 0.77700001
0.012338096 -0.022207938 0.77733338
0.03911905 -0.021404764 0.77500004
0.042389151 -0.022006288 0.7754001
0.046828762 -0.022523619 0.77800006
0.017480383 -0.018813906 0.77780002
0.00074285717 -0.031942859 0.78000003
0.005699683 -0.026517462 0.78066671
-0.0022457144 -0.03518286 0.78600001
-0.0012514286 -0.033270482 0.78800005
0.00075000001 -0.032247145 0.78750002
