# .PCD v0.7 - Point Cloud Data file format
VERSION 0.7
FIELDS x y z rgb
SIZE 4 4 4 4
TYPE F F F F
COUNT 1 1 1 1
WIDTH 519
HEIGHT 1
VIEWPOINT 0 0 0 1 0 0 0
POINTS 519
DATA ascii
-0.061209053 -0.081730008 0.74300003 2.3325494e-38
-0.057670951 -0.081730008 0.74300003 2.295815e-38
-0.070054293 -0.077130482 0.74300003 3.0503857e-39
-0.067223817 -0.077130482 0.74300003 5.4460778e-39
-0.062229406 -0.077785961 0.74249995 1.180511e-38
-0.057303976 -0.077820957 0.74283338 1.2178555e-38
-0.053779051 -0.076422863 0.74300003 4.2522976e-39
-0.070054293 -0.073592387 0.74300003 5.2723869e-39
-0.067223817 -0.073592387 0.74300003 5.63901e-39
-0.06197105 -0.073147826 0.74280006 3.4219765e-39
-0.057305858 -0.073274836 0.74285722 2.9617144e-39
-0.053779051 -0.073592387 0.74300003 3.1450252e-39
-0.063401908 -0.086198106 0.74800003 2.3325854e-38
-0.059127621 -0.086198099 0.74800003 2.2406063e-38
-0.077445373 -0.082362607 0.74727285 6.649995e-39
-0.07251738 -0.082472861 0.74650007 1.7249267e-38
-0.067502946 -0.082426593 0.74608344 2.1304397e-38
-0.06299191 -0.083574764 0.74525005 2.3233659e-38
-0.057663813 -0.084360957 0.74750006 2.1486268e-38
-0.052444156 -0.081676535 0.74690914 2.1211121e-38
-0.047833145 -0.082144015 0.7474001 2.0661189e-38
-0.043125506 -0.081583291 0.74777782 1.4107087e-38
-0.077547207 -0.077545725 0.74700004 4.3525535e-39
-0.073080957 -0.077338099 0.745 2.5054824e-39
-0.051795244 -0.077692866 0.745 9.9658511e-39
-0.047538094 -0.077338099 0.745 4.1542824e-39
-0.042684134 -0.077546045 0.7470001 2.1341509e-39
-0.077262297 -0.072849527 0.7470001 8.5942798e-39
-0.072689801 -0.072182193 0.74514282 8.3122867e-39
-0.067404769 -0.070952386 0.74500006 8.4916529e-39
-0.062911123 -0.070715874 0.74500006 4.8974681e-39
-0.057471432 -0.070810482 0.74500006 3.4273897e-39
-0.052031752 -0.071898423 0.745 3.6107103e-39
-0.047595166 -0.072459772 0.74591678 3.6124942e-39
-0.042700004 -0.072589286 0.74725002 6.3758464e-39
-0.039146036 -0.07188572 0.74733341 7.947872e-39
-0.076122865 -0.068297148 0.74700004 6.3873832e-39
-0.072437786 -0.067464761 0.74566668 8.6886951e-39
-0.067404762 -0.067404769 0.745 9.9801149e-39
-0.062480479 -0.067449056 0.74550009 6.2846975e-39
-0.057505716 -0.067444131 0.74544448 5.5489499e-39
-0.052551121 -0.067464456 0.74566668 7.671969e-39
-0.04766487 -0.067585722 0.74700004 1.025378e-38
-0.043010578 -0.067933619 0.74770015 9.7017035e-39
-0.039180957 -0.068388574 0.74800003 6.8400923e-39
-0.072206572 -0.06351839 0.74770015 3.9820222e-39
-0.067595564 -0.063325085 0.7471112 7.0165775e-39
-0.062457412 -0.063492216 0.74754554 5.2716218e-39
-0.05750658 -0.063056678 0.74730009 4.7184886e-39
-0.052777007 -0.062945589 0.74742866 4.8099864e-39
-0.048286289 -0.06395448 0.74780005 4.1707393e-39
-0.088208579 -0.093945719 0.75300002 7.9201908e-39
-0.083188578 -0.091077149 0.75300002 1.2829294e-38
-0.07574477 -0.09151493 0.75266671 2.341769e-38
-0.072383344 -0.091733813 0.75250006 2.2681564e-38
-0.069053978 -0.09151493 0.75266671 1.8721869e-38
-0.055937149 -0.091077149 0.75300002 1.5307452e-38
-0.053785719 -0.091077149 0.75300002 1.8356676e-38
-0.085340008 -0.085340008 0.75300002 4.5333252e-39
-0.082407854 -0.087424368 0.75241661 6.4760126e-39
-0.077387117 -0.087728947 0.75076926 2.0382804e-38
-0.072271965 -0.088014178 0.7513333 2.3233299e-38
-0.06743481 -0.088116549 0.75109094 2.2310266e-38
-0.062046129 -0.088417836 0.75128579 2.1759253e-38
-0.056879606 -0.087885641 0.75125003 2.0843058e-38
-0.05222977 -0.087290719 0.75125003 2.1855049e-38
-0.047231194 -0.08730945 0.75141668 2.2681928e-38
-0.042514633 -0.086790837 0.75200003 2.3417689e-38
-0.037263639 -0.087426968 0.75243747 1.7057667e-38
-0.032368097 -0.086934388 0.75190002 4.3339569e-39
-0.028596826 -0.086504124 0.7506668 7.6708199e-39
-0.085340008 -0.08247143 0.75300002 4.5343958e-39
-0.082290158 -0.082288899 0.75133336 4.0716717e-39
-0.055714287 -0.083571434 0.75000006 2.139299e-38
-0.041666672 -0.083095245 0.75000012 1.6245886e-38
-0.037186272 -0.082242787 0.75091672 3.7807887e-39
-0.033675879 -0.082397781 0.7523334 2.871346e-39
-0.085626863 -0.077594861 0.75300002 5.0018508e-39
-0.08225365 -0.077246353 0.75100005 5.6429126e-39
-0.037569392 -0.078928314 0.75242865 2.7812888e-39
-0.033705715 -0.07960286 0.75300002 3.4259421e-39
-0.085340008 -0.073148578 0.75300002 4.5351511e-39
-0.082302123 -0.072280742 0.75144446 5.5539652e-39
-0.079285719 -0.071428575 0.75000006 7.4018687e-39
-0.081368819 -0.068464048 0.75275004 3.9798334e-39
-0.078258388 -0.066954009 0.7511 4.2574993e-39
-0.042435244 -0.06556382 0.75100011 3.2408418e-39
-0.076172553 -0.062799215 0.75216675 3.8833189e-39
-0.072142862 -0.06071429 0.75000012 7.5661485e-39
-0.066714287 -0.061000001 0.75000006 4.9922e-39
-0.06214286 -0.06071429 0.75000012 2.5951053e-39
-0.058571436 -0.06071429 0.75000006 3.0542996e-39
-0.052142859 -0.06071429 0.75000006 2.7787931e-39
-0.047157861 -0.061805952 0.75025004 2.8684846e-39
-0.043620136 -0.062622041 0.75085723 3.2372124e-39
-0.071857989 -0.057879884 0.75262511 6.3719311e-39
-0.067372441 -0.057337206 0.75256258 6.6484844e-39
-0.062329292 -0.057313576 0.75225008 4.3457516e-39
-0.057281256 -0.057279348 0.75181252 2.8727543e-39
-0.052397337 -0.057692386 0.75159997 3.4245058e-39
-0.047736194 -0.059204388 0.75260007 3.3319514e-39
-0.043745719 -0.05952286 0.75300002 3.4241162e-39
-0.066694289 -0.053785719 0.75300002 8.4831036e-39
-0.06239143 -0.053785723 0.75300002 8.2126221e-39
-0.058805719 -0.053785719 0.75300002 7.2909601e-39
-0.084462866 -0.10034477 0.75800002 1.244716e-38
-0.062516958 -0.10149982 0.75800002 2.1025654e-38
-0.059436828 -0.10226985 0.75800008 2.2498975e-38
-0.085604452 -0.097114921 0.75533342 1.0704537e-38
-0.082168579 -0.097308114 0.75683343 1.9090632e-38
-0.077175878 -0.097372703 0.75733334 2.341769e-38
-0.072565913 -0.09752553 0.75739998 2.3233659e-38
-0.067624569 -0.097041339 0.75700003 2.2774481e-38
-0.062750489 -0.097372703 0.75733334 2.2773761e-38
-0.057739213 -0.097436041 0.75783336 2.2774123e-38
-0.053060006 -0.096374288 0.75800002 2.1947243e-38
-0.047645718 -0.096735239 0.75799996 2.1486626e-38
-0.042592388 -0.096735239 0.75800002 2.3325854e-38
-0.038982861 -0.096013337 0.75800002 2.3234018e-38
-0.086839646 -0.092592508 0.75512505 6.2847984e-39
-0.082515791 -0.09320315 0.75528586 1.8723309e-38
-0.078274503 -0.093145408 0.75555563 2.3325854e-38
-0.072623812 -0.094195247 0.75500005 2.2771609e-38
-0.067070164 -0.093131758 0.75544453 2.001439e-38
-0.06262181 -0.092853129 0.75577784 1.9645972e-38
-0.057857532 -0.093119249 0.75560009 1.8904821e-38
-0.052388221 -0.093076795 0.75612503 2.0562886e-38
-0.047510006 -0.09286049 0.75583351 2.2865599e-38
-0.042492915 -0.092907734 0.75622225 2.3234019e-38
-0.03802244 -0.09261588 0.75644451 2.2404268e-38
-0.032400001 -0.091440007 0.75600004 1.2173424e-38
-0.029520001 -0.091440007 0.75600004 1.0610667e-38
-0.090238102 -0.086628571 0.75800002 6.3549712e-39
-0.087252133 -0.088036023 0.75600004 4.8048913e-39
-0.047457144 -0.089880958 0.75500005 2.2866317e-38
-0.042423815 -0.089880958 0.75500005 2.341769e-38
-0.031680003 -0.090000004 0.75600004 6.2578542e-39
-0.028800001 -0.090000004 0.75600004 1.033761e-38
-0.090238102 -0.084462866 0.75800002 7.3788355e-39
-0.088307507 -0.082551792 0.75537509 6.0959664e-39
-0.03165175 -0.082726672 0.75533342 2.8745648e-39
-0.028096087 -0.08284954 0.75644445 6.92976e-39
-0.088616885 -0.077629186 0.75536376 8.2092828e-39
-0.037150793 -0.076458737 0.75500005 4.3464663e-39
-0.032268576 -0.077563129 0.7560001 3.7057492e-39
-0.028560003 -0.077520005 0.75600004 4.9944015e-39
-0.08748205 -0.072472796 0.75557154 5.1725948e-39
-0.035233337 -0.07334286 0.75500005 4.8142421e-39
-0.032272622 -0.073019765 0.75725001 4.3485921e-39
-0.02808 -0.072720006 0.75600004 7.3839503e-39
-0.087063298 -0.067932382 0.75663638 4.2520987e-39
-0.083271317 -0.067083932 0.75537509 4.4372074e-39
-0.037140764 -0.066654287 0.75580007 3.9758803e-39
-0.032873198 -0.067085445 0.75742859 3.4255932e-39
-0.029598096 -0.067137145 0.75800002 7.4797276e-39
-0.085680008 -0.064080007 0.75600004 4.9907735e-39
-0.082611158 -0.062569819 0.75690001 6.6416236e-39
-0.078684576 -0.062285721 0.75520009 4.8999848e-39
-0.041400004 -0.062278576 0.75600004 3.2397292e-39
-0.038209122 -0.063340276 0.75700009 4.3453775e-39
-0.033929527 -0.06424953 0.75800002 3.3312242e-39
-0.076214612 -0.059384134 0.7573334 9.4993673e-39
-0.07334286 -0.056804765 0.75500005 6.8267828e-39
-0.051805243 -0.055403337 0.75550008 3.2415214e-39
-0.047888454 -0.057067979 0.75612503 3.5163161e-39
-0.044036195 -0.058474291 0.75800002 3.5155916e-39
-0.070652381 -0.053349528 0.75700003 1.1900065e-38
-0.067203142 -0.052999873 0.7564286 8.1142986e-39
-0.062708735 -0.051896036 0.75683343 7.8438508e-39
-0.056898579 -0.052575953 0.75625002 5.816909e-39
-0.052971669 -0.053692624 0.75675005 3.4230344e-39
-0.04981143 -0.054142863 0.75800002 2.5983128e-39
-0.070486672 -0.10536668 0.76300001 2.2866676e-38
-0.067463182 -0.10518255 0.76166672 2.2129474e-38
-0.055953339 -0.10536668 0.76300001 2.3325854e-38
-0.054500002 -0.10536668 0.76300001 2.2588299e-38
-0.082005717 -0.10232762 0.76200002 1.3183266e-38
-0.077629209 -0.10229779 0.76177782 2.3324773e-38
-0.072540328 -0.10228285 0.76166677 2.3233659e-38
-0.067354076 -0.10211726 0.76044452 2.2958152e-38
-0.062681913 -0.10234667 0.76000005 2.1578822e-38
-0.057027742 -0.1019268 0.76037508 2.323366e-38
-0.052520096 -0.10199612 0.76170009 2.1392993e-38
-0.048159685 -0.10140286 0.76233339 2.0749426e-38
-0.06731429 -0.099161908 0.76000005 2.3234019e-38
-0.052548576 -0.098582864 0.76000005 2.2497176e-38
-0.047771435 -0.099161908 0.76000005 2.0842339e-38
-0.042704768 -0.099161908 0.76000011 2.3325854e-38
-0.037492622 -0.09781073 0.76075006 1.9456551e-38
-0.033281337 -0.096065342 0.76300001 1.5213375e-38
-0.029793335 -0.095193341 0.76300001 1.153127e-38
-0.035964765 -0.094378099 0.76033342 1.7337526e-38
-0.032670163 -0.093658105 0.76233339 1.3552049e-38
-0.029793335 -0.093740009 0.76300001 1.107204e-38
-0.0904762 -0.089028575 0.76000005 5.4488636e-39
-0.081862234 -0.060128894 0.76066673 1.198751e-38
-0.078895241 -0.060076196 0.76000005 1.0052855e-38
-0.041980956 -0.060076196 0.76000005 2.4139258e-39
-0.037123073 -0.061281595 0.7610001 3.5131253e-39
-0.033475813 -0.062456008 0.76080006 3.9762545e-39
-0.081557788 -0.057839684 0.76233339 1.2361441e-38
-0.077756912 -0.057092618 0.76125002 1.0789428e-38
-0.074601434 -0.056493811 0.76050007 6.2711273e-39
-0.046163179 -0.056313656 0.76133341 3.5163147e-39
-0.042515241 -0.057896193 0.76179999 2.4117804e-39
-0.03921381 -0.058094762 0.76250005 5.6275109e-39
-0.076300003 -0.054500002 0.76300001 1.3188661e-38
-0.072896473 -0.052986261 0.7621429 1.3095406e-38
-0.068127625 -0.051458098 0.76100004 8.2111704e-39
-0.060718738 -0.050556831 0.76200002 7.8401738e-39
-0.057712145 -0.050452624 0.76225001 7.3831992e-39
-0.052494291 -0.05166408 0.7610001 3.9740418e-39
-0.047990073 -0.053381637 0.76185721 3.148614e-39
-0.080871433 -0.11001429 0.76500005 1.4671729e-38
-0.077378571 -0.11023001 0.7665 9.9647917e-39
-0.082352072 -0.10713112 0.76522225 1.1157915e-38
-0.077619433 -0.1069482 0.76600009 1.6967269e-38
-0.072464414 -0.1075118 0.76662505 2.1763573e-38
-0.069214292 -0.10710001 0.76500005 2.1946886e-38
-0.052228097 -0.10628477 0.76700008 2.1576665e-38
-0.051000006 -0.10418572 0.76500005 2.0381005e-38
-0.046901435 -0.10328238 0.76550001 2.2314941e-38
-0.042008191 -0.10254573 0.7658 2.2313496e-38
-0.037275665 -0.10305747 0.76744449 1.3924082e-38
-0.033457268 -0.10183513 0.76787508 1.4391192e-38
-0.037157144 -0.099814296 0.76500005 1.7704134e-38
-0.03209905 -0.097757146 0.76600003 1.4851777e-38
-0.02987143 -0.096900009 0.76500005 1.2911725e-38
-0.032914288 -0.061440006 0.76800001 9.219584e-39
-0.08524286 -0.058285721 0.76500005 1.0064113e-38
-0.083373025 -0.056634612 0.76566672 1.0155635e-38
-0.042257145 -0.056100003 0.76500005 4.8056424e-39
-0.036969371 -0.057644926 0.76616669 9.6884641e-39
-0.034354765 -0.058475718 0.76750004 1.070196e-38
-0.08229506 -0.054229528 0.76740003 6.9237513e-39
-0.077387102 -0.052751958 0.76577783 1.1808658e-38
-0.072705001 -0.050783578 0.76725006 1.1809366e-38
-0.067817464 -0.050315242 0.76566672 6.8145901e-39
-0.064114287 -0.050271433 0.76500005 7.4815787e-39
-0.051772386 -0.050315242 0.76566672 3.514507e-39
-0.046943337 -0.051319532 0.76616669 2.7798328e-39
-0.042514294 -0.053071801 0.76661545 6.1875329e-39
-0.038150668 -0.053644385 0.76739997 1.2639111e-38
-0.072411433 -0.049005717 0.76800001 1.015919e-38
-0.067052737 -0.047647189 0.76754552 6.7342214e-39
-0.061965406 -0.047384236 0.76544446 6.0942498e-39
-0.05764889 -0.047431327 0.76622224 6.374127e-39
-0.052885719 -0.047772001 0.76700002 5.0822153e-39
-0.047542863 -0.049005717 0.76800001 2.9620745e-39
-0.065097146 -0.044617146 0.76800001 7.2881155e-39
-0.062145084 -0.044597782 0.7676667 4.2510323e-39
-0.057782859 -0.044617146 0.76800001 4.9022143e-39
-0.051906288 -0.11160953 0.77200001 1.9086337e-38
-0.04785239 -0.11116477 0.77300012 1.7059127e-38
-0.042208262 -0.11165556 0.77300012 1.3469977e-38
-0.038527306 -0.11165556 0.77300012 1.6787861e-38
-0.076266676 -0.10926668 0.77000004 1.5576475e-38
-0.051852953 -0.10884953 0.77120006 2.1211842e-38
-0.047769632 -0.10803439 0.77166671 2.1392641e-38
-0.042653974 -0.10810461 0.77216673 1.7426413e-38
-0.037693609 -0.10762177 0.77171439 1.1720065e-38
-0.034022544 -0.10696223 0.77100009 1.5772309e-38
-0.044000003 -0.10486668 0.77000004 2.2682646e-38
-0.033000004 -0.10486668 0.77000004 1.6690293e-38
-0.030919999 -0.066257149 0.77300006 7.3864502e-39
-0.028711431 -0.065520957 0.77300006 1.1809401e-38
-0.031050859 -0.06224972 0.77260005 1.0520428e-38
-0.027957145 -0.061799526 0.77250004 1.291066e-38
-0.086078577 -0.055913813 0.77250004 8.3959512e-39
-0.035933334 -0.055733338 0.77000004 1.1442014e-38
-0.032360081 -0.057121351 0.77225012 1.0792682e-38
-0.027729845 -0.059140638 0.77300012 1.2172023e-38
-0.086134292 -0.05374191 0.77300006 9.4893256e-39
-0.082631305 -0.051761635 0.77171433 4.1545963e-39
-0.078466676 -0.051088892 0.7700001 8.9563655e-39
-0.041800003 -0.050600003 0.7700001 7.4804829e-39
-0.036926672 -0.051599689 0.77033341 1.0325951e-38
-0.032622863 -0.052246984 0.77266669 6.9175701e-39
-0.080735564 -0.048833974 0.77300012 1.0888413e-38
-0.076992378 -0.047958098 0.77175003 1.0140124e-38
-0.07262405 -0.047498338 0.77025002 8.8425647e-39
-0.069666669 -0.046200003 0.77000004 7.8372647e-39
-0.051333338 -0.046200003 0.77000004 5.6281962e-39
-0.047686674 -0.046953335 0.77033341 4.435048e-39
-0.042822685 -0.047900781 0.77163637 5.0797504e-39
-0.037528891 -0.049303498 0.77266669 6.7382039e-39
-0.032392383 -0.049324766 0.77300006 6.7367578e-39
-0.075827621 -0.044907622 0.77300006 1.0050037e-38
-0.072628573 -0.043576665 0.77225 1.1059539e-38
-0.067730807 -0.042458031 0.77133346 8.3908687e-39
-0.062441271 -0.041871112 0.77133328 5.2619682e-39
-0.05709935 -0.042074587 0.7709232 7.109492e-39
-0.052167304 -0.042614445 0.77150005 4.9857471e-39
-0.048027076 -0.043822996 0.77242863 5.2633905e-39
-0.04417143 -0.044907622 0.77300006 4.8942044e-39
-0.066993341 -0.039018102 0.77300012 5.7204212e-39
-0.062576205 -0.03828191 0.77300012 4.9875435e-39
-0.0575701 -0.038723622 0.77300006 7.569754e-39
-0.05374191 -0.039018098 0.77300006 4.2524378e-39
-0.051191431 -0.11647905 0.77900004 1.642347e-38
-0.048061274 -0.11608033 0.77633345 1.6510639e-38
-0.051732384 -0.11455239 0.77600002 1.4113588e-38
-0.047299046 -0.11381429 0.77600008 1.5401408e-38
-0.042440481 -0.11403572 0.77500004 1.678571e-38
-0.036904763 -0.10997619 0.77500004 1.5130215e-38
-0.030261906 -0.064214289 0.77500004 1.1990142e-38
-0.028047621 -0.064214289 0.77500004 1.3188333e-38
-0.088686675 -0.055428576 0.77600002 1.3370094e-38
-0.030261906 -0.057571433 0.77500004 1.0974911e-38
-0.028785717 -0.056833338 0.77500004 1.0149098e-38
-0.087488107 -0.053011432 0.77850002 1.0788307e-38
-0.033300001 -0.052540004 0.77700001 1.8626676e-39
-0.082110345 -0.04702463 0.77671438 9.2293034e-39
-0.078552075 -0.045554608 0.77566671 1.0598885e-38
-0.041193336 -0.045632064 0.77700007 6.5606412e-39
-0.037707623 -0.047318097 0.77633333 6.9196819e-39
-0.03473524 -0.047298096 0.77600002 4.3349939e-39
-0.080867626 -0.043772385 0.77900004 1.2815572e-38
-0.07751824 -0.042617287 0.77728581 1.0325939e-38
-0.073535725 -0.041016668 0.77600002 8.2933523e-39
-0.047111433 -0.041933339 0.77700007 5.7243659e-39
-0.04297429 -0.043716192 0.778 4.2535378e-39
-0.072059378 -0.038742863 0.77733338 7.7372218e-39
-0.066975437 -0.037109148 0.7762 4.5262081e-39
-0.062198579 -0.036283337 0.77750003 6.7482849e-39
-0.057176515 -0.036966991 0.77633345 5.9069775e-39
-0.052215435 -0.038311809 0.77660006 4.6179945e-39
-0.049707621 -0.038579047 0.77900004 6.2743181e-39
-0.091303818 -0.052741908 0.78366673 1.16184e-38
-0.088311911 -0.05142048 0.78250003 1.2083674e-38
-0.031200003 -0.052742861 0.78000003 7.4757662e-39
-0.086606912 -0.048050243 0.78224999 1.05074e-38
-0.084050477 -0.046115242 0.78100002 1.0978467e-38
-0.037885718 -0.045314293 0.78000009 6.180347e-39
-0.034914289 -0.04531429 0.78000003 4.1520067e-39
-0.082351118 -0.042415243 0.78133339 1.3652183e-38
-0.078742862 -0.040857144 0.78000003 9.0409199e-39
-0.046115242 -0.040909525 0.78100002 6.83177e-39
-0.042222586 -0.042009253 0.78171432 8.3062023e-39
-0.037844289 -0.042877622 0.78299999 6.4573136e-39
-0.034914289 -0.043828573 0.78000003 4.2410088e-39
-0.08138667 -0.038826667 0.78400004 8.6815008e-39
-0.077456385 -0.037981335 0.78200006 8.7610749e-39
-0.072428852 -0.036052793 0.78171432 9.8699294e-39
-0.068101436 -0.03535286 0.78150004 8.3029695e-39
-0.062560007 -0.035003811 0.78200006 7.4782633e-39
-0.057394292 -0.035033654 0.78266668 4.8009775e-39
-0.052855562 -0.035732385 0.7816667 5.6278472e-39
-0.047703497 -0.037269209 0.7826668 1.0239429e-38
-0.043306667 -0.038826667 0.78400004 1.1072417e-38
-0.071431115 -0.033102226 0.7840001 9.8681764e-39
-0.067946672 -0.032853335 0.78400004 6.4659498e-39
-0.06446223 -0.033102226 0.7840001 6.5541644e-39
-0.058240004 -0.033600003 0.78400004 4.8034886e-39
-0.050773337 -0.033600003 0.78400004 1.0517112e-38
-0.095189527 -0.050966673 0.78700006 1.2077986e-38
-0.093020193 -0.051377524 0.78640002 1.1892474e-38
-0.095310479 -0.048780955 0.78800005 1.2727672e-38
-0.091730803 -0.047739051 0.78733343 1.272689e-38
-0.088656515 -0.04620064 0.78666675 1.1065572e-38
-0.087306045 -0.043276832 0.78800011 1.0055449e-38
-0.08458858 -0.041920003 0.78600001 1.3471402e-38
-0.037428573 -0.041171432 0.78600001 6.6482083e-39
-0.082688816 -0.037687384 0.78750014 1.0330582e-38
-0.077102862 -0.03518286 0.78600001 1.2449553e-38
-0.045662861 -0.035931431 0.78600001 1.1806761e-38
-0.042334046 -0.036714051 0.78675008 1.1160286e-38
-0.038958736 -0.038208257 0.78666675 9.0359074e-39
-0.077124164 -0.032462262 0.7881251 1.051673e-38
-0.073172703 -0.031715557 0.78666675 9.964681e-39
-0.067371428 -0.03069143 0.78600001 6.1835294e-39
-0.062003575 -0.032030717 0.78675002 4.8949597e-39
-0.057488985 -0.031794291 0.78685725 5.3534057e-39
-0.052726861 -0.031904764 0.78640002 9.6883884e-39
-0.04741393 -0.032421313 0.78712505 1.1988938e-38
-0.044334289 -0.033814289 0.78900003 1.171308e-38
-0.072888575 -0.029305717 0.78900003 6.2804516e-39
-0.06716001 -0.028997717 0.78880006 6.2768348e-39
-0.062368579 -0.028232248 0.78900009 5.4506951e-39
-0.057860009 -0.028554289 0.78900003 6.4651973e-39
-0.052583575 -0.029296432 0.78875005 1.2635433e-38
-0.04809143 -0.029305717 0.78900003 1.1989278e-38
-0.095673338 -0.047460005 0.79100001 1.2915657e-38
-0.093664452 -0.046455558 0.79100007 1.2727987e-38
-0.092894286 -0.044559054 0.7930001 1.2447434e-38
-0.08900667 -0.042240955 0.79200006 1.0882949e-38
-0.08641886 -0.038156003 0.79180002 1.0880871e-38
-0.082866669 -0.035406668 0.79100001 1.1334614e-38
-0.039173335 -0.035406668 0.79100001 1.0128891e-38
-0.082055241 -0.032632384 0.79225004 1.1072031e-38
-0.079100005 -0.030886669 0.79100001 9.6884613e-39
-0.045953337 -0.030886669 0.79100001 1.1989613e-38
-0.043306481 -0.032743812 0.79220003 1.1530091e-38
-0.07751824 -0.028354149 0.79242867 6.0978582e-39
-0.07241144 -0.027153337 0.792 4.4383004e-39
-0.067382671 -0.026982669 0.79139996 3.425617e-39
-0.062526673 -0.026366668 0.79100001 2.7852853e-39
-0.05800667 -0.02636667 0.79100007 5.4553628e-39
-0.052749291 -0.027128335 0.79124999 1.2727997e-38
-0.047520004 -0.027656194 0.792 1.2357348e-38
-0.04455905 -0.029454287 0.79300004 1.1990705e-38
-0.07099238 -0.024922859 0.79300004 3.5177398e-39
-0.066712707 -0.023915876 0.7930001 3.058928e-39
-0.062632069 -0.023391429 0.79233342 3.3348157e-39
-0.057721775 -0.024275513 0.7930001 5.5471801e-39
-0.052866668 -0.024922859 0.79300004 1.2728369e-38
-0.095000006 -0.043320004 0.79800004 1.2447105e-38
-0.091861509 -0.04175429 0.79714292 1.3001669e-38
-0.035720002 -0.040280003 0.79800004 9.3190075e-39
-0.087966904 -0.037157383 0.79624999 1.107064e-38
-0.03717 -0.037167147 0.79650003 7.3846902e-39
-0.086098582 -0.032997146 0.79650003 1.0705438e-38
-0.084042862 -0.031042859 0.79500002 9.8756818e-39
-0.041197624 -0.032098573 0.79616678 1.0145017e-38
-0.038253337 -0.033693336 0.79800004 1.032732e-38
-0.08252167 -0.028264524 0.79675001 7.0161837e-39
-0.077912867 -0.025548732 0.7968334 3.1504188e-39
-0.046769213 -0.025532383 0.79633343 1.281834e-38
-0.042898338 -0.028283574 0.79724997 1.0788979e-38
-0.076000005 -0.022800002 0.79800004 3.5191803e-39
-0.072243437 -0.022308383 0.79679996 3.1511195e-39
-0.067947619 -0.021469526 0.79566669 3.244041e-39
-0.062842861 -0.020442858 0.79500002 3.5188342e-39
-0.057385929 -0.021487093 0.79633337 6.8375518e-39
-0.052228864 -0.02231705 0.79710001 1.2452808e-38
-0.048176724 -0.022526562 0.7973333 1.2264758e-38
-0.066880003 -0.019000001 0.79800004 3.427691e-39
-0.062729724 -0.018377716 0.79740006 3.611027e-39
-0.058494925 -0.018992065 0.79766673 2.6030184e-39
-0.09394858 -0.040481906 0.80200005 1.2910935e-38
-0.036571428 -0.041142859 0.80000001 7.4686448e-39
-0.033691429 -0.040582858 0.80400002 1.1811857e-38
-0.091619372 -0.037410479 0.80166674 1.1901089e-38
-0.089142866 -0.035809524 0.80000001 1.1534469e-38
-0.036257621 -0.037402384 0.80150002 9.5077106e-39
-0.033946671 -0.03700953 0.80400008 1.2725899e-38
-0.091885716 -0.034457143 0.80400002 1.1531939e-38
-0.088711634 -0.032521147 0.80159998 1.0980942e-38
-0.036855243 -0.032280639 0.80066669 1.1808645e-38
-0.033810288 -0.033198483 0.80320007 1.1807161e-38
-0.086856201 -0.028015558 0.80233335 1.0154358e-38
-0.083534293 -0.025556192 0.801 7.7554485e-39
-0.041963 -0.026050072 0.80114293 8.9472837e-39
-0.038075048 -0.028899431 0.8028 1.1072482e-38
-0.082022384 -0.022750951 0.80300003 7.0189835e-39
-0.077640384 -0.021506285 0.80080003 3.6992626e-39
-0.045770481 -0.020597145 0.801 1.226407e-38
-0.043139294 -0.022715954 0.80175006 8.0245945e-39
-0.075805716 -0.019142859 0.80400002 3.3326423e-39
-0.072395921 -0.018015511 0.80257154 3.5191705e-39
-0.068124637 -0.017111838 0.80114299 3.5191691e-39
-0.062553346 -0.016527938 0.80100006 3.1518552e-39
-0.057343628 -0.01758362 0.8028 4.2593167e-39
-0.052702866 -0.018329524 0.80199999 1.2084799e-38
-0.047790479 -0.018779431 0.80159998 1.2356967e-38
-0.071211435 -0.014548573 0.80400002 2.8756102e-39
-0.067382865 -0.014548573 0.80400002 3.0589393e-39
-0.062788576 -0.014548573 0.80400002 2.9678212e-39
-0.032240003 -0.045289528 0.80600005 1.1626383e-38
-0.032788303 -0.042657688 0.80600011 1.1069983e-38
-0.029553335 -0.041835241 0.80600005 1.1337889e-38
-0.095952384 -0.03761334 0.80600011 1.2449967e-38
-0.094417147 -0.03761334 0.80600011 1.2268078e-38
-0.032495879 -0.037869208 0.80600011 1.1253647e-38
-0.029323051 -0.037920382 0.80600005 1.1526231e-38
-0.096071437 -0.033816192 0.80700004 1.1803518e-38
-0.09299843 -0.032792702 0.8070001 1.1438315e-38
-0.032010801 -0.031753018 0.80666679 1.1252138e-38
-0.029937144 -0.033007622 0.80600011 1.0608929e-38
-0.091075242 -0.028051432 0.80700004 1.1256496e-38
-0.08909858 -0.027650002 0.80650002 1.1259306e-38
-0.037660003 -0.02728381 0.80700004 1.0150119e-38
-0.034542859 -0.029937144 0.80600005 1.0516404e-38
-0.086563051 -0.022601144 0.80720007 1.0892285e-38
-0.083006673 -0.02075143 0.80700004 9.328144e-39
-0.041229211 -0.021254605 0.80666673 1.1620139e-38
-0.081313029 -0.01872508 0.80800003 9.4153062e-39
-0.077794529 -0.017478811 0.80675012 4.5307987e-39
-0.073691435 -0.016120002 0.80600005 3.6106487e-39
-0.056803815 -0.016120002 0.80600005 3.5149288e-39
-0.052965723 -0.016120002 0.80600011 8.4974991e-39
-0.047611754 -0.016894288 0.80633342 1.2359551e-38
-0.043313652 -0.018709207 0.80733341 1.2080754e-38
-0.077146038 -0.013583494 0.80733341 5.4520193e-39
-0.072652176 -0.011880589 0.80692309 2.8752515e-39
-0.067387097 -0.011870477 0.80711114 2.9671136e-39
-0.06228001 -0.01281397 0.80733341 2.6912455e-39
-0.057642862 -0.013833335 0.8070001 2.6901918e-39
-0.052762289 -0.014305906 0.80760002 5.8241397e-39
-0.048480004 -0.014620953 0.80800003 1.2639402e-38
-0.095774293 -0.030894289 0.81100005 1.1986103e-38
-0.094114289 -0.030857146 0.81000006 1.1713102e-38
-0.095237151 -0.027873334 0.81300002 1.1619515e-38
-0.09260077 -0.026433909 0.81160003 1.1347604e-38
-0.037073337 -0.026261907 0.81100005 1.0327673e-38
-0.033253334 -0.028613335 0.81200004 1.1525844e-38
-0.091219686 -0.023515558 0.81400001 1.1352981e-38
-0.088273033 -0.021360001 0.81066674 1.0800075e-38
-0.038681593 -0.022434605 0.81233335 1.1621597e-38
-0.086386196 -0.018206192 0.81350005 1.0800774e-38
-0.083160959 -0.017249208 0.81099999 1.0892254e-38
-0.045514289 -0.0162 0.81000006 1.2726148e-38
-0.042016514 -0.017270479 0.81200004 1.2449933e-38
-0.039488576 -0.018581906 0.81300002 1.2634327e-38
-0.065571435 -0.010028572 0.81000006 2.8756102e-39
-0.062100004 -0.010414286 0.81000006 2.6908672e-39
-0.057880323 -0.010804127 0.81033337 3.0582288e-39
-0.052351527 -0.011452469 0.81163651 3.1508098e-39
-0.047172703 -0.013403175 0.81199998 8.7697336e-39
-0.044188574 -0.014729525 0.81400001 1.2633996e-38
-0.095471434 -0.025614288 0.81500006 1.1527324e-38
-0.036480956 -0.025614288 0.81500006 1.1527635e-38
-0.033376195 -0.026390478 0.81500006 1.1711662e-38
-0.095471434 -0.024061907 0.81500006 1.1618789e-38
-0.09325619 -0.022535238 0.81600004 1.1163235e-38
-0.035777461 -0.022554923 0.81666672 1.2541066e-38
-0.032155957 -0.022800241 0.8185001 7.7519817e-39
-0.037279051 -0.017474286 0.81550002 9.2277816e-39
-0.033702288 -0.018793335 0.81540006 6.5548482e-39
